# 3D point list with one line of data per point:
#   POINT3D_ID, X, Y, Z, R, G, B, ERROR, TRACK[] as (IMAGE_ID, POINT2D_IDX)
# Number of points: 446, mean track length: 5.42
396 0.39451350411379715 -0.09744616179281376 1.0119250313481187 0 0 0 0.48 9 83 36 31 85 63 187 203 
397 0.3941741755525525 -0.09730707623279566 1.0117351962553893 0 0 0 0.49 9 84 11 145 17 103 36 32 44 127 50 145 53 47 85 64 103 16 187 204 
398 0.054186066805663714 -0.11274231645780454 1.0282896516153466 0 0 0 0.39 9 85 16 239 44 128 50 146 53 48 98 128 112 107 187 205 
399 0.35858608098986616 -0.08813364830574535 1.0152611048265632 0 0 0 0.52 9 86 44 129 98 129 187 206 
400 -0.007036425173864128 -0.12369231588619203 1.0328997017671415 0 0 0 0.46 9 87 19 21 44 130 53 49 92 125 98 130 109 43 
401 0.026460092066916442 -0.12082020615586596 1.0318088344190444 0 0 0 0.29 9 88 19 22 44 131 53 50 93 76 96 40 98 131 111 19 112 108 187 207 
402 0.0014429376787032432 -0.10369201766628079 1.0278435779167407 0 0 0 0.36 9 89 16 240 44 132 50 147 77 135 92 126 111 20 
403 0.21703648392166544 0.08873391102880351 0.9854864503552142 0 0 0 0.26 9 90 44 133 53 51 98 132 124 96 187 208 
404 -0.05354931022746661 -0.0731917770861481 1.0273952432684332 0 0 0 0.95 9 91 77 136 98 133 
405 0.046460102223415435 -0.1237717563994885 1.0308950071959642 0 0 0 0.25 11 146 33 75 112 109 187 209 
406 0.012087645411784878 -0.11521977141607029 1.030669514215038 0 0 0 0.21 11 147 16 241 33 76 98 134 112 110 187 210 
407 0.09526709534237392 -0.1151593385845997 1.0270367851705398 0 0 0 0.34 11 148 16 242 27 55 33 77 38 138 92 127 98 135 109 44 112 111 187 211 
408 -0.006717422408459014 -0.1025791394619294 1.0304366831502627 0 0 0 0.25 11 149 16 243 98 136 112 112 187 212 
409 0.013369268553599385 -0.08150201883165699 1.0242827545806863 0 0 0 0.17 11 150 16 244 110 47 124 97 187 213 
410 0.054006788227666816 -0.0815854354697066 1.0233964145222763 0 0 0 0.39 11 151 77 137 109 45 187 214 
411 0.03424572195447264 -0.01321423956779354 1.012389188953156 0 0 0 0.25 11 152 16 245 33 78 112 113 187 215 
412 0.2425335074685051 -0.013763261955240578 1.0070277007656803 0 0 0 0.33 11 153 50 148 91 17 112 114 187 216 
413 0.03312503503379157 -0.010434888992035226 1.0131833466374847 0 0 0 0.34 11 154 16 246 38 139 93 77 109 46 187 217 
414 -0.1120998767699461 0.04244289502053437 1.0128628699435074 0 0 0 0.09 11 155 16 247 38 140 50 149 
415 0.015287866210430387 0.059349345932459184 1.0010433809441672 0 0 0 0.48 11 156 44 134 77 138 109 47 
416 0.09966143956713211 0.06143501044981637 0.9920441330743384 0 0 0 0.14 11 157 16 248 187 218 
417 0.10222797958461327 0.06940004723084015 0.9921712889864486 0 0 0 0.18 11 158 16 249 187 219 
418 0.03649834739516805 0.07038066644719378 0.9962340914008553 0 0 0 0.24 11 159 38 141 50 150 187 220 
419 -0.10627311576928758 0.07696104949766028 1.00858485449704 0 0 0 0.29 11 160 16 250 38 142 98 137 
420 0.14370200336971126 0.07731730873175717 0.9879030774527109 0 0 0 0.31 11 161 33 79 50 151 187 221 
421 0.0361868742621847 0.0886116178812083 0.9941977180653648 0 0 0 0.47 11 162 13 60 187 222 
422 0.2858729442041476 0.0913080892180707 0.9850079581320136 0 0 0 0.35 11 163 77 139 187 223 
423 -0.03592934458733952 0.09758657411100276 0.9939744751930868 0 0 0 0.17 11 164 16 251 38 143 92 128 
424 0.21218786323609465 0.09706987725671411 0.9847298021284231 0 0 0 0.35 11 165 13 61 187 224 
425 0.06590251212043767 0.0993961686173448 0.9889325874384235 0 0 0 0.17 11 166 16 252 187 225 
426 0.14282451100882415 0.09931878342596814 0.9839176721755246 0 0 0 0.37 11 167 16 253 38 144 52 17 77 140 93 78 109 48 187 226 
427 -0.03623587888369514 0.10428302877071272 0.9937586793314427 0 0 0 0.09 11 168 16 254 110 48 
428 0.1000916575540486 0.1063650259924182 0.9855842314802944 0 0 0 0.2 11 169 16 255 187 227 
429 -0.03474831814387051 0.11026280618872288 0.9918300966183954 0 0 0 0.15 11 170 16 256 92 129 
430 0.023284531896655962 0.11585271626619197 0.9859466465241526 0 0 0 0.44 11 171 17 104 50 152 61 84 98 138 124 98 
431 -0.0362834658631253 0.11739335699397896 0.9909976235108764 0 0 0 0.3 11 172 13 62 16 257 36 33 38 145 52 18 92 130 110 49 
432 0.14022402525846228 0.12672795401247394 0.9795276067045493 0 0 0 0.19 11 173 13 63 187 228 
433 -0.10537254588001989 0.14090284305768208 1.0003397691528002 0 0 0 0.55 11 174 16 258 38 146 77 141 98 139 
434 0.09075253428022184 -0.1297752306209891 1.0255110872616195 0 0 0 0.18 11 175 36 34 44 135 98 140 187 229 
435 -0.09550139213224079 -0.08476657105010602 1.0374478043431512 0 0 0 0.26 11 176 13 64 16 259 38 147 44 136 50 153 61 85 77 142 124 99 
436 0.2803432613965173 -0.0818255000844692 1.01823440503612 0 0 0 0.66 11 177 13 65 19 23 112 115 187 230 
437 -0.05742406903280262 -0.013558718978036555 1.019689431898038 0 0 0 0.36 11 178 16 260 27 56 77 143 
438 0.13101779970359603 -0.01607865920305992 1.0098788192699595 0 0 0 0.3 11 179 91 18 112 116 187 231 
439 0.08827655840096361 -0.014919879643106452 1.0120670142320547 0 0 0 0.14 11 180 61 86 112 117 187 232 
440 -0.10713716611057018 0.04650538478905343 1.0090337427127962 0 0 0 0.05 11 181 16 261 118 101 
441 -0.07257291434629695 0.04623015146672457 0.9960099279004149 0 0 0 0.16 11 182 16 262 118 102 
442 0.10115233503569064 0.04711222741721243 0.994146137342156 0 0 0 0.15 11 183 50 154 112 118 187 233 
443 0.029742342309402123 0.05133171437996397 0.9988600180245705 0 0 0 0.42 11 184 16 263 50 155 61 87 187 234 
444 0.20718993565322963 0.051635097848509504 0.9920668188328859 0 0 0 0.13 11 185 50 156 61 88 112 119 118 103 187 235 
445 -0.13145102344487572 0.0613608512178829 1.0183885529134433 0 0 0 0.18 11 186 16 264 38 148 110 50 
446 -0.016552282096281404 0.06083416348344115 1.0016902392755134 0 0 0 0.29 11 187 16 265 187 236 
447 0.17622659590301207 0.06214693995702047 0.9892530743775281 0 0 0 0.29 11 188 13 66 17 105 93 79 124 100 187 237 
448 0.3838884052418653 0.074863809283875 0.9905790440769586 0 0 0 0.66 11 189 98 141 187 238 
449 0.0664494829463484 0.08833730200437374 0.9912481514780778 0 0 0 0.19 11 190 16 266 118 104 187 239 
450 0.0686173639277031 0.090500239145593 0.9904905744623208 0 0 0 0.16 11 191 77 144 92 131 187 240 
451 -0.017517200165704367 0.09328348152481981 0.9984589567684479 0 0 0 0.27 11 192 16 267 17 106 38 149 77 145 92 132 118 105 
452 0.1341880654445781 0.09185684811791595 0.9853145662159016 0 0 0 0.35 11 193 15 45 16 268 85 65 187 241 
453 0.00017908535554484256 0.09502864728737985 0.9928722195945026 0 0 0 0.12 11 194 16 269 38 150 52 19 77 146 92 133 
454 -0.025780173463996445 0.09557499994040998 0.9939978877317941 0 0 0 0.26 11 195 17 107 38 151 50 157 61 89 
455 -0.05945767232191337 0.09613664753887964 0.9972009573451384 0 0 0 0.26 11 196 16 270 85 66 
456 0.13401991852997375 0.09637684506603882 0.9845437959689556 0 0 0 0.38 11 197 16 271 36 35 96 41 187 242 
457 0.10106973512843427 0.09853841039372467 0.9868705817449845 0 0 0 0.47 11 198 92 134 187 243 
458 0.27292769373039455 0.09960073891351964 0.9869349523299696 0 0 0 0.43 11 199 50 158 98 142 124 101 187 244 
459 0.27576803103333214 0.09929561512511181 0.9833097068757275 0 0 0 0.54 11 200 17 108 187 245 
460 -0.0407922347773204 0.10078812319200484 0.9944190826954816 0 0 0 0.19 11 201 77 147 92 135 110 51 
461 -0.007384566854509192 0.11020165045149871 0.9903033327631948 0 0 0 0.27 11 202 38 152 53 52 118 106 
462 0.10068039086372846 0.11148853280303186 0.9855379817238498 0 0 0 0.27 11 203 16 272 38 153 77 148 187 246 
463 0.1377198584171592 0.115222024684672 0.9815364149520995 0 0 0 0.19 11 204 52 20 85 67 109 49 187 247 
464 0.10055565676155571 0.12078274360437322 0.9836425799968346 0 0 0 0.26 11 205 13 67 16 273 33 80 50 159 92 136 98 143 124 102 187 248 
465 0.13764765990616853 0.1229088379239234 0.980563847504052 0 0 0 0.3 11 206 13 68 17 109 85 68 118 107 187 249 
466 -0.11067263212573102 0.13910782547022912 0.9979066459281668 0 0 0 0.27 11 207 16 274 17 110 
467 0.07344635547834497 -0.12233447610122532 1.0299038247229255 0 0 0 0.18 11 208 43 21 44 137 77 149 85 69 109 50 112 120 118 108 187 250 
468 0.23594461313422682 -0.07896634620358138 1.016353671926183 0 0 0 0.7 11 209 44 138 52 21 187 251 
469 -0.09131343900604488 -0.02220978446764247 1.0271038459861417 0 0 0 0.13 11 210 16 275 17 111 38 154 50 160 61 90 111 21 118 109 
470 -0.07631383321768648 -0.013188507754701363 1.0221506358813144 0 0 0 0.25 11 211 53 53 112 121 
471 -0.007537380459590934 -0.012918784264729566 1.018186093561753 0 0 0 0.23 11 212 16 276 43 22 53 54 92 137 98 144 112 122 118 110 187 252 
472 -0.042286679629043825 0.040090338387331316 1.0092046833177288 0 0 0 0.18 11 213 16 277 17 112 50 161 118 111 
473 0.016625160142555016 0.04058587424360833 1.008885364132346 0 0 0 0.34 11 214 16 278 17 113 118 112 124 103 187 253 
474 0.09661744229291856 0.06235181717597912 0.9954003173513637 0 0 0 0.28 11 215 16 279 17 114 187 254 
475 0.14056544621550215 0.06185100450463326 0.9897211578715104 0 0 0 0.24 11 216 27 57 96 42 118 113 187 255 
476 0.21294586691699632 0.06253399531591608 0.9892406536217753 0 0 0 0.24 11 217 13 69 17 115 77 150 187 256 
477 -0.07778223065809783 0.0662371270909104 1.0046530822795705 0 0 0 0.06 11 218 16 280 17 116 
478 0.2128752218853771 0.08022930519348273 0.9878787902195774 0 0 0 0.17 11 219 43 23 103 17 118 114 187 257 
479 -0.12391495811768682 0.08521798473898229 1.0117647769572389 0 0 0 0.24 11 220 16 281 17 117 77 151 92 138 
480 -0.09225932583150663 0.08777775720283465 1.0069773631464327 0 0 0 0.2 11 221 17 118 38 155 43 24 113 13 118 115 
481 0.21305161510075846 0.09027167436415795 0.986081915058412 0 0 0 0.22 11 222 111 22 187 258 
482 0.11046373387794634 0.11463605128288275 0.9835415357528321 0 0 0 0.3 11 223 16 282 96 43 187 259 
483 0.012405662924292309 0.11517983529579755 0.9871572616170021 0 0 0 0.36 11 224 16 283 43 25 53 55 118 116 
484 0.06884014704943633 0.12820793426181618 0.9839210928561487 0 0 0 0.2 11 225 17 119 38 156 77 152 118 117 
485 -0.10646920197125816 -0.09134410653887513 1.0394799475957137 0 0 0 0.41 11 226 16 284 17 120 32 20 33 81 38 157 50 162 77 153 
486 -0.08190273627510128 0.08766555056488932 1.0045738235890067 0 0 0 0.31 11 227 15 46 16 285 17 121 77 154 118 118 
487 0.28142248097070904 0.09546023084138489 0.983982987712454 0 0 0 0.34 11 228 17 122 43 26 52 22 77 155 85 70 91 19 118 119 187 260 
488 -0.0977009612801065 0.09911170893667226 1.0068205829542607 0 0 0 0.27 11 229 38 158 43 27 53 56 77 156 92 139 96 44 103 18 110 52 113 14 118 120 
489 0.00811773855323927 0.10272691911391053 0.9924203658171867 0 0 0 0.26 11 230 16 286 17 123 53 57 96 45 118 121 
490 0.00811773855323927 0.10272691911391053 0.9924203658171867 0 0 0 0.26 11 231 16 287 17 124 53 58 96 46 118 122 
491 0.02297206027515746 0.10305161846971472 0.9919012613777728 0 0 0 0.28 11 232 15 47 16 288 17 125 27 58 43 28 53 59 96 47 103 19 
492 0.06423984114680804 0.042364960319050425 0.9996852341122949 0 0 0 0.2 11 233 15 48 112 123 118 123 187 261 
493 0.10515727946428402 0.06816089488935727 0.9924942101831453 0 0 0 0.4 11 234 15 49 17 126 187 262 
494 -0.08808554207990293 0.08545464058905725 1.0056584017929664 0 0 0 0.27 11 235 15 50 16 289 38 159 77 157 113 15 118 124 
495 -0.01494694044010323 0.09920170593729746 1.0076032599374438 0 0 0 0.27 11 236 16 290 96 48 
496 -0.08317618763757087 0.10328510974585221 1.0027329500914428 0 0 0 0.2 11 237 16 291 17 127 110 53 
497 0.07355341820206429 0.10631346618680279 0.9874826974006697 0 0 0 0.4 11 238 16 292 17 128 27 59 43 29 61 91 92 140 93 80 96 49 118 125 
498 0.10314739187633391 0.12772479103121587 0.9823287900160936 0 0 0 0.32 11 239 13 70 27 60 33 82 43 30 50 163 92 141 96 50 118 126 187 263 
499 0.10327765548001666 0.12769991492963367 0.9823988550202479 0 0 0 0.39 11 240 27 61 187 264 
500 0.07030965103475453 0.07444436534513568 0.9951287524788045 0 0 0 0.35 11 241 15 51 98 145 118 127 187 265 
501 0.03396514045814461 0.11088036424281064 0.9910122977247635 0 0 0 0.09 11 242 53 60 77 158 118 128 
502 0.03381019752428735 0.11065204507616855 0.9901226494360671 0 0 0 0.23 11 243 15 52 53 61 118 129 
503 0.08651212487381335 0.07402496972324817 0.9902250373630477 0 0 0 0.27 11 244 16 293 17 129 38 160 
504 0.12386711703212042 0.07449889426702225 0.9919127998891932 0 0 0 0.46 11 245 16 294 77 159 187 266 
505 -0.0461571117307356 -0.09075398355068952 1.0301792689511178 0 0 0 0.14 13 71 33 83 112 124 
506 -0.04887187611359424 -0.0882061808775999 1.0296251990877652 0 0 0 0.24 13 72 16 295 33 84 38 161 98 146 112 125 124 104 
507 -0.0667081303239023 -0.0853427179023288 1.0297494231515676 0 0 0 0.15 13 73 112 126 124 105 
508 -0.06664193159757008 -0.08533484926742159 1.0299107131812222 0 0 0 0.19 13 74 16 296 33 85 98 147 112 127 124 106 
509 0.035347402717459286 -0.056671271821017465 1.019652456425458 0 0 0 0.19 13 75 16 297 98 148 187 267 
510 0.07925213867721942 -0.026270047292849628 1.0152876743513013 0 0 0 0.27 13 76 112 128 187 268 
511 -0.05445905686091946 0.04637290967979067 1.0081627714816868 0 0 0 0.26 13 77 98 149 187 269 
512 -0.05445905686091946 0.04637290967979067 1.0081627714816868 0 0 0 0.26 13 78 98 150 187 270 
513 0.24136021581040168 0.036990836503320135 1.0016689674419479 0 0 0 0.15 13 79 112 129 187 271 
514 0.1056005738394599 0.04430531271855941 0.9935719735081171 0 0 0 0.29 13 80 112 130 187 272 
515 0.28893261054088626 0.04066056336078008 0.9933136485004036 0 0 0 0.18 13 81 124 107 187 273 
516 -0.06663102985845522 0.06578734535580165 0.9998451321752477 0 0 0 0.23 13 82 93 81 98 151 
517 -0.030068037677622776 0.0648214676696096 0.9988518323877128 0 0 0 0.19 13 83 33 86 93 82 124 108 
518 0.2152408349248061 0.06023650013965863 0.9878859437973881 0 0 0 0.32 13 84 112 131 187 274 
519 0.1067294135785244 0.06606132725823083 0.9917803087381506 0 0 0 0.2 13 85 109 51 187 275 
520 0.183675165417894 0.06492603636059863 0.9899943088804376 0 0 0 0.35 13 86 98 152 124 109 187 276 
521 0.137946868791931 0.06665590485756694 0.9903196009595671 0 0 0 0.34 13 87 91 20 124 110 187 277 
522 0.17202870246369587 0.06633279840839743 0.9882307395756482 0 0 0 0.16 13 88 98 153 124 111 187 278 
523 0.2514254755819283 0.06584560333762626 0.9897050289629433 0 0 0 0.07 13 89 124 112 187 279 
524 0.24600868268540288 0.06738717201308446 0.9884811105088409 0 0 0 0.23 13 90 124 113 187 280 
525 0.24600868268540288 0.06738717201308446 0.9884811105088409 0 0 0 0.23 13 91 124 114 187 281 
526 0.24903834422574098 0.06748307857841125 0.9881370218226377 0 0 0 0.07 13 92 124 115 187 282 
527 0.21404317187096544 0.06842596757697234 0.9881395815456823 0 0 0 0.15 13 93 33 87 187 283 
528 0.2792185912844471 0.06897213460070908 0.9873847229940128 0 0 0 0.38 13 94 33 88 124 116 187 284 
529 0.24443747638648283 0.07046588225503828 0.9885686102946291 0 0 0 0.21 13 95 98 154 124 117 187 285 
530 0.2884714036189769 0.07149594815306398 0.9876741569431086 0 0 0 0.31 13 96 98 155 124 118 187 286 
531 0.1081390199393779 0.08400130405226715 0.9891254318269935 0 0 0 0.25 13 97 33 89 187 287 
532 0.03443255854741723 0.09121603438953738 0.9926822047903534 0 0 0 0.07 13 98 124 119 187 288 
533 0.214926343064008 0.09068515956431825 0.9856115667275569 0 0 0 0.23 13 99 124 120 187 289 
534 0.07102664316496209 0.09505468973589301 0.989790281363532 0 0 0 0.41 13 100 38 162 85 71 187 290 
535 0.21479018915170467 0.09290332239913952 0.9846080985619291 0 0 0 0.21 13 101 33 90 187 291 
536 -0.002317498923461881 0.09935986791586708 0.992957620392828 0 0 0 0.34 13 102 93 83 187 292 
537 0.21375984646954369 0.09815324660997062 0.9844526886286568 0 0 0 0.08 13 103 124 121 187 293 
538 0.21565248042567955 0.09839718602347947 0.9842091949548676 0 0 0 0.1 13 104 124 122 187 294 
539 0.11103789857962185 0.10075960717929316 0.9846806170229696 0 0 0 0.15 13 105 124 123 187 295 
540 0.2094654704985737 0.10423688795394258 0.982099032521126 0 0 0 0.24 13 106 98 156 187 296 
541 0.0028562227536965464 0.11051342353521446 0.9907589220958606 0 0 0 0.26 13 107 98 157 187 297 
542 0.002509071761205871 0.11386696524253104 0.9875636300542399 0 0 0 0.24 13 108 124 124 187 298 
543 0.03318167212686493 0.11683449787182276 0.9878980858899206 0 0 0 0.26 13 109 16 298 33 91 124 125 187 299 
544 0.03464660493036461 0.11691396858418028 0.9862835128295737 0 0 0 0.26 13 110 98 158 124 126 187 300 
545 0.06590860053004521 0.11941617707248631 0.9848699995817342 0 0 0 0.26 13 111 124 127 187 301 
546 0.036405348354926044 0.12071666869992385 0.9858021390536142 0 0 0 0.08 13 112 124 128 187 302 
547 0.10192893773144591 0.13006639559450478 0.9819809037429232 0 0 0 0.18 13 113 16 299 109 52 187 303 
548 -0.08742254118629374 -0.08697539533998448 1.037106329112767 0 0 0 0.23 13 114 93 84 98 159 112 132 
549 0.032342270579344135 -0.08169313083992406 1.0236284872283024 0 0 0 0.2 13 115 16 300 93 85 98 160 124 129 187 304 
550 0.34868258577487826 -0.07868099963796898 1.0158575728901902 0 0 0 0.22 13 116 98 161 187 305 
551 -0.0553649744912316 -0.015743187160442748 1.0194788344799133 0 0 0 0.22 13 117 93 86 98 162 109 53 124 130 
552 0.07973499270435536 -0.019487884523880096 1.0147651798691184 0 0 0 0.13 13 118 124 131 187 306 
553 0.24262752510649208 0.033741797072661665 1.0005315209477479 0 0 0 0.34 13 119 98 163 112 133 187 307 
554 -0.05243688869965008 0.04480160019090142 1.008338201200092 0 0 0 0.14 13 120 16 301 33 92 
555 0.08553034743357528 0.04796724770143505 1.0005634440120477 0 0 0 0.1 13 121 112 134 124 132 187 308 
556 0.07541387531640506 0.053325859325481666 0.995467282365053 0 0 0 0.2 13 122 112 135 187 309 
557 -0.0687184988297724 0.06585725236365335 1.0004102855445833 0 0 0 0.17 13 123 16 302 33 93 93 87 98 164 124 133 
558 0.10876758395089285 0.06434023103200655 0.9920790719727461 0 0 0 0.13 13 124 109 54 187 310 
559 0.24576579886425637 0.06092338439779893 0.9874291031158695 0 0 0 0.33 13 125 33 94 92 142 98 165 187 311 
560 0.21517439940574468 0.06517327016271583 0.9887403683242514 0 0 0 0.3 13 126 36 36 92 143 187 312 
561 0.21825926774033697 0.06889445301343368 0.9890358263449371 0 0 0 0.28 13 127 44 139 187 313 
562 0.24685066169772338 0.06921041468392768 0.9886370839627067 0 0 0 0.26 13 128 98 166 109 55 124 134 187 314 
563 0.06942382802033703 0.07683234149209492 0.9929916527851347 0 0 0 0.11 13 129 93 88 110 54 187 315 
564 0.32021180390590354 0.07249692511346549 0.9881429686414721 0 0 0 0.44 13 130 124 135 187 316 
565 0.023264264132279333 0.08565731504969258 0.9988296161749068 0 0 0 0.07 13 131 16 303 98 167 187 317 
566 0.02177982399601322 0.08731598085392342 0.9993730230929699 0 0 0 0.26 13 132 16 304 124 136 187 318 
567 0.22054633443105554 0.08898372863268013 0.986213411561573 0 0 0 0.19 13 133 124 137 187 319 
568 0.23455495044001334 0.09256412700335706 0.9900379204825813 0 0 0 0.27 13 134 98 168 187 320 
569 0.03570569835761714 0.09603655100633357 0.9915679575906937 0 0 0 0.3 13 135 16 305 38 163 187 321 
570 -0.002083914765954165 0.10197977539985295 0.9933502619483435 0 0 0 0.1 13 136 38 164 61 92 
571 0.22081661944523784 0.10251866932402784 0.9817288296926464 0 0 0 0.13 13 137 44 140 124 138 187 322 
572 0.21173940496148314 0.1086844163649585 0.9815505067215781 0 0 0 0.19 13 138 98 169 187 323 
573 0.1406083536461012 0.1098573999642695 0.9824035904176227 0 0 0 0.15 13 139 85 72 187 324 
574 0.1406083536461012 0.1098573999642695 0.9824035904176227 0 0 0 0.15 13 140 85 73 187 325 
575 0.22162873563050367 0.11098778342449904 0.9812946838140707 0 0 0 0.33 13 141 50 164 98 170 187 326 
576 0.21780378356150884 0.11279111040219883 0.9808792357920895 0 0 0 0.32 13 142 19 24 98 171 124 139 187 327 
577 0.14027214833117183 0.11573415329250587 0.9812394182753421 0 0 0 0.23 13 143 33 95 85 74 187 328 
578 0.14024340368329719 0.1157043663816942 0.9811915854306612 0 0 0 0.24 13 144 33 96 187 329 
579 -0.03274047535318609 0.11801284452844277 0.9909994157075648 0 0 0 0.13 13 145 16 306 93 89 
580 -0.03481633663393336 0.1197785845394274 0.9909736105605554 0 0 0 0.31 13 146 92 144 93 90 124 140 
581 0.14030505831902923 0.12027388245949465 0.980653610391778 0 0 0 0.12 13 147 50 165 85 75 187 330 
582 0.07087596215919023 0.12331440231824588 0.9837782085072743 0 0 0 0.15 13 148 38 165 187 331 
583 0.14255708673796413 0.1244100974269852 0.9799374288704341 0 0 0 0.17 13 149 52 23 187 332 
584 0.027498771161742604 0.12587636494868645 0.9856140199587164 0 0 0 0.15 13 150 50 166 98 172 124 141 187 333 
585 -0.036846664868171286 0.12695255898464447 0.9898421688996514 0 0 0 0.34 13 151 16 307 93 91 
586 0.14430092197013455 0.12677705736884473 0.9793828520744375 0 0 0 0.21 13 152 52 24 187 334 
587 -0.09135707347670396 -0.08435173020279912 1.0367687917489676 0 0 0 0.2 13 153 16 308 17 130 77 160 98 173 112 136 124 142 
588 -0.08906088748017876 -0.08197084872103681 1.0354939766695965 0 0 0 0.28 13 154 38 166 92 145 98 174 112 137 124 143 
589 0.09091345382898469 -0.08153562062539974 1.0214174456676677 0 0 0 0.31 13 155 16 309 27 62 61 93 110 55 112 138 124 144 187 335 
590 0.12582862743914558 -0.08084725387305118 1.0189475314104153 0 0 0 0.22 13 156 16 310 36 37 50 167 77 161 85 76 92 146 93 92 98 175 112 139 124 145 187 336 
591 0.16059217360448105 -0.08280446174448207 1.019395022364399 0 0 0 0.41 13 157 17 131 38 167 44 141 91 21 92 147 93 93 98 176 109 56 118 130 124 146 187 337 
592 0.27900062694849914 -0.08144208626563032 1.0166129037717067 0 0 0 0.3 13 158 112 140 187 338 
593 0.31153972727038143 -0.08133317402432139 1.01595498597272 0 0 0 0.1 13 159 98 177 187 339 
594 0.24254920889001544 0.029803468765242015 1.0006760948364692 0 0 0 0.36 13 160 98 178 187 340 
595 0.07300583418878559 0.06386845056075192 0.9939689160413246 0 0 0 0.22 13 161 36 38 187 341 
596 0.28253758599055084 0.06345090208546567 0.9882290208661991 0 0 0 0.18 13 162 61 94 85 77 98 179 124 147 187 342 
597 0.2822903078510875 0.0634335096293197 0.9879543989566746 0 0 0 0.16 13 163 61 95 187 343 
598 0.1712547292126059 0.06874582760513617 0.9890032545310639 0 0 0 0.26 13 164 36 39 124 148 187 344 
599 0.24251966170830963 0.07224031077343558 0.9889925604574955 0 0 0 0.27 13 165 98 180 187 345 
600 0.28810249142245464 0.08819487395383571 0.9843518891447246 0 0 0 0.39 13 166 17 132 61 96 98 181 187 346 
601 0.21257259467155257 0.09351160921020894 0.9851175090253217 0 0 0 0.2 13 167 33 97 44 142 53 62 61 97 187 347 
602 0.26175999086405854 0.10569787594982105 0.9815685519865609 0 0 0 0.29 13 168 124 149 187 348 
603 0.10436962221029333 0.10967143269725782 0.9847645559908894 0 0 0 0.27 13 169 16 311 17 133 36 40 52 25 92 148 187 349 
604 0.06808833248792245 0.12174387375822705 0.9850943349771131 0 0 0 0.25 13 170 16 312 93 94 187 350 
605 0.14019960069101367 0.12442578099599212 0.980111253125524 0 0 0 0.29 13 171 50 168 85 78 124 150 187 351 
606 0.13956034651582164 0.13821332515044715 0.9774797589085581 0 0 0 0.3 13 172 118 131 187 352 
607 -0.03900062107927264 0.14093633308905998 0.9891180868728111 0 0 0 0.45 13 173 44 143 85 79 92 149 
608 0.06578678156247515 0.11430622288625676 0.9848965268894747 0 0 0 0.11 13 174 17 134 187 353 
609 0.03599004090128323 0.118321842301929 0.9863621465880816 0 0 0 0.26 13 175 53 63 77 162 98 182 187 354 
610 0.09928227626090767 0.07020478953583839 0.9926810660082882 0 0 0 0.37 13 176 15 53 118 132 187 355 
611 0.21236702076123687 0.0698684930452324 0.9886978254078342 0 0 0 0.36 13 177 15 54 50 169 187 356 
612 0.11869771657654754 0.1002376785473109 0.9869091403644872 0 0 0 0.49 13 178 53 64 187 357 
613 0.22101326205328334 0.10523268556915576 0.9825555633625633 0 0 0 0.32 13 179 50 170 61 98 124 151 187 358 
614 -0.00848770576161944 0.15865222283427563 0.9551403094503642 0 0 0 0.29 13 180 77 163 187 359 
615 0.11534146212911531 0.1045094270503408 0.9845847629218034 0 0 0 0.35 13 181 17 135 27 63 50 171 61 99 96 51 124 152 
616 0.11552250291593322 0.10453525012473393 0.9849052051398152 0 0 0 0.31 13 182 17 136 61 100 124 153 187 360 
617 0.20265303995559725 0.10533431247437484 0.988163306577607 0 0 0 0.49 13 183 53 65 187 361 
618 0.20330018338217387 0.10522377851991421 0.9889825242751195 0 0 0 0.24 13 184 124 154 187 362 
619 0.13027785209030998 0.1406289359469032 0.9829609369331124 0 0 0 0.26 13 185 61 101 187 363 
620 0.04234812516045323 -0.0934727482325791 1.0242981948096388 0 0 0 0.31 13 186 98 183 124 155 187 364 
621 0.19934217872386076 -0.1713654356808319 1.0364269845924514 0 0 0 0.13 15 55 85 80 98 184 187 365 
622 0.1994479262549435 -0.17147152886700257 1.0364622273394932 0 0 0 0.26 15 56 85 81 96 52 187 366 
623 -0.00603909285079622 -0.10005001235405135 1.0298519079135229 0 0 0 0.27 15 57 17 137 27 64 44 144 92 150 98 185 124 156 187 367 
624 0.07704309873806549 -0.08338890194318063 1.0214286360387135 0 0 0 0.29 15 58 16 313 61 102 77 164 92 151 98 186 112 141 118 133 187 368 
625 -0.018350097835538766 -0.07794082637332309 1.0264319817242946 0 0 0 0.07 15 59 85 82 118 134 
626 0.17204414311524235 -0.014705910970758072 1.0091262429342143 0 0 0 0.3 15 60 16 314 61 103 91 22 96 53 98 187 118 135 187 369 
627 0.09731494932655964 -0.01157783563013487 1.0116646884487617 0 0 0 0.12 15 61 112 142 187 370 
628 -0.06757501813982529 0.044776389873162174 1.0019096356722292 0 0 0 0.16 15 62 16 315 50 172 118 136 
629 0.07012961320229393 -0.1030936748555643 1.0272074716101993 0 0 0 0.64 15 63 50 173 98 188 112 143 187 371 
630 0.00543356370888909 0.04129070172446529 1.0057065519035182 0 0 0 0.27 15 64 50 174 61 104 
631 0.19991595434307963 0.05500174693324616 0.9939044921341126 0 0 0 0.51 15 65 50 175 98 189 112 144 187 372 
632 0.06723826233812788 0.07139170755791087 0.9938234550628247 0 0 0 0.15 15 66 16 316 17 138 118 137 187 373 
633 0.1000975237050187 0.041700670049414496 0.9968136494568844 0 0 0 0.34 15 67 17 139 50 176 61 105 98 190 112 145 118 138 187 374 
634 0.27329060584813064 0.09509434036846323 0.9870083026394487 0 0 0 0.52 15 68 32 21 53 66 77 165 98 191 118 139 124 157 187 375 
635 0.2166943168294259 -0.06356705165514458 1.0153040285004888 0 0 0 0.2 15 69 44 145 187 376 
636 0.038704812255274744 0.04410287397667 0.9998981442471434 0 0 0 0.72 15 70 112 146 187 377 
637 0.04423724228809776 0.10494021359542285 0.9911544839805454 0 0 0 0.17 15 71 52 26 53 67 61 106 96 54 103 20 
638 0.07830245465156242 -0.11085083267390927 1.0269687609012572 0 0 0 0.45 15 72 92 152 93 95 98 192 187 378 
639 0.10484901339432129 0.0743013507320227 0.9925951605923122 0 0 0 0.25 15 73 16 317 17 140 77 166 118 140 187 379 
640 0.052222580227625846 0.07475502555513176 0.9944980019974019 0 0 0 0.34 15 74 16 318 17 141 98 193 118 141 187 380 
641 0.05437879752288675 -0.12456136250377599 1.0308032253999646 0 0 0 0.13 16 319 112 147 187 381 
642 0.0519731045088542 -0.12291952619692353 1.031043400488085 0 0 0 0.12 16 320 98 194 187 382 
643 0.008453377222389662 -0.12003647716873286 1.0319498760057155 0 0 0 0.26 16 321 98 195 187 383 
644 0.04074954665357395 -0.11678439796018228 1.0299303416585959 0 0 0 0.23 16 322 112 148 187 384 
645 0.012027903931668391 -0.11306035075839262 1.0300713823593939 0 0 0 0.24 16 323 38 168 187 385 
646 0.09336033808195927 -0.11360397721641433 1.0273813206255547 0 0 0 0.18 16 324 33 98 38 169 112 149 187 386 
647 0.02845185170335508 -0.10672899767976633 1.0283864064802468 0 0 0 0.17 16 325 50 177 98 196 187 387 
648 0.028322484595200068 -0.10644941187424223 1.0281713603287235 0 0 0 0.21 16 326 112 150 187 388 
649 -0.06612622271320538 -0.10360688873254563 1.0272981380169528 0 0 0 0.26 16 327 33 99 38 170 98 197 
650 -0.061574995274702976 -0.0995579040871224 1.0292201863034394 0 0 0 0.24 16 328 33 100 98 198 
651 0.02617694646916176 -0.10178692502986683 1.0277315666760256 0 0 0 0.11 16 329 50 178 98 199 112 151 118 142 124 158 187 389 
652 0.06944264314958783 -0.09909363363798239 1.0255507314035515 0 0 0 0.32 16 330 33 101 124 159 187 390 
653 0.06949524009351915 -0.09898387672163741 1.0256085880576888 0 0 0 0.24 16 331 112 152 187 391 
654 -0.08031846252978359 -0.09435243750366934 1.0345737656061251 0 0 0 0.08 16 332 109 57 112 153 
655 0.0403844867193799 -0.09644438540938388 1.0268532550708378 0 0 0 0.28 16 333 112 154 187 392 
656 0.034564436588586635 -0.0952160935744753 1.026598152944704 0 0 0 0.28 16 334 50 179 98 200 124 160 187 393 
657 0.0025064255381102665 -0.09400085715595966 1.0281947935665965 0 0 0 0.17 16 335 98 201 187 394 
658 0.0903446451121925 -0.09538466443822816 1.024856134908942 0 0 0 0.28 16 336 33 102 187 395 
659 0.09757450190973016 -0.0934546195470495 1.0240942357043716 0 0 0 0.11 16 337 112 155 187 396 
660 0.013436083358635326 -0.09099475589457803 1.026387813955062 0 0 0 0.13 16 338 109 58 187 397 
661 -0.0622194969856492 -0.08894662648841391 1.0309484241335949 0 0 0 0.29 16 339 109 59 112 156 124 161 
662 -0.05473940141056141 -0.08846764728748797 1.0301982900285251 0 0 0 0.11 16 340 33 103 38 171 98 202 
663 -0.054798689174412704 -0.08847394911450268 1.0302717828370462 0 0 0 0.13 16 341 33 104 38 172 98 203 109 60 112 157 
664 -0.051759465404924904 -0.08829210336065126 1.0295904201103656 0 0 0 0.11 16 342 33 105 112 158 124 162 
665 -0.048876460319596214 -0.08824282407108447 1.0295524367343125 0 0 0 0.2 16 343 33 106 38 173 112 159 124 163 
666 0.14472686944955046 -0.09117328215541332 1.018070051493392 0 0 0 0.38 33 107 93 96 98 204 109 61 112 160 124 164 187 398 
667 -0.05634075377973936 -0.08704285522872392 1.0302076218191913 0 0 0 0.14 16 344 33 108 112 161 
668 -0.013708137720273465 -0.08672445886032744 1.0266872400663436 0 0 0 0.07 16 345 36 41 187 399 
669 -0.0608848059045171 -0.08519000206578387 1.0291626840969987 0 0 0 0.32 16 346 98 205 124 165 187 400 
670 -0.02627829700164098 -0.08491977039298217 1.0273204051378213 0 0 0 0.14 16 347 98 206 112 162 124 166 187 401 
671 0.1305529669419741 -0.0872223604875752 1.0196821078439489 0 0 0 0.51 91 23 93 97 98 207 112 163 124 167 187 402 
672 -0.014560528147592577 -0.08169097310267 1.0259016482762038 0 0 0 0.12 16 348 112 164 124 168 187 403 
673 0.0753068753334896 -0.08114527082416519 1.0214615936557137 0 0 0 0.1 16 349 38 174 187 404 
674 -0.06399435917311659 -0.059407403483104665 1.0255894088764135 0 0 0 0.16 16 350 38 175 109 62 112 165 
675 -0.06439808035934898 -0.05382889783017295 1.0241664669007606 0 0 0 0.45 16 351 98 208 187 405 
676 -0.00014730520029243937 -0.04960934518959105 1.0206711982400931 0 0 0 0.32 16 352 112 166 187 406 
677 0.06645277538093501 -0.04170934807801738 1.0155859140363674 0 0 0 0.29 16 353 112 167 187 407 
678 0.1092507783057457 -0.03537374551837064 1.0131605152518457 0 0 0 0.4 16 354 112 168 187 408 
679 -0.0032351118688493797 -0.03074441504682808 1.0165038562643423 0 0 0 0.29 16 355 98 209 112 169 187 409 
680 0.06498655865106227 -0.02808688348199946 1.014922291916451 0 0 0 0.14 16 356 112 170 187 410 
681 -0.0067150922676628534 -0.02687126447501325 1.0194518845002343 0 0 0 0.19 16 357 98 210 187 411 
682 0.13758789931448498 -0.027235701677663475 1.0108784733577598 0 0 0 0.35 98 211 112 171 187 412 
683 0.0524936063327772 -0.023867828139894968 1.013103185410706 0 0 0 0.31 16 358 44 146 98 212 112 172 124 169 187 413 
684 0.12797256859423425 -0.020978470564924967 1.0099111013422093 0 0 0 0.41 16 359 52 27 93 98 112 173 187 414 
685 -0.09610105882055572 -0.01662778023273483 1.026946983003018 0 0 0 0.76 16 360 98 213 187 415 
686 -0.10059769225334807 -0.015718011642389618 1.0278502098495939 0 0 0 0.1 16 361 33 109 112 174 
687 -0.08353682071101597 -0.01554675796370392 1.0251612169972715 0 0 0 0.1 16 362 98 214 112 175 
688 0.22914626543621344 -0.018710775713788992 1.0081104380508048 0 0 0 0.27 44 147 98 215 112 176 187 416 
689 0.022628588189359398 -0.01507388339311046 1.0158522417961509 0 0 0 0.11 16 363 112 177 187 417 
690 0.13200934717116303 -0.014062072536250947 1.0094904763873132 0 0 0 0.22 91 24 124 170 187 418 
691 0.06841470958763096 -0.009678042358397329 1.0106868702787524 0 0 0 0.07 16 364 112 178 187 419 
692 0.10262894950019462 -0.009226612309009667 1.0082146471510431 0 0 0 0.28 16 365 112 179 187 420 
693 0.10262894950019462 -0.009226612309009667 1.0082146471510431 0 0 0 0.28 16 366 112 180 187 421 
694 0.0661257467932876 -0.008262288519402718 1.0099139026429478 0 0 0 0.18 16 367 112 181 187 422 
695 0.0685248651593974 0.043973741491498616 0.9955789722739905 0 0 0 0.29 16 368 112 182 187 423 
696 -0.021109396312974992 0.04612617493159131 1.0062280890370259 0 0 0 0.12 16 369 98 216 187 424 
697 -0.038183882695473424 0.046027422930490475 1.002219597485759 0 0 0 0.24 16 370 98 217 124 171 187 425 
698 -0.006102880263093465 0.04618053466044026 1.001878966880786 0 0 0 0.21 16 371 98 218 112 183 187 426 
699 -0.11128387656251956 0.047590735022201125 1.0109828754014236 0 0 0 0.29 16 372 38 176 50 180 98 219 
700 0.1030703359019342 0.046925001860386 0.992279906664441 0 0 0 0.22 16 373 112 184 187 427 
701 -0.05070337498673173 0.04908541531504452 1.0084293196863645 0 0 0 0.16 16 374 98 220 187 428 
702 0.09412205353229024 0.04813399823213275 0.9991057749364908 0 0 0 0.29 16 375 112 185 124 172 187 429 
703 0.2034631523013866 0.04936102565913216 0.9946460443504218 0 0 0 0.22 112 186 124 173 187 430 
704 0.10477740406513546 0.050452367182383995 0.9902675096688704 0 0 0 0.42 16 376 112 187 187 431 
705 -0.0016754234816739 0.05521556570167573 0.9982366339916939 0 0 0 0.24 16 377 50 181 92 153 187 432 
706 -0.014866746226158913 0.06391113527156206 1.003703507189041 0 0 0 0.13 16 378 92 154 187 433 
707 0.05841496540185885 0.0646262033980518 1.0004882334111096 0 0 0 0.18 16 379 98 221 187 434 
708 0.03437215250229971 0.08015877914602088 0.9943185963563876 0 0 0 0.18 16 380 98 222 187 435 
709 -0.07279242704030264 0.08874372296808222 0.9962609448516941 0 0 0 0.11 16 381 33 110 93 99 
710 -0.0022418857320345154 0.09642307256534335 0.9935753152111463 0 0 0 0.39 16 382 38 177 93 100 
711 0.0658950607059728 0.09689266823678863 0.9898091197876598 0 0 0 0.17 16 383 38 178 92 155 93 101 187 436 
712 -0.032917044860272276 0.10971433415523539 0.9930219718513401 0 0 0 0.28 16 384 33 111 38 179 93 102 98 223 
713 0.14258538596263537 0.1147263964742133 0.9814013251136441 0 0 0 0.12 16 385 85 83 109 63 187 437 
714 -0.10749393904006027 0.12946845100597099 0.9993146473003465 0 0 0 0.34 16 386 33 112 92 156 
715 0.07595718809396636 -0.12077088581415228 1.0290811714422867 0 0 0 0.38 16 387 32 22 77 167 98 224 187 438 
716 0.08080583703874472 -0.11200342510873224 1.0284220505960209 0 0 0 0.29 16 388 19 25 27 65 77 168 96 55 98 225 111 23 187 439 
717 0.07241622348471487 -0.09963252754408604 1.0258916162896952 0 0 0 0.17 16 389 33 113 44 148 50 182 93 103 98 226 187 440 
718 0.03065763115955859 -0.09762253824527825 1.026778754374966 0 0 0 0.21 16 390 44 149 77 169 112 188 187 441 
719 0.12569317401940053 -0.09726490705883091 1.0230521893879565 0 0 0 0.25 16 391 17 142 27 66 38 180 110 56 112 189 187 442 
720 0.15941540812800595 -0.09470786370571901 1.0185466239032614 0 0 0 0.44 27 67 112 190 187 443 
721 -0.07381175878124 -0.0887041420936779 1.035097467400731 0 0 0 0.68 16 392 53 68 96 56 98 227 112 191 
722 0.08788193563599174 -0.08627780523041095 1.0222898249392465 0 0 0 0.25 16 393 36 42 98 228 112 192 124 174 187 444 
723 0.010566721234028907 -0.08401656406594717 1.024440654033575 0 0 0 0.29 16 394 92 157 98 229 112 193 124 175 187 445 
724 -0.039347324224569845 -0.08219934757838605 1.0265996823408414 0 0 0 0.45 16 395 98 230 112 194 187 446 
725 -0.010096339592299119 -0.08206351531289745 1.0259920394694906 0 0 0 0.43 16 396 61 107 98 231 112 195 187 447 
726 0.08399747409396373 -0.08389795191929553 1.0217139699296223 0 0 0 0.16 16 397 112 196 187 448 
727 0.13259099301344807 -0.08322441882522807 1.0191516545231358 0 0 0 0.21 16 398 38 181 77 170 85 84 92 158 109 64 112 197 187 449 
728 0.13251348060018275 -0.0831979418991666 1.0191109119017001 0 0 0 0.25 16 399 38 182 50 183 77 171 91 25 92 159 109 65 112 198 187 450 
729 0.22667366369963016 -0.08168274076037307 1.0166268447750846 0 0 0 0.46 44 150 77 172 93 104 98 232 112 199 124 176 187 451 
730 0.21590168718836622 -0.06405266573084714 1.0149732098043664 0 0 0 0.13 50 184 77 173 187 452 
731 0.10365288152926212 -0.05651745486822663 1.0172611219411496 0 0 0 0.34 16 400 98 233 112 200 187 453 
732 0.06920626474608782 -0.035898219401658445 1.0151721840011445 0 0 0 0.21 16 401 50 185 112 201 187 454 
733 0.06676680559663585 -0.03447025277873144 1.0146158401299434 0 0 0 0.15 16 402 50 186 112 202 187 455 
734 0.010141059166707428 -0.0230406415643763 1.016613373436216 0 0 0 0.13 16 403 44 151 50 187 92 160 187 456 
735 0.049659482676917575 -0.022121881646238094 1.014335446364156 0 0 0 0.36 16 404 44 152 50 188 61 108 92 161 93 105 124 177 187 457 
736 0.016980721956394638 -0.01978369957588075 1.0152177699733722 0 0 0 0.41 16 405 27 68 61 109 77 174 187 458 
737 0.13100973346295527 -0.01602950661170884 1.0098380357361685 0 0 0 0.32 16 406 91 26 112 203 187 459 
738 0.030690219954322567 -0.010030845378102485 1.0118008592692103 0 0 0 0.1 16 407 98 234 187 460 
739 0.10243996729474546 -0.005694472492789125 1.007140847182691 0 0 0 0.26 16 408 38 183 187 461 
740 -0.13097825636158797 0.04932741877557928 1.021500894532209 0 0 0 0.33 16 409 98 235 124 178 
741 -0.03921367997871841 0.060601022154182074 1.0005511184917215 0 0 0 0.15 16 410 36 43 50 189 92 162 
742 0.02875002564112258 0.06097655388206765 0.9971663896389328 0 0 0 0.12 16 411 38 184 77 175 187 462 
743 0.2019641140470715 0.06084708393636142 0.9929434516261769 0 0 0 0.14 77 176 112 204 187 463 
744 0.09193142238373772 0.0618903845655209 0.9967040318345073 0 0 0 0.38 16 412 17 143 33 114 77 177 187 464 
745 -0.05922132076333122 0.0657124851209765 1.0023499768212047 0 0 0 0.32 16 413 92 163 98 236 124 179 
746 -0.03783131134271171 0.09446726235943108 0.9953702611269813 0 0 0 0.16 16 414 77 178 110 57 
747 0.14113378267380286 0.09718831059616517 0.9846402191832299 0 0 0 0.5 16 415 92 164 93 106 109 66 187 465 
748 -0.10693878011768443 0.11324352489282082 1.0030707360901172 0 0 0 0.34 16 416 92 165 98 237 110 58 113 16 
749 -0.10507415745745138 0.1361257810472086 0.9978480420242705 0 0 0 0.16 16 417 77 179 92 166 
750 0.08959697390070576 -0.11337269681333315 1.0286215750368821 0 0 0 0.34 16 418 33 115 44 153 50 190 98 238 112 205 187 466 
751 0.08427613260595213 -0.11170803873230913 1.027515701913388 0 0 0 0.24 16 419 44 154 50 191 53 69 61 110 77 180 93 107 96 57 98 239 112 206 187 467 
752 0.08600457833949268 -0.10775534014082332 1.0271258914979837 0 0 0 0.28 16 420 61 111 85 85 93 108 98 240 187 468 
753 0.06812906736624327 -0.08696887381764469 1.0228548240354756 0 0 0 0.28 16 421 98 241 109 67 187 469 
754 -0.057941702689166506 -0.08280971979097593 1.028970493780212 0 0 0 0.25 16 422 98 242 112 207 118 143 124 180 
755 0.17608001180837266 -0.08234316380031038 1.0186634170209101 0 0 0 0.29 92 167 112 208 187 470 
756 -0.08239123536227042 -0.02578514640720859 1.026219008133747 0 0 0 0.24 16 423 17 144 27 69 44 155 61 112 98 243 112 209 
757 -0.09135166918081583 -0.022354354801690637 1.027877516839455 0 0 0 0.24 16 424 17 145 38 185 44 156 50 192 53 70 61 113 98 244 103 21 111 24 112 210 118 144 124 181 
758 -0.09353487502865165 -0.019054840197323016 1.0273580310111734 0 0 0 0.29 16 425 44 157 50 193 53 71 61 114 98 245 118 145 
759 0.03244604080920465 0.04534114696622215 0.9969811637702675 0 0 0 0.11 16 426 50 194 61 115 187 471 
760 0.03243333388087659 0.045333850364864384 0.9969975423147698 0 0 0 0.09 16 427 50 195 187 472 
761 0.06581233012095959 0.04721503900465144 0.9964334036501766 0 0 0 0.22 16 428 50 196 61 116 98 246 112 211 187 473 
762 -0.024812589907242687 0.05223083763412595 1.0042723147635475 0 0 0 0.35 16 429 98 247 118 146 187 474 
763 -0.034526940208741815 0.060614397487167335 0.9996115896061176 0 0 0 0.12 16 430 33 116 44 158 50 197 85 86 92 168 118 147 
764 -0.00898404359495074 0.06155069156960741 0.9998575685078017 0 0 0 0.14 16 431 50 198 77 181 92 169 
765 0.0013667410744784745 0.07123370292689596 0.9974231418690057 0 0 0 0.21 16 432 17 146 77 182 98 248 187 475 
766 0.06593740680183588 0.12615863118620813 0.9841838154493383 0 0 0 0.31 16 433 19 26 38 186 44 159 50 199 85 87 92 170 93 109 187 476 
767 0.30991317354769465 -0.08503145637512664 1.0166765399551607 0 0 0 0.41 17 147 27 70 92 171 187 477 
768 0.31038204295724037 -0.08532921717466763 1.0171691623529888 0 0 0 0.21 17 148 92 172 187 478 
769 -0.000509367447304864 0.04158975118039612 1.0016450388327676 0 0 0 0.32 16 434 103 22 187 479 
770 -0.016830859017045164 0.053317856006406754 1.0057290609055984 0 0 0 0.18 16 435 17 149 61 117 96 58 118 148 
771 -0.08605782338120274 0.08186059255918016 1.0120674909527783 0 0 0 0.16 16 436 17 150 38 187 
772 -0.03994874544540718 0.08111947952756511 0.997517415902829 0 0 0 0.37 16 437 17 151 43 31 77 183 92 173 118 149 
773 0.03245969914356677 -0.10801711508742808 1.0293086273585972 0 0 0 0.17 16 438 77 184 187 480 
774 -0.07056846037686017 -0.014282489338475583 1.0166708003070488 0 0 0 0.4 16 439 98 249 103 23 112 212 
775 0.07081338942101373 -0.008337984669500188 1.011340852517516 0 0 0 0.64 16 440 112 213 187 481 
776 0.06944652907055016 0.03982853728526493 0.9982148133195723 0 0 0 0.38 16 441 50 200 77 185 187 482 
777 0.031311007731597465 -0.010438142734554859 1.0135403549529096 0 0 0 0.5 16 442 124 182 187 483 
778 0.07418459677443213 0.07999647329463913 0.9925943566509028 0 0 0 0.34 16 443 27 71 52 28 187 484 
779 -0.08001246744734188 -0.08053883131954834 1.0345086560711094 0 0 0 0.34 16 444 50 201 61 118 96 59 98 250 118 150 
780 -0.0465335110689727 -0.08184226926173806 1.0244860317424787 0 0 0 0.25 16 445 53 72 96 60 118 151 
781 -0.04539023956746485 0.11515786235707674 0.9933755402465919 0 0 0 0.61 16 446 43 32 53 73 
782 -0.024508446592393273 0.11574960693832131 0.9902175286019603 0 0 0 0.3 16 447 43 33 53 74 92 174 96 61 
783 0.06884024145341994 0.11191838171050088 0.9867888254761873 0 0 0 0.47 16 448 33 117 50 202 61 119 77 186 
784 0.018588813867040827 -0.0700919608671315 1.022840338409532 0 0 0 0.67 16 449 32 23 98 251 187 485 
785 -0.0755226840865802 -0.09712563830748876 1.0303369666450783 0 0 0 0.58 17 152 44 160 61 120 96 62 98 252 112 214 
786 -0.0037021315700949808 -0.08421925714638591 1.0253918024624946 0 0 0 0.22 17 153 77 187 98 253 112 215 118 152 187 486 
787 0.13929183006040258 -0.08324802139882198 1.0186839336585691 0 0 0 0.08 17 154 112 216 187 487 
788 0.09507435793751672 -0.07643589282120433 1.020152077338691 0 0 0 0.27 17 155 38 188 118 153 187 488 
789 0.2747112466169134 -0.07449972934215267 1.0153914693495962 0 0 0 0.57 17 156 98 254 112 217 187 489 
790 -0.09309810563213163 -0.02561439253831154 1.0282743671232988 0 0 0 0.1 17 157 61 121 112 218 
791 0.2733999354066119 0.06420888325045009 0.9913666120155854 0 0 0 0.38 17 158 50 203 118 154 124 183 187 490 
792 -0.12171399537066722 0.09999575829796511 1.006000284233145 0 0 0 0.21 17 159 38 189 113 17 
793 0.17880874012074194 -0.0861603635595976 1.0198944422684988 0 0 0 0.33 17 160 27 72 91 27 118 155 187 491 
794 0.3567872370013608 -0.08412426925745597 1.0163422480403586 0 0 0 0.04 17 161 98 255 187 492 
795 0.07520700490149464 -0.017264548106332357 1.0113372737399449 0 0 0 0.28 17 162 50 204 53 75 61 122 112 219 118 156 187 493 
796 -0.023989758888802094 -0.013063851348298365 1.0188794909451744 0 0 0 0.25 17 163 61 123 98 256 112 220 118 157 187 494 
797 -0.016173373483546676 -0.012957467860281407 1.0200614041141234 0 0 0 0.24 17 164 112 221 118 158 187 495 
798 0.02572398481243597 -0.01297025683314235 1.0167454062546102 0 0 0 0.23 17 165 43 34 50 205 187 496 
799 -0.08662744146071777 -0.07369351233398089 1.0364106122920511 0 0 0 0.18 17 166 27 73 96 63 
800 0.1774043531523954 0.0547882782869152 0.9878602190928386 0 0 0 0.17 17 167 61 124 187 497 
801 -0.0342947527959669 0.07395896342183851 0.9995848258008626 0 0 0 0.23 17 168 61 125 77 188 
802 0.06915328227463219 -0.1089480434137462 1.027764628490608 0 0 0 0.32 19 27 27 74 44 161 98 257 187 498 
803 -0.031213160704721427 -0.11169767176449188 1.0327687386706528 0 0 0 0.25 19 28 27 75 44 162 50 206 61 126 77 189 96 64 98 258 111 25 
804 0.04472030270992207 0.10511106944646066 0.9903339371114637 0 0 0 0.58 19 29 61 127 96 65 98 259 
805 -0.0003253572051583389 -0.09250688285537753 1.0275736249596301 0 0 0 0.39 27 76 96 66 187 499 
806 0.09909714344502456 0.05411149856502471 0.9945901736493039 0 0 0 0.14 27 77 50 207 61 128 112 222 187 500 
807 0.09729856169998952 0.1351761386434455 0.9816210852611217 0 0 0 0.39 27 78 61 129 187 501 
808 0.28343374482780576 -0.08507104655799584 1.0174897941077752 0 0 0 0.19 27 79 32 24 61 130 98 260 111 26 187 502 
809 -0.023096331607932508 -0.08926818525376248 1.0271090666052338 0 0 0 0.38 27 80 98 261 112 223 187 503 
810 -0.020974977641576926 0.043958872843396245 1.007429072467609 0 0 0 0.33 27 81 50 208 187 504 
811 -0.022349530804209053 -0.09643266450907674 1.0299974840860788 0 0 0 0.37 27 82 44 163 50 209 98 262 187 505 
812 0.08158777922933133 -0.12388941099582557 1.0296509960976257 0 0 0 0.39 27 83 32 25 44 164 77 190 98 263 187 506 
813 0.14952945792672573 -0.19043753067084002 1.039666181934406 0 0 0 0.54 32 26 61 131 93 110 187 507 
814 0.25496542650881404 0.11359916355222167 0.9807938599103577 0 0 0 0.53 32 27 98 264 124 184 187 508 
815 -0.09505595631989158 -0.09179105092875692 1.0387145434984546 0 0 0 0.52 32 28 38 190 109 68 112 224 
816 -0.07154679607362253 -0.0750240398340051 1.0274033716411939 0 0 0 0.1 32 29 92 175 98 265 
817 0.3570316492320132 0.1252228789114277 0.9775753904954115 0 0 0 0.16 32 30 36 44 44 165 50 210 61 132 98 266 
818 0.09074664606236045 -0.11101126724949725 1.0279148929002864 0 0 0 0.33 33 118 38 191 109 69 112 225 187 509 
819 0.09087426162010058 -0.11108102361596811 1.0277774215343438 0 0 0 0.17 33 119 109 70 187 510 
820 0.07290070662742099 -0.10186557877491628 1.0263070242301158 0 0 0 0.08 33 120 112 226 187 511 
821 0.05364591628315557 -0.09383957587966552 1.025517738915904 0 0 0 0.33 33 121 98 267 124 185 187 512 
822 0.009977260604531878 -0.09408365389331697 1.0273747106353883 0 0 0 0.32 33 122 112 227 187 513 
823 -0.014191314496048992 -0.09440959698292525 1.0289050290741006 0 0 0 0.24 33 123 98 268 112 228 187 514 
824 0.14334013352390684 -0.08342543885494368 1.0190585936493664 0 0 0 0.3 33 124 124 186 187 515 
825 0.05386762798474275 -0.015950133885369103 1.0130396648669178 0 0 0 0.31 33 125 112 229 187 516 
826 -0.043963162086444324 -0.015621407627103 1.019520825730519 0 0 0 0.28 33 126 124 187 187 517 
827 -0.03180562379745097 -0.013505861955469413 1.0167123046433502 0 0 0 0.45 33 127 124 188 187 518 
828 -0.011653793420329996 -0.08922588341984743 1.0276145872555442 0 0 0 0.19 33 128 44 166 98 269 187 519 
829 -0.07173672639389249 0.06902668203894596 0.9983606020831958 0 0 0 0.19 33 129 44 167 93 111 
830 0.21259298597732304 0.09348959655906232 0.985100044023331 0 0 0 0.23 33 130 44 168 61 133 187 520 
831 0.0531772918078929 -0.08930689776268931 1.024591202959323 0 0 0 0.3 36 45 98 270 187 521 
832 0.030135955114265322 -0.08907494976521393 1.0247042306923846 0 0 0 0.27 36 46 61 134 85 88 92 176 98 271 112 230 124 189 187 522 
833 0.12791292634989224 -0.08306079668063028 1.0187303183618088 0 0 0 0.17 36 47 92 177 187 523 
834 0.3507288984386299 0.09386831284314535 0.9828436165335082 0 0 0 0.37 36 48 61 135 187 524 
835 0.34580174872435937 0.0959572145436718 0.9826358244148798 0 0 0 0.36 36 49 50 211 61 136 98 272 187 525 
836 0.02056072537172898 -0.08116260868066529 1.0234382587738446 0 0 0 0.16 38 192 98 273 112 231 187 526 
837 0.10936219839832963 -0.05753575809583437 1.0167003997613906 0 0 0 0.39 38 193 44 169 187 527 
838 0.10602472961891546 -0.05752484507962657 1.017059083982969 0 0 0 0.32 38 194 92 178 109 71 187 528 
839 0.07923010059889593 -0.016654121736763516 1.013575240548072 0 0 0 0.19 38 195 44 170 124 190 187 529 
840 0.20951359384991272 0.0603491084240291 0.9884016001344098 0 0 0 0.33 110 59 112 232 187 530 
841 0.01807933027372004 0.06431835153308844 1.0019156806462346 0 0 0 0.28 38 196 92 179 187 531 
