# 3D point list with one line of data per point:
#   POINT3D_ID, X, Y, Z, R, G, B, ERROR, TRACK[] as (IMAGE_ID, POINT2D_IDX)
# Number of points: 401, mean track length: 7.27
469 -0.11472674694740966 0.055587184752544615 0.279823425599386 0 0 0 0.63 20 38 76 58 208 106 
470 -0.1020866650959022 0.0649605642392105 0.2763371946541485 0 0 0 0.53 20 39 76 59 208 107 
471 0.07644269385003999 0.25467001802856687 0.7422999693086267 0 0 0 0.47 20 40 25 93 73 71 181 78 
472 -0.0064612919567552775 0.1431316042276384 0.37484252213277985 0 0 0 0.45 20 41 26 148 76 60 
473 -0.036133013430504825 -0.1259212408878534 0.5002161224977629 0 0 0 0.45 1 374 20 42 26 149 56 414 76 61 208 108 
474 -0.06390730985121178 -0.10612879056207353 0.4942204003544442 0 0 0 0.32 20 43 26 150 56 415 
475 -0.04953169035956845 -0.04595459213896309 0.6709629013792948 0 0 0 0.08 20 44 26 151 208 109 
476 -0.10167343982482308 -0.06762076549185726 0.23328001709802104 0 0 0 0.61 20 45 56 416 76 62 
477 -0.020814066210294142 -0.007996266722059194 0.6388256428604859 0 0 0 0.22 20 46 26 152 88 78 
478 0.07627012556662581 0.05228956652216266 0.8928610751917451 0 0 0 0.3 20 47 26 153 88 79 199 52 
479 0.07705428351706489 0.05186699278097747 0.8901973109204064 0 0 0 0.2 20 48 26 154 199 53 
480 0.03947208731721774 0.05831333244791957 0.7656874773809417 0 0 0 0.2 20 49 26 155 199 54 
481 -0.09542433632063821 -0.007134034733907864 0.30403562823466 0 0 0 0.23 20 50 76 63 208 110 
482 -0.006896928563708598 0.038921759316339684 0.4390356654961122 0 0 0 0.34 20 51 25 94 208 111 
483 0.042655672082345525 0.1154226921133328 0.7212727888050379 0 0 0 0.28 20 52 25 95 181 79 
484 0.06106315885003649 0.13279343898391135 0.7652480518228281 0 0 0 0.61 20 53 25 96 181 80 199 55 
485 0.06899086229662396 0.14763456116103546 0.7859692760757715 0 0 0 0.37 20 54 25 97 26 156 73 72 96 82 181 81 198 93 199 56 208 112 
486 0.07704701561055226 0.15665593032867156 0.8156496939980591 0 0 0 0.29 20 55 25 98 26 157 
487 0.1106391018013971 0.20090066451434557 0.9130856889382297 0 0 0 0.16 20 56 26 158 181 82 
488 0.07168028965522108 0.16977603039619163 0.7764121379985476 0 0 0 0.19 20 57 73 73 181 83 
489 0.08450920385206712 0.20935215167397567 0.8046663744176755 0 0 0 0.21 20 58 25 99 73 74 
490 0.14495460453589468 0.2729412637362376 1.0052895013353675 0 0 0 0.24 20 59 26 159 73 75 181 84 
491 0.14541174476244847 0.2721354086773353 1.0025351275059804 0 0 0 0.2 20 60 26 160 73 76 181 85 198 94 199 57 
492 0.027174932210052453 0.17179598505662702 0.6194303644122303 0 0 0 0.32 20 61 73 77 96 83 208 113 
493 0.06747751209046815 0.23933003452037763 0.7270958746957201 0 0 0 0.22 20 62 26 161 73 78 
494 0.07147278022480029 0.24828689691461597 0.7443854859777318 0 0 0 0.26 20 63 26 162 73 79 
495 -0.019403208643705407 -0.0660022037322965 0.48791103138975417 0 0 0 0.44 20 64 26 163 76 64 
496 -0.04631743881424047 -0.043512394831563016 0.6790175942139751 0 0 0 0.26 20 65 26 164 76 65 208 114 
497 -0.01948083897455754 -0.026592345475671145 0.6515844969831599 0 0 0 0.34 20 66 26 165 88 80 
498 -0.02862625193908801 -0.021973090986553444 0.6604138466211975 0 0 0 0.1 20 67 26 166 76 66 
499 -0.02862625193908801 -0.021973090986553444 0.6604138466211975 0 0 0 0.1 20 68 26 167 76 67 
500 -0.028407935577146912 -0.015727820630923896 0.6576899184654312 0 0 0 0.17 20 69 26 168 88 81 
501 0.0947909129066995 0.1229779428691354 0.9136961808002426 0 0 0 0.42 20 70 26 169 198 95 199 58 
502 0.12937060142902515 0.19644703896253599 0.9831825252872584 0 0 0 0.2 20 71 73 80 96 84 181 86 198 96 199 59 208 115 221 80 
503 0.08837027011890704 0.16545903375186896 0.8370585690078072 0 0 0 0.21 20 72 73 81 198 97 199 60 
504 0.09625193513518444 0.17572225063508434 0.8605194460656063 0 0 0 0.19 20 73 26 170 73 82 181 87 199 61 
505 0.11587057449779907 0.19692315941145036 0.9137489618068694 0 0 0 0.29 20 74 26 171 73 83 199 62 
506 0.11706176087577437 0.20869347924648737 0.930278561735163 0 0 0 0.19 20 75 26 172 73 84 96 85 181 88 198 98 199 63 208 116 221 81 
507 0.1140180854508869 0.21395661092080037 0.9179818742763567 0 0 0 0.66 20 76 96 86 208 117 
508 0.1382958128535933 0.24104098187247647 1.0165086620831294 0 0 0 0.27 20 77 73 85 199 64 
509 0.10166948418325752 0.2105766933206296 0.8793495687419491 0 0 0 0.17 20 78 26 173 73 86 181 89 
510 0.14595533961688742 0.24924078952308776 1.0046641627646016 0 0 0 0.15 20 79 73 87 208 118 
511 0.11448911034277366 0.22385356136524454 0.9142188060029353 0 0 0 0.13 20 80 73 88 181 90 198 99 199 65 
512 0.10224288934992733 0.23299048085880936 0.9225774504387766 0 0 0 0.55 20 81 73 89 208 119 
513 0.10912330248200257 0.22513631619945057 0.891119499443208 0 0 0 0.66 20 82 25 100 73 90 96 87 198 100 199 66 208 120 221 82 
514 0.12308722437795407 0.23748243176391295 0.9359232193762703 0 0 0 0.19 20 83 73 91 198 101 
515 0.11239772662672641 0.23521796570489567 0.9225958865685585 0 0 0 0.41 20 84 73 92 181 91 199 67 
516 0.06909480215558901 0.18906516893838576 0.7657386790737029 0 0 0 0.26 20 85 25 101 26 174 73 93 181 92 198 102 
517 0.11838188859556112 0.24054377096271465 0.9193544566851065 0 0 0 0.22 20 86 181 93 198 103 
518 0.0700793581602515 0.19566928568515854 0.7597224527967901 0 0 0 0.31 20 87 26 175 73 94 199 68 
519 0.0954530516644165 0.22789934844189738 0.842578351491941 0 0 0 0.26 20 88 26 176 73 95 181 94 
520 0.08552795227601236 0.2178016300903189 0.7971691550737309 0 0 0 0.33 20 89 73 96 198 104 
521 0.11992072477128646 0.2608536016108135 0.9092003646604634 0 0 0 0.17 20 90 26 177 73 97 181 95 198 105 199 69 
522 0.11994185332868255 0.2608352699005771 0.9091535123729593 0 0 0 0.17 20 91 73 98 181 96 199 70 
523 0.11083741517207434 0.2580805564334337 0.8802439237441755 0 0 0 0.19 20 92 73 99 181 97 
524 -0.09835961675006231 -0.05643913824589715 0.244273434629928 0 0 0 0.39 20 93 56 417 76 68 
525 0.04764382098994751 0.05522543317482939 0.784977241358571 0 0 0 0.25 20 94 26 178 198 106 
526 0.04718882789981232 0.05545326561190135 0.7865072402509584 0 0 0 0.22 20 95 26 179 198 107 199 71 
527 0.06110901475708222 0.13990467126927428 0.7654236398199293 0 0 0 0.38 20 96 25 102 26 180 181 98 198 108 199 72 
528 0.06109342746110153 0.13971665307661543 0.7648605472565655 0 0 0 0.25 20 97 25 103 26 181 198 109 199 73 
529 0.10199923551525696 0.18504054181206553 0.8835844862867939 0 0 0 0.12 20 98 26 182 199 74 
530 0.10816526936959348 0.19200917419627392 0.9041154561880994 0 0 0 0.5 20 99 26 183 73 100 96 88 181 99 198 110 208 121 
531 0.0974581328953012 0.18911493200922264 0.8729124753297866 0 0 0 0.16 20 100 26 184 181 100 
532 0.11748282435337465 0.22015742745481348 0.9245964485441484 0 0 0 0.25 20 101 26 185 73 101 96 89 181 101 198 111 199 75 208 122 
533 0.12158860765747181 0.23068676596961146 0.9348806765218765 0 0 0 0.5 20 102 96 90 198 112 199 76 208 123 221 83 
534 0.09515694004779791 0.21330548084147924 0.8018897671490668 0 0 0 0.33 20 103 26 186 73 102 199 77 
535 0.10215917198244218 0.23298887473160895 0.857808563005738 0 0 0 0.28 20 104 73 103 181 102 
536 0.11343201857871471 0.24841534110489202 0.9000488576961275 0 0 0 0.34 20 105 73 104 181 103 
537 -0.1391468457475712 -0.1079924545322165 0.35162516716603515 0 0 0 0.09 20 106 56 418 76 69 
538 -0.017846632003448056 -0.03529336442585867 0.6571007758684995 0 0 0 0.11 20 107 26 187 76 70 
539 -0.04153212133278488 -0.03479807972733101 0.46384268567433296 0 0 0 0.17 20 108 26 188 208 124 
540 -0.01723577932750847 -0.009143614102302619 0.6458528002118448 0 0 0 0.2 20 109 26 189 76 71 88 82 
541 -0.07752423580502031 0.008991389724678998 0.28920079611340377 0 0 0 0.24 20 110 76 72 208 125 
542 0.05101337595616773 0.12960608564684423 0.7370868917173777 0 0 0 0.33 20 111 25 104 26 190 198 113 199 78 
543 0.31359992110103885 0.30714666266538476 1.048225450355391 0 0 0 0.39 25 105 56 419 127 88 162 37 179 32 217 102 220 70 
544 0.62010227908486 0.26655459701002465 0.9458551762181416 0 0 0 0.28 25 106 56 420 118 126 165 27 235 24 
545 0.41772619372561987 0.13913035173057664 1.129625567345186 0 0 0 0.41 25 107 56 421 65 101 67 75 97 60 138 28 147 97 190 110 222 74 
546 0.4540264763655773 0.13670961926096845 1.122134648163214 0 0 0 0.61 25 108 56 422 65 102 
547 0.5757162964979325 0.12242970226614841 1.026946250216581 0 0 0 0.48 25 109 96 91 197 28 208 126 217 103 227 21 
548 0.6489206181694507 0.12006775898820965 0.9999343450300748 0 0 0 0.5 60 55 65 103 96 92 105 17 111 67 148 21 162 38 163 18 196 16 208 127 
549 0.05681487886104738 0.11455394789854006 0.7623122065539442 0 0 0 0.23 25 110 198 114 208 128 
550 0.32562040173670764 0.175542413739175 1.101196623169316 0 0 0 0.36 25 111 56 423 60 56 71 110 96 93 97 61 111 68 152 76 162 39 164 81 
551 0.49434947681486086 0.15587672201210975 1.0365825195797145 0 0 0 0.69 25 112 26 191 56 424 60 57 69 43 73 105 89 90 96 94 110 12 111 69 118 127 126 9 127 89 147 98 148 22 152 77 158 63 162 40 164 82 172 40 198 115 208 129 217 104 220 71 227 22 232 143 
552 0.3670056273777749 0.17196140950834307 1.0787715058230347 0 0 0 0.42 25 113 26 192 56 425 67 76 81 138 89 91 96 95 118 128 127 90 208 130 222 75 232 144 
553 0.6845443285334942 0.1481702858907274 0.9823344380120487 0 0 0 0.08 89 92 97 62 208 131 
554 0.6544467160985956 0.15190095041766608 0.9863638662108017 0 0 0 0.21 73 106 89 93 196 17 208 132 
555 0.6095379408248217 0.15944815010470967 0.9973457979255789 0 0 0 0.58 1 375 25 114 56 426 67 77 69 44 96 96 97 63 110 13 111 70 127 91 148 23 152 78 158 64 162 41 163 19 165 28 182 23 208 133 217 105 220 72 227 23 235 25 
556 0.6146149767562679 0.16823945617274644 0.9900669801533576 0 0 0 0.47 25 115 56 427 127 92 163 20 164 83 182 24 
557 0.4985290537742822 0.18593853444108835 1.0197248007049913 0 0 0 0.4 25 116 26 193 56 428 147 99 222 76 
558 0.43562543547104604 0.19394472490145023 1.0406856891712468 0 0 0 0.38 25 117 56 429 63 53 81 139 88 83 138 29 147 100 172 41 199 79 208 134 217 106 
559 0.4720445818119224 0.19116428011600112 1.0288882943453055 0 0 0 0.51 25 118 56 430 73 107 152 79 162 42 217 107 
560 0.1439086743790203 0.2290398552959738 1.008732807034398 0 0 0 0.23 25 119 96 97 208 135 
561 0.5640154206400303 0.23328609514870569 0.9820480386823869 0 0 0 0.21 25 120 56 431 69 45 128 86 152 80 197 29 235 26 
562 0.5646420444204912 0.2580560730139727 0.9609344784190625 0 0 0 0.4 25 121 56 432 65 104 
563 0.48034133580129884 0.2740484098336958 0.990797679298827 0 0 0 0.3 25 122 56 433 118 129 128 87 220 73 221 84 
564 0.6870806330743435 0.24965514632965005 0.9349188196022219 0 0 0 0.24 56 434 67 78 127 93 
565 0.5800702727439471 0.26912321917279985 0.9571930373153968 0 0 0 0.28 25 123 63 54 73 108 96 98 162 43 165 29 208 136 217 108 235 27 
566 0.07902395128667493 0.2378137160016861 0.7573421462154606 0 0 0 0.26 25 124 26 194 96 99 181 104 198 116 199 80 208 137 
567 0.6448854690381423 0.2689341256655553 0.9335128531621695 0 0 0 0.17 25 125 56 435 62 5 
568 0.14128437020132453 0.30374104041210853 0.9645315348197833 0 0 0 0.51 25 126 71 111 73 109 96 100 103 42 208 138 
569 0.09175491733793806 0.25345408958496296 0.7916494791291893 0 0 0 0.67 25 127 65 105 96 101 208 139 
570 0.1453097206260793 0.310847366459504 0.9689992370542312 0 0 0 0.59 25 128 96 102 103 43 198 117 208 140 221 85 
571 0.07605259164892637 0.2454795736778297 0.74343931800104 0 0 0 0.23 25 129 181 105 208 141 
572 0.5953714673896401 0.2923740147857911 0.945878818039148 0 0 0 0.43 25 130 96 103 111 71 147 101 162 44 181 106 196 18 208 142 217 109 
573 0.5910497308490725 0.29157736216833746 0.9435451148588617 0 0 0 0.4 25 131 163 21 181 107 208 143 232 145 
574 0.6343085639535736 0.2877876620041199 0.9350552416289498 0 0 0 0.35 56 436 62 6 63 55 65 106 69 46 71 112 73 110 89 94 96 104 103 44 105 18 111 72 118 130 127 94 128 88 134 7 147 102 158 65 164 84 165 30 172 42 181 108 182 25 190 111 197 30 222 77 232 146 235 28 
575 0.5949312592208159 0.2963927178066428 0.9422831349576388 0 0 0 0.53 25 132 111 73 118 131 147 103 172 43 181 109 208 144 
576 0.6250254010516993 0.29561765887403646 0.9341179093834746 0 0 0 0.49 25 133 56 437 60 58 63 56 81 140 96 105 111 74 118 132 127 95 134 8 162 45 164 85 190 112 208 145 220 74 222 78 232 147 
577 0.5956347581424393 0.30139416111673767 0.9399729294302132 0 0 0 0.45 25 134 56 438 63 57 69 47 91 8 111 75 147 104 162 46 182 26 196 19 208 146 217 110 220 75 221 86 222 79 
578 0.6407489239601744 0.2956340346021749 0.9274552446938591 0 0 0 0.37 60 59 63 58 71 113 91 9 110 14 148 24 162 47 165 31 184 7 208 147 235 29 
579 0.44560711787872787 0.3292573382728647 0.9895109809932333 0 0 0 0.3 25 135 103 45 126 10 208 148 
580 0.44843767020397574 0.3258676018452775 0.9802802762842567 0 0 0 0.44 25 136 96 106 172 44 208 149 227 24 232 148 
581 0.6221875629310991 0.3007511542557946 0.9305882935555617 0 0 0 0.52 56 439 69 48 118 133 158 66 164 86 182 27 234 18 
582 0.5298945770850704 0.11855144770033461 1.043416480634653 0 0 0 0.44 25 137 56 440 71 114 147 105 197 31 232 149 
583 0.3318312084443257 0.14683503052838429 1.1163188893174019 0 0 0 0.35 25 138 56 441 65 107 97 64 127 96 
584 0.5945585305423915 0.12581491365442735 1.027665419486333 0 0 0 0.49 25 139 56 442 147 106 232 150 
585 0.6589122449851434 0.12459351533455866 0.9914794785333818 0 0 0 0.28 56 443 89 95 190 113 197 32 
586 0.659740387361739 0.12476517739658427 0.9928757326799265 0 0 0 0.26 56 444 73 111 89 96 182 28 197 33 
587 0.6849916644245904 0.1293329757097212 0.9908875936979216 0 0 0 0.26 56 445 89 97 129 68 152 81 190 114 
588 0.3090941317760419 0.1865924578465024 1.1060039131211346 0 0 0 0.32 25 140 56 446 190 115 
589 0.26295228118726605 0.19809433390229841 1.1303321515081977 0 0 0 0.34 25 141 56 447 118 134 128 89 152 82 198 118 
590 0.33444079920308706 0.1869929226120329 1.0881714918917744 0 0 0 0.33 25 142 56 448 81 141 172 45 
591 0.382821148443089 0.207365908467656 1.054283492515748 0 0 0 0.22 25 143 56 449 60 60 127 97 128 90 158 67 224 30 
592 0.05697152566068066 0.1528431861765392 0.7321640698908776 0 0 0 0.37 25 144 26 195 73 112 199 81 208 150 
593 0.14183728650555388 0.22170925538421776 1.0166312823237902 0 0 0 0.7 25 145 26 196 96 107 181 110 208 151 220 76 
594 0.36257268204697585 0.2505430378001438 1.0514270925183549 0 0 0 0.3 25 146 56 450 60 61 67 79 71 115 81 142 97 65 110 15 111 76 126 11 127 98 128 91 158 68 164 87 179 33 196 20 198 119 208 152 217 111 220 77 224 31 232 151 
595 0.6642319918540933 0.24595507986990317 0.9398608059818401 0 0 0 0.43 56 451 73 113 105 19 110 16 148 25 164 88 165 32 182 29 196 21 208 153 235 30 
596 0.45775721074528897 0.28014180940962585 0.9960317719447145 0 0 0 0.38 25 147 56 452 65 108 69 49 158 69 190 116 
597 0.07333681583659182 0.22378859037058213 0.7488945948241851 0 0 0 0.23 25 148 73 114 198 120 199 82 208 154 
598 0.26678849550057554 0.31757331961118485 1.0661827503792032 0 0 0 0.31 25 149 56 453 190 117 
599 0.0764299027665375 0.23383229677569273 0.7542007437385096 0 0 0 0.22 25 150 26 197 73 115 96 108 181 111 198 121 199 83 208 155 
600 0.06812648960817784 0.23187689913394108 0.7295139166093424 0 0 0 0.24 25 151 96 109 208 156 
601 0.5814369138051972 0.28793621310508616 0.9515977586476105 0 0 0 0.32 25 152 96 110 111 77 198 122 208 157 
602 0.13259997774949156 0.3006908579324369 0.9254188531652139 0 0 0 0.22 25 153 181 112 208 158 
603 0.14559415059834602 0.3161065965883024 0.9648548905557476 0 0 0 0.75 25 154 26 198 73 116 76 73 96 111 103 46 181 113 198 123 199 84 208 159 221 87 
604 0.15338985210191153 0.32552023803486235 0.9802151208334249 0 0 0 0.23 25 155 181 114 198 124 199 85 208 160 
605 0.6202477241449519 0.29669429860845375 0.9349341655767169 0 0 0 0.44 56 454 60 62 63 59 65 109 69 50 81 143 89 98 91 10 96 112 105 20 110 17 118 135 147 107 148 26 158 70 162 48 163 22 165 33 181 115 184 8 190 118 196 22 198 125 199 86 208 161 222 80 232 152 235 31 
606 0.5540969847076637 0.30648202501173843 0.948213728888174 0 0 0 0.4 25 156 208 162 217 112 
607 0.1496153037736278 0.336173430449732 0.9745637275305542 0 0 0 0.24 25 157 26 199 73 117 96 113 103 47 198 126 208 163 232 153 
608 0.1572326705856878 0.3509831266214252 0.9877651303243254 0 0 0 0.39 25 158 26 200 103 48 198 127 199 87 208 164 
609 0.23503469273065647 0.37965791313154396 1.0585879413328385 0 0 0 0.34 25 159 26 201 71 116 96 114 148 27 208 165 227 25 
610 0.715101878339498 0.10347496797745553 1.0632060957640523 0 0 0 0.7 126 12 148 28 181 116 196 23 198 128 199 88 208 166 
611 0.48531704092373157 0.13815615217621816 1.0334774341503443 0 0 0 1.11 25 160 56 455 65 110 129 69 181 117 198 129 217 113 
612 0.6861910279788714 0.12683864137817696 0.9860337080292698 0 0 0 0.36 56 456 67 80 73 118 89 99 103 49 118 136 129 70 164 89 190 119 197 34 232 154 
613 0.6860711955135432 0.12684578681574465 0.9852016934820863 0 0 0 0.42 56 457 73 119 105 21 118 137 221 88 
614 0.5364784353406664 0.14323250852434902 1.0305437224807419 0 0 0 0.5 25 161 26 202 60 63 96 115 148 29 162 49 208 167 222 81 
615 0.5876480347154136 0.14346425187951609 1.0110055761850727 0 0 0 0.33 25 162 96 116 208 168 227 26 
616 0.4985744044907782 0.1577514880165567 1.034082748635099 0 0 0 0.43 12 52 25 163 26 203 56 458 60 64 69 51 73 120 81 144 88 84 96 117 97 66 110 18 111 78 118 138 147 108 148 30 152 83 158 71 164 90 172 46 190 120 196 24 199 89 208 169 217 114 220 78 221 89 222 82 227 27 234 19 
617 0.3713535463541037 0.17961761187005781 1.0657272203672858 0 0 0 0.72 25 164 56 459 71 117 88 85 118 139 221 90 232 155 
618 0.2124569465237918 0.22310455434038184 1.1415585635684358 0 0 0 0.1 25 165 56 460 220 79 
619 0.12121949847523537 0.19617870946389418 0.9451111610203503 0 0 0 0.57 25 166 181 118 208 170 221 91 
620 0.12740217583703534 0.2104802105700488 0.964981379004153 0 0 0 0.44 25 167 181 119 199 90 208 171 
621 0.10719954643115609 0.20306088873572034 0.9023043948647645 0 0 0 0.43 25 168 26 204 73 121 76 74 181 120 198 130 199 91 208 172 221 92 
622 0.10722024339557004 0.20305568140894864 0.9022921535619289 0 0 0 0.46 25 169 26 205 73 122 181 121 198 131 199 92 208 173 221 93 
623 0.45872680798944065 0.2162409110950777 1.0241219855852322 0 0 0 0.24 25 170 56 461 65 111 
624 0.29725567565608857 0.27316671476732407 1.0752780799325479 0 0 0 0.34 25 171 26 206 56 462 128 92 164 91 
625 0.14496852710163316 0.2619900007434645 0.9989194294673046 0 0 0 0.63 25 172 71 118 73 123 76 75 96 118 208 174 221 94 
626 -0.00018325292562410087 0.12002895565310277 0.42667172935328096 0 0 0 0.49 25 173 76 76 208 175 
627 0.04851311190024577 0.20042935440363857 0.6802459637206971 0 0 0 0.27 25 174 96 119 208 176 
628 0.06440394830519627 0.2176283072036589 0.7199213063755285 0 0 0 0.17 25 175 73 124 96 120 181 122 208 177 
629 0.06783507212429159 0.22679763196521044 0.7307373770812617 0 0 0 0.28 25 176 96 121 208 178 
630 0.07136392202768084 0.2276184186609868 0.7338362628893533 0 0 0 0.21 25 177 26 207 73 125 198 132 199 93 208 179 
631 0.44752373897587927 0.30922753431964206 0.9909909473255154 0 0 0 0.38 25 178 26 208 56 463 103 50 118 140 172 47 217 115 222 83 232 156 
632 0.5179695080206033 0.31563177330158565 0.9633284338754466 0 0 0 0.25 25 179 198 133 208 180 220 80 
633 0.1531543054370647 0.342281664670825 0.9811675072447583 0 0 0 0.26 25 180 103 51 198 134 208 181 
634 0.3497226965927701 0.185800530532006 1.0873639482600048 0 0 0 0.27 25 181 26 209 56 464 67 81 71 119 81 145 88 86 89 100 118 141 127 99 128 93 147 109 181 123 190 121 198 135 199 94 217 116 232 157 
635 0.05204587916667936 0.1512872588203846 0.7222835980526604 0 0 0 0.24 25 182 198 136 199 95 208 182 
636 0.12134216022954263 0.19996166967626308 0.9369127851758532 0 0 0 0.39 25 183 198 137 208 183 
637 0.14957357936788074 0.26029513949361427 1.0113647147237679 0 0 0 0.48 25 184 73 126 96 122 181 124 208 184 
638 0.03122518950321611 0.18017418489800308 0.6420094468758096 0 0 0 0.47 25 185 96 123 208 185 
639 0.43887880871230867 0.28984382988417573 1.0018276602814156 0 0 0 0.43 25 186 26 210 56 465 152 84 164 92 217 117 
640 0.5478984479280855 0.27758201479047295 0.9645287382009271 0 0 0 0.46 25 187 96 124 111 79 148 31 196 25 198 138 208 186 220 81 
641 0.4164578751377496 0.2993583481718436 1.0027717295945826 0 0 0 0.52 25 188 56 466 118 142 127 100 198 139 217 118 220 82 221 95 
642 0.4405290415895743 0.29568866796840926 0.9956307908735139 0 0 0 0.36 25 189 56 467 81 146 118 143 152 85 234 20 
643 0.5697763821809851 0.2804002092007213 0.9593652962911233 0 0 0 0.28 25 190 199 96 208 187 
644 0.5617549104013528 0.10672523233937418 1.0351648696653506 0 0 0 0.94 25 191 56 468 67 82 181 125 232 158 
645 0.6964328140076665 0.10575288569612286 1.056906226280283 0 0 0 0.66 60 65 110 19 181 126 198 140 199 97 208 188 
646 0.3181175743414161 0.14707309918965486 1.1166578286581248 0 0 0 0.43 25 192 56 469 67 83 81 147 
647 0.2740161189791023 0.21437535942919808 1.1064495021577545 0 0 0 0.64 25 193 26 211 56 470 71 120 81 148 88 87 96 125 127 101 220 83 
648 0.03642754931892823 0.19060973581594395 0.640623789149348 0 0 0 0.25 25 194 96 126 208 189 
649 0.04243858812772473 0.19703675950301558 0.6582812014872341 0 0 0 0.35 25 195 96 127 208 190 
650 0.04586633134208747 0.21714990517343621 0.6463401375816844 0 0 0 0.35 25 196 76 77 208 191 
651 0.04537482781887122 0.21791389871047237 0.6481224592555559 0 0 0 0.3 25 197 73 127 76 78 81 149 208 192 
652 0.6538983485723789 0.2863335789339124 0.9282863714826404 0 0 0 0.51 65 112 71 121 91 11 110 20 118 144 147 110 165 34 184 9 208 193 235 32 
653 0.5697626080730623 0.12571825756437532 1.0276587092383151 0 0 0 0.31 25 198 56 471 147 111 208 194 
654 0.3930850798196522 0.17008487867805339 1.0624118833561502 0 0 0 0.47 25 199 26 212 56 472 63 60 67 84 71 122 88 88 97 67 111 80 129 71 147 112 152 86 198 141 
655 0.34402886616736345 0.20010196275625142 1.0875102283795635 0 0 0 0.7 25 200 26 213 56 473 67 85 71 123 88 89 89 101 118 145 128 94 190 122 199 98 232 159 
656 0.31845382528782956 0.2044492889387133 1.0892181242253212 0 0 0 0.99 25 201 26 214 56 474 63 61 67 86 71 124 89 102 96 128 127 102 158 72 164 93 190 123 199 99 217 119 220 84 224 32 
657 0.45306106686886494 0.24592472655295733 1.0161339150166886 0 0 0 0.4 25 202 26 215 56 475 
658 0.4529561161260751 0.2455960596914508 1.01531700985406 0 0 0 0.34 25 203 26 216 56 476 65 113 129 72 152 87 198 142 
659 0.3491311381097618 0.27904631951047626 1.046886768728849 0 0 0 0.47 25 204 26 217 56 477 63 62 65 114 67 87 89 103 118 146 138 30 164 94 181 127 221 96 
660 0.3491717301929521 0.27916443127059093 1.0474067309325796 0 0 0 0.47 25 205 26 218 56 478 63 63 65 115 67 88 89 104 118 147 128 95 138 31 164 95 181 128 221 97 
661 0.37847900890305103 0.272948121776808 1.0292099972277486 0 0 0 0.38 25 206 56 479 164 96 
662 0.5618060468023947 0.2850696753216411 0.9581481592344804 0 0 0 0.33 25 207 56 480 65 116 69 52 96 129 111 81 118 148 127 103 148 32 158 73 162 50 181 129 198 143 199 100 208 195 217 120 220 85 232 160 
663 0.6401657891406309 0.2741241315591325 0.9383366985728463 0 0 0 0.35 56 481 63 64 65 117 69 53 71 125 73 128 81 150 89 105 91 12 105 22 110 21 111 82 118 149 127 104 128 96 129 73 148 33 158 74 162 51 163 23 165 35 182 30 190 124 198 144 208 196 222 84 232 161 234 21 235 33 
664 0.6427006777714861 0.30524773057438864 0.9242663287498984 0 0 0 0.42 71 126 110 22 148 34 163 24 181 130 208 197 
665 0.3782365864940579 0.20116589736534526 1.0615212263522238 0 0 0 0.56 25 208 26 219 56 482 63 65 65 118 67 89 71 127 81 151 88 90 97 68 103 52 111 83 118 150 127 105 128 97 129 74 138 32 147 113 158 75 162 52 164 97 172 48 179 34 181 131 190 125 198 145 199 101 217 121 221 98 224 33 232 162 
666 0.28452538219372936 0.22435040874500156 1.0973626123778337 0 0 0 0.61 25 209 26 220 56 483 67 90 76 79 127 106 164 98 181 132 
667 0.4547387290014698 0.2857716466938144 0.9956876243946602 0 0 0 0.62 25 210 56 484 118 151 198 146 
668 0.6272748641212572 0.27485981309912605 0.9418685449133956 0 0 0 0.41 25 211 56 485 65 119 69 54 71 128 81 152 89 106 97 69 111 84 118 152 129 75 147 114 158 76 164 99 165 36 181 133 182 31 190 126 198 147 222 85 235 34 
669 0.6271603819849028 0.2747291335094187 0.9416368581747441 0 0 0 0.41 56 486 65 120 69 55 81 153 89 107 97 70 118 153 128 98 129 76 158 77 182 32 190 127 
670 0.6004242236769016 0.2789858104861128 0.9478771262604145 0 0 0 0.63 25 212 56 487 65 121 69 56 81 154 88 91 89 108 96 130 111 85 127 107 129 77 147 115 158 78 163 25 164 100 182 33 199 102 221 99 222 86 
671 0.6005337478418263 0.2789416831322624 0.94807207759424 0 0 0 0.71 25 213 56 488 65 122 69 57 81 155 96 131 127 108 147 116 158 79 164 101 182 34 199 103 221 100 222 87 
672 0.6145932883005318 0.27857826675942815 0.9439229169074566 0 0 0 0.44 89 109 91 13 129 78 148 35 158 80 196 26 208 198 
673 0.6671652308823491 0.30285746948505043 0.9189323221077846 0 0 0 0.45 63 66 65 123 71 129 73 129 148 36 165 37 198 148 208 199 235 35 
674 0.44516058067573755 0.15531777338751754 1.1108916174536045 0 0 0 0.9 56 489 65 124 81 156 97 71 
675 0.5195846255184147 0.13416985229333395 1.0348889903462675 0 0 0 0.82 26 221 56 490 63 67 71 130 73 130 147 117 162 53 190 128 199 104 
676 0.4916381084346721 0.16240049204884713 1.0353948523836833 0 0 0 0.38 26 222 96 132 147 118 158 81 208 200 232 163 
677 -0.0349706354113327 0.06732182148572012 0.3007715508054487 0 0 0 0.85 26 223 56 491 208 201 
678 0.3177023682403266 0.3066344926833448 1.0452520337357627 0 0 0 0.38 26 224 56 492 118 154 217 122 
679 0.39599447884780803 0.3234611294945461 1.0036766937364827 0 0 0 0.44 26 225 56 493 152 88 158 82 220 86 
680 0.14106656639098114 0.316213910123902 0.9631407804107599 0 0 0 0.26 26 226 73 131 181 134 208 202 
681 -0.038069363671842986 -0.06573000637290254 0.474894827506498 0 0 0 0.15 26 227 56 494 208 203 
682 -0.013280107617100698 -0.05439303274524625 0.6654644077744751 0 0 0 0.56 26 228 56 495 65 125 
683 0.47039901283214214 0.1065703388789594 1.0662455293295288 0 0 0 0.44 56 496 71 131 111 86 118 155 162 54 208 204 232 164 
684 0.5297557331489792 0.10794620808256035 1.0528882110729383 0 0 0 0.31 26 229 199 105 208 205 
685 0.45697979952932216 0.1516916625362607 1.051420091467144 0 0 0 0.61 26 230 110 23 126 13 172 49 196 27 208 206 
686 0.48181500011555395 0.15332559762969425 1.0416562044446676 0 0 0 0.63 26 231 56 497 60 66 63 68 97 72 111 87 127 109 147 119 164 102 232 165 234 22 
687 0.12983700029997353 0.16305351018675696 1.0139092008003436 0 0 0 0.54 26 232 148 37 199 106 208 207 
688 0.23945786660451474 0.24033755155758024 1.114549036079693 0 0 0 0.32 26 233 56 498 71 132 81 157 111 88 118 156 179 35 221 101 
689 0.17195271264825868 0.24882533006633026 1.1495067152750218 0 0 0 0.44 26 234 67 91 96 133 110 24 181 135 208 208 220 87 232 166 
690 0.23142116114190273 0.24457675950545402 1.1189168651785233 0 0 0 0.28 26 235 56 499 60 67 81 158 97 73 
691 0.25306672286118437 0.250191655682658 1.1066693510361711 0 0 0 0.33 26 236 56 500 97 74 
692 0.5024409521854207 0.2285139049177455 1.0040097912268973 0 0 0 0.2 26 237 63 69 81 159 89 110 129 79 148 38 208 209 217 123 
693 0.405986160613465 0.2501736120361739 1.0311154889539593 0 0 0 0.27 26 238 56 501 65 126 67 92 164 103 181 136 217 124 
694 0.5595000588282376 0.2634024744479858 0.9742788994972151 0 0 0 0.36 56 502 89 111 96 134 232 167 
695 0.5392171796244827 0.30297667845975285 0.957722541119936 0 0 0 0.59 26 239 56 503 111 89 127 110 148 39 163 26 196 28 208 210 217 125 
696 0.13710228745191694 0.3048718959337979 0.9304007028594627 0 0 0 0.14 26 240 73 132 208 211 
697 -0.06407191208386424 -0.10626887639407802 0.49452230534374114 0 0 0 0.14 26 241 56 504 76 80 
698 0.5271159966536345 0.11254877607295466 1.0335662922072586 0 0 0 0.54 26 242 60 68 110 25 208 212 
699 0.5077938520761847 0.17578980800358432 1.0237607831732727 0 0 0 0.41 56 505 69 58 199 107 234 23 
700 0.5842950065618031 0.17984336732564293 0.9942484452134667 0 0 0 0.11 148 40 198 149 208 213 
701 0.13639842143487954 0.18015087367420365 1.032372838322009 0 0 0 0.27 26 243 76 81 208 214 
702 0.4638388436616472 0.18722623642295697 1.023147701471076 0 0 0 0.34 26 244 208 215 217 126 
703 0.23636228970581072 0.21562357715052435 1.1282490819734317 0 0 0 0.36 26 245 56 506 71 133 96 135 97 75 103 53 181 137 208 216 
704 0.12892610528963727 0.18721046993179583 0.9874958325204937 0 0 0 0.26 26 246 73 133 76 82 198 150 199 108 208 217 
705 0.12883544169694489 0.18792481559009247 0.988877248523764 0 0 0 0.51 26 247 73 134 76 83 198 151 199 109 208 218 221 102 
706 0.27668571635389466 0.23044442930151363 1.0945710351563085 0 0 0 0.07 26 248 56 507 81 160 88 92 118 157 127 111 
707 0.26729983130476453 0.23440923907640726 1.1048806175022374 0 0 0 0.31 26 249 56 508 60 69 217 127 
708 0.5814058807576894 0.2587137518443405 0.9675416952137904 0 0 0 0.3 56 509 89 112 118 158 129 80 190 129 198 152 222 88 
709 0.5874943080450928 0.2578653850666049 0.9631583374311998 0 0 0 0.59 26 250 60 70 148 41 208 219 220 88 
710 0.5718975090912096 0.2747972455805983 0.961003625387219 0 0 0 0.48 60 71 63 70 73 135 91 14 96 136 110 26 147 120 163 27 165 38 198 153 199 110 208 220 
711 0.2078141740203728 0.3413922137565624 1.087678166701994 0 0 0 0.35 26 251 56 510 198 154 
712 0.03407989968398693 0.1658846739657668 0.5465726130620567 0 0 0 0.39 26 252 199 111 208 221 
713 0.20679969339532775 0.36499275602022324 1.0849427396399745 0 0 0 0.28 26 253 81 161 208 222 
714 0.08049847825820937 0.26097180723801205 0.7505730245564693 0 0 0 0.36 26 254 73 136 181 138 198 155 199 112 208 223 
715 0.5366343123343967 0.15198373982807806 1.0249604131866068 0 0 0 0.45 25 214 26 255 56 511 60 72 63 71 65 127 69 59 71 134 73 137 89 113 96 137 103 54 111 90 126 14 127 112 129 81 138 33 147 121 148 42 152 89 158 83 162 55 163 28 164 104 179 36 181 139 196 29 198 156 208 224 220 89 222 89 227 28 
716 0.3357304103008416 0.17935060398851713 1.093820396308223 0 0 0 0.29 26 256 56 512 63 72 81 162 138 34 199 113 208 225 220 90 
717 0.3580908329757161 0.18359434733357954 1.0807379361910183 0 0 0 0.42 26 257 56 513 63 73 71 135 81 163 89 114 96 138 111 91 164 105 217 128 220 91 221 103 232 168 
718 0.5084800530992539 0.18070237621075275 1.0184078179284137 0 0 0 0.43 26 258 81 164 148 43 208 226 221 104 222 90 
719 0.5385212733178925 0.18308688424598818 1.0115920976881323 0 0 0 0.32 26 259 91 15 148 44 208 227 220 92 
720 0.1236641071363239 0.17374469461584288 1.002011363135173 0 0 0 0.28 26 260 181 140 208 228 
721 0.5150144331774569 0.19202078566512604 1.0215103968451142 0 0 0 0.29 26 261 56 514 60 73 89 115 
722 0.11847272820403025 0.17143709554211387 0.9539245750717119 0 0 0 0.31 26 262 181 141 208 229 
723 0.1292740226113446 0.1805366715759843 0.9919784171318382 0 0 0 0.49 26 263 198 157 199 114 208 230 221 105 
724 0.1939787982428996 0.2514182007985667 1.1341204048233324 0 0 0 0.37 26 264 60 74 76 84 110 27 181 142 208 231 
725 0.4791393563453149 0.3267462820855617 0.9689525401422584 0 0 0 0.21 26 265 89 116 96 139 208 232 
726 0.12793084523127896 0.3056495310600616 0.8956767218585343 0 0 0 0.22 26 266 181 143 208 233 
727 0.14562775645626624 0.3332809255792507 0.964505906941531 0 0 0 0.25 26 267 198 158 208 234 
728 0.4733082206866639 0.1115874543249247 1.061686877859099 0 0 0 0.4 26 268 71 136 73 138 181 144 208 235 
729 0.23251536305096643 0.2244076497944348 1.129216422172492 0 0 0 0.58 26 269 56 515 67 93 127 113 221 106 
730 0.11294507897087429 0.19090362907347277 0.924200894757051 0 0 0 0.28 26 270 96 140 181 145 198 159 199 115 208 236 
731 0.11271681780435515 0.19132637962927293 0.9255642303544708 0 0 0 0.37 26 271 96 141 181 146 198 160 199 116 208 237 221 107 
732 0.3697453274123177 0.300000398443988 1.0181394478351034 0 0 0 0.24 26 272 56 516 89 117 96 142 164 106 181 147 208 238 
733 0.32735267153834446 0.16780428483757176 1.1035322015772893 0 0 0 0.19 26 273 56 517 81 165 198 161 
734 0.22324640200250154 0.3349071092422972 1.0863156958228175 0 0 0 0.47 26 274 56 518 198 162 220 93 
735 0.22335861131466891 0.33353529622665806 1.084057339469526 0 0 0 0.78 26 275 56 519 162 56 220 94 
736 -0.007965251587278874 -0.012520430966621953 0.6465904192134154 0 0 0 0.36 26 276 56 520 76 85 88 93 
737 0.05431674985781251 0.09353656988681587 0.7936295477739478 0 0 0 0.05 26 277 76 86 208 239 
738 0.28781054850270044 0.24737256159361046 1.0899080185824224 0 0 0 0.37 26 278 56 521 67 94 71 137 81 166 103 55 111 92 127 114 138 35 179 37 224 34 
739 0.45387902853354034 0.28527356125964576 0.9935527004035383 0 0 0 0.57 26 279 56 522 118 159 127 115 
740 0.2574277523444206 0.2292392032397444 1.109899619085764 0 0 0 0.51 26 280 56 523 65 128 67 95 71 138 96 143 97 76 118 160 127 116 198 163 199 117 217 129 220 95 
741 0.2190215420595513 0.25372940537543415 1.1231970888206357 0 0 0 0.44 26 281 56 524 73 139 111 93 
742 0.3618799221031862 0.23716997369973897 1.0585961666922041 0 0 0 0.94 26 282 56 525 127 117 128 99 164 107 179 38 221 108 
743 0.31698672824631363 0.258348481970111 1.0708057080186546 0 0 0 0.52 26 283 56 526 63 74 81 167 97 77 164 108 221 109 224 35 
744 0.2893076193247423 0.2672541975353557 1.081393449888329 0 0 0 0.21 26 284 56 527 81 168 
745 0.20719352459255033 0.28486170372761005 1.1148207836647377 0 0 0 0.42 26 285 56 528 71 139 73 140 76 87 128 100 164 109 220 96 224 36 
746 0.30386280856846404 0.2757500456802828 1.0693917078939472 0 0 0 0.44 26 286 56 529 81 169 88 94 164 110 181 148 217 130 220 97 224 37 
747 0.3038343110438413 0.2757918622387914 1.0694392851745371 0 0 0 0.43 26 287 56 530 81 170 164 111 181 149 217 131 220 98 224 38 
748 0.12361510199682703 0.14465577283044714 1.0137928943384669 0 0 0 0.49 26 288 76 88 198 164 199 118 208 240 
749 -0.016084490312645597 0.061261337860822045 0.4191423058336316 0 0 0 0.17 26 289 76 89 208 241 
750 -0.016084490312645597 0.061261337860822045 0.4191423058336316 0 0 0 0.17 26 290 76 90 208 242 
751 0.33079136138423293 0.22724855553288748 1.0729242062397815 0 0 0 0.64 26 291 56 531 71 140 81 171 127 118 158 84 198 165 221 110 232 169 
752 0.5259261943867056 0.10926249803313443 1.092878667879587 0 0 0 0.5 56 532 65 129 138 36 
753 0.5318205374873296 0.11296945098283034 1.08071975057605 0 0 0 0.42 56 533 65 130 89 118 
754 0.7070748278962982 0.1056592020154348 1.0446082582699368 0 0 0 0.74 56 534 67 96 89 119 103 56 
755 0.5249978641920083 0.11933958025285654 1.0959040406006726 0 0 0 0.33 56 535 81 172 89 120 147 122 179 39 181 150 232 170 
756 0.5290583720643447 0.11881648936920203 1.0703146733583726 0 0 0 0.57 56 536 89 121 217 132 
757 0.47378163171370574 0.1157935368271168 1.0601925978692017 0 0 0 0.18 1 376 73 141 81 173 147 123 232 171 
758 0.6065581309176576 0.11850218013182283 1.037642851564185 0 0 0 0.5 56 537 96 144 138 37 222 91 
759 0.6403044986830138 0.11868537845176559 1.0042747722398464 0 0 0 0.13 56 538 67 97 71 141 118 161 
760 0.5238365115903952 0.1281762636604883 1.041424034282539 0 0 0 0.5 56 539 89 122 97 78 221 111 
761 0.7079629531036677 0.11568611212009047 0.9872490242169439 0 0 0 0.5 56 540 67 98 69 60 97 79 103 57 111 94 134 9 152 90 163 29 164 112 172 50 182 35 190 130 197 35 234 24 235 36 
762 0.43051785710706325 0.13225220794517376 1.0508791174193142 0 0 0 1.81 56 541 63 75 67 99 
763 0.6171826908338639 0.12415514818978556 1.0330197440889615 0 0 0 0.47 56 542 118 162 147 124 152 91 221 112 222 92 232 172 
764 0.6483382135123215 0.11966728721505991 0.9975372669463884 0 0 0 0.34 56 543 65 131 164 113 199 119 222 93 
765 0.6416150758143148 0.12070609527591242 0.998465984553546 0 0 0 0.22 56 544 89 123 96 145 152 92 182 36 197 36 
766 0.4179424999925765 0.14475135999258307 1.1172299806154087 0 0 0 0.52 56 545 65 132 81 174 138 38 147 125 152 93 179 40 190 131 
767 0.41680696728097094 0.1448743452598282 1.1189211072562775 0 0 0 0.6 56 546 67 100 71 142 111 95 
768 0.5746348646349726 0.1290673775074923 1.020820551912014 0 0 0 0.34 1 377 26 292 56 547 71 143 96 146 97 80 118 163 197 37 208 243 217 133 
769 0.7132232584701604 0.1199243579123597 0.9779673499609962 0 0 0 0.42 56 548 136 4 172 51 
770 0.3707964067538286 0.1565228398475506 1.0876023058082338 0 0 0 0.2 56 549 71 144 89 124 217 134 222 94 
771 0.5118108655708122 0.14677738667798537 1.0341284080080848 0 0 0 0.48 56 550 81 175 96 147 208 244 217 135 232 173 
772 0.6966765417523877 0.13541813020686982 0.974168194310072 0 0 0 0.33 56 551 81 176 111 96 147 126 182 37 208 245 
773 0.6494712048313536 0.13939799917152795 0.9899463869716295 0 0 0 0.14 56 552 69 61 81 177 89 125 182 38 
774 0.7815074532804699 0.1364771504408589 0.9856325209263559 0 0 0 0.38 56 553 63 76 67 101 103 58 147 127 163 30 172 52 190 132 232 174 
775 0.7811363014534816 0.1361602456838155 0.9852140758645612 0 0 0 0.61 56 554 62 7 63 77 67 102 103 59 147 128 162 57 163 31 164 114 172 53 190 133 232 175 
776 0.7159717098675057 0.13850149772996526 0.9723089136078252 0 0 0 0.5 56 555 63 78 73 142 105 23 111 97 148 45 196 30 208 246 
777 0.7637242619502796 0.1397036176558634 0.9802366906469118 0 0 0 0.25 56 556 71 145 73 143 91 16 105 24 165 39 220 99 221 113 232 176 235 37 
778 0.5748604375353006 0.15285037776175697 1.0146719327513345 0 0 0 0.14 56 557 89 126 152 94 181 151 
779 0.38411708083453633 0.16852773564733575 1.063662707668248 0 0 0 0.13 56 558 128 101 198 166 
780 0.5111597614146254 0.16188426011542828 1.036048674123962 0 0 0 0.89 56 559 73 144 127 119 
781 0.5615852114936637 0.15626818754175886 1.0091042058216726 0 0 0 0.49 56 560 89 127 96 148 127 120 165 40 172 54 190 134 199 120 208 247 217 136 232 177 
782 0.32747057268696494 0.17834307226302412 1.0975067299358663 0 0 0 0.25 56 561 81 178 127 121 181 152 
783 0.7139264737005957 0.15133451338256862 0.9703255012420331 0 0 0 0.44 56 562 65 133 67 103 69 62 89 128 111 98 118 164 128 102 147 129 152 95 190 135 197 38 222 95 232 178 
784 0.6706187689663812 0.15440904629358257 0.9800186665230484 0 0 0 0.44 56 563 69 63 81 179 89 129 128 103 172 55 208 248 222 96 232 179 
785 0.3236667546946593 0.18465152885140204 1.099688012112585 0 0 0 0.41 56 564 65 134 164 115 199 121 
786 0.7548295054668505 0.15436441487203775 0.976588028109471 0 0 0 0.2 56 565 89 130 134 10 222 97 232 180 
787 0.7050943897851444 0.1561543634757704 0.968961986389325 0 0 0 0.38 56 566 62 8 81 180 89 131 118 165 152 96 158 85 164 116 172 56 190 136 232 181 
788 0.7893219545595216 0.1581862724897115 0.98128835496686 0 0 0 0.38 56 567 71 146 105 25 147 130 165 41 232 182 235 38 
789 0.7895294481780887 0.1581462263285108 0.9819846929751055 0 0 0 0.4 56 568 65 135 67 104 71 147 89 132 103 60 111 99 118 166 134 11 147 131 165 42 232 183 235 39 
790 0.6882263145687062 0.16461262090581916 0.9793004009180075 0 0 0 0.27 56 569 147 132 221 114 
791 0.7568206115812744 0.16235369667508004 0.9688036415846835 0 0 0 0.17 56 570 105 26 220 100 
792 0.5294802200290434 0.17662568031988832 1.0148828633777502 0 0 0 0.26 56 571 81 181 111 100 138 39 164 117 172 57 
793 0.5872633439184498 0.17231204232328015 0.9953412884604809 0 0 0 0.12 56 572 111 101 232 184 
794 0.562330009822494 0.1770442799215835 1.007774425147309 0 0 0 0.19 56 573 96 149 199 122 
795 0.5774516113920073 0.17604604730126897 1.0027460957599343 0 0 0 0.24 56 574 89 133 164 118 165 43 190 137 217 137 235 40 
796 0.7950749279076051 0.16687612164822946 0.9694390272599922 0 0 0 0.39 56 575 89 134 147 133 217 138 
797 0.2292648834986524 0.21508486130467908 1.1341292367294296 0 0 0 0.32 56 576 118 167 127 122 224 39 
798 0.19816938302899909 0.2221216777364141 1.1523132262175078 0 0 0 0.42 56 577 81 182 111 102 118 168 
799 0.7345419467302536 0.17595589499304223 0.9617040597055343 0 0 0 0.3 56 578 62 9 71 148 73 145 89 135 97 81 103 61 111 103 118 169 147 134 162 58 164 119 165 44 182 39 190 138 197 39 221 115 222 98 232 185 235 41 
800 0.7412162722132121 0.17900049799865805 0.9615829525387287 0 0 0 0.29 56 579 60 75 71 149 73 146 105 27 111 104 163 32 164 120 165 45 182 40 227 29 232 186 235 42 
801 0.1841575175544915 0.23153824956951596 1.1445876785505098 0 0 0 0.32 56 580 65 136 81 183 128 104 179 41 190 139 
802 0.19395321177107025 0.23034944820223455 1.1428158619786317 0 0 0 0.36 56 581 65 137 190 140 
803 0.5649764216374136 0.19271449761003642 0.9994198929934803 0 0 0 0.48 56 582 152 97 197 40 199 123 
804 0.5663557906628969 0.1996913222836857 0.9976543083854483 0 0 0 0.22 56 583 128 105 182 41 198 167 
805 0.6071401503104349 0.1979981693047226 0.9870511680357796 0 0 0 0.18 56 584 165 46 182 42 235 43 
806 0.7075439369970736 0.19103158744285623 0.9545570731069082 0 0 0 0.29 56 585 89 136 128 106 134 12 182 43 190 141 232 187 
807 0.7853584603121165 0.19105208727435896 0.9662985025482538 0 0 0 0.48 56 586 62 10 120 8 152 98 
808 0.8080513639368361 0.19224645047233407 0.9679027085799814 0 0 0 0.4 56 587 62 11 118 170 120 9 147 135 
809 0.19207415282669754 0.24315637272948765 1.141751350311772 0 0 0 0.25 56 588 96 150 128 107 232 188 
810 0.24941412788469758 0.23644253772510918 1.104440392176729 0 0 0 0.17 56 589 179 42 190 142 221 116 
811 0.6700766154457595 0.19673657541861275 0.9628758055837341 0 0 0 0.16 56 590 69 64 147 136 165 47 182 44 197 41 235 44 
812 0.5540662153857709 0.21138155001535222 0.9995823822191384 0 0 0 0.39 56 591 71 150 118 171 172 58 182 45 232 189 
813 0.707848330732579 0.2000952037289651 0.9507009749292556 0 0 0 0.25 56 592 128 108 190 143 
814 0.5770584349352406 0.2111566406545727 0.98310368999246 0 0 0 0.56 56 593 129 82 197 42 
815 0.6315402718318455 0.20721884165187485 0.9729275024591195 0 0 0 0.27 56 594 128 109 172 59 
816 0.22531649503569032 0.25121497749458216 1.120162648751581 0 0 0 0.15 56 595 118 172 127 123 
817 0.7370589538997432 0.20305071063566482 0.952077073317272 0 0 0 0.3 56 596 60 76 63 79 65 138 67 105 69 65 71 151 89 137 91 17 103 62 105 28 111 105 118 173 126 15 128 110 134 13 147 137 148 46 152 99 162 59 163 33 164 121 165 48 182 46 190 144 196 31 197 43 198 168 220 101 222 99 227 30 232 190 235 45 
818 0.1981831407326566 0.25524996383884935 1.129053266180043 0 0 0 0.34 56 597 67 106 81 184 172 60 179 43 
819 0.8005072636679376 0.20487628939631133 0.9627343236790402 0 0 0 0.36 56 598 97 82 103 63 165 49 222 100 235 46 
820 0.5106939855534774 0.22157264505780658 1.00639226356609 0 0 0 0.32 56 599 100 16 152 100 158 86 197 44 
821 0.6310531403690096 0.21207350167732578 0.9697413044566712 0 0 0 0.14 56 600 128 111 198 169 222 101 
822 0.7687303990410222 0.20683244729481493 0.9555926345285821 0 0 0 0.35 56 601 67 107 73 147 89 138 105 29 111 106 118 174 147 138 162 60 163 34 164 122 165 50 182 47 190 145 197 45 222 102 232 191 235 47 
823 0.7979932396045158 0.2075896818378376 0.9605678029243023 0 0 0 0.37 56 602 69 66 97 83 118 175 120 10 134 14 147 139 165 51 182 48 222 103 235 48 
824 0.7199313731101795 0.21092228932742516 0.9447857141480412 0 0 0 0.28 56 603 60 77 63 80 67 108 71 152 73 148 89 139 91 18 103 64 105 30 111 107 118 176 147 140 148 47 152 101 162 61 164 123 165 52 181 153 190 146 196 32 197 46 198 170 199 124 220 102 221 117 222 104 232 192 235 49 
825 0.38226453180857434 0.24296190454759306 1.044198980369267 0 0 0 0.28 56 604 67 109 198 171 
826 0.36521240214845974 0.24616451159414207 1.0506861193530046 0 0 0 0.31 56 605 60 78 89 140 127 124 220 103 221 118 
827 0.6066485070620444 0.22371712016693115 0.9736576242135396 0 0 0 0.22 56 606 128 112 181 154 
828 0.7178263275439494 0.2143140390248405 0.9424594804335529 0 0 0 0.21 56 607 67 110 71 153 103 65 147 141 148 48 164 124 181 155 232 193 235 50 
829 0.4827453186709151 0.2370760305455235 1.0075870915025846 0 0 0 0.25 56 608 164 125 199 125 
830 0.737502956357276 0.21889589352987063 0.9456497705540249 0 0 0 0.33 56 609 60 79 67 111 71 154 111 108 118 177 128 113 136 5 147 142 152 102 164 126 165 53 182 49 190 147 221 119 222 105 232 194 235 51 
831 0.7522415038134013 0.21898833574464455 0.9474245436265749 0 0 0 0.36 56 610 128 114 164 127 182 50 198 172 
832 0.7603231630569787 0.2189581471683619 0.9486762017676299 0 0 0 0.81 56 611 118 178 158 87 
833 0.2989520220208227 0.26290856049602424 1.0796096486161368 0 0 0 0.24 20 112 56 612 65 139 
834 0.5673678362033722 0.23523148351554035 0.981183702917881 0 0 0 0.2 56 613 118 179 172 61 190 148 
835 0.36182515571840534 0.25691907830504773 1.0449265098983331 0 0 0 0.25 56 614 88 95 221 120 
836 0.30565091509729675 0.26736904051525223 1.0728960334290172 0 0 0 0.37 56 615 60 80 65 140 81 185 111 109 179 44 190 149 217 139 
837 0.5646389848425978 0.24044932328569588 0.9798312793451885 0 0 0 0.14 56 616 69 67 147 143 190 150 232 195 
838 0.7386687416147312 0.2310548215831959 0.9410079064068946 0 0 0 0.29 56 617 120 11 164 128 
839 0.7628617813500189 0.23231588981249487 0.945665592812029 0 0 0 0.26 56 618 71 155 89 141 
840 0.326089985059125 0.2735326318064442 1.064200047041677 0 0 0 0.41 56 619 88 96 129 83 
841 0.29243716552911425 0.2779742478433481 1.0730563664459956 0 0 0 0.45 56 620 88 97 158 88 179 45 
842 0.4316372043643662 0.26002215300776554 1.0174834496692735 0 0 0 0.08 56 621 69 68 152 103 
843 0.2378464476807682 0.28655695242850926 1.095653971731441 0 0 0 0.22 56 622 81 186 138 40 
844 0.5671765368658513 0.2487426169214644 0.9740794925546562 0 0 0 0.25 56 623 89 142 128 115 190 151 
845 0.642093656406869 0.24286271560812317 0.9494609067596472 0 0 0 0.22 56 624 134 15 152 104 
846 0.5892256480142333 0.2503070118727648 0.9608306364787726 0 0 0 0.32 56 625 138 41 235 52 
847 0.7088002281128776 0.24299023509043327 0.9309591685826255 0 0 0 0.21 56 626 69 69 120 12 128 116 152 105 190 152 
848 0.22288526152050187 0.30106697204869476 1.107964885963146 0 0 0 0.16 56 627 76 91 198 173 
849 0.23197413509065254 0.2987099548344884 1.0934886876298981 0 0 0 0.35 56 628 81 187 97 84 118 180 232 196 
850 0.6172872289525021 0.2520896370314123 0.9540070080450446 0 0 0 0.33 56 629 96 151 182 51 217 140 222 106 
851 0.6065607807801071 0.2541087542626523 0.9591634756056411 0 0 0 0.56 56 630 127 125 128 117 134 16 
852 0.6426959898073623 0.24945172832983892 0.9457615998602374 0 0 0 0.43 56 631 69 70 128 118 164 129 165 54 172 62 235 53 
853 0.2386312308945484 0.29861510801495544 1.088914361704766 0 0 0 0.68 56 632 81 188 232 197 
854 0.5639129292484379 0.25991653325774805 0.9667053490222061 0 0 0 0.25 56 633 89 143 147 144 152 106 182 52 
855 0.5600254156608145 0.26512279459089005 0.9622541427408081 0 0 0 0.36 56 634 73 149 103 66 111 110 136 6 147 145 172 63 222 107 
856 0.7169813202010993 0.2523759338080551 0.9234767646245957 0 0 0 0.38 56 635 63 81 120 13 164 130 222 108 
857 0.4525640933707828 0.2788454294961679 0.9965785045306228 0 0 0 0.25 56 636 118 181 128 119 190 153 221 121 222 109 232 198 234 25 
858 0.5744479419736817 0.2685932562280543 0.9614434445553393 0 0 0 0.59 56 637 60 81 63 82 96 152 208 249 227 31 
859 0.4284832733433167 0.28442400278194485 1.0052104603938004 0 0 0 0.34 56 638 111 111 127 126 152 107 158 89 164 131 217 141 232 199 
860 0.4285907857281301 0.2844860299756723 1.0053164849026055 0 0 0 0.37 56 639 103 67 111 112 127 127 128 120 152 108 158 90 164 132 217 142 224 40 232 200 
861 0.3703317399169432 0.29661385460405904 1.0198659612485992 0 0 0 0.28 56 640 81 189 181 156 
862 0.554748830749302 0.28042881490501725 0.9677689556346094 0 0 0 0.56 56 641 136 7 152 109 
863 0.25483979035858095 0.31787001793027875 1.0730598216394915 0 0 0 0.42 56 642 96 153 190 154 221 122 232 201 
864 0.7675088625826978 0.27197490954635883 0.9278924886314199 0 0 0 0.11 56 643 97 85 118 182 190 155 222 110 
865 0.6950243561881925 0.27054572574353836 0.9208046699845285 0 0 0 0.57 56 644 63 83 89 144 103 68 111 113 118 183 120 14 134 17 158 91 162 62 163 35 165 55 172 64 197 47 235 54 
866 0.3384430444027406 0.31321416900639887 1.0303959268415854 0 0 0 0.74 56 645 71 156 127 128 220 104 221 123 224 41 
867 0.5301749063208455 0.29230875439263726 0.9644100360023363 0 0 0 0.36 56 646 69 71 127 129 152 110 
868 0.7255423829428735 0.27589293961717043 0.9199354882214847 0 0 0 0.31 56 647 147 146 190 156 198 174 
869 0.6471903329639694 0.28179145513994835 0.9307266351578376 0 0 0 0.35 56 648 69 72 73 150 118 184 165 56 182 53 232 202 
