# 3D point list with one line of data per point:
#   POINT3D_ID, X, Y, Z, R, G, B, ERROR, TRACK[] as (IMAGE_ID, POINT2D_IDX)
# Number of points: 412, mean track length: 6.31
237 0.5412802282406292 -0.3000992180987727 0.997948340969177 0 0 0 0.75 34 51 47 24 90 69 122 89 230 224 
238 -0.1799371130480386 -0.03445451352252952 0.8941076801017892 0 0 0 0.28 34 52 37 38 45 60 57 23 90 70 116 30 119 24 139 47 140 39 143 20 144 28 145 19 149 50 151 41 154 12 161 27 177 24 183 20 193 55 205 23 210 12 211 58 226 12 230 225 233 61 
239 0.01861944678574332 -0.048526586271809724 0.8576416182983898 0 0 0 0.28 34 53 57 24 59 21 90 71 116 31 122 90 125 40 139 48 140 40 143 21 144 29 149 51 151 42 154 13 177 25 211 59 212 22 216 30 228 58 230 226 
240 0.5241372125357731 -0.07651917227684675 0.9124795547813773 0 0 0 0.35 34 54 45 61 47 25 57 25 59 22 90 72 94 40 119 25 125 41 140 41 149 52 151 43 166 38 191 17 193 56 211 60 212 23 216 31 228 59 230 227 
241 0.5286884898047185 -0.010252308432217545 0.8894323605631774 0 0 0 0.27 34 55 37 39 45 62 57 26 86 18 119 26 122 91 125 42 139 49 143 22 144 30 149 53 154 14 166 39 189 13 191 18 210 13 212 24 216 32 226 13 230 228 
242 0.13660141818071747 0.11108435261450185 0.79919329334389 0 0 0 0.41 34 56 57 27 125 43 139 50 140 42 144 31 145 20 151 44 161 28 193 57 202 14 211 61 228 60 230 229 
243 0.5798955660063799 -0.2826677873396113 0.9818972265405577 0 0 0 0.47 34 57 45 63 116 32 139 51 144 32 149 54 154 15 166 40 211 62 212 25 230 230 233 62 
244 -0.0542149429569005 -0.2877174299933201 1.1284179994660266 0 0 0 0.7 34 58 45 64 205 24 230 231 
245 0.5467278462759014 -0.1382474998109049 0.9388792367355413 0 0 0 0.6 34 59 116 33 137 14 139 52 144 33 151 45 189 14 202 15 212 26 230 232 
246 0.017989371370451326 -0.8394505695444919 1.1775330467391538 0 0 0 0.62 37 40 90 73 94 41 183 21 230 233 
247 0.010583769108971082 -0.8322227150174132 1.1796264421597793 0 0 0 0.22 37 41 46 24 86 19 94 42 116 34 149 55 151 46 211 63 230 234 
248 0.03661070135897572 -0.3779831838942141 0.9588333124906929 0 0 0 0.25 37 42 90 74 140 43 230 235 
249 -0.014035409296783733 -0.31612640772399025 0.9547167714312673 0 0 0 0.31 37 43 90 75 94 43 125 44 230 236 
250 0.5585166363681113 -0.363259931227299 1.0313500751590992 0 0 0 0.23 37 44 46 25 122 92 230 237 
251 0.0944527026892749 -0.26696681864096583 0.9441886193474657 0 0 0 0.31 37 45 45 65 47 26 90 76 137 15 139 53 151 47 193 58 205 25 226 14 230 238 
252 0.5386152105432762 -0.09692585211134619 0.9032413907603905 0 0 0 0.63 37 46 46 26 47 27 94 44 193 59 230 239 
253 0.08272711914913829 -0.05421862554785324 0.8604935597475659 0 0 0 0.25 37 47 45 66 47 28 90 77 122 93 230 240 
254 0.2555891369675499 -0.04089297974540109 0.9018000141588893 0 0 0 0.11 37 48 90 78 230 241 
255 0.5303500185732039 -0.023335259426777187 0.8893332446193385 0 0 0 0.2 37 49 122 94 140 44 211 64 230 242 233 63 
256 0.4234007354756173 0.003949839285674906 0.8800029720375149 0 0 0 0.37 37 50 45 67 90 79 125 45 139 54 151 48 192 11 211 65 228 61 230 243 233 64 
257 0.1097412340836257 0.028565665983779274 0.8292025751889299 0 0 0 0.21 37 51 45 68 46 27 90 80 94 45 122 95 149 56 193 60 195 27 211 66 230 244 233 65 
258 0.414198145221898 0.041764869294987614 0.8812555031150149 0 0 0 0.24 37 52 90 81 149 57 154 16 193 61 211 67 230 245 
259 0.12227981358680624 0.05418550069537166 0.8191205920161766 0 0 0 0.36 37 53 47 29 139 55 149 58 161 29 216 33 226 15 230 246 233 66 
260 0.33195491711480946 0.0545895193906973 0.8687246217373193 0 0 0 0.18 37 54 140 45 230 247 
261 0.12426348883030473 0.08090155661108522 0.8042516228862429 0 0 0 0.41 37 55 45 69 47 30 70 31 90 82 94 46 116 35 122 96 125 46 140 46 144 34 149 59 151 49 166 41 183 22 192 12 193 62 195 28 211 68 230 248 233 67 
262 0.3712484463993209 0.13296160807559507 0.839609155898671 0 0 0 0.3 37 56 46 28 149 60 151 50 193 63 228 62 230 249 233 68 
263 0.09319697747224723 -0.9403515971153225 1.2259496056530446 0 0 0 0.3 37 57 45 70 46 29 55 27 57 28 86 20 94 47 119 27 139 56 144 35 149 61 151 51 166 42 183 23 191 19 205 26 211 69 212 27 218 29 226 16 230 250 
264 0.0939027335626912 -0.3014722366637814 0.9585685572067028 0 0 0 0.25 37 58 45 71 205 27 230 251 
265 0.5452832221626243 -0.0980871079206186 0.8961547880421541 0 0 0 0.23 37 59 46 30 59 23 140 47 149 62 151 52 211 70 218 30 228 63 230 252 
266 0.36172807331280915 -0.04938674025237537 0.9061025013200764 0 0 0 0.3 37 60 45 72 116 36 140 48 151 53 166 43 230 253 
267 0.5707066195568011 -0.068410178725991 0.882698112972608 0 0 0 0.53 37 61 149 63 151 54 211 71 228 64 230 254 
268 0.5249863930909051 0.006592455556380161 0.8820719557004205 0 0 0 0.27 37 62 46 31 47 31 55 28 57 29 59 24 86 21 94 48 116 37 119 28 122 97 125 47 137 16 140 49 143 23 144 36 149 64 151 55 154 17 166 44 177 26 191 20 193 64 210 14 211 72 212 28 216 34 218 31 226 17 228 65 230 255 233 69 
269 0.022022482106159053 0.07320717674646095 0.8112862250278321 0 0 0 0.28 37 63 151 56 230 256 
270 0.27493539395854 0.08149845066918046 0.8511837374891799 0 0 0 0.38 37 64 45 73 59 25 86 22 125 48 140 50 151 57 166 45 191 21 193 65 205 28 211 73 216 35 218 32 226 18 230 257 
271 -0.2155900536104784 0.11245089609738115 0.8364302773136784 0 0 0 0.27 37 65 45 74 125 49 140 51 143 24 149 65 151 58 154 18 161 30 193 66 210 15 211 74 216 36 228 66 230 258 
272 0.121512381993657 0.09268164662322055 0.8052280024340032 0 0 0 0.36 37 66 46 32 47 32 90 83 94 49 139 57 144 37 145 21 151 59 161 31 183 24 205 29 216 37 230 259 233 70 
273 0.08554219883431649 0.1704655213736984 0.7801785847526908 0 0 0 0.31 37 67 45 75 55 29 57 30 125 50 139 58 140 52 143 25 166 46 183 25 191 22 211 75 216 38 218 33 226 19 
274 0.24501033849109213 0.19674759482388832 0.775329765069213 0 0 0 0.44 37 68 45 76 59 26 90 84 125 51 139 59 151 60 
275 0.014393307418989533 -0.8050725323156169 1.177530798185451 0 0 0 0.21 37 69 45 77 46 33 90 85 139 60 143 26 149 66 202 16 211 76 230 260 
276 0.41818341354467053 0.06475213786502163 0.8617909722337362 0 0 0 0.56 37 70 47 33 57 31 166 47 191 23 216 39 230 261 233 71 
277 -0.026487903852921442 0.10640014816330531 0.7952643349752837 0 0 0 0.52 37 71 45 78 122 98 139 61 144 38 183 26 202 17 211 77 230 262 
278 0.33413557379831577 0.12911389121586553 0.8384412534261799 0 0 0 0.22 37 72 45 79 90 86 137 17 151 61 230 263 
279 0.19277981336668434 0.20691700520249995 0.7674308029459305 0 0 0 0.31 37 73 119 29 125 52 139 62 140 53 144 39 151 62 161 32 177 27 193 67 202 18 212 29 216 40 218 34 228 67 
280 0.09421950763027676 0.24132770128431705 0.7441145626242189 0 0 0 0.3 37 74 45 80 144 40 183 27 189 15 191 24 193 68 202 19 211 78 228 68 230 264 233 72 
281 0.12543039959067764 0.06450966409887539 0.8146747668499865 0 0 0 0.22 37 75 90 87 122 99 149 67 154 19 202 20 228 69 230 265 233 73 
282 0.12484970532222776 0.06462948389403322 0.8140318910336141 0 0 0 0.26 37 76 47 34 57 32 59 27 86 23 94 50 116 38 122 100 125 53 140 54 144 41 145 22 149 68 151 63 154 20 161 33 166 48 191 25 193 69 202 21 211 79 212 30 218 35 228 70 230 266 233 74 
283 0.07885856487448702 0.22725836090212523 0.7650044624416594 0 0 0 0.28 37 77 45 81 90 88 137 18 211 80 228 71 230 267 233 75 
284 0.44643103426071795 -0.058697757444653074 0.9088237184012643 0 0 0 0.49 37 78 47 35 125 54 177 28 211 81 216 41 228 72 230 268 233 76 
285 0.2838737654903458 0.004670646281848777 0.8832935465348299 0 0 0 0.33 37 79 230 269 233 77 
286 0.1154557792029611 0.12293281068170224 0.8001061833029993 0 0 0 0.69 37 80 45 82 183 28 189 16 230 270 233 78 
287 0.05251505160849528 0.12485399238137111 0.7943496563215264 0 0 0 0.65 37 81 46 34 55 30 83 9 119 30 125 55 139 63 140 55 183 29 189 17 192 13 211 82 226 20 228 73 230 271 233 79 
288 0.030414988451104966 -0.5839254878703821 1.0818017188032154 0 0 0 0.31 45 83 116 39 149 69 151 64 193 70 226 21 230 272 
289 -0.014998270979985108 -0.33097224634062905 0.959635550740153 0 0 0 0.27 45 84 116 40 122 101 125 56 149 70 230 273 
290 0.10739295183228229 -0.21334503908959818 0.9156590849571855 0 0 0 0.38 45 85 47 36 140 56 230 274 
291 0.09955567286768055 -0.19296396102647095 0.9116840290017973 0 0 0 0.31 45 86 47 37 90 89 94 51 116 41 125 57 140 57 151 65 161 34 183 30 193 71 205 30 216 42 226 22 228 74 230 275 
292 -0.04130906718925144 -0.1105560332118393 0.8722300866521416 0 0 0 0.22 45 87 139 64 230 276 
293 0.2679210387278808 -0.06852010313901506 0.9135182461161484 0 0 0 0.6 45 88 47 38 70 32 90 90 166 49 216 43 230 277 
294 0.2818179304195606 -0.0628690607103368 0.9031751703151033 0 0 0 0.25 45 89 90 91 154 21 226 23 228 75 230 278 233 80 
295 0.5341940420033309 -0.07675035527477636 0.9005314443874228 0 0 0 0.27 45 90 125 58 211 83 230 279 
296 0.42316992244474205 -0.06367905683553454 0.9047075338437339 0 0 0 0.15 45 91 90 92 94 52 140 58 154 22 216 44 228 76 233 81 
297 0.3953676833810482 -0.04797107320063315 0.908100800884873 0 0 0 0.14 45 92 122 102 139 65 230 280 
298 0.11356373644392935 -0.004718618934825586 0.8399084749628153 0 0 0 0.34 45 93 116 42 125 59 151 66 228 77 230 281 
299 0.1302833442153572 -0.004605404546620302 0.835762816640997 0 0 0 0.45 45 94 90 93 122 103 205 31 230 282 233 82 
300 0.11876074351170912 -0.0022032095358932692 0.837525882803796 0 0 0 0.15 45 95 90 94 125 60 230 283 
301 0.436532459539258 0.027098255733487495 0.8761076646312153 0 0 0 0.2 45 96 90 95 230 284 
302 0.031717448897106336 0.05878123583862335 0.812534882217037 0 0 0 0.23 45 97 57 33 90 96 139 66 145 23 151 67 226 24 230 285 
303 0.42337687662634454 0.051346652774051704 0.8633231223040704 0 0 0 0.29 45 98 154 23 230 286 233 83 
304 0.029306003994277536 0.06392919261681071 0.8125478973785148 0 0 0 0.15 45 99 125 61 140 59 145 24 149 71 151 68 193 72 211 84 226 25 228 78 230 287 233 84 
305 0.11845306387593901 0.10833502775119062 0.8005526494677146 0 0 0 0.23 45 100 230 288 233 85 
306 0.052979596662842215 0.17906692866485371 0.7759706665592278 0 0 0 0.14 45 101 140 60 151 69 177 29 193 73 228 79 
307 0.2305118221270199 0.19619719038773265 0.7703025833260305 0 0 0 0.22 45 102 230 289 233 86 
308 0.14501675047548468 0.20387904943789642 0.7634031251754027 0 0 0 0.19 45 103 211 85 216 45 228 80 230 290 
309 0.17867931255307487 0.2059009421233859 0.7658802078686455 0 0 0 0.29 139 67 140 61 143 27 161 35 216 46 
310 -0.00212071953516448 -0.9869493015066106 1.2527065650295979 0 0 0 0.29 45 104 90 97 230 291 
311 0.091926230026848 -0.8990345745054815 1.2108430114358666 0 0 0 0.38 45 105 46 35 55 31 86 24 90 98 94 53 119 31 139 68 151 70 166 50 189 18 205 32 211 86 212 31 230 292 
312 0.11500600798762566 -0.3888680492420011 0.9663362064937066 0 0 0 0.33 45 106 90 99 230 293 
313 0.09409581390125868 -0.2591693084780896 0.9414143656688684 0 0 0 0.29 45 107 47 39 55 32 140 62 205 33 230 294 
314 -0.020816340321240488 -0.2135782217417657 0.9148094378073621 0 0 0 0.21 45 108 90 100 230 295 
315 0.5822728034534169 -0.24044676875668974 1.0676114495578486 0 0 0 0.37 45 109 90 101 211 87 230 296 
316 0.07970394887353356 -0.17882717672883006 0.9120488065873442 0 0 0 0.21 45 110 90 102 230 297 
317 -0.036398371950945876 -0.10740762424849246 0.8679692690251578 0 0 0 0.4 45 111 55 33 230 298 
318 -0.3053903713370968 -0.06731245662726419 0.8986813319849896 0 0 0 0.31 45 112 195 29 230 299 
319 -0.021225612907739264 -0.08708124981326264 0.8611701688818254 0 0 0 0.52 45 113 90 103 230 300 
320 -0.019004781973953385 -0.0753266004139184 0.8648314037383528 0 0 0 0.2 45 114 90 104 230 301 
321 0.10885316505167775 -0.06597266146317794 0.8650349651874523 0 0 0 0.23 45 115 90 105 144 42 149 72 154 24 230 302 
322 0.33930039788851907 -0.06307541218622176 0.9195048013850905 0 0 0 0.57 45 116 47 40 230 303 
323 -0.1719463128920333 -0.016952475506469555 0.8948318872597841 0 0 0 0.22 45 117 90 106 94 54 116 43 149 73 210 16 228 81 230 304 233 87 
324 0.5231753756209676 -0.06727625054688577 0.9082531830228961 0 0 0 0.53 45 118 125 62 216 47 230 305 
325 0.35232935482279537 -0.04862489680453939 0.908781935323985 0 0 0 0.51 45 119 47 41 59 28 90 107 116 44 149 74 151 71 191 26 230 306 
326 0.10892101075678096 0.005880531620578953 0.8357044092192143 0 0 0 0.3 45 120 55 34 86 25 166 51 211 88 230 307 
327 0.11025521269915278 0.018758841940418592 0.8323111843871013 0 0 0 0.21 45 121 90 108 94 55 116 45 125 63 139 69 143 28 149 75 161 36 191 27 193 74 205 34 216 48 226 26 228 82 230 308 233 88 
328 0.11847355273939941 0.038882227358649143 0.8254325698518381 0 0 0 0.36 45 122 47 42 90 109 122 104 205 35 211 89 226 27 230 309 
329 0.11853925242103644 0.03881509948638508 0.8255362943717971 0 0 0 0.37 45 123 47 43 90 110 122 105 205 36 211 90 226 28 230 310 233 89 
330 -0.05693386376837513 0.10649802464862818 0.8442477088135696 0 0 0 0.09 45 124 122 106 230 311 
331 0.38923550054112005 0.1229336486560834 0.8465101631199851 0 0 0 0.3 45 125 90 111 161 37 205 37 230 312 
332 -0.06939807271379314 0.19484437794341 0.7681331286859208 0 0 0 0.18 45 126 55 35 143 29 230 313 
333 0.16204639940098792 0.2040323854163905 0.761341047075311 0 0 0 0.34 45 127 90 112 230 314 
334 0.0059185473377811795 -0.9842758330826267 1.2513993561719658 0 0 0 0.6 45 128 90 113 151 72 230 315 
335 0.08499565270768741 -0.9841839959671095 1.2482373459199543 0 0 0 0.48 45 129 139 70 230 316 
336 0.028597855920799237 -0.9239207807925491 1.2127939615244068 0 0 0 0.32 45 130 90 114 230 317 
337 0.007353640514385985 -0.6230248032978458 1.0966953446210588 0 0 0 0.36 45 131 139 71 151 73 212 32 230 318 
338 0.12970865315261948 -0.49598110787669186 1.0079774749537262 0 0 0 0.21 45 132 90 115 230 319 
339 -0.0021820410734600076 -0.3259954599068989 0.9586030545760996 0 0 0 0.45 45 133 122 107 139 72 149 76 230 320 
340 0.0324006130942212 -0.2997753844242158 0.95581205788562 0 0 0 0.09 45 134 59 29 230 321 
341 -0.01006417523504755 -0.21290889766504634 0.913966944798149 0 0 0 0.12 45 135 90 116 230 322 
342 -0.012345940246424027 -0.2038091519350674 0.9119208417991094 0 0 0 0.4 45 136 90 117 230 323 
343 0.10204157261837848 -0.173742201139994 0.9158075853146195 0 0 0 0.19 45 137 90 118 230 324 
344 0.550065361337002 -0.21706104687992678 0.9410003338286014 0 0 0 0.71 45 138 139 73 230 325 
345 -0.0836405288865853 -0.0676725408315597 0.90584885178576 0 0 0 0.4 45 139 125 64 139 74 161 38 211 91 230 326 
346 -0.04718825186854779 -0.07496587625551021 0.860210113328711 0 0 0 0.53 45 140 122 108 205 38 230 327 
347 0.08046024152681397 -0.06366910294217919 0.8657550426585985 0 0 0 0.19 45 141 90 119 94 56 122 109 125 65 139 75 228 83 230 328 
348 0.4838118336274196 -0.047350423160159985 0.9086461255244171 0 0 0 0.33 45 142 90 120 116 46 230 329 
349 0.331133879373592 0.0016542023119843863 0.8846975218314683 0 0 0 0.18 45 143 90 121 230 330 
350 0.5273235398082575 -0.0026392605880243506 0.8876715126201411 0 0 0 0.53 45 144 47 44 116 47 125 66 143 30 151 74 166 52 193 75 218 36 230 331 233 90 
351 0.12554633722883304 0.017543818856928482 0.8319846490972106 0 0 0 0.19 45 145 122 110 161 39 230 332 
352 0.004774691494163168 0.06390335434586936 0.8119709278859908 0 0 0 0.21 45 146 55 36 116 48 119 32 122 111 230 333 
353 -0.0720718516422501 0.07981482876507785 0.851772542090859 0 0 0 0.26 45 147 166 53 183 31 218 37 230 334 
354 0.22416825932288212 0.06822739442501805 0.8633311229437488 0 0 0 0.14 45 148 139 76 230 335 
355 -0.047084216124697424 0.12461080718605648 0.828162376914502 0 0 0 0.31 45 149 90 122 116 49 122 112 125 67 139 77 143 31 145 25 154 25 166 54 183 32 189 19 210 17 230 336 
356 -0.0015984014966645404 0.15134811990241664 0.7835161402300719 0 0 0 0.4 45 150 70 33 83 10 90 123 122 113 230 337 
357 0.09368025245190696 0.1587459964451747 0.794587834088159 0 0 0 0.18 45 151 90 124 230 338 
358 0.016356637588641115 0.17785711055724487 0.7757831358277174 0 0 0 0.21 45 152 59 30 116 50 119 33 154 26 177 30 191 28 211 92 212 33 216 49 218 38 228 84 233 91 
359 0.08800780879604048 -0.3388621901243614 0.967348279092072 0 0 0 0.28 45 153 90 125 94 57 116 51 145 26 191 29 193 76 211 93 230 339 
360 0.08774325962879018 -0.3390383589298712 0.9673569053407689 0 0 0 0.2 45 154 125 68 149 77 151 75 211 94 230 340 
361 0.026403169453259143 -0.2669049319819559 0.9477807542762332 0 0 0 0.12 45 155 122 114 230 341 
362 0.5869878762160268 -0.30512432719742727 1.1733692479062652 0 0 0 0.46 45 156 57 34 90 126 125 69 161 40 205 39 212 34 216 50 230 342 
363 0.009779152714500227 -0.08765613126798533 0.8765769483228728 0 0 0 0.21 45 157 90 127 230 343 
364 0.10663979938796157 -0.0819974695691278 0.8692467690362135 0 0 0 0.39 45 158 59 31 94 58 116 52 119 34 125 70 139 78 143 32 144 43 149 78 177 31 189 20 193 77 205 40 230 344 
365 0.549152744734704 -0.07311538750046097 0.8874582204226836 0 0 0 0.44 45 159 125 71 144 44 149 79 151 76 166 55 191 30 212 35 218 39 228 85 230 345 233 92 
366 0.2388840012322926 0.04917156135467955 0.8749728505427692 0 0 0 0.16 45 160 90 128 230 346 
367 0.12294535338144673 0.114505363350125 0.8006967421894804 0 0 0 0.36 45 161 151 77 189 21 192 14 195 30 205 41 212 36 230 347 
368 0.011110890074728092 0.15710646377486034 0.7878004709535945 0 0 0 0.49 45 162 90 129 145 27 192 15 195 31 230 348 
369 -0.03454406566989022 0.18012022214839915 0.7700169541560122 0 0 0 0.28 45 163 125 72 212 37 228 86 230 349 
370 0.07990036211152982 0.24541677198453138 0.7579387911938584 0 0 0 0.32 45 164 137 19 211 95 230 350 
371 -0.00015683712067908378 -0.8341040876762136 1.18960744225413 0 0 0 0.13 45 165 90 130 230 351 
372 0.001138180407387749 -0.8364565705614488 1.1936351429709127 0 0 0 0.5 45 166 90 131 139 79 230 352 
373 0.5636644791319146 -0.3590998650828418 1.0268298131329343 0 0 0 0.35 45 167 116 53 125 73 139 80 154 27 166 56 211 96 216 51 230 353 
374 0.5637632013372188 -0.3591676518287731 1.0269204036186907 0 0 0 0.31 45 168 116 54 125 74 151 78 154 28 166 57 211 97 216 52 230 354 
375 0.5859328830451012 -0.31955139084513284 1.1357106546413034 0 0 0 0.27 45 169 90 132 230 355 
376 -0.2958483209920886 -0.04808728331553477 0.900414500182186 0 0 0 0.25 45 170 90 133 230 356 
377 -0.14778724554030562 -0.05372317583184692 0.8992844409147688 0 0 0 0.41 45 171 90 134 230 357 
378 -0.19326160347824634 -0.04280728145831679 0.8936447455853211 0 0 0 0.37 45 172 90 135 119 35 230 358 
379 0.07989880959264709 -0.03190212544090515 0.8547417675045662 0 0 0 0.19 45 173 90 136 230 359 
380 -0.06962291886254084 0.20212428562801898 0.764435909640812 0 0 0 0.29 45 174 55 37 230 360 
381 0.0175062173683943 -0.9118555905984006 1.2063283205657778 0 0 0 0.55 45 175 90 137 230 361 
382 -0.006172976721967454 -0.7710284165874399 1.1748618284891532 0 0 0 0.25 45 176 90 138 230 362 
383 0.5677089496952247 -0.32134252744176306 0.9812376874801707 0 0 0 0.67 45 177 59 32 139 81 212 38 230 363 
384 -0.4036759776416208 -0.04691770247677019 0.8963464753763359 0 0 0 0.5 45 178 90 139 191 31 230 364 
385 0.2038026125691786 -0.05650164756941288 0.8962891790865393 0 0 0 0.31 45 179 90 140 230 365 
386 0.528867512280493 -0.060499642812357125 0.9093701254135298 0 0 0 0.42 45 180 47 45 57 35 59 33 125 75 151 79 193 78 211 98 212 39 228 87 230 366 
387 -0.05594620699206044 0.2095639478763896 0.7600954702210133 0 0 0 0.55 45 181 55 38 230 367 
388 -0.000474829760683327 -0.3341211940432193 0.9636138704316988 0 0 0 0.28 45 182 90 141 151 80 205 42 230 368 
389 0.5724694361382467 -0.2634172911031446 1.0697188701864693 0 0 0 0.31 45 183 90 142 230 369 
390 0.5762996897142786 -0.264301890642404 1.074485684096323 0 0 0 0.47 45 184 90 143 139 82 230 370 
391 0.10629793501966993 -0.006871863087225218 0.8430631860725151 0 0 0 0.57 45 185 47 46 59 34 139 83 211 99 216 53 230 371 
392 0.426311653152408 0.007128497492192368 0.883549237577767 0 0 0 0.42 45 186 90 144 139 84 143 33 189 22 193 79 211 100 230 372 
393 -0.0582835314115964 -0.7319924828538442 1.2130030326754686 0 0 0 0.96 45 187 90 145 195 32 230 373 
394 -0.030550092088080325 -0.780755779939262 1.18986321374522 0 0 0 0.59 45 188 90 146 230 374 
395 0.01702025114848751 -0.1705084736526014 0.9020544373769519 0 0 0 0.58 45 189 195 33 230 375 
396 -0.020136942426486667 -0.09175459524849354 0.8747824727682368 0 0 0 0.35 45 190 137 20 139 85 161 41 230 376 
397 0.08954130418176591 0.14931688345087288 0.7976842347024711 0 0 0 1.38 45 191 90 147 122 115 139 86 144 45 230 377 
398 0.5674223040916054 -0.28612009688315854 0.9992401903333957 0 0 0 0.46 45 192 122 116 230 378 
399 0.019667655283084777 -0.33650342288759666 0.9643742527377048 0 0 0 0.32 46 36 94 59 161 42 230 379 
400 -0.05322281237651231 -0.2102823526556648 0.9154619804448838 0 0 0 0.23 46 37 122 117 228 88 230 380 
401 -0.05300737928077846 -0.21038401947529195 0.9155425957616048 0 0 0 0.15 46 38 94 60 230 381 
402 0.5426262099204283 -0.16093814909533044 0.9397235207953724 0 0 0 0.26 46 39 90 148 94 61 125 76 140 63 149 80 193 80 230 382 
403 0.5649190695758153 -0.15477981808934543 0.9241237644439375 0 0 0 0.41 46 40 47 47 94 62 122 118 125 77 139 87 149 81 151 81 166 58 193 81 228 89 230 383 233 93 
404 0.41552538344240525 0.09629555375246633 0.8531506932138249 0 0 0 0.33 46 41 116 55 125 78 140 64 149 82 151 82 154 29 166 59 230 384 
405 0.13628825016118204 0.12430406880471806 0.7980410829074259 0 0 0 0.13 46 42 116 56 154 30 193 82 216 54 228 90 
406 0.07150873112218625 0.18240206727312597 0.763998808454143 0 0 0 0.28 46 43 211 101 228 91 
407 0.011847976846617309 -1.0002274145051924 1.2529208230840438 0 0 0 0.65 46 44 90 149 230 385 
408 0.08959300352705714 -0.9793450458942202 1.245213558471508 0 0 0 0.51 46 45 90 150 211 102 230 386 
409 0.09314326413741074 -0.9405495609485962 1.225944550240452 0 0 0 0.2 46 46 86 26 94 63 139 88 149 83 166 60 205 43 211 103 218 40 226 29 230 387 
410 -0.0024866227770463704 -0.3478630466891437 0.9643969327798801 0 0 0 0.33 46 47 55 39 94 64 149 84 183 33 230 388 
411 -0.1078619088701165 -0.25264848146542385 1.1229525871813988 0 0 0 0.47 46 48 119 36 183 34 202 22 211 104 230 389 
412 0.43049470157273234 -0.2730713945445466 1.1445227353469845 0 0 0 0.26 46 49 122 119 125 79 151 83 228 92 230 390 233 94 
413 -0.09821123952406706 -0.05561536312271257 0.9021209078196187 0 0 0 0.33 46 50 125 80 205 44 230 391 
414 0.24353446430638495 -0.04799861229134897 0.9068254484190575 0 0 0 0.4 46 51 90 151 230 392 
415 0.2755924935005714 0.02829640217569818 0.8746930972273143 0 0 0 0.09 46 52 216 55 228 93 230 393 
416 0.12451317517781423 0.14514052441475597 0.7891651649439859 0 0 0 0.43 46 53 122 120 125 81 139 89 230 394 233 95 
417 0.033641082099499085 -0.26843769222255587 0.9433820056878545 0 0 0 0.34 46 54 59 35 119 37 125 82 144 46 161 43 166 61 202 23 212 40 228 94 230 395 
418 -0.1962390127882267 -0.01594193362898722 0.89117292103018 0 0 0 0.4 46 55 183 35 230 396 
419 0.03609706643896317 -0.33595569897321764 0.9648072126126319 0 0 0 0.21 47 48 149 85 230 397 
420 0.5547243406830376 -0.3554905290346891 1.0236646130255667 0 0 0 0.8 47 49 90 152 94 65 230 398 233 96 
421 0.5500786626614806 -0.35422788941414374 1.0181940512379153 0 0 0 0.8 47 50 90 153 230 399 233 97 
422 0.030414004829367867 -0.24012149413746972 0.9329647225800592 0 0 0 0.5 47 51 140 65 177 32 193 83 218 41 228 95 230 400 
423 -0.043661515725166904 -0.21261723414964545 0.9070222770845617 0 0 0 0.29 47 52 116 57 122 121 149 86 154 31 193 84 216 56 228 96 230 401 
424 0.09079641336837281 -0.07416522865433489 0.8700112774980738 0 0 0 0.5 47 53 140 66 230 402 233 98 
425 0.5665608534958124 -0.14681917706455402 0.9222932465726249 0 0 0 0.54 47 54 122 122 125 83 140 67 149 87 151 84 228 97 230 403 233 99 
426 0.5664449631850765 -0.14679940008425618 0.9221500874055067 0 0 0 0.59 47 55 122 123 125 84 149 88 193 85 228 98 230 404 233 100 
427 0.1019101004535683 -0.055013889330577506 0.8633714264412892 0 0 0 0.35 47 56 94 66 122 124 140 68 183 36 193 86 230 405 
428 0.5323426221700928 -0.10515422745539069 0.9116008558663302 0 0 0 0.53 47 57 125 85 140 69 228 99 230 406 
429 0.025791054835529723 -0.031127685868761502 0.8602117065558144 0 0 0 0.56 47 58 161 44 230 407 
430 0.5275193998271074 -0.07526060008255411 0.9148894617763073 0 0 0 0.15 47 59 122 125 230 408 
431 0.33701328945339615 -0.039683291635378086 0.9097149030908895 0 0 0 1.01 47 60 151 85 230 409 
432 0.11830362753023997 0.044883986171781916 0.8233269690620185 0 0 0 0.37 47 61 122 126 125 86 149 89 211 105 226 30 228 100 230 410 233 101 
433 0.43184743216620847 0.0304325494324439 0.8764503547000232 0 0 0 0.79 47 62 90 154 230 411 
434 0.132263256316276 0.06448518756871724 0.8089625754033244 0 0 0 0.49 47 63 122 127 140 70 149 90 230 412 
435 0.1039357133272594 0.09604267723107691 0.8018520722868785 0 0 0 0.36 47 64 216 57 228 101 
436 -0.014949074641687652 -0.3312148394090874 0.9598848069656449 0 0 0 0.41 47 65 94 67 116 58 122 128 125 87 149 91 151 86 177 33 193 87 230 413 
437 0.09424292388363124 -0.28184318269785746 0.9508796396913011 0 0 0 0.31 47 66 205 45 228 102 230 414 
438 0.0941180718061082 -0.2443885133108405 0.9362661508444973 0 0 0 0.25 47 67 90 155 193 88 230 415 
439 0.5600073759949922 -0.178453807957452 0.920746468959981 0 0 0 1.15 47 68 228 103 230 416 
440 0.5340481831974169 -0.05959233011983019 0.9007422113419298 0 0 0 0.3 47 69 86 27 94 68 122 129 149 92 151 87 211 106 230 417 233 102 
441 0.37703667603418667 -0.0003724280609167161 0.891149972219026 0 0 0 0.91 47 70 177 34 230 418 
442 0.4359547849352771 0.085583535273119 0.8539043044270438 0 0 0 0.27 94 69 143 34 189 23 211 107 212 41 228 104 
443 0.02517589411205146 -0.3746330905910077 0.9696357796801174 0 0 0 0.47 47 71 149 93 230 419 
444 0.10279941905939118 -0.27917454549176257 0.9408386258166969 0 0 0 0.28 47 72 55 40 161 45 230 420 
445 0.2820697815320833 -0.05060513621574118 0.8997160461009268 0 0 0 0.62 47 73 145 28 151 88 183 37 205 46 230 421 
446 0.4887067870408159 -0.06394103874178356 0.9153283568931325 0 0 0 0.29 47 74 125 88 139 90 230 422 
447 0.0316657636164532 -0.37417928617619756 0.963478900024063 0 0 0 0.42 47 75 59 36 90 156 144 47 161 46 202 24 230 423 
448 0.5365284351964024 -0.15938326155441873 0.9511716242209999 0 0 0 0.43 47 76 90 157 125 89 144 48 151 89 212 42 216 58 230 424 
449 0.12546294393802923 -0.07443515848240095 0.8618047680156135 0 0 0 0.45 47 77 161 47 205 47 230 425 
450 0.369709996686076 -0.06175487778530676 0.9132129511965487 0 0 0 0.35 47 78 139 91 151 90 189 24 191 32 211 108 228 105 230 426 
451 0.025413216227427662 -0.366148470958719 0.9678329435413022 0 0 0 0.44 47 79 144 49 149 94 151 91 166 62 177 35 230 427 
452 0.08421645490091031 -0.04794247187271321 0.8591957498931632 0 0 0 0.26 47 80 139 92 177 36 211 109 230 428 
453 0.3869570766249737 -0.11875634515260095 0.9680736492671128 0 0 0 0.76 57 36 125 90 144 50 145 29 166 63 202 25 218 42 228 106 230 429 
454 0.016901434237672784 -0.308935838601534 0.960877707189039 0 0 0 0.45 47 81 139 93 230 430 
455 0.12695344995142255 -0.6434247830199346 1.0866537664497489 0 0 0 0.17 55 41 116 59 216 59 230 431 
456 0.5135840408076463 -0.015752602258206013 0.8967517176703528 0 0 0 0.13 55 42 140 71 193 89 218 43 230 432 233 103 
457 0.3725903617014656 0.11079063364772175 0.8487463083145543 0 0 0 0.35 55 43 140 72 143 35 145 30 166 64 177 37 193 90 216 60 218 44 228 107 230 433 233 104 
458 0.1068046596345055 -0.08259912775848481 0.8698616732009493 0 0 0 0.14 55 44 137 21 143 36 145 31 226 31 230 434 
459 -0.10288810354732879 0.046589856651388734 0.8656604109521845 0 0 0 0.33 55 45 94 70 119 38 149 95 193 91 230 435 
460 -0.1602339081669697 0.06762831820559392 0.8494404748383203 0 0 0 0.25 55 46 125 91 140 73 144 51 193 92 226 32 230 436 
461 0.07502031590857863 0.17047588591885474 0.7784935669111702 0 0 0 0.12 55 47 137 22 228 108 230 437 233 105 
462 0.10508596869216395 0.15296133449346858 0.7835363499195032 0 0 0 0.36 55 48 59 37 90 158 119 39 125 92 139 94 143 37 144 52 149 96 151 92 166 65 212 43 218 45 228 109 230 438 233 106 
463 -0.035618216370935 0.17019897393903805 0.7764676218348483 0 0 0 0.32 55 49 145 32 230 439 
464 0.08436471652629654 0.17645571848461097 0.761747701541765 0 0 0 0.16 55 50 119 40 183 38 
465 0.08616582368355653 0.2150070235977182 0.7457364840209012 0 0 0 0.27 55 51 59 38 137 23 144 53 151 93 216 61 
466 0.07080775355875185 0.1835176487901512 0.7713334922790194 0 0 0 0.59 55 52 57 37 59 39 90 159 144 54 145 33 193 93 228 110 230 440 
467 0.5821764147957822 -0.18624539653353245 0.9526603189855178 0 0 0 0.98 55 53 86 28 94 71 125 93 144 55 149 97 166 66 211 110 212 44 230 441 233 107 
468 -0.04649301152861409 0.07189613137464533 0.8054467268345846 0 0 0 0.24 57 38 90 160 94 72 125 94 145 34 161 48 211 111 216 62 226 33 228 111 230 442 
469 -0.2361648635387704 -0.053125297526185215 0.9016691904593889 0 0 0 0.31 57 39 116 60 119 41 125 95 139 95 145 35 149 98 183 39 189 25 191 33 212 45 230 443 
470 -0.18998065122270405 0.08012260952643717 0.8496325720290934 0 0 0 0.15 57 40 94 73 183 40 189 26 230 444 
471 -0.0031493909914107315 0.07071272767029335 0.8103230175539912 0 0 0 0.12 57 41 94 74 116 61 139 96 189 27 
472 -0.4684342611454644 -0.23678087814634752 1.0852342267346753 0 0 0 0.48 57 42 59 40 183 41 230 445 
473 -0.06323067072535232 0.04535707948727563 0.8757440186469586 0 0 0 0.09 57 43 137 24 205 48 230 446 
474 -0.024983991299304315 0.16301102022487227 0.7763225072960136 0 0 0 0.44 57 44 137 25 139 97 144 56 183 42 202 26 212 46 
475 -0.026159953955411583 0.1787063859674035 0.7694600697537374 0 0 0 0.29 57 45 59 41 90 161 116 62 137 26 143 38 144 57 145 36 212 47 228 112 230 447 
476 -0.04654750222163912 0.13167609455859355 0.8260015192406104 0 0 0 0.33 57 46 139 98 205 49 230 448 
477 -0.07472724758457265 -0.03371571226239945 0.8956879983203826 0 0 0 0.52 57 47 122 130 139 99 211 112 230 449 
478 0.28292519766562807 0.04291513171048289 0.8685213007570485 0 0 0 0.34 57 48 116 63 139 100 228 113 230 450 
479 0.28682032939512814 0.10089083689741361 0.8485753550560183 0 0 0 0.54 57 49 83 11 122 131 230 451 
480 0.25575430569881435 0.07053380662607008 0.8626943181196968 0 0 0 0.11 59 42 122 132 139 101 230 452 
481 0.24613205857633275 0.07652948830414684 0.8619599551343836 0 0 0 0.26 59 43 139 102 151 94 191 34 202 27 211 113 230 453 
482 0.27505996734780275 0.1574588340562413 0.836222223549662 0 0 0 0.36 59 44 119 42 125 96 139 103 212 48 230 454 
483 0.15126824237777067 0.20410946969034302 0.7840631740253757 0 0 0 0.15 59 45 151 95 193 94 212 49 228 114 
484 0.050688179430278854 0.1611832348209986 0.7797432601160678 0 0 0 0.18 59 46 137 27 139 104 144 58 145 37 151 96 230 455 
485 -0.14846813677655038 0.11919527710579769 0.8244885755957615 0 0 0 0.11 70 34 122 133 230 456 
486 -0.036584999355507165 -0.2774818598352858 0.942759243966601 0 0 0 1.68 70 35 149 99 230 457 
487 0.10398992103452653 -0.01736670448891581 0.8463370545093855 0 0 0 0.42 70 36 122 134 154 32 205 50 211 114 216 63 228 115 230 458 233 108 
488 -0.09683596285443656 0.043495971646157976 0.8655778865019644 0 0 0 0.22 70 37 122 135 230 459 
489 -0.44241520606716384 -0.061683303538918724 0.893665345697223 0 0 0 0.4 70 38 94 75 191 35 230 460 
490 -0.09587231070953844 0.15275723939959746 0.8271641879810578 0 0 0 0.23 70 39 116 64 161 49 211 115 230 461 
491 -0.035319716732998656 -0.03568568122788741 0.8385419217782267 0 0 0 0.1 70 40 161 50 230 462 
492 -0.027491277247693034 0.0980031292606758 0.7923836473145419 0 0 0 0.29 70 41 122 136 205 51 230 463 
493 -0.10361451874940365 -0.068039777245691 0.9033631488062928 0 0 0 0.49 70 42 90 162 230 464 
494 -0.08920911512560452 -0.059962158485409464 0.9021854317729279 0 0 0 0.22 70 43 119 43 139 105 149 100 161 51 195 34 205 52 216 64 230 465 
495 -0.19562045015417118 -0.06058789402675581 0.8985583497801625 0 0 0 0.15 70 44 139 106 230 466 
496 -0.09741459315371419 0.043185258586609696 0.8690383819980996 0 0 0 0.51 70 45 139 107 195 35 230 467 
497 -0.10063234091369444 -0.044347973500397646 0.8917829421032117 0 0 0 0.95 70 46 205 53 230 468 
498 -0.10052966390036593 0.0952224627493237 0.8325367764229885 0 0 0 0.86 70 47 125 97 140 74 144 59 149 101 151 97 177 38 192 16 193 95 211 116 216 65 228 116 230 469 
499 0.006338239953702884 0.16590135064324396 0.7781655191201116 0 0 0 0.45 83 12 154 33 195 36 216 66 
500 0.5729732671991917 -0.36262266076354605 1.028340318890939 0 0 0 0.69 83 13 122 137 230 470 
501 -0.12054082481043135 0.0799271672840534 0.8518287149820647 0 0 0 0.3 83 14 195 37 230 471 
502 0.1628596301942013 0.19532061121286892 0.7653111965432083 0 0 0 0.23 116 65 143 39 144 60 151 98 193 96 218 46 
503 0.020512715116520117 0.17087725006909296 0.7796299413179814 0 0 0 0.37 83 15 90 163 137 28 139 108 151 99 166 67 183 43 191 36 193 97 211 117 216 67 228 117 230 472 
504 0.28677166536991444 0.1005190451012809 0.8484102996444721 0 0 0 0.55 83 16 125 98 230 473 
505 0.2609184670373223 0.14127703390887475 0.8377801787269645 0 0 0 0.1 83 17 90 164 230 474 
506 0.05325368057099806 0.12458219749028483 0.7918275457092381 0 0 0 0.3 83 18 192 17 230 475 
507 0.09740973375232449 -0.9004424081370128 1.2077639225340648 0 0 0 0.24 86 29 205 54 230 476 
508 0.036490818218420276 -0.37789074890394797 0.958489262947269 0 0 0 0.26 86 30 90 165 140 75 193 98 230 477 
509 0.5111133735376154 0.008379727594951052 0.893823177104063 0 0 0 0.19 86 31 94 76 166 68 211 118 230 478 233 109 
510 0.5905897457420063 -0.2537647146768429 1.0974364865537651 0 0 0 0.58 86 32 90 166 125 99 139 109 205 55 212 50 230 479 
511 0.5854438397051874 -0.2693264561042478 1.1302426716335423 0 0 0 0.46 86 33 94 77 122 138 166 69 230 480 233 110 
512 0.10120539334972077 -0.34020762146754513 0.9645851774855255 0 0 0 0.39 90 167 116 66 140 76 149 102 183 44 216 68 230 481 
513 -0.05335354001333066 -0.31274633101920707 0.9516932112288568 0 0 0 0.28 90 168 125 100 230 482 
514 -0.05703773553421925 -0.28168299619036646 1.1429792646751786 0 0 0 0.4 90 169 161 52 205 56 230 483 
515 0.5663660820853051 -0.3662152631736587 1.0239928275433199 0 0 0 0.26 90 170 149 103 193 99 230 484 
516 -0.008557354002969645 -0.27337986979292156 0.9377739234738205 0 0 0 0.25 90 171 122 139 230 485 
517 0.09431053878994046 -0.25072336221967745 0.9385858083416954 0 0 0 0.2 90 172 94 78 151 100 205 57 230 486 
518 0.5268852372103683 -0.09134383454426923 0.9143070799535561 0 0 0 0.21 90 173 140 77 193 100 230 487 
519 0.5268686896197251 -0.08013018727949549 0.9095837255484003 0 0 0 0.2 90 174 94 79 122 140 149 104 230 488 
520 -0.012975267070583598 -0.18807370254859226 0.9057609451203654 0 0 0 0.38 90 175 94 80 116 67 122 141 125 101 211 119 228 118 230 489 
521 0.03333732584550538 -0.09001305945774297 0.8774436071072074 0 0 0 0.37 90 176 125 102 143 40 166 70 230 490 
522 -0.12691597081050165 -0.025783045035741234 0.8966757006980788 0 0 0 0.08 90 177 122 142 230 491 
523 0.12985804923305916 -0.0271370005219836 0.8428489330189088 0 0 0 0.1 90 178 125 103 140 78 230 492 
524 0.1265530481297225 -0.0223791337304582 0.8428103957381019 0 0 0 0.14 90 179 149 105 205 58 230 493 
525 0.2340373090824427 0.07295550783359099 0.8616673711258338 0 0 0 0.21 90 180 94 81 119 44 122 143 125 104 143 41 202 28 211 120 230 494 233 111 
526 0.23390471778740649 0.07297853210267274 0.861503320244469 0 0 0 0.22 90 181 94 82 122 144 125 105 202 29 211 121 230 495 233 112 
527 -0.189975078532941 0.11317199768954936 0.8361039062041797 0 0 0 0.12 90 182 139 110 230 496 
528 0.014684702983794689 -0.8058937053839994 1.1787364027778886 0 0 0 0.15 90 183 139 111 230 497 
529 -0.2095417916302064 -0.06898974755307036 0.9049421629399389 0 0 0 0.61 90 184 122 145 230 498 
530 0.541132819320798 -0.1122111451407529 0.9458364430543084 0 0 0 0.23 90 185 137 29 211 122 230 499 
531 -0.16207186288661793 -0.043867490012999846 0.8991932733621985 0 0 0 0.3 90 186 122 146 230 500 
532 0.32432178224189834 0.10440923124591629 0.8557030030060832 0 0 0 0.16 90 187 230 501 233 113 
533 0.20306033345952926 0.14991936486879545 0.8317593378294325 0 0 0 0.31 90 188 230 502 233 114 
534 0.02590711728571514 -0.24175731617304946 0.9373886681237327 0 0 0 0.7 90 189 122 147 230 503 
535 -0.07370414492726446 -0.02461259686825005 0.8974500090454948 0 0 0 0.17 90 190 122 148 230 504 
536 -0.04681306647825185 0.01668820429195246 0.827926490267381 0 0 0 0.27 90 191 122 149 161 53 205 59 216 69 230 505 
537 0.08751241529072559 0.07387035784621186 0.8143870442516711 0 0 0 0.39 90 192 161 54 230 506 
538 -0.13412129536890421 0.1012741106428687 0.8415600076900291 0 0 0 0.4 90 193 122 150 230 507 
539 -0.044653762778648375 0.147498990174737 0.8224032762518011 0 0 0 0.23 90 194 116 68 230 508 
540 -0.034559577666596106 0.18007248807945805 0.7700823860448593 0 0 0 0.25 90 195 125 106 228 119 230 509 
541 0.0291310077284659 0.15923399912842343 0.7910296712994506 0 0 0 0.47 90 196 122 151 183 45 211 123 230 510 
542 0.42294790188606196 0.041097984692055625 0.8696661980302508 0 0 0 0.04 90 197 230 511 233 115 
543 0.008091087813636818 0.2224246421709158 0.763691208481637 0 0 0 0.48 90 198 116 69 230 512 
544 0.2815434062520395 0.005116509112827185 0.8805414306761896 0 0 0 0.39 90 199 161 55 230 513 
545 0.026016732681698525 -0.6061505336281027 1.0901736006630378 0 0 0 0.26 94 83 149 106 230 514 
546 -0.046571712470158975 -0.10072489420660959 0.8709914813084201 0 0 0 0.15 94 84 230 515 233 116 
547 -0.06547605884153954 -0.052689562062789914 0.9067025713736747 0 0 0 0.28 94 85 122 152 228 120 230 516 
548 0.01832682090694829 -0.06063138737059692 0.8621375394986918 0 0 0 0.29 94 86 122 153 230 517 
549 0.4213341070902284 -0.05362867577653238 0.9013080164272079 0 0 0 0.21 94 87 149 107 230 518 
550 -0.043533273273607294 -0.2127486082413944 0.9069090024929015 0 0 0 0.2 94 88 122 154 140 79 145 38 151 101 154 34 193 101 228 121 230 519 
551 0.5501497977104952 -0.17718791880315715 0.9342873410913692 0 0 0 0.19 94 89 149 108 230 520 
552 0.22913834888915688 -0.05282859400891523 0.9096541538520557 0 0 0 0.27 94 90 149 109 193 102 211 124 230 521 
553 0.5520167563679329 -0.0671772215373935 0.8785714758266361 0 0 0 0.26 94 91 140 80 216 70 230 522 
554 0.042084945997436424 -0.023198177644008798 0.839251940068655 0 0 0 0.15 94 92 149 110 154 35 228 122 230 523 
555 0.5350219322302313 -0.05947192037930287 0.9017405317823699 0 0 0 0.12 94 93 211 125 230 524 
556 0.02254684101177189 -0.20700236576510853 0.9149993725202648 0 0 0 0.31 94 94 140 81 149 111 205 60 230 525 
557 0.27657116855041286 -0.05569577286021954 0.9067932966572395 0 0 0 0.29 94 95 161 56 228 123 230 526 
558 0.5430764516586833 -0.08713786917919837 0.8902337684846078 0 0 0 0.24 94 96 125 107 166 71 210 18 230 527 
559 0.5498623382055101 -0.06090958226433579 0.8821860065521965 0 0 0 0.24 94 97 149 112 166 72 216 71 230 528 
560 0.5501523509948084 -0.06087968789532035 0.8825962451222019 0 0 0 0.2 94 98 125 108 140 82 151 102 166 73 177 39 211 126 218 47 228 124 230 529 233 117 
561 0.4191602559025416 -0.00974227358262028 0.8892682742169127 0 0 0 0.3 94 99 125 109 139 112 154 36 211 127 228 125 230 530 233 118 
562 0.5390117582699653 -0.020331947780485204 0.8777875904743325 0 0 0 0.17 94 100 211 128 218 48 230 531 
563 -0.18064711090904043 -0.057766222649160044 0.9031289577857365 0 0 0 0.24 94 101 149 113 151 103 228 126 230 532 
564 -0.0186992757651795 -0.8484655348002773 1.2046292998879224 0 0 0 0.46 116 70 149 114 230 533 
565 0.02367572095323598 -0.579650559001829 1.0809415178292556 0 0 0 0.14 116 71 149 115 193 103 230 534 
566 0.47443521161186414 0.04929556093516078 0.8707123804988139 0 0 0 0.27 116 72 122 155 230 535 
567 0.006780381805657104 0.08379360273785418 0.8033179072482047 0 0 0 0.33 116 73 122 156 230 536 
568 0.4183324153949135 -0.1683089886612234 1.0289691988930783 0 0 0 0.16 116 74 228 127 230 537 
569 -0.051617854996644674 0.2047590385366016 0.7626735131463785 0 0 0 0.14 116 75 211 129 230 538 
570 0.5634740265139987 -0.3708688748872117 1.031393745723509 0 0 0 0.15 116 76 125 110 230 539 
571 0.5634740265139987 -0.3708688748872117 1.031393745723509 0 0 0 0.15 116 77 125 111 230 540 
572 -0.039719409264019435 0.10685398178729706 0.7924039364532446 0 0 0 0.54 116 78 122 157 149 116 183 46 202 30 211 130 230 541 233 119 
573 0.23647286381470053 0.19239571795082847 0.7724538693235473 0 0 0 0.38 116 79 139 113 230 542 
574 0.037211779915888824 0.19964232075695895 0.7656728667446515 0 0 0 0.49 116 80 183 47 195 38 202 31 
575 -0.0736472782665596 -0.06749400406783138 0.9081634606555322 0 0 0 0.14 119 45 216 72 230 543 
576 0.1024672951572486 0.0599615642304704 0.8178828198411989 0 0 0 0.34 119 46 154 37 177 40 205 61 230 544 
577 0.3276237497568608 0.09521191312588476 0.8551212982937043 0 0 0 0.23 119 47 211 131 230 545 
578 0.2734128335619828 0.1723388432598513 0.8301264099508187 0 0 0 0.24 119 48 143 42 230 546 
579 0.0952137065172837 0.21834656830622434 0.7526067128587325 0 0 0 0.12 119 49 211 132 230 547 
580 0.28376717550878366 0.1760772230245453 0.8228056386246462 0 0 0 0.58 119 50 192 18 230 548 
581 0.036536216900617334 -0.620344154474414 1.0638173888263551 0 0 0 0.32 122 158 161 57 216 73 230 549 
582 0.5660584354057707 -0.3541366210563704 1.015818909965873 0 0 0 0.29 122 159 192 19 211 133 230 550 
583 0.42325169166639703 -0.27842816820448 1.1450398288194426 0 0 0 0.28 122 160 230 551 233 120 
584 0.2791495449678348 -0.061323565755587964 0.9076081185463315 0 0 0 0.11 122 161 149 117 210 19 230 552 233 121 
585 -0.057114281661828185 -0.46218250456888726 1.0072634498866877 0 0 0 0.17 122 162 149 118 230 553 
586 0.12521464638928895 -0.14525640569459655 0.8940260015403562 0 0 0 0.2 122 163 228 128 230 554 
587 0.10444980868363782 -0.0796065693010381 0.8676022306734803 0 0 0 0.45 122 164 161 58 216 74 230 555 233 122 
588 0.05918332456110501 -0.006084856933222245 0.8298969478244064 0 0 0 0.07 122 165 230 556 233 123 
589 -0.04397200216846423 0.04744792773400052 0.8121115741541801 0 0 0 0.34 122 166 149 119 230 557 
590 0.13163883298522416 0.0444737691516194 0.8172401836316547 0 0 0 0.16 122 167 230 558 233 124 
591 0.03725315610437031 -0.036929327919223334 0.8451267358411713 0 0 0 0.33 122 168 205 62 230 559 
592 0.5528650652822679 -0.13480951946490158 0.9201752867591311 0 0 0 0.31 122 169 149 120 211 134 230 560 
593 -0.15859463251971784 0.05494997105387768 0.8593552324242308 0 0 0 0.46 122 170 149 121 230 561 
594 0.0424235554589717 0.022164115365223065 0.8252179749552804 0 0 0 0.08 122 171 230 562 233 125 
595 0.10474482740100648 0.02885068283301224 0.8289157946864874 0 0 0 0.45 122 172 154 38 192 20 230 563 
596 -0.013634004482515283 0.057468546790239224 0.8117316070879093 0 0 0 0.24 122 173 149 122 230 564 
597 0.12867860325236763 0.0632810596196482 0.811745324404425 0 0 0 0.22 122 174 230 565 233 126 
598 -0.14837043392942592 0.11929328743529098 0.8248146283014932 0 0 0 0.23 122 175 230 566 233 127 
599 -0.12375694124675475 0.06315328241419532 0.8562156230028092 0 0 0 0.22 122 176 230 567 233 128 
600 -0.036087218591145706 0.08199297628474049 0.7978299250413851 0 0 0 0.29 122 177 216 75 230 568 233 129 
601 -0.050430326751198094 0.08904470540233776 0.8054446932496904 0 0 0 0.24 122 178 145 39 177 41 205 63 226 34 228 129 230 569 
602 0.036096228878025494 0.15515860762290654 0.7767529875692907 0 0 0 0.25 193 104 211 135 228 130 233 130 
603 -0.1342303719163103 -0.06788586322640447 0.903589828729516 0 0 0 0.34 122 179 139 114 230 570 
604 -0.09625933926245556 0.03392148635863167 0.8706282427515911 0 0 0 0.42 122 180 149 123 230 571 
605 0.3967838966485617 -0.03466149434396067 0.9015970932485137 0 0 0 0.27 122 181 149 124 212 51 230 572 
606 -0.1449176870204085 0.07646109395879938 0.8413734431268406 0 0 0 0.24 122 182 230 573 233 131 
607 -0.0923530955078217 0.19409920872365202 0.7755190232676428 0 0 0 0.14 125 112 211 136 228 131 
608 0.03958263086891417 0.024206539643576892 0.8288818302615688 0 0 0 0.11 122 183 151 104 230 574 
609 -0.09533262021217352 0.12038777837384505 0.8365496558625706 0 0 0 0.15 122 184 125 113 177 42 183 48 230 575 
610 -0.11445623579239203 -0.006830052966757339 0.8900166233779452 0 0 0 0.57 122 185 195 39 230 576 
611 -0.002640630318651388 0.07994132557244704 0.8091828042072937 0 0 0 0.37 122 186 139 115 230 577 
612 0.09571237842495017 -0.3387542347546522 0.9670175803532021 0 0 0 0.78 122 187 143 43 189 28 218 49 230 578 
613 0.5388357416819177 -0.08370854321300242 0.8996425881460043 0 0 0 0.16 125 114 211 137 228 132 230 579 
614 0.5394133132094782 -0.08372684017459094 0.9003105046600743 0 0 0 0.16 125 115 211 138 230 580 
615 0.5456726651088406 -0.04559059848501977 0.8820519117917348 0 0 0 0.1 125 116 211 139 230 581 233 132 
616 0.11602686214784017 0.012262393866222666 0.8358116039664596 0 0 0 0.24 125 117 193 105 205 64 226 35 230 582 
617 0.5577299007889374 -0.3166377738241105 1.0073364445457638 0 0 0 0.34 125 118 149 125 230 583 
618 0.5611235785073864 -0.07602915884683992 0.8794984255915687 0 0 0 0.24 125 119 137 30 211 140 230 584 
619 -0.18345308834727145 0.08749446668766184 0.8475390651275224 0 0 0 0.36 125 120 144 61 177 43 189 29 191 37 193 106 205 65 230 585 233 133 
620 0.42858819119662955 0.07090504251860041 0.857777865946057 0 0 0 0.4 125 121 144 62 193 107 211 141 230 586 
621 0.5537514096020784 -0.03657737739585896 0.8669254295903629 0 0 0 0.26 125 122 211 142 230 587 
622 -0.028814623122877508 0.21853270834502406 0.751804460236206 0 0 0 0.44 144 63 230 588 233 134 
623 0.2367542727176731 0.1719709048087662 0.8306229763636374 0 0 0 0.5 145 40 183 49 230 589 233 135 
624 0.15000036664216473 -0.3388847565774866 0.9649709627498011 0 0 0 0.42 137 31 140 83 230 590 
625 0.5716576738291502 -0.3038631760588056 0.9715130564563845 0 0 0 0.14 137 32 230 591 233 136 
626 -0.04668127759557218 -0.11213899088062165 0.8750180888845387 0 0 0 0.3 137 33 139 116 205 66 230 592 
627 -0.08962345574478985 -0.06008411949274217 0.90149589101975 0 0 0 0.23 137 34 139 117 154 39 161 59 183 50 205 67 230 593 
628 -0.019587686142431088 0.1642949806754368 0.7817833514138863 0 0 0 0.29 137 35 139 118 151 105 
629 0.10861050425158777 0.19869764534789072 0.7645033089155832 0 0 0 0.45 137 36 139 119 211 143 230 594 
630 -0.2547715201162687 0.0872602785597719 0.8376608044111963 0 0 0 0.39 137 37 139 120 183 51 210 20 226 36 230 595 
631 -0.02052798240967044 -0.8657508426696717 1.1979614569236183 0 0 0 0.23 139 121 151 106 205 68 230 596 
632 0.020962557270520987 -0.8231456157528765 1.172042370896583 0 0 0 0.77 139 122 149 126 166 74 205 69 211 144 226 37 230 597 
633 -0.1582981090295704 -0.052693798870501025 0.8997077022499859 0 0 0 0.31 139 123 211 145 230 598 
634 -0.1582981090295704 -0.052693798870501025 0.8997077022499859 0 0 0 0.31 139 124 211 146 230 599 
635 0.4725620793020018 0.022212622172896886 0.879680901133232 0 0 0 0.1 139 125 211 147 230 600 
636 0.5347440117359676 -0.12180017117885887 0.9312323525433654 0 0 0 0.16 139 126 228 133 230 601 
637 -0.09989921354298992 -0.044201815225922064 0.8902611693344151 0 0 0 0.55 139 127 183 52 211 148 230 602 
638 -0.14940850681606135 0.13398520778696188 0.823900577365596 0 0 0 0.53 139 128 145 41 230 603 
639 0.1098783651012355 -0.3509669051661042 0.9669679842782039 0 0 0 0.73 140 84 145 42 149 127 161 60 193 108 230 604 
640 0.12836030721801908 -0.3059636631895926 0.945261413619013 0 0 0 0.24 140 85 151 107 230 605 
641 0.5625640136292546 -0.258861369675126 0.969936337001254 0 0 0 0.44 140 86 149 128 211 149 230 606 
642 0.5112313637766039 -0.016587073396633643 0.9039692960962726 0 0 0 0.32 140 87 144 64 177 44 216 76 218 50 230 607 
643 0.26879907817327975 0.07119164313757546 0.8637313309018907 0 0 0 0.09 140 88 230 608 233 137 
644 -0.20353402730709444 0.07986738467872638 0.8477460587581652 0 0 0 0.3 140 89 202 32 205 70 228 134 230 609 
645 0.42792915323622865 0.07098251093543285 0.8570242551804984 0 0 0 0.27 140 90 144 65 193 109 230 610 
646 -0.21969911288227903 -0.043767833959114336 0.8961929438341809 0 0 0 0.34 140 91 228 135 230 611 
647 0.37036959401805314 0.027813898739530617 0.8864743124263562 0 0 0 0.29 143 44 193 110 230 612 
648 0.2747072394251719 0.07598705082129668 0.859242540790748 0 0 0 0.2 144 66 183 53 230 613 
