# 3D point list with one line of data per point:
#   POINT3D_ID, X, Y, Z, R, G, B, ERROR, TRACK[] as (IMAGE_ID, POINT2D_IDX)
# Number of points: 273, mean track length: 17.16
1 0.0044958158396184444 0.09969315677881241 0.54871666431427 94 98 103 0.47 46 1 47 1 48 1 49 1 50 1 51 1 52 1 
2 0.28922760486602783 0.06932225823402405 0.7192198038101196 42 38 40 1.27 46 2 47 2 48 2 49 2 50 2 51 2 52 2 53 1 54 1 57 0 58 1 59 0 60 1 61 0 62 1 63 1 64 0 65 0 66 0 67 0 68 0 69 0 70 0 
3 0.0463314987719059 -0.028991803526878357 0.5257270932197571 115 114 113 2.01 46 3 47 3 48 3 49 3 50 3 51 3 52 3 53 2 54 2 57 1 58 2 60 2 62 2 63 2 64 1 65 1 66 1 67 1 68 1 70 1 71 0 
4 0.05089306831359863 0.06738156825304031 0.49957507848739624 109 104 101 2.12 46 4 47 4 48 4 49 4 50 4 51 4 52 4 53 3 54 3 57 2 58 3 60 3 
5 -0.2615017294883728 0.11554422229528427 0.8398062586784363 39 36 34 0.96 46 5 47 5 48 5 49 5 50 5 51 5 52 5 
6 0.4534643888473511 -0.0404999740421772 0.9196918606758118 104 103 100 1.84 46 6 47 6 48 6 49 6 50 6 51 6 52 6 53 4 54 4 57 3 58 4 59 1 60 4 61 1 62 3 63 3 64 2 65 2 66 2 67 2 68 2 69 1 70 2 71 1 72 0 
7 -0.16236671805381775 0.1977221965789795 0.5610945820808411 27 29 30 0.98 46 7 47 7 48 7 49 7 50 7 51 7 
8 -0.008548624813556671 -0.1692662537097931 0.6206596493721008 81 76 81 0.55 46 8 47 8 48 8 49 8 50 8 51 8 52 7 
9 0.13981695473194122 0.14481492340564728 0.36520257592201233 69 60 67 9.54 46 9 47 9 48 9 49 9 50 9 51 9 52 8 53 5 62 4 66 3 67 3 68 3 
10 0.2963939607143402 -0.1782260686159134 0.8089785575866699 135 129 122 1.97 46 10 47 10 48 10 49 10 50 10 52 9 53 6 57 4 58 5 60 5 61 2 62 5 63 4 64 3 65 3 66 4 67 4 68 4 69 2 70 3 71 2 72 1 
11 0.041459035128355026 0.10228369385004044 0.5020700693130493 116 114 112 1.61 46 11 47 11 48 11 49 11 50 11 51 10 52 10 53 7 54 5 57 5 58 6 
12 -0.005018804222345352 -0.12533308565616608 0.6065748929977417 132 143 154 0.34 46 12 47 12 48 12 49 12 50 12 51 11 52 11 
13 0.08251188695430756 -0.21940554678440094 0.5989297032356262 70 70 77 2.58 46 13 47 13 48 13 49 13 50 13 51 12 57 6 58 7 60 6 62 6 63 5 64 4 65 4 66 5 67 5 68 5 69 3 70 4 71 3 72 2 
14 0.00791725143790245 -0.06663486361503601 0.5757210850715637 136 135 136 0.38 46 14 47 14 48 14 49 14 50 14 51 13 52 12 
15 0.13667093217372894 -0.06075066700577736 0.6125442981719971 135 130 126 2.12 46 15 47 15 48 15 49 15 50 15 51 14 52 13 53 8 54 6 57 7 58 8 59 2 60 7 62 7 63 6 64 5 65 5 66 6 67 6 68 6 69 4 70 5 71 4 
16 0.3417072296142578 -0.16377608478069305 0.8496258854866028 138 133 129 3.52 46 16 47 16 48 16 49 16 50 16 51 15 52 14 53 9 57 8 58 9 60 8 61 3 62 8 63 7 64 6 65 6 66 7 67 7 68 7 69 5 70 6 71 5 72 3 
17 0.3375926613807678 -0.3230988681316376 0.8690919876098633 21 19 30 1.76 46 17 47 17 48 17 49 17 50 17 60 9 
18 -0.6351934671401978 0.0636153519153595 1.0526793003082275 131 135 136 3.28 46 18 47 18 48 18 49 18 50 18 51 16 52 15 53 10 
19 0.32867422699928284 -0.22691841423511505 0.8583484888076782 141 145 145 2.21 46 19 47 19 48 19 49 19 60 10 61 4 63 8 64 7 65 7 66 8 67 8 68 8 69 6 70 7 71 6 72 4 
20 0.7481576800346375 -0.019195465371012688 1.1657215356826782 56 69 38 4.55 46 20 47 20 48 20 49 20 50 19 51 17 52 16 53 11 61 5 
21 0.06234008073806763 -0.021777085959911346 0.5263861417770386 126 121 115 1.8 46 21 47 21 48 21 49 21 50 20 51 18 52 17 53 12 54 7 57 9 58 10 60 11 62 9 63 9 64 8 65 8 66 9 67 9 68 9 69 7 70 8 71 7 
22 0.028208423405885696 -0.13633610308170319 0.5688595175743103 81 83 90 1.38 46 22 47 22 48 22 49 22 50 21 51 19 52 18 53 13 57 10 58 11 60 12 62 10 
23 -0.08761636167764664 -0.171330526471138 0.7066957950592041 70 78 84 0.62 46 23 47 23 48 23 49 23 50 22 51 20 52 19 
24 0.45801085233688354 0.2077445238828659 0.8571651577949524 29 17 17 5.18 46 24 47 24 48 24 49 24 50 23 51 21 52 20 53 14 54 8 57 11 58 12 59 3 60 13 61 6 62 11 63 10 64 9 65 9 66 10 67 10 68 10 
25 -0.2037966102361679 0.21677610278129578 0.5320285558700562 30 29 30 0.79 46 25 47 25 48 25 49 25 50 24 
26 0.07471247762441635 0.11550535261631012 0.27965256571769714 54 54 59 11.57 46 26 47 26 48 26 49 26 50 25 67 11 
27 0.17051450908184052 0.1382731944322586 0.3439162075519562 55 45 50 9.28 46 27 47 27 48 27 49 27 50 26 51 22 52 21 53 15 62 12 
28 -0.04838903993368149 -0.022500796243548393 0.6269833445549011 34 25 22 0.4 46 28 47 28 48 28 49 28 50 27 51 23 52 22 
29 -0.3270303010940552 0.20103725790977478 0.6520925164222717 49 43 42 2.77 46 29 47 29 48 29 49 29 51 24 
30 -0.44827333092689514 0.23882681131362915 0.7746872901916504 88 96 100 3.11 46 30 47 30 48 30 49 30 51 25 
31 0.5970792770385742 -0.062013283371925354 1.0730822086334229 94 88 83 10.89 46 31 47 31 48 31 49 31 50 28 51 26 52 23 53 16 54 9 57 12 59 4 60 14 61 7 62 13 63 11 64 10 65 10 66 11 67 12 68 11 69 8 70 9 71 8 
32 0.13802294433116913 0.0336775965988636 0.5826969742774963 99 88 83 1.96 46 32 47 32 48 32 49 32 50 29 51 27 52 24 53 17 54 10 57 13 58 13 59 5 60 15 62 14 63 12 64 11 65 11 66 12 67 13 68 12 69 9 70 10 
33 0.32321906089782715 -0.1672852635383606 0.8321507573127747 138 120 112 3.08 46 33 47 33 48 33 49 33 50 30 51 28 52 25 53 18 57 14 58 14 60 16 61 8 62 15 63 13 64 12 65 12 66 13 67 14 68 13 69 10 70 11 71 9 72 5 
34 0.17333021759986877 0.07126351445913315 0.5074871182441711 19 27 21 2.14 46 34 47 34 48 34 49 34 50 31 51 29 52 26 53 19 54 11 57 15 58 15 60 17 62 16 63 14 64 13 65 13 66 14 67 15 68 14 70 12 71 10 
35 -0.14163918793201447 0.1035882830619812 0.7238552570343018 72 76 87 0.44 46 35 47 35 48 35 49 35 50 32 51 30 52 27 
36 -0.18376371264457703 0.1694289743900299 0.7327466011047363 89 79 75 0.63 46 36 47 36 48 36 49 36 50 33 51 31 52 28 
37 0.023591527715325356 0.16010360419750214 0.47663062810897827 121 117 110 6.99 46 37 47 37 48 37 49 37 50 34 51 32 52 29 53 20 
38 0.06051281839609146 0.10084576159715652 0.4883970320224762 106 98 95 1.8 46 38 47 38 48 38 49 38 50 35 51 33 52 30 53 21 54 12 57 16 58 16 60 18 
39 -0.5749533176422119 0.19763894379138947 0.9705354571342468 90 86 84 4.76 46 39 47 39 48 39 49 39 50 36 53 22 
40 0.6160142421722412 0.2800004482269287 0.9682114720344543 58 52 51 11.18 46 40 47 40 48 40 49 40 50 37 51 34 52 31 53 23 54 13 57 17 59 6 61 9 67 16 68 15 69 11 70 13 71 11 72 6 74 0 
41 -0.26909327507019043 -0.09107130765914917 0.7181434631347656 59 53 49 0.76 46 41 47 41 48 41 49 41 50 38 51 35 52 32 
42 -0.31311890482902527 -0.10571105033159256 0.6972290277481079 96 100 106 0.8 46 42 47 42 48 42 49 42 50 39 51 36 
43 0.14612284302711487 -0.0458863228559494 0.6168390512466431 139 136 131 1.67 46 43 47 43 48 43 49 43 50 40 51 37 52 33 53 24 54 14 57 18 58 17 59 7 60 19 62 17 63 15 64 14 65 14 66 15 67 17 68 16 69 12 70 14 71 12 
44 -0.1546216905117035 0.08019453287124634 0.7286670804023743 23 22 23 0.48 46 44 47 44 48 44 49 44 50 41 51 38 52 34 
45 0.048885490745306015 0.15595592558383942 0.48001348972320557 106 98 94 3.07 46 45 47 45 48 45 49 45 50 42 51 39 52 35 53 25 54 15 57 19 58 18 
46 0.1239221841096878 -0.08540812134742737 0.6079280376434326 137 132 125 2.2 46 46 47 46 48 46 49 46 50 43 51 40 52 36 53 26 54 16 57 20 58 19 59 8 60 20 62 18 63 16 64 15 65 15 66 16 67 18 68 17 69 13 70 15 71 13 
47 0.36708006262779236 -0.15109571814537048 0.8709636330604553 117 115 113 2.63 46 47 47 47 48 47 49 47 50 44 51 41 52 37 53 27 57 21 58 20 60 21 61 10 62 19 63 17 64 16 65 16 66 17 67 19 68 18 69 14 70 16 71 14 72 7 
48 -0.08487874269485474 0.17682243883609772 0.43989402055740356 76 73 77 3.16 46 48 47 48 48 48 49 48 50 45 51 42 
49 -0.37684106826782227 0.13244999945163727 0.7640393972396851 67 66 64 5.22 46 49 47 49 48 49 49 49 50 46 51 43 53 28 
50 -0.1872638761997223 -0.08060871809720993 0.7902783155441284 111 126 139 0.42 46 50 47 50 48 50 49 50 50 47 51 44 52 38 
51 -0.20645827054977417 0.21965141594409943 0.48648321628570557 26 43 16 1.09 46 51 47 51 48 51 49 51 
52 0.15226928889751434 -0.10622486472129822 0.6427471041679382 129 121 114 1.68 46 52 47 52 48 52 49 52 50 48 51 45 52 39 53 29 54 17 57 22 58 21 59 9 60 22 62 20 63 18 64 17 65 17 66 18 67 20 68 19 69 15 70 17 71 15 
53 0.1000743955373764 -0.22940370440483093 0.6262351870536804 24 23 28 3.13 46 53 47 53 48 53 49 53 50 49 51 46 58 22 60 23 62 21 63 19 64 18 65 18 66 19 67 21 68 20 69 16 70 18 71 16 
54 -0.6398183703422546 -0.03553171083331108 1.0701416730880737 164 172 178 2.97 46 54 47 54 48 54 49 54 50 50 51 47 52 40 53 30 
55 -0.06869020313024521 0.11659418046474457 0.6229047179222107 102 98 99 0.6 46 55 47 55 48 55 49 55 50 51 51 48 52 41 
56 -0.19621218740940094 0.20811815559864044 0.733981192111969 69 60 58 1.05 46 56 47 56 48 56 49 56 50 52 51 49 52 42 
57 0.33027979731559753 0.06310369074344635 0.7637540698051453 104 100 98 1.18 46 57 47 57 48 57 49 57 50 53 51 50 52 43 53 31 54 18 57 23 58 23 59 10 60 24 61 11 62 22 63 20 64 19 65 19 66 20 67 22 68 21 69 17 70 19 
58 0.11908135563135147 0.14934666454792023 0.37927311658859253 29 29 34 11.19 46 58 47 58 48 58 49 58 50 54 51 51 52 44 53 32 58 24 62 23 66 21 67 23 68 22 
59 -0.4527202248573303 -0.12375887483358383 0.8469994068145752 66 62 62 0.53 46 59 47 59 48 59 49 59 50 55 
60 0.17872953414916992 0.15521781146526337 0.4736691117286682 23 27 24 2.46 46 60 47 60 48 60 49 60 50 56 51 52 52 45 53 33 54 19 57 24 58 25 62 24 63 21 64 20 65 20 66 22 67 24 68 23 71 17 
61 0.08938954025506973 0.0720614418387413 0.5235323905944824 103 92 88 0.95 46 61 47 61 48 61 49 61 50 57 51 53 52 46 53 34 54 20 57 25 58 26 
62 0.4594019949436188 0.2760428488254547 0.7651247382164001 72 73 84 8.66 46 62 47 62 48 62 49 62 50 58 51 54 52 47 53 35 54 21 57 26 58 27 59 11 62 25 63 22 64 21 65 21 66 23 67 25 68 24 69 18 
63 -0.3321645259857178 -0.18700246512889862 0.7219491004943848 169 189 196 1.18 46 63 47 63 48 63 49 63 50 59 51 55 
64 0.488303542137146 0.23688648641109467 0.877670407295227 36 22 24 5.97 46 64 47 64 48 64 49 64 50 60 51 56 52 48 53 36 54 22 57 27 58 28 59 12 60 25 61 12 62 26 63 23 64 22 65 22 66 24 67 26 
65 -0.0031713764183223248 0.03136512264609337 0.570260763168335 16 13 14 0.3 46 65 47 65 48 65 49 65 50 61 51 57 52 49 
66 0.0781073346734047 0.031791217625141144 0.5252077579498291 114 109 106 2.06 46 66 47 66 48 66 49 66 50 62 51 58 52 50 53 37 54 23 57 28 58 29 60 26 62 27 67 27 68 25 
67 -0.2729434669017792 -0.07804391533136368 0.7076027989387512 61 61 61 0.4 46 67 47 67 48 67 49 67 50 63 51 59 52 51 
68 0.05297619104385376 0.030640436336398125 0.5062718391418457 122 112 109 2.11 46 68 47 68 48 68 49 68 50 64 51 60 52 52 53 38 54 24 57 29 58 30 60 27 62 28 63 24 
69 0.18834806978702545 -0.025122128427028656 0.6512208580970764 118 116 115 1.89 46 69 47 69 48 69 49 69 50 65 51 61 52 53 53 39 54 25 57 30 58 31 59 13 60 28 62 29 63 25 64 23 65 23 66 25 67 28 68 26 69 19 70 20 71 18 
70 0.07530653476715088 0.11637135595083237 0.49725502729415894 86 72 68 1.09 46 70 47 70 48 70 49 70 50 66 51 62 52 54 53 40 54 26 57 31 58 32 
71 0.43021032214164734 -0.07499724626541138 0.908026933670044 135 129 124 1.55 46 71 47 71 48 71 49 71 50 67 51 63 52 55 53 41 54 27 57 32 58 33 59 14 60 29 61 13 62 30 63 26 64 24 65 24 66 26 67 29 68 27 69 20 70 21 71 19 72 8 
72 -0.2231973558664322 -0.10632401704788208 0.7715115547180176 166 180 187 0.42 46 72 47 72 48 72 49 72 50 68 51 64 52 56 
73 0.06439711153507233 0.008554380387067795 0.5196214914321899 107 98 94 2.14 46 73 47 73 48 73 49 73 50 69 51 65 52 57 53 42 54 28 57 33 58 34 60 30 62 31 63 27 64 25 65 25 66 27 67 30 68 28 70 22 71 20 
74 0.3752255141735077 0.07104581594467163 0.8060770630836487 150 152 155 1.21 46 74 47 74 48 74 49 74 50 70 51 66 52 58 53 43 54 29 57 34 58 35 59 15 60 31 61 14 62 32 63 28 64 26 65 26 66 28 67 31 68 29 69 21 70 23 
75 0.10818922519683838 0.1580009162425995 0.5169519782066345 58 52 50 1.06 46 75 47 75 48 75 49 75 50 71 51 67 52 59 53 44 54 30 68 30 
76 0.3535211682319641 -0.19713202118873596 0.873009979724884 139 134 129 2.14 46 76 47 76 48 76 49 76 50 72 52 60 57 35 60 32 61 15 63 29 64 27 65 27 66 29 67 32 68 31 69 22 70 24 71 21 72 9 
77 0.12170474231243134 0.07908029109239578 0.5523809790611267 78 74 72 2.4 46 77 47 77 48 77 49 77 50 73 51 68 52 61 53 45 65 28 66 30 67 33 68 32 69 23 
78 -0.17541885375976562 0.020792122930288315 0.757847249507904 25 24 28 0.5 46 78 47 78 48 78 49 78 50 74 51 69 52 62 
79 0.1732671558856964 -0.18845157325267792 0.6911499500274658 92 99 103 2.12 46 79 47 79 48 79 49 79 50 75 51 70 52 63 57 36 58 36 60 33 62 33 63 30 64 28 65 29 66 31 67 34 68 33 69 24 70 25 71 22 72 10 
80 0.12468522787094116 0.02587360516190529 0.5749154090881348 108 101 100 1.19 46 80 47 80 48 80 49 80 50 76 51 71 52 64 53 46 54 31 57 37 58 37 60 34 62 34 63 31 64 29 65 30 66 32 67 35 68 34 69 25 70 26 
81 0.3218407928943634 0.1834074854850769 0.7204321622848511 97 89 86 1.38 47 81 48 81 49 81 50 77 51 72 52 65 53 47 54 32 57 38 58 38 59 16 60 35 61 16 62 35 63 32 64 30 65 31 66 33 67 36 68 35 69 26 
82 0.16204188764095306 0.07038210332393646 0.5149921178817749 34 44 41 1.37 46 81 47 82 48 82 49 82 50 78 51 73 52 66 53 48 54 33 57 39 58 39 60 36 62 36 63 33 64 31 65 32 66 34 67 37 68 36 70 27 
83 0.20451317727565765 0.2040909379720688 0.5134798884391785 33 29 30 2.07 46 82 47 83 48 83 49 83 50 79 51 74 52 67 53 49 54 34 57 40 58 40 62 37 63 34 64 32 65 33 66 35 67 38 68 37 70 28 71 23 
84 0.054887767881155014 -0.1895352005958557 0.578689694404602 138 129 117 2.09 46 83 47 84 48 84 49 84 50 80 51 75 52 68 57 41 58 41 60 37 62 38 63 35 64 33 65 34 66 36 67 39 68 38 69 27 70 29 71 24 72 11 
85 -0.2838643193244934 0.1557033658027649 0.6492135524749756 105 110 111 1.1 46 84 47 85 48 85 49 85 50 81 51 76 
86 0.32093843817710876 0.25992080569267273 0.6894384026527405 32 32 30 3.17 46 85 47 86 48 86 49 86 50 82 51 77 52 69 53 50 54 35 57 42 58 42 59 17 62 39 63 36 64 34 65 35 66 37 67 40 68 39 69 28 
87 0.1104419082403183 0.10679123550653458 0.5364899635314941 90 81 73 0.61 46 86 47 87 48 87 49 87 50 83 51 78 52 70 53 51 54 36 
88 0.10915634781122208 0.03687254339456558 0.5566985607147217 64 61 64 1.05 46 87 47 88 48 88 49 88 50 84 51 79 52 71 53 52 54 37 57 43 58 43 64 35 65 36 66 38 67 41 68 40 69 29 70 30 
89 0.14329375326633453 -0.1129026934504509 0.6384377479553223 151 147 142 1.39 46 88 47 89 48 89 49 89 50 85 51 80 52 72 53 53 54 38 57 44 58 44 59 18 60 38 62 40 63 37 64 36 65 37 66 39 67 42 68 41 69 30 70 31 71 25 
90 0.3677951693534851 -0.05816597118973732 0.8431085348129272 136 135 133 2.12 46 89 47 90 48 90 49 90 50 86 51 81 52 73 53 54 54 39 57 45 58 45 59 19 60 39 61 17 62 41 63 38 64 37 65 38 66 40 67 43 68 42 69 31 70 32 71 26 72 12 
91 0.190300852060318 0.050721220672130585 0.6212459206581116 71 74 71 2.87 46 90 47 91 48 91 49 91 50 87 51 82 52 74 53 55 54 40 57 46 58 46 59 20 60 40 62 42 63 39 64 38 65 39 66 41 67 44 68 43 69 32 70 33 
92 0.5906744003295898 0.1947443187236786 0.9166968464851379 20 21 20 2.05 46 91 47 92 48 92 49 92 50 88 51 83 52 75 53 56 54 41 57 47 59 21 61 18 62 43 63 40 64 39 65 40 
93 0.10797685384750366 -0.07405982166528702 0.5914398431777954 139 132 124 1.19 46 92 47 93 48 93 49 93 50 89 51 84 52 76 53 57 54 42 57 48 58 47 60 41 62 44 63 41 64 40 65 41 66 42 67 45 68 44 69 33 70 34 71 27 
94 0.024668129161000252 0.1639367938041687 0.5010012984275818 89 92 104 1.08 46 93 47 94 48 94 49 94 50 90 51 85 52 77 53 58 
95 0.6075801849365234 0.1487487107515335 1.0158032178878784 123 117 112 3.44 46 94 47 95 48 95 49 95 50 91 51 86 52 78 53 59 54 43 65 42 66 43 67 46 68 45 69 34 70 35 71 28 72 13 73 0 
96 0.2959306240081787 -0.0567774623632431 0.7693200707435608 131 131 129 1.67 46 95 47 96 48 96 49 96 50 92 51 87 52 79 53 60 54 44 57 49 58 48 59 22 60 42 61 19 62 45 63 42 64 41 65 43 66 44 67 47 68 46 69 35 70 36 71 29 72 14 
97 0.1108255460858345 -0.11467061936855316 0.6079840064048767 147 145 139 1.16 46 96 47 97 48 97 49 97 50 93 51 88 52 80 53 61 54 45 57 50 58 49 60 43 62 46 63 43 64 42 65 44 66 45 67 48 68 47 69 36 70 37 71 30 
98 0.043598778545856476 -0.21800707280635834 0.5648266673088074 86 86 88 2.16 46 97 47 98 48 98 49 98 50 94 51 89 57 51 58 50 60 44 62 47 63 44 64 43 65 45 66 46 67 49 68 48 69 37 70 38 71 31 72 15 
99 -0.06168823316693306 0.16798172891139984 0.4072636663913727 147 146 162 1.39 46 98 47 99 48 99 49 99 50 95 51 90 
100 0.18068209290504456 -0.13330543041229248 0.6820598244667053 143 138 130 1.7 46 99 47 100 48 100 49 100 50 96 51 91 52 81 53 62 57 52 58 51 59 23 60 45 62 48 63 45 64 44 65 46 66 47 67 50 68 49 69 38 70 39 71 32 72 16 
101 -0.04145870357751846 0.16921523213386536 0.41030019521713257 41 53 60 6.73 46 100 47 101 48 101 49 101 50 97 51 92 62 49 
102 0.0587507002055645 0.14645884931087494 0.48088815808296204 57 37 34 1.27 46 101 47 102 48 102 49 102 50 98 51 93 52 82 53 63 54 46 57 53 58 52 
103 0.2752664089202881 -0.10778827220201492 0.7646483182907104 137 135 130 1.65 46 102 47 103 48 103 49 103 50 99 51 94 52 83 53 64 54 47 57 54 58 53 59 24 60 46 61 20 62 50 63 46 64 45 65 47 66 48 67 51 68 50 69 39 70 40 71 33 72 17 
104 0.07835472375154495 0.11299700289964676 0.5045061111450195 99 94 94 0.96 46 103 47 104 48 104 49 104 50 100 51 95 52 84 53 65 54 48 57 55 58 54 
105 0.5187734961509705 0.19335779547691345 0.9182376265525818 113 102 97 4.01 46 104 47 105 48 105 49 105 50 101 51 96 52 85 53 66 54 49 57 56 58 55 59 25 60 47 61 21 62 51 63 47 64 46 65 48 66 49 72 18 
106 0.21631678938865662 0.03228791058063507 0.6632773876190186 90 78 70 0.98 46 105 47 106 48 106 49 106 50 102 51 97 52 86 53 67 54 50 57 57 58 56 59 26 60 48 62 52 63 48 64 47 65 49 66 50 67 52 68 51 69 40 70 41 
107 0.20473438501358032 0.11901218444108963 0.4823085069656372 11 16 11 2.27 46 106 47 107 48 107 49 107 50 103 51 98 52 87 53 68 54 51 57 58 58 57 60 49 62 53 63 49 64 48 65 50 66 51 67 53 68 52 71 34 
108 0.09780377149581909 -0.04314901679754257 0.5714564919471741 115 111 105 1.44 46 107 47 108 48 108 49 108 50 104 51 99 52 88 53 69 54 52 57 59 58 58 60 50 62 54 63 50 64 49 65 51 66 52 67 54 68 53 69 41 70 42 71 35 
109 -0.47739195823669434 0.3217688798904419 1.056248664855957 47 47 44 1.25 46 108 47 109 48 109 49 109 50 105 51 100 52 89 
110 0.12045739591121674 -0.01265766192227602 0.5830047130584717 130 130 129 1.12 46 109 47 110 48 110 49 110 50 106 51 101 52 90 53 70 54 53 57 60 58 59 60 51 62 55 63 51 64 50 65 52 66 53 67 55 68 54 69 42 70 43 71 36 
111 0.24278053641319275 0.10533735901117325 0.671362578868866 46 35 41 1.31 48 111 49 111 50 107 51 102 52 91 53 71 54 54 57 61 58 60 59 27 60 52 62 56 63 52 64 51 65 53 66 54 67 56 68 55 69 43 70 44 
112 0.1416720747947693 -0.15142089128494263 0.6497892141342163 105 102 98 1.89 46 110 47 111 48 112 49 112 50 108 51 103 52 92 53 72 57 62 58 61 59 28 60 53 62 57 63 53 64 52 65 54 66 55 67 57 68 56 69 44 70 45 71 37 72 19 
113 0.02752535045146942 -0.1338656097650528 0.572260320186615 142 149 154 1.0 46 111 47 112 48 113 49 113 50 109 51 104 52 93 53 73 60 54 
114 0.18688595294952393 0.14229801297187805 0.3569751977920532 65 65 77 8.84 46 112 47 113 48 114 49 114 50 110 51 105 52 94 53 74 62 58 67 58 
115 0.23902516067028046 0.11261647194623947 0.6653431057929993 32 22 25 1.13 49 115 50 111 51 106 52 95 53 75 54 55 57 63 58 62 59 29 60 55 62 59 63 54 64 53 65 55 66 56 67 59 68 57 69 45 70 46 
116 0.5634191036224365 0.035901736468076706 1.0125540494918823 125 127 125 2.81 46 113 47 114 48 115 49 116 50 112 51 107 52 96 53 76 54 56 57 64 58 63 59 30 60 56 61 22 62 60 63 55 64 54 65 56 66 57 67 60 68 58 69 46 70 47 71 38 72 20 
117 0.10458870977163315 0.18016664683818817 0.5118261575698853 66 63 60 0.77 46 114 47 115 48 116 49 117 50 113 51 108 52 97 53 77 54 57 
118 0.6097254753112793 0.22937169671058655 0.9011566042900085 53 50 45 8.84 46 115 47 116 48 117 49 118 50 114 51 109 52 98 53 78 54 58 57 65 59 31 61 23 62 61 63 56 64 55 65 57 66 58 67 61 68 59 70 48 71 39 
119 -0.15754982829093933 0.20280788838863373 0.6993619799613953 26 32 39 0.75 46 116 47 117 48 118 49 119 50 115 51 110 52 99 
120 0.29827553033828735 0.25046563148498535 0.6789626479148865 52 50 51 1.95 46 117 47 118 48 119 49 120 50 116 51 111 52 100 53 79 54 59 57 66 58 64 59 32 62 62 63 57 64 56 65 58 66 59 67 62 68 60 69 47 
121 0.19595517218112946 -0.0924486592411995 0.682330846786499 143 147 145 1.3 46 118 47 119 48 120 49 121 50 117 51 112 52 101 53 80 54 60 57 67 58 65 59 33 60 57 62 63 63 58 64 57 65 59 66 60 67 63 68 61 69 48 70 49 71 40 
122 0.376481831073761 -0.11196880787611008 0.8695008754730225 151 152 151 2.23 46 119 47 120 48 121 49 122 50 118 51 113 52 102 53 81 54 61 57 68 58 66 59 34 60 58 61 24 62 64 63 59 64 58 65 60 66 61 67 64 68 62 69 49 70 50 71 41 72 21 
123 -0.5143436193466187 0.13477496802806854 1.1380627155303955 61 52 41 3.84 46 120 47 121 48 122 49 123 50 119 51 114 52 103 
124 -0.08815260976552963 0.1878151148557663 0.6248359680175781 96 96 98 0.67 46 121 47 122 48 123 49 124 50 120 51 115 52 104 
125 0.053307514637708664 -0.04328393563628197 0.5295003652572632 96 93 92 1.71 46 122 47 123 48 124 49 125 50 121 51 116 52 105 53 82 54 62 57 69 58 67 60 59 62 65 63 60 64 59 65 61 66 62 67 65 68 63 69 50 70 51 71 42 
126 0.5273102521896362 -0.06121295690536499 1.006463885307312 132 132 132 3.67 46 123 47 124 48 125 49 126 50 122 51 117 52 106 53 83 54 63 57 70 58 68 59 35 60 60 61 25 62 66 63 61 64 60 65 62 66 63 67 66 68 64 69 51 70 52 71 43 72 22 
127 0.05542274937033653 -0.06735562533140182 0.5387247204780579 108 106 106 1.75 46 124 47 125 48 126 49 127 50 123 51 118 52 107 53 84 54 64 57 71 58 69 60 61 62 67 63 62 64 61 65 63 66 64 67 67 68 65 69 52 70 53 71 44 
128 0.1001720055937767 0.14884141087532043 0.4202101230621338 42 46 56 3.74 46 125 47 126 48 127 49 128 50 124 51 119 52 108 53 85 58 70 62 68 66 65 67 68 68 66 
129 0.5907146334648132 0.17452730238437653 0.9411177039146423 35 37 39 8.89 46 126 47 127 48 128 49 129 50 125 51 120 52 109 53 86 54 65 57 72 59 36 61 26 62 69 63 63 64 62 68 67 69 53 70 54 71 45 
130 0.30264008045196533 -0.06293442845344543 0.7781956791877747 150 151 148 1.6 46 127 47 128 48 129 49 130 50 126 51 121 52 110 53 87 54 66 57 73 58 71 59 37 60 62 61 27 62 70 63 64 64 63 65 64 66 66 67 69 68 68 69 54 70 55 71 46 72 23 
131 0.09678158164024353 -0.12126041203737259 0.5964499711990356 140 134 126 1.37 46 128 47 129 48 130 49 131 50 127 51 122 52 111 53 88 54 67 57 74 58 72 60 63 62 71 63 65 64 64 65 65 66 67 67 70 68 69 69 55 70 56 71 47 
132 0.26676106452941895 0.21660126745700836 0.5112981796264648 23 20 22 2.84 47 130 48 131 49 132 50 128 51 123 52 112 53 89 54 68 57 75 58 73 62 72 63 66 64 65 65 66 66 68 67 71 68 70 
133 0.049598850309848785 -0.11572274565696716 0.5496339797973633 131 127 123 1.85 46 129 47 131 48 132 49 133 50 129 51 124 52 113 53 90 54 69 57 76 58 74 60 64 62 73 63 67 64 66 65 67 66 69 67 72 68 71 69 56 70 57 71 48 
134 0.27632591128349304 0.050759345293045044 0.715981125831604 87 86 84 1.45 46 130 47 132 48 133 49 134 50 130 51 125 52 114 53 91 54 70 57 77 58 75 59 38 60 65 61 28 62 74 63 68 64 67 65 68 66 70 67 73 68 72 69 57 70 58 
135 0.14229214191436768 -0.033516980707645416 0.6110287308692932 124 120 115 1.39 46 131 47 133 48 134 49 135 50 131 51 126 52 115 53 92 54 71 57 78 58 76 59 39 60 66 62 75 63 69 64 68 65 69 66 71 67 74 68 73 69 58 70 59 71 49 
136 0.3973553776741028 0.11482324451208115 0.8161910772323608 37 30 28 1.2 46 132 47 134 48 135 49 136 50 132 51 127 52 116 53 93 54 72 57 79 58 77 59 40 60 67 61 29 62 76 63 70 64 69 65 70 66 72 67 75 68 74 69 59 
137 0.02334699034690857 0.19146551191806793 0.49424102902412415 36 40 46 1.45 46 133 47 135 48 136 49 137 50 133 51 128 52 117 53 94 
138 0.25584694743156433 -0.10640237480401993 0.7461671233177185 148 148 145 2.01 46 134 47 136 48 137 49 138 50 134 51 129 52 118 53 95 54 73 57 80 58 78 59 41 60 68 61 30 62 77 63 71 64 70 65 71 66 73 67 76 68 75 69 60 70 60 71 50 72 24 
139 0.2825801968574524 -0.06827323138713837 0.7592056393623352 137 135 131 1.47 46 135 47 137 48 138 49 139 50 135 51 130 52 119 53 96 54 74 57 81 58 79 59 42 60 69 61 31 62 78 63 72 64 71 65 72 66 74 67 77 68 76 69 61 70 61 71 51 72 25 
140 0.17653587460517883 -0.05142908915877342 0.6499140858650208 132 127 118 1.02 46 136 47 138 48 139 49 140 50 136 51 131 52 120 53 97 54 75 57 82 58 80 59 43 60 70 62 79 63 73 64 72 65 73 66 75 67 78 68 77 69 62 70 62 71 52 
141 0.41829249262809753 0.19612522423267365 0.8119800686836243 70 53 49 1.11 46 137 47 139 48 140 49 141 50 137 51 132 52 121 53 98 54 76 57 83 58 81 59 44 60 71 61 32 62 80 63 74 64 73 65 74 66 76 67 79 68 78 
142 0.3015945553779602 0.12082821875810623 0.7187789678573608 108 102 100 1.33 47 140 48 141 49 142 50 138 51 133 52 122 53 99 54 77 57 84 58 82 59 45 60 72 61 33 62 81 63 75 64 74 65 75 66 77 67 80 68 79 69 63 70 63 
143 -0.48591434955596924 0.03081420622766018 1.1275453567504883 7 5 6 2.65 46 138 47 141 48 142 49 143 50 139 51 134 52 123 
144 0.5982924103736877 0.03069867379963398 1.0495301485061646 138 130 126 4.66 46 139 47 142 48 143 49 144 50 140 51 135 52 124 53 100 54 78 57 85 59 46 60 73 61 34 62 82 63 76 64 75 65 76 66 78 67 81 68 80 69 64 70 64 71 53 72 26 73 1 
145 0.2663366496562958 -0.05813565477728844 0.7397512793540955 134 137 139 1.42 46 140 47 143 48 144 49 145 50 141 51 136 52 125 53 101 54 79 57 86 58 83 59 47 60 74 61 35 62 83 63 77 64 76 65 77 66 79 67 82 68 81 69 65 70 65 71 54 72 27 
146 0.04591774567961693 -0.07347220182418823 0.5379208922386169 109 106 109 1.72 46 141 47 144 48 145 49 146 50 142 51 137 52 126 53 102 54 80 57 87 58 84 60 75 62 84 63 78 64 77 65 78 66 80 67 83 68 82 71 55 
147 0.06886593997478485 -0.16430145502090454 0.5833254456520081 159 159 156 1.93 46 142 47 145 48 146 49 147 50 143 51 138 52 127 57 88 58 85 60 76 62 85 63 79 64 78 65 79 66 81 67 84 68 83 69 66 70 66 71 56 72 28 
148 0.09057791531085968 -0.01122218556702137 0.5542371273040771 133 134 137 1.69 46 143 47 146 48 147 49 148 50 144 51 139 52 128 53 103 54 81 57 89 58 86 60 77 62 86 63 80 64 79 65 80 66 82 67 85 68 84 69 67 70 67 71 57 
149 0.5497843027114868 0.12316308170557022 0.9690643548965454 91 82 78 3.56 46 144 47 147 48 148 49 149 50 145 51 140 52 129 53 104 54 82 57 90 58 87 59 48 60 78 61 36 62 87 63 81 64 80 65 81 69 68 70 68 71 58 72 29 
150 0.49678781628608704 0.11055261641740799 0.9204137921333313 59 49 49 3.06 46 145 47 148 48 149 49 150 50 146 51 141 52 130 53 105 54 83 57 91 58 88 59 49 60 79 61 37 62 88 63 82 64 81 65 82 66 83 67 86 68 85 71 59 72 30 73 2 
151 -0.014353551901876926 0.13741737604141235 0.3895488381385803 71 65 71 4.12 46 146 47 149 48 150 49 151 50 147 51 142 62 89 
152 0.08777584880590439 0.17291206121444702 0.4255073070526123 29 31 40 3.09 46 147 47 150 48 151 49 152 50 148 51 143 52 131 53 106 62 90 66 84 67 87 68 86 
153 0.043284159153699875 -0.14087285101413727 0.5578386187553406 134 131 132 1.58 46 148 47 151 48 152 49 153 50 149 51 144 52 132 53 107 57 92 58 89 60 80 62 91 63 83 64 82 65 83 66 85 67 88 68 87 69 69 70 69 71 60 
154 0.05012054741382599 0.05480846390128136 0.5055853128433228 108 104 106 1.23 46 149 47 152 48 153 49 154 50 150 51 145 52 133 53 108 54 84 57 93 58 90 60 81 
155 0.47977402806282043 0.018239134922623634 0.932086169719696 108 109 111 2.5 46 150 47 153 48 154 49 155 50 151 51 146 52 134 53 109 54 85 57 94 58 91 59 50 60 82 61 38 62 92 63 84 64 83 65 84 66 86 67 89 68 88 69 70 70 70 71 61 72 31 
156 0.6167561411857605 0.18339595198631287 0.9131234884262085 34 34 31 6.69 46 151 47 154 48 155 49 156 50 152 51 147 52 135 53 110 54 86 57 95 59 51 61 39 62 93 63 85 64 84 65 85 66 87 67 90 68 89 69 71 70 71 
157 0.07363232970237732 0.16806770861148834 0.4442731440067291 56 56 66 3.22 46 152 47 155 48 156 49 157 50 153 51 148 52 136 53 111 58 92 62 94 
158 -0.22092892229557037 -0.10356581211090088 0.7775062322616577 181 198 208 0.68 46 153 47 156 48 157 49 158 50 154 51 149 52 137 53 112 
159 0.27743446826934814 0.1717226505279541 0.6871982216835022 37 26 30 1.54 48 158 49 159 50 155 51 150 52 138 53 113 54 87 57 96 58 93 59 52 60 83 62 95 63 86 64 85 65 86 66 88 67 91 68 90 69 72 70 72 
160 -0.23546983301639557 0.19458051025867462 0.5676364898681641 89 94 100 1.27 46 154 47 157 48 159 49 160 50 156 51 151 
161 -0.22533443570137024 0.21546047925949097 0.5527868866920471 47 39 41 1.59 46 155 47 158 48 160 49 161 50 157 51 152 
162 0.21893838047981262 0.22575415670871735 0.5617592930793762 57 67 77 12.07 46 156 47 159 48 161 49 162 50 158 51 153 52 139 53 114 54 88 57 97 58 94 59 53 62 96 63 87 64 86 65 87 66 89 67 92 68 91 69 73 70 73 71 62 
163 0.03058871254324913 -0.23561199009418488 0.5620257258415222 20 20 22 3.75 46 157 47 160 48 162 50 159 51 154 58 95 60 84 62 97 63 88 64 87 65 88 66 90 67 93 68 92 69 74 70 74 71 63 72 32 
164 0.057654596865177155 -0.017005790024995804 0.5253171324729919 100 98 96 1.63 46 158 47 161 48 163 49 163 50 160 51 155 52 140 53 115 54 89 57 98 58 96 60 85 62 98 63 89 64 88 65 89 66 91 67 94 68 93 70 75 71 64 
165 0.09617414325475693 -0.09864690899848938 0.5884453654289246 140 137 131 1.25 46 159 47 162 48 164 49 164 50 161 51 156 52 141 53 116 54 90 57 99 58 97 60 86 62 99 63 90 64 89 65 90 66 92 67 95 68 94 69 75 70 76 71 65 
166 0.17198802530765533 0.036327578127384186 0.6082849502563477 51 54 50 2.72 46 160 47 163 48 165 49 165 50 162 51 157 52 142 53 117 54 91 57 100 58 98 59 54 60 87 62 100 63 91 64 90 65 91 66 93 67 96 68 95 69 76 70 77 71 66 
167 0.06543131172657013 -0.03473625332117081 0.53774493932724 108 100 94 1.71 46 161 47 164 48 166 49 166 50 163 51 158 52 143 53 118 54 92 57 101 58 99 60 88 62 101 63 92 64 91 65 92 66 94 67 97 68 96 69 77 70 78 71 67 
168 0.05484902858734131 -0.0023312955163419247 0.519492506980896 140 142 144 1.72 46 162 47 165 48 167 49 167 50 164 51 159 52 144 53 119 54 93 57 102 58 100 60 89 62 102 63 93 64 92 65 93 66 95 67 98 68 97 70 79 71 68 
169 0.05906565114855766 0.09207568317651749 0.494780033826828 129 129 130 1.49 46 163 47 166 48 168 49 168 50 165 51 160 52 145 53 120 54 94 57 103 58 101 60 90 
170 0.09661037474870682 0.1874697208404541 0.5008673071861267 88 81 75 1.86 46 164 47 167 48 169 49 169 50 166 51 161 52 146 53 121 54 95 57 104 
171 0.2754250168800354 -0.07979322224855423 0.7554917931556702 148 147 146 1.53 46 165 47 168 48 170 49 170 50 167 51 162 52 147 53 122 54 96 57 105 58 102 59 55 60 91 61 40 62 103 63 94 64 93 65 94 66 96 67 99 68 98 69 78 70 80 71 69 72 33 
172 0.25733456015586853 0.18071015179157257 0.6657388210296631 30 20 22 1.71 49 171 50 168 51 163 52 148 53 123 54 97 57 106 58 103 59 56 60 92 62 104 63 95 64 94 65 95 66 97 67 100 68 99 69 79 70 81 
173 0.20642730593681335 -0.05882313847541809 0.6813997626304626 145 145 143 1.03 46 166 47 169 48 171 49 172 50 169 51 164 52 149 53 124 54 98 57 107 58 104 59 57 60 93 62 105 63 96 64 95 65 96 66 98 67 101 68 100 69 80 70 82 71 70 
174 0.5376266241073608 0.05285261571407318 1.219067931175232 79 80 88 10.08 66 99 67 102 68 101 69 81 70 83 71 71 74 1 75 0 76 0 77 0 
175 0.167153999209404 0.14895622432231903 1.5646556615829468 173 177 185 8.37 66 100 67 103 68 102 70 84 71 72 75 1 76 1 77 1 78 0 79 0 80 0 81 0 84 0 
176 0.4098780155181885 0.06155354157090187 1.3477132320404053 68 68 92 7.65 66 101 67 104 68 103 69 82 70 85 72 34 73 3 74 2 75 2 76 2 77 2 
177 0.5660035610198975 0.4218285381793976 1.4145041704177856 82 72 52 11.51 69 83 70 86 71 73 72 35 73 4 74 3 75 3 76 3 
178 0.3804067075252533 -0.004309941083192825 1.3991336822509766 103 115 120 11.77 66 102 67 105 68 104 70 87 71 74 73 5 74 4 75 4 76 4 77 3 80 1 
179 0.3651840388774872 0.030882518738508224 1.3976643085479736 115 115 133 10.08 66 103 67 106 68 105 69 84 70 88 72 36 73 6 74 5 75 5 76 5 77 4 78 1 79 1 80 2 
180 0.08826350420713425 0.29739031195640564 1.5945420265197754 22 16 16 6.06 67 107 68 106 75 6 76 6 77 5 78 2 79 2 80 3 81 1 
181 0.5038256049156189 0.14402417838573456 1.2325230836868286 102 100 105 8.77 66 104 67 108 68 107 69 85 70 89 71 75 72 37 73 7 74 6 75 7 76 7 77 6 
182 0.10061430186033249 0.38508281111717224 1.5764336585998535 92 90 90 9.47 73 8 74 7 75 8 76 8 77 7 78 3 79 3 80 4 81 2 84 1 
183 0.3202276825904846 0.04106847941875458 1.4377572536468506 51 42 47 9.55 66 105 67 109 68 108 69 86 72 38 73 9 74 8 75 9 76 9 77 8 78 4 79 4 80 5 81 3 
184 0.526872456073761 0.07070697098970413 1.2263972759246826 112 99 98 9.36 66 106 67 110 68 109 69 87 70 90 71 76 73 10 74 9 75 10 76 10 77 9 
185 0.2048022747039795 0.3374127745628357 1.4916592836380005 146 142 150 9.75 70 91 76 11 77 10 78 5 79 5 80 6 81 4 84 2 
186 0.4430950880050659 0.4469699263572693 1.4479979276657104 170 167 166 7.04 71 77 72 39 73 11 74 10 75 11 76 12 77 11 
187 0.20311294496059418 0.07410971820354462 1.5368874073028564 82 92 94 7.46 67 111 68 110 72 40 73 12 74 11 75 12 76 13 77 12 78 6 79 6 80 7 81 5 84 3 
188 0.3860069513320923 0.3916464149951935 1.485973834991455 69 98 56 11.02 75 13 76 14 77 13 78 7 79 7 80 8 
189 0.3166653513908386 0.026567362248897552 1.4518049955368042 145 118 122 9.86 66 107 67 112 68 111 69 88 72 41 73 13 74 12 75 14 76 15 77 14 78 8 79 8 80 9 81 6 
190 0.3676597774028778 0.05513140186667442 1.3914611339569092 151 153 165 9.99 66 108 67 113 68 112 69 89 72 42 73 14 74 13 75 15 76 16 77 15 78 9 79 9 80 10 
191 0.4747963845729828 0.03886532410979271 1.27280855178833 165 188 213 6.85 66 109 67 114 68 113 69 90 70 92 71 78 73 15 74 14 75 16 76 17 77 16 
192 0.12771259248256683 0.1394098848104477 1.5984065532684326 181 183 191 6.69 66 110 67 115 68 114 70 93 74 15 75 17 76 18 77 17 78 10 79 10 80 11 81 7 84 4 
193 0.4557904601097107 0.2579028308391571 1.2409944534301758 144 165 181 6.49 66 111 67 116 68 115 73 16 74 16 75 18 76 19 77 18 
194 0.08852522820234299 0.2153802067041397 1.6150627136230469 157 169 193 5.83 67 117 68 116 74 17 75 19 76 20 77 19 78 11 79 11 80 12 81 8 
195 0.48829734325408936 0.20380422472953796 1.229901671409607 42 34 41 7.34 66 112 67 118 68 117 69 91 70 94 71 79 72 43 73 17 74 18 75 20 76 21 77 20 
196 0.533186674118042 0.19575414061546326 1.1915364265441895 68 63 67 9.2 66 113 67 119 68 118 69 92 70 95 71 80 72 44 73 18 74 19 75 21 76 22 77 21 
197 0.44051510095596313 0.13165953755378723 1.2987169027328491 60 45 30 7.61 66 114 67 120 68 119 69 93 70 96 71 81 72 45 73 19 74 20 75 22 76 23 77 22 
198 0.13982369005680084 0.06251494586467743 1.6133509874343872 78 72 73 7.82 67 121 68 120 70 97 72 46 73 20 74 21 75 23 76 24 77 23 78 12 79 12 80 13 81 9 84 5 
199 0.5897036194801331 0.325508177280426 1.3764612674713135 83 97 67 11.15 69 94 70 98 71 82 72 47 73 21 74 22 75 24 76 25 77 24 
200 0.4728948473930359 0.47344261407852173 1.5682744979858398 104 112 102 11.35 73 22 75 25 76 26 
201 0.163030743598938 0.07153962552547455 1.585984468460083 161 145 140 8.19 66 115 67 122 68 121 70 99 71 83 72 48 73 23 74 23 75 26 76 27 77 25 78 13 79 13 80 14 81 10 84 6 
202 0.11264853179454803 0.19650281965732574 1.5867633819580078 85 100 110 4.91 67 123 68 122 69 95 75 27 76 28 77 26 78 14 79 14 80 15 81 11 84 7 
203 0.47179684042930603 0.18618501722812653 1.2513567209243774 60 54 52 7.86 66 116 67 124 68 123 69 96 70 100 71 84 72 49 73 24 74 24 75 28 76 29 77 27 
204 -0.028991403058171272 0.13455688953399658 1.7509843111038208 58 46 46 7.22 67 125 68 124 72 50 73 25 74 25 75 29 76 30 77 28 78 15 79 15 80 16 81 12 84 8 
205 0.18609024584293365 0.1704576313495636 1.5428344011306763 137 144 158 8.37 66 117 67 126 68 125 70 101 74 26 75 30 76 31 77 29 78 16 79 16 80 17 81 13 84 9 
206 0.12179510295391083 0.2800183594226837 1.6829726696014404 130 142 96 13.55 67 127 68 126 73 26 74 27 75 31 76 32 77 30 78 17 79 17 80 18 81 14 84 10 
207 0.13957123458385468 0.27693307399749756 1.565944790840149 117 142 113 7.19 66 118 67 128 68 127 69 97 75 32 76 33 77 31 78 18 79 18 80 19 81 15 
208 0.1382845640182495 0.07274588197469711 1.6096282005310059 149 119 115 8.06 66 119 67 129 68 128 70 102 71 85 72 51 73 27 74 28 75 33 76 34 77 32 78 19 79 19 80 20 81 16 84 11 
209 0.491070032119751 0.11798296123743057 1.2521125078201294 110 106 102 9.17 66 120 67 130 68 129 69 98 70 103 71 86 72 52 73 28 74 29 75 34 76 35 77 33 
210 -0.022024210542440414 0.2563915550708771 1.7180789709091187 149 140 150 7.41 67 131 68 130 73 29 74 30 75 35 76 36 77 34 78 20 79 20 80 21 81 17 84 12 
211 0.08980759978294373 0.2922157347202301 1.601800799369812 72 75 78 6.27 67 132 68 131 69 99 75 36 76 37 77 35 78 21 79 21 80 22 81 18 
212 0.2416084259748459 0.06080992892384529 1.5090283155441284 54 45 48 8.73 66 121 67 133 68 132 69 100 71 87 72 53 73 30 74 31 75 37 76 38 77 36 78 22 79 22 80 23 81 19 84 13 
213 0.5366231203079224 0.3512609601020813 1.418399691581726 62 76 42 11.59 69 101 70 104 71 88 72 54 73 31 74 32 75 38 76 39 77 37 78 23 
214 0.4635002315044403 0.2197600156068802 1.234218716621399 111 132 147 5.87 66 122 67 134 68 133 69 102 70 105 71 89 72 55 73 32 74 33 75 39 76 40 77 38 
215 0.5576556324958801 0.12846910953521729 1.1785718202590942 90 82 75 9.3 66 123 67 135 68 134 69 103 70 106 71 90 72 56 73 33 74 34 75 40 76 41 
216 -0.025271466001868248 0.2619312107563019 1.7221933603286743 72 55 47 11.39 66 124 67 136 68 135 73 34 74 35 75 41 76 42 77 39 78 24 79 23 80 24 81 20 84 14 
217 0.21004816889762878 0.054078537970781326 1.5468494892120361 135 110 112 8.06 66 125 67 137 68 136 72 57 73 35 74 36 75 42 76 43 77 40 78 25 79 24 80 25 81 21 84 15 
218 0.30510175228118896 0.031729720532894135 1.4618686437606812 170 158 155 10.95 66 126 67 138 68 137 69 104 72 58 73 36 74 37 75 43 76 44 77 41 78 26 79 25 80 26 81 22 84 16 
219 0.539523184299469 0.17546775937080383 1.1870701313018799 100 91 92 8.65 66 127 67 139 68 138 69 105 70 107 71 91 72 59 73 37 74 38 75 44 76 45 77 42 
220 0.32956185936927795 0.03752155229449272 1.4193845987319946 135 141 150 7.73 68 139 69 106 73 38 74 39 75 45 76 46 77 43 78 27 79 26 80 27 81 23 
221 0.011324899271130562 0.19373321533203125 1.6952576637268066 195 195 198 6.62 67 140 68 140 73 39 74 40 75 46 76 47 77 44 78 28 79 27 80 28 81 24 84 17 
222 0.5896406173706055 0.2931095063686371 1.3940601348876953 71 90 34 12.2 69 107 70 108 71 92 72 60 73 40 74 41 75 47 76 48 77 45 
223 0.13045917451381683 0.10816683620214462 1.6059385538101196 190 193 200 7.82 66 128 67 141 68 141 70 109 71 93 72 61 73 41 74 42 75 48 76 49 77 46 78 29 79 28 80 29 81 25 84 18 
224 0.12874163687229156 0.26310276985168457 1.5742464065551758 137 130 140 6.41 67 142 68 142 69 108 75 49 76 50 77 47 78 30 79 29 80 30 81 26 
225 0.024443218484520912 0.16311493515968323 1.6938495635986328 148 123 124 6.39 67 143 68 143 73 42 74 43 75 50 76 51 77 48 78 31 79 30 80 31 81 27 84 19 
226 0.07842379063367844 0.16834363341331482 1.6303397417068481 66 49 59 6.36 67 144 68 144 74 44 75 51 76 52 77 49 78 32 79 31 80 32 81 28 84 20 
227 0.4877645671367645 0.18417420983314514 1.2363308668136597 18 13 11 7.37 66 129 67 145 68 145 69 109 70 110 71 94 72 62 73 43 74 45 75 52 76 53 77 50 
228 0.4429541230201721 0.2830008268356323 1.2503278255462646 114 123 132 3.87 71 95 73 44 74 46 75 53 76 54 77 51 
229 0.44166168570518494 0.19544771313667297 1.2795474529266357 27 20 16 7.5 66 130 67 146 68 146 69 110 70 111 71 96 72 63 73 45 74 47 75 54 76 55 
230 0.47035911679267883 0.06101137399673462 1.267916202545166 45 61 69 6.6 66 131 67 147 68 147 69 111 70 112 71 97 73 46 74 48 75 55 76 56 77 52 
231 0.45880264043807983 0.06165839359164238 1.278674840927124 81 87 89 6.8 66 132 67 148 68 148 69 112 70 113 71 98 73 47 74 49 75 56 76 57 77 53 
232 0.5370258688926697 0.1836041808128357 1.1889019012451172 131 131 132 8.58 66 133 67 149 68 149 69 113 70 114 71 99 72 64 73 48 74 50 75 57 76 58 77 54 
233 0.24121125042438507 0.08484451472759247 1.4989744424819946 124 140 153 7.68 66 134 67 150 68 150 69 114 71 100 72 65 73 49 74 51 75 58 76 59 77 55 78 33 79 32 80 33 81 29 84 21 
234 0.575900673866272 0.3056092858314514 1.3686628341674805 43 59 28 11.45 69 115 70 115 71 101 72 66 73 50 74 52 75 59 76 60 77 56 
235 -0.04403910040855408 0.16169288754463196 1.7587112188339233 147 155 169 6.16 67 151 68 151 73 51 74 53 75 60 76 61 77 57 78 34 79 33 80 34 81 30 84 22 
236 0.44339287281036377 0.263823926448822 1.2595900297164917 54 48 53 5.97 66 135 67 152 72 67 74 54 75 61 76 62 77 58 
237 0.45243582129478455 0.23655083775520325 1.2439848184585571 122 134 140 7.88 67 153 68 152 69 116 70 116 71 102 72 68 73 52 74 55 75 62 76 63 
238 0.08364805579185486 0.10183557122945786 1.652406930923462 87 78 85 7.73 66 136 67 154 68 153 70 117 71 103 72 69 73 53 74 56 75 63 76 64 77 59 78 35 79 34 80 35 81 31 84 23 
239 0.06390475481748581 0.11664309352636337 1.6664881706237793 194 188 182 6.73 67 155 68 154 72 70 73 54 74 57 75 64 76 65 77 60 78 36 79 35 80 36 81 32 84 24 
240 0.5617364048957825 0.15914838016033173 1.1464118957519531 73 64 55 6.14 67 156 68 155 69 117 70 118 71 104 72 71 73 55 74 58 75 65 76 66 
241 0.08929221332073212 0.3554525673389435 1.573459506034851 152 165 185 6.53 75 66 76 67 77 61 78 37 79 36 80 37 81 33 84 25 
242 0.26615363359451294 0.05372760817408562 1.488779067993164 186 189 194 8.87 67 157 68 156 69 118 73 56 74 59 75 67 76 68 77 62 78 38 79 37 80 38 81 34 84 26 
243 0.5484944581985474 0.12561681866645813 1.1895643472671509 137 137 135 8.67 67 158 68 157 69 119 70 119 71 105 72 72 73 57 74 60 75 68 76 69 77 63 
244 0.2596130669116974 -0.001424166257493198 0.7229422330856323 163 165 167 2.51 46 167 47 170 48 172 49 173 50 170 51 165 52 150 53 125 54 99 57 108 58 105 59 58 60 94 61 41 62 106 63 97 64 96 65 97 66 137 67 159 68 158 69 120 70 120 71 106 
245 0.3797113597393036 0.2657582461833954 0.7066555023193359 32 39 32 1.85 46 168 47 171 48 173 49 174 50 171 51 166 52 151 53 126 54 100 57 109 58 106 59 59 62 107 63 98 64 97 65 98 66 138 67 160 68 159 69 121 70 121 
246 0.6221537590026855 0.11154554039239883 1.059319257736206 143 145 152 5.66 46 169 47 172 48 174 49 175 50 172 51 167 52 152 53 127 54 101 57 110 59 60 61 42 63 99 64 98 65 99 66 139 67 161 68 160 69 122 70 122 71 107 72 73 73 58 74 61 
247 0.33617106080055237 0.12177217751741409 0.7574107646942139 120 108 111 1.62 46 170 47 173 48 175 49 176 50 173 51 168 52 153 53 128 54 102 57 111 58 107 59 61 60 95 61 43 62 108 63 100 64 99 65 100 66 140 67 162 68 161 69 123 70 123 
248 0.34687307476997375 0.21048370003700256 0.7411345839500427 34 34 42 1.38 46 171 47 174 48 176 49 177 50 174 51 169 52 154 53 129 54 103 57 112 58 108 59 62 61 44 62 109 63 101 64 100 65 101 66 141 67 163 68 162 69 124 
249 0.2896777391433716 0.0888812467455864 0.7237345576286316 127 111 111 1.93 46 172 47 175 48 177 49 178 50 175 51 170 52 155 53 130 54 104 57 113 58 109 59 63 60 96 61 45 62 110 63 102 64 101 65 102 66 142 67 164 68 163 69 125 70 124 
250 0.5987862348556519 0.07827144116163254 1.0468480587005615 126 117 117 5.22 46 173 47 176 48 178 49 179 50 176 51 171 52 156 53 131 54 105 57 114 59 64 61 46 63 103 64 102 65 103 66 143 67 165 68 164 69 126 70 125 71 108 72 74 73 59 74 62 
251 0.2522549331188202 0.011890682391822338 0.7119575142860413 166 162 160 2.55 46 174 47 177 48 179 49 180 50 177 51 172 52 157 53 132 54 106 57 115 58 110 59 65 60 97 62 111 63 104 64 103 65 104 66 144 67 166 68 165 69 127 70 126 71 109 
252 0.305195689201355 0.15063373744487762 0.7168785333633423 122 114 113 1.46 47 178 48 180 49 181 50 178 51 173 52 158 53 133 54 107 57 116 58 111 59 66 60 98 61 47 62 112 63 105 64 104 65 105 66 145 67 167 68 166 69 128 70 127 
253 0.5518403053283691 0.23696394264698029 0.6208903193473816 98 94 102 8.4 52 159 54 108 59 67 62 113 64 105 65 106 66 146 67 168 68 167 
254 0.49790889024734497 0.17617572844028473 0.9091455936431885 72 62 70 2.45 46 175 47 179 48 181 49 182 50 179 51 174 52 160 53 134 54 109 57 117 58 112 59 68 60 99 61 48 62 114 63 106 64 106 65 107 66 147 67 169 72 75 
255 0.4732600748538971 -0.04628084599971771 0.9518777132034302 153 159 165 3.19 46 176 47 180 48 182 49 183 50 180 51 175 52 161 53 135 54 110 57 118 58 113 59 69 60 100 61 49 62 115 63 107 64 107 65 108 66 148 67 170 68 168 69 129 70 128 71 110 72 76 
256 0.5089658498764038 -0.02747645042836666 0.9841576218605042 77 73 85 3.56 46 177 47 181 48 183 49 184 50 181 51 176 52 162 53 136 54 111 57 119 58 114 59 70 60 101 61 50 62 116 63 108 64 108 65 109 66 149 67 171 68 169 69 130 70 129 71 111 72 77 
257 0.5390636920928955 -0.10771085321903229 1.041875958442688 127 123 127 3.48 46 178 47 182 48 184 49 185 50 182 51 177 53 137 54 112 57 120 58 115 59 71 60 102 61 51 63 109 67 172 71 112 
258 0.5923407673835754 0.04902804642915726 1.0493299961090088 92 61 67 4.94 46 179 47 183 48 185 49 186 50 183 51 178 52 163 53 138 54 113 57 121 59 72 61 52 62 117 63 110 64 109 65 110 66 150 67 173 68 170 69 131 70 130 71 113 72 78 73 60 
259 0.45209839940071106 0.11322373896837234 0.886505663394928 73 61 68 2.6 46 180 47 184 48 186 49 187 50 184 51 179 52 164 53 139 54 114 57 122 58 116 59 73 60 103 61 53 62 118 63 111 64 110 65 111 66 151 67 174 68 171 72 79 
260 0.4490436017513275 -0.0793672725558281 0.9379621148109436 181 183 181 2.97 46 181 47 185 48 187 49 188 50 185 51 180 52 165 53 140 54 115 57 123 58 117 59 74 60 104 61 54 62 119 63 112 64 111 65 112 66 152 67 175 68 172 69 132 70 131 71 114 72 80 
261 0.6258417367935181 -0.083182193338871 1.126387357711792 70 70 66 3.17 46 182 47 186 48 188 49 189 50 186 51 181 52 166 53 141 54 116 57 124 59 75 61 55 63 113 
262 0.1470586061477661 0.011326752603054047 0.6130748987197876 130 126 134 2.93 46 183 47 187 48 189 49 190 50 187 51 182 52 167 53 142 54 117 57 125 58 118 59 76 60 105 62 120 63 114 64 112 65 113 66 153 67 176 68 173 69 133 70 132 71 115 
263 0.30782437324523926 0.206789031624794 0.7029856443405151 80 64 68 1.77 47 188 48 190 49 191 50 188 51 183 52 168 53 143 54 118 57 126 58 119 59 77 61 56 62 121 63 115 64 113 65 114 66 154 67 177 68 174 69 134 
264 0.4520924687385559 0.053262870758771896 0.8980758786201477 143 134 135 2.82 46 184 47 189 48 191 49 192 50 189 51 184 52 169 53 144 54 119 57 127 58 120 59 78 60 106 61 57 62 122 63 116 64 114 65 115 66 155 67 178 68 175 69 135 70 133 71 116 72 81 
265 0.4746687114238739 0.06281715631484985 0.9178783297538757 73 81 95 2.83 46 185 47 190 48 192 49 193 50 190 51 185 52 170 53 145 54 120 57 128 58 121 59 79 60 107 61 58 62 123 63 117 64 115 65 116 66 156 67 179 68 176 69 136 70 134 71 117 72 82 
266 0.4077932834625244 0.06974256038665771 0.8468057513237 103 71 76 2.24 46 186 47 191 48 193 49 194 50 191 51 186 52 171 53 146 54 121 57 129 58 122 59 80 60 108 61 59 62 124 63 118 64 116 65 117 66 157 67 180 68 177 69 137 70 135 72 83 
267 0.4648386240005493 -0.036405500024557114 0.9394811987876892 177 174 171 3.0 46 187 47 192 48 194 49 195 50 192 51 187 52 172 53 147 54 122 57 130 58 123 59 81 60 109 61 60 62 125 63 119 64 117 65 118 66 158 67 181 68 178 69 138 70 136 71 118 72 84 
268 0.4082106053829193 0.1530648171901703 0.8207547068595886 122 116 116 1.76 46 188 47 193 48 195 49 196 50 193 51 188 52 173 53 148 54 123 57 131 58 124 59 82 60 110 61 61 62 126 63 120 64 118 65 119 66 159 67 182 68 179 69 139 
269 0.12229572236537933 -0.10472610592842102 0.6272664666175842 139 136 137 3.84 46 189 47 194 48 196 49 197 50 194 51 189 52 174 53 149 54 124 57 132 58 125 59 83 60 111 62 127 63 121 64 119 65 120 66 160 67 183 68 180 69 140 70 137 71 119 
270 0.4478263854980469 0.20907628536224365 0.8519959449768066 65 50 61 2.04 46 190 47 195 48 197 49 198 50 195 51 190 52 175 53 150 54 125 57 133 58 126 59 84 60 112 61 62 62 128 63 122 64 120 65 121 66 161 67 184 68 181 
271 0.25378939509391785 0.2080799788236618 0.6614510416984558 41 28 33 2.06 50 196 51 191 52 176 53 151 54 126 57 134 58 127 59 85 62 129 63 123 64 121 65 122 66 162 67 185 68 182 69 141 70 138 
272 0.6116549372673035 0.11364882439374924 1.0391424894332886 184 184 182 3.58 46 191 47 196 48 198 49 199 50 197 51 192 52 177 53 152 54 127 57 135 59 86 61 63 63 124 64 122 65 123 66 163 67 186 68 183 69 142 70 139 71 120 72 85 73 61 74 63 
273 0.6102123260498047 0.11314447224140167 1.0185272693634033 176 183 182 6.8 46 192 47 197 48 199 49 200 50 198 51 193 52 178 53 153 54 128 57 136 59 87 61 64 62 130 63 125 64 123 65 124 66 164 67 187 68 184 69 143 70 140 71 121 72 86 73 62 74 64 
