# 3D point list with one line of data per point:
#   POINT3D_ID, X, Y, Z, R, G, B, ERROR, TRACK[] as (IMAGE_ID, POINT2D_IDX)
# Number of points: 365, mean track length: 6.51
959 0.23610558609360366 0.0374148335900598 0.9662312680907064 0 0 0 0.44 98 388 112 298 187 879 
960 0.03142846843346107 0.04642839074075535 0.9656958559301873 0 0 0 0.03 98 389 112 299 187 880 
961 0.0706717421125803 0.045342384094218355 0.9642253235762297 0 0 0 0.28 98 390 112 300 187 881 
962 0.16705482404953023 0.04249859122099571 0.9644427015797783 0 0 0 0.2 98 391 112 301 187 882 
963 0.12979725453034419 0.04463554186537294 0.969416298842872 0 0 0 0.26 98 392 112 302 187 883 
964 0.2709533774947425 0.043874263251524326 0.9617004216700898 0 0 0 0.37 98 393 112 303 187 884 13 217 28 120 146 119 201 130 
965 0.08779909984705342 0.04931508975369241 0.9696906814447419 0 0 0 0.3 98 394 112 304 124 269 187 885 13 218 28 121 175 53 201 131 
966 -0.031686817553623334 0.05350547515750815 0.9686952664206401 0 0 0 0.24 98 395 124 270 187 886 
967 0.06935481039615718 0.05266694213986465 0.964021366566911 0 0 0 0.29 98 396 112 305 187 887 11 258 13 219 16 443 38 213 92 210 146 120 201 132 214 95 
968 0.17367709688691094 0.05382362617924666 0.9598156939362239 0 0 0 0.29 98 397 112 306 187 888 146 121 201 133 
969 0.03419228561256479 0.06350424729558155 0.9671063848846829 0 0 0 0.12 98 398 124 271 187 889 
970 0.22929810183494992 0.08349844192322979 0.9613606193896201 0 0 0 0.43 98 399 124 272 187 890 
971 0.09282791488051265 0.08332112686419268 0.9640743391539844 0 0 0 0.18 98 400 124 273 187 891 
972 0.25974409102633317 0.08833812015856243 0.9596353964453934 0 0 0 0.32 98 401 124 274 187 892 13 220 38 214 164 43 175 54 201 134 213 88 
973 0.25325064345320586 0.08870357101244362 0.9587464737906772 0 0 0 0.32 98 402 124 275 187 893 11 259 17 160 28 122 175 55 213 89 234 31 
974 0.21116401770533652 0.09293348418029306 0.9558189300807752 0 0 0 0.22 98 403 124 276 187 894 
975 0.24523715022706197 0.10649655799033089 0.9500372052604436 0 0 0 0.34 98 404 124 277 187 895 
976 0.01173857565079292 0.10833351749530276 0.9594789167773873 0 0 0 0.25 98 405 124 278 187 896 
977 0.07875597121547884 -0.15585742048860043 1.0051164339211471 0 0 0 0.22 98 406 124 279 187 897 
978 0.02528272717211877 -0.10773922005255035 0.9980084739467815 0 0 0 0.12 98 407 124 280 187 898 
979 -0.06992621416427743 -0.08033017221834149 1.001488521237548 0 0 0 0.28 98 408 112 307 187 899 
980 -0.04219660021725886 -0.08027085402681738 0.9955734212053311 0 0 0 0.17 98 409 124 281 187 900 
981 0.0018678988281453216 -0.08615141483318366 0.9962836237356295 0 0 0 0.24 98 410 124 282 187 901 
982 -0.02610410829528461 -0.08096437387741233 0.9959742046032972 0 0 0 0.42 98 411 112 308 124 283 187 902 
983 0.0970933718728101 -0.0728304746414721 0.989643446419895 0 0 0 0.24 98 412 112 309 187 903 
984 0.03148742404401141 -0.05598610604945627 0.9898784534227731 0 0 0 0.36 98 413 112 310 187 904 
985 0.21517748569263098 -0.08027975634750241 0.9879439832228819 0 0 0 0.05 98 414 112 311 187 905 
986 0.190724177423416 -0.07357430062856671 0.9871805830183303 0 0 0 0.27 98 415 112 312 124 284 187 906 4 313 28 123 38 215 39 122 110 91 146 122 176 68 234 32 50 238 61 155 157 60 172 15 201 135 204 33 
987 0.2461417191684735 -0.07991289838438649 0.9861754116563808 0 0 0 0.23 98 416 112 313 187 907 
988 0.2286817111725724 -0.07305626496967826 0.9860886957856783 0 0 0 0.33 98 417 112 314 187 908 2 162 4 314 9 113 19 37 33 142 39 123 50 239 77 213 85 117 124 285 136 13 146 123 157 61 158 27 176 69 196 13 200 43 213 90 214 96 232 26 
989 0.13237958758534552 -0.0594567020615063 0.9869862205319253 0 0 0 0.26 98 418 112 315 124 286 187 909 28 124 39 124 146 124 157 62 176 70 
990 0.16838677561215004 -0.05911987657326651 0.9878806064294273 0 0 0 0.29 98 419 112 316 187 910 39 125 124 287 176 71 
991 0.030161472562877427 -0.040679606175177636 0.9891973992347701 0 0 0 0.2 98 420 112 317 187 911 
992 -0.03565695687336856 -0.01910960341791178 0.9882098974057771 0 0 0 0.36 98 421 112 318 124 288 187 912 
993 0.0295909049737419 -0.013389372876940933 0.983598452763297 0 0 0 0.36 98 422 112 319 124 289 187 913 
994 0.19933043478238874 -0.014326236912577986 0.9798495070312099 0 0 0 0.14 98 423 112 320 187 914 
995 0.24816232817131273 0.027155422540482293 0.9685409322975801 0 0 0 0.5 98 424 124 290 187 915 
996 0.097049499220127 0.0376146417875282 0.9677102973086613 0 0 0 0.13 98 425 112 321 187 916 
997 0.2676675754437325 0.03166766748741084 0.9711185387362382 0 0 0 0.07 98 426 112 322 187 917 
998 0.057217227689752743 0.04373720815331012 0.9742181652396771 0 0 0 0.05 98 427 112 323 187 918 
999 0.11501605341264592 0.04438709869497632 0.9704886746697011 0 0 0 0.11 98 428 112 324 187 919 
1000 0.16858129758708004 0.04478872789765018 0.9629664318034078 0 0 0 0.28 98 429 112 325 187 920 28 125 146 125 175 56 176 72 201 136 
1001 0.1875204807087795 0.046486736280462584 0.9670262247628004 0 0 0 0.21 98 430 112 326 187 921 13 221 92 211 135 34 175 57 201 137 124 291 146 126 164 44 213 91 214 97 234 33 
1002 0.2667436893818012 0.07116413314689432 0.9616285263678206 0 0 0 0.49 98 431 124 292 187 922 13 222 93 178 201 138 
1003 0.2669966024339733 0.0755725619626232 0.9613469672736449 0 0 0 0.18 98 432 124 293 187 923 
1004 0.218160791666864 0.10358530775954498 0.9531441646985424 0 0 0 0.55 98 433 124 294 187 924 
1005 0.14153355125497477 -0.15736833988687227 1.0023831620251251 0 0 0 0.09 98 434 112 327 187 925 
1006 0.14723127102992428 -0.1572245008846789 1.0008291731667827 0 0 0 0.13 98 435 124 295 187 926 
1007 0.2855775789838585 -0.1433063714783688 0.9948682670682776 0 0 0 0.38 98 436 112 328 124 296 187 927 
1008 0.09849971671435412 -0.10127343318676181 0.9941069593061679 0 0 0 0.56 98 437 112 329 118 166 124 297 187 928 28 126 39 126 109 98 157 63 214 98 
1009 0.13486313237603315 -0.0983759335533566 0.986568875448987 0 0 0 0.16 98 438 112 330 187 929 
1010 -0.07368982651384184 -0.02564083198461351 0.9942741938647326 0 0 0 0.31 98 439 112 331 187 930 39 127 50 240 92 212 124 298 146 127 176 73 200 44 214 99 
1011 0.09398406749953364 -0.0155932751181625 0.9817832543607686 0 0 0 0.13 98 440 112 332 187 931 
1012 0.13724144724788634 0.04170294206889829 0.9617740544337567 0 0 0 0.31 98 441 112 333 187 932 28 127 50 241 146 128 152 6 176 74 201 139 204 34 234 34 
1013 0.2032827342034392 0.04613552420585491 0.9626390606520027 0 0 0 0.29 98 442 112 334 187 933 4 315 50 242 176 75 201 140 204 35 213 92 232 27 
1014 0.2409913226381812 0.045407733064351405 0.9623508544218364 0 0 0 0.3 98 443 112 335 187 934 
1015 0.2702768988906854 0.045983220677768215 0.9624389204758641 0 0 0 0.24 98 444 112 336 187 935 
1016 0.22990025023486324 0.08575284653799245 0.9643726975583291 0 0 0 0.22 98 445 124 299 187 936 
1017 0.21164707489709123 0.10318903554187854 0.9530394770803816 0 0 0 0.26 98 446 124 300 187 937 
1018 0.21678146266095152 0.10799084253342875 0.9527255448016225 0 0 0 0.58 98 447 124 301 187 938 
1019 0.14581490727451527 -0.1606782799665944 1.0018936237625613 0 0 0 0.22 98 448 112 337 124 302 187 939 
1020 -0.002732472022707105 -0.07306346684658795 0.9922123727774694 0 0 0 0.28 98 449 124 303 187 940 
1021 0.02990070403184602 -0.07274775496190607 0.9907391781678451 0 0 0 0.27 98 450 112 338 124 304 187 941 
1022 0.0649363353866057 -0.07307031937275778 0.9901882128170321 0 0 0 0.29 98 451 112 339 187 942 
1023 0.3699712386524806 -0.1192646604441574 0.9941516223555407 0 0 0 0.3 98 452 124 305 187 943 
1024 0.2466278007677976 -0.012577171251869081 0.9754968773542504 0 0 0 0.22 98 453 112 340 187 944 
1025 0.18556749419818777 0.039865374193309294 0.9683214629464912 0 0 0 0.24 98 454 112 341 187 945 
1026 0.10999637055276525 -0.015750464872481763 0.9800757337624557 0 0 0 0.32 98 455 124 306 187 946 
1027 0.1976087983242574 0.03897451290691118 0.9713956229633189 0 0 0 0.49 98 456 112 342 187 947 
1028 0.21014401552146567 0.050055065644118664 0.9629981641609294 0 0 0 0.62 98 457 112 343 187 948 28 128 77 214 175 58 201 141 234 35 
1029 0.10085416681494479 -0.11092121713331511 0.9951792907788412 0 0 0 0.43 98 458 112 344 124 307 187 949 16 444 29 16 32 47 38 216 39 128 44 198 50 243 53 101 61 156 77 215 93 179 97 8 109 99 110 92 135 35 146 129 148 42 157 64 164 45 172 16 176 76 196 14 204 36 213 93 214 100 219 11 
1030 0.13936527873637417 -0.17544597613427484 1.001909204950073 0 0 0 0.7 98 459 112 345 187 950 39 129 124 308 201 142 
1031 0.25824910309056626 0.0908650070086485 0.9580404206510286 0 0 0 0.21 98 460 124 309 187 951 
1032 0.20587518445576986 0.07251719733810322 0.9602127209525789 0 0 0 0.77 98 461 118 167 187 952 28 129 124 310 201 143 232 28 234 36 50 244 231 25 
1033 0.2430338828264282 -0.023415414574498 0.9805014916174801 0 0 0 0.29 98 462 112 346 187 953 
1034 0.15012853349737354 -0.09494975813250008 0.9848882336577764 0 0 0 0.19 109 100 112 347 187 954 
1035 0.13745143436109833 -0.08769880925572641 0.9890758138558534 0 0 0 0.21 109 101 124 311 187 955 
1036 0.06828157016651237 -0.08751776856777982 0.9924255814887109 0 0 0 0.26 109 102 112 348 124 312 187 956 
1037 -0.029482303714181302 -0.08017654614274249 0.9957471497973346 0 0 0 0.16 109 103 112 349 187 957 39 130 
1038 0.16066621525032346 0.04920492345261647 0.9683917083676729 0 0 0 0.11 109 104 112 350 187 958 
1039 0.06698512794177082 0.052645450649148544 0.9644639759127194 0 0 0 0.09 109 105 112 351 187 959 
1040 0.021071936606900415 -0.09753136875382289 0.9973127861435059 0 0 0 0.35 110 93 112 352 124 313 187 960 
1041 0.07908592276550859 -0.1318365559687068 0.9934322612117916 0 0 0 0.14 112 353 124 314 187 961 39 131 
1042 0.020895408409837495 -0.0936538514030691 0.9963462058376948 0 0 0 0.23 112 354 124 315 187 962 
1043 -0.03134801759417898 -0.01435130558092265 0.9862634939448456 0 0 0 0.11 112 355 124 316 187 963 
1044 0.050938157197199685 -0.01629044881115906 0.9834314698071334 0 0 0 0.21 112 356 124 317 187 964 
1045 0.09299339736658105 0.04358591720408013 0.9694007488799318 0 0 0 0.39 112 357 124 318 187 965 28 130 39 132 175 59 
1046 0.08774420332962007 0.04533052618117352 0.9706306176931867 0 0 0 0.32 112 358 124 319 187 966 39 133 13 223 146 130 175 60 201 144 231 26 
1047 -0.06619814793113354 0.0531838912215484 0.9690495138004351 0 0 0 0.12 112 359 124 320 187 967 
1048 0.11924005855801618 -0.11006493282809243 0.9911659222149549 0 0 0 0.48 112 360 124 321 187 968 39 134 201 145 
1049 0.019958653689759465 -0.0920665315371406 0.9962861640810342 0 0 0 0.26 112 361 124 322 187 969 
1050 -0.031323215953535294 -0.05830709697964335 0.9934328194481452 0 0 0 0.18 112 362 124 323 187 970 
1051 0.029828951707447683 -0.060435119820758984 0.9907797372996117 0 0 0 0.16 112 363 124 324 187 971 
1052 0.07206188138864286 -0.058797981121223364 0.9878140812469658 0 0 0 0.09 112 364 124 325 187 972 
1053 0.14226979838195658 -0.057504743239000976 0.9849178839289209 0 0 0 0.17 112 365 124 326 187 973 
1054 0.09287578234835306 -0.02278352696964553 0.9841875128233742 0 0 0 0.23 112 366 124 327 187 974 
1055 -0.0727444293519749 -0.016187786586366656 0.9927025627284375 0 0 0 0.27 112 367 124 328 187 975 28 131 39 135 231 27 
1056 0.064253088222639 -0.021234211470902802 0.9836946037034862 0 0 0 0.28 112 368 124 329 187 976 
1057 0.06387442802605257 -0.01219286919643836 0.9818994380612728 0 0 0 0.15 112 369 124 330 187 977 201 146 
1058 0.08310523043281223 -0.08461707773371899 0.9921804793404863 0 0 0 0.3 112 370 124 331 187 978 28 132 92 213 146 131 201 147 
1059 0.025432369521092353 -0.023291098874649304 0.9852021183671075 0 0 0 0.16 112 371 124 332 187 979 
1060 0.13162229701696973 0.03670916121404717 0.9658629301606559 0 0 0 0.18 112 372 124 333 187 980 28 133 201 148 
1061 0.10558840314282775 0.05027099570545871 0.9639148302724458 0 0 0 0.38 112 373 124 334 187 981 
1062 0.23462121852635257 -0.07731439115998716 0.985672486155789 0 0 0 0.33 112 374 118 168 187 982 11 260 91 34 157 65 201 149 172 17 
1063 0.18147128811666388 -0.11009963697864088 0.9943524659101267 0 0 0 0.28 2 163 38 217 39 136 124 335 146 132 157 66 172 18 176 77 
1064 0.13554072953543259 -0.0953775334113255 0.9884827815562611 0 0 0 0.26 2 164 32 48 36 55 39 137 112 375 146 133 200 45 214 101 44 199 
1065 -0.08630630373353669 -0.0851794506792527 1.0053418783622314 0 0 0 0.36 2 165 11 261 16 445 28 134 36 56 38 218 39 138 50 245 77 216 85 118 98 463 118 169 136 14 148 43 164 46 176 78 185 22 194 41 213 94 
1066 -0.10148432192715834 -0.08285400073992857 1.0067141024220416 0 0 0 0.22 2 166 39 139 60 8 61 157 92 214 124 336 146 134 148 44 164 47 185 23 213 95 
1067 -0.1065445853583589 -0.08247124599616378 1.0080767736869796 0 0 0 0.18 2 167 4 316 9 114 13 224 16 446 19 38 32 49 33 143 39 140 44 200 50 246 61 158 77 217 92 215 93 180 109 106 118 170 124 337 135 36 146 135 157 67 158 28 164 48 185 24 200 46 213 96 214 102 
1068 -0.14253202745358481 -0.08249618048352547 1.014487902989409 0 0 0 0.33 2 168 4 317 9 115 16 447 38 219 39 141 44 201 50 247 60 9 77 218 98 464 124 338 146 136 148 45 157 68 164 49 176 79 200 47 213 97 
1069 -0.12570628703363312 -0.0826135651590104 1.0112792555324182 0 0 0 0.33 2 169 13 225 32 50 38 220 39 142 44 202 50 248 92 216 93 181 98 465 109 107 110 94 113 59 124 339 146 137 148 46 157 69 164 50 176 80 200 48 204 37 214 103 
1070 -0.12988146433577685 -0.08210107609685371 1.0121503872091302 0 0 0 0.2 2 170 9 116 13 226 16 448 32 51 38 221 39 143 44 203 60 10 93 182 98 466 110 95 113 60 124 340 136 15 146 138 148 47 162 5 200 49 214 104 
1071 -0.15195929031926655 -0.08201187535339476 1.0157418274811718 0 0 0 0.23 2 171 4 318 9 117 13 227 19 39 28 135 32 52 33 144 36 57 38 222 39 144 44 204 50 249 60 11 61 159 77 219 85 119 93 183 98 467 110 96 113 61 124 341 148 48 157 70 158 29 162 6 164 51 200 50 
1072 -0.17622393228281 -0.08178263390743656 1.0197033257291106 0 0 0 0.32 2 172 4 319 11 262 13 228 19 40 28 136 29 17 32 53 33 145 36 58 39 145 44 205 50 250 77 220 85 120 93 184 98 468 109 108 110 97 113 62 118 171 124 342 146 139 148 49 157 71 158 30 159 17 162 7 164 52 176 81 185 25 196 15 200 51 204 38 213 98 219 12 232 29 
1073 -0.1950400707542706 -0.08132395391466744 1.0228018045689173 0 0 0 0.4 2 173 4 320 9 118 13 229 19 41 28 137 32 54 33 146 36 59 39 146 44 206 50 251 92 217 93 185 98 469 110 98 113 63 124 343 146 140 148 50 157 72 158 31 176 82 200 52 213 99 
1074 -0.13505417945716927 -0.08011123401031091 1.0126554435687538 0 0 0 0.3 2 174 4 321 11 263 16 449 19 42 38 223 39 147 44 207 60 12 85 121 92 218 98 470 109 109 113 64 124 344 146 141 157 73 158 32 162 8 200 53 213 100 136 16 
1075 -0.1312003281017069 -0.07988511636156867 1.0115741336482786 0 0 0 0.33 2 175 13 230 16 450 19 43 33 147 39 148 44 208 50 252 61 160 85 122 92 219 93 186 109 110 110 99 124 345 135 37 136 17 146 142 157 74 158 33 196 16 200 54 214 105 
1076 -0.013022434402605317 -0.06458942631351215 0.9995356211178406 0 0 0 0.35 2 176 39 149 44 209 60 13 50 253 157 75 
1077 -0.07569130897704344 -0.027618525816852674 0.9949458730622571 0 0 0 0.2 2 177 4 322 36 60 39 150 44 210 50 254 60 14 92 220 93 187 98 471 110 100 113 65 124 346 135 38 136 18 157 76 159 18 164 53 194 42 200 55 214 106 
1078 -0.09067997796050287 -0.02724304254168645 0.9979597076123748 0 0 0 0.13 2 178 4 323 33 148 39 151 44 211 60 15 92 221 98 472 110 101 113 66 124 347 135 39 148 51 157 77 164 54 200 56 214 107 231 28 
1079 0.09605989342431591 -0.023044934528439694 0.9831886549464098 0 0 0 0.2 2 179 39 152 60 16 146 143 231 29 
1080 0.08173624480363455 -0.022852167571782874 0.9852818539210545 0 0 0 0.31 2 180 39 153 157 78 213 101 
1081 0.09600884362387986 -0.01977856441108342 0.9822271501007381 0 0 0 0.14 2 181 9 119 39 154 124 348 214 108 
1082 -0.03970997886515148 0.06219194876117097 0.9749577224136321 0 0 0 0.13 2 182 32 55 39 155 124 349 
1083 0.11171124030127569 -0.11102269075515013 0.994221031239598 0 0 0 0.35 2 183 4 324 16 451 38 224 39 156 44 212 53 102 164 55 176 83 
1084 0.19086387467486476 -0.0804955461466247 0.9877631891577084 0 0 0 0.32 2 184 13 231 28 138 29 18 38 225 39 157 44 213 92 222 93 188 118 172 124 350 136 19 146 144 157 79 162 9 164 56 172 19 175 61 176 84 204 39 213 102 214 109 219 13 234 37 201 150 
1085 -0.07253042731674685 -0.08014276215076348 1.0002775509675785 0 0 0 0.53 2 185 4 325 9 120 32 56 39 158 158 34 172 20 200 57 214 110 232 30 
1086 -0.07694269830048871 -0.08019928251492182 1.0022234676837098 0 0 0 0.3 2 186 11 264 13 232 32 57 33 149 39 159 50 255 77 221 98 473 113 67 124 351 135 40 157 80 158 35 162 10 176 85 200 58 204 40 232 31 
1087 -0.12042388330677384 -0.08008432587034998 1.0098541396915754 0 0 0 0.26 2 187 4 326 9 121 13 233 19 44 28 139 32 58 33 150 39 160 50 256 53 103 60 17 61 161 92 223 124 352 146 145 148 52 158 36 164 57 196 17 200 59 213 103 214 111 113 68 136 20 157 81 176 86 
1088 -0.1268475368771889 -0.07989866361313543 1.010810236047343 0 0 0 0.23 2 188 4 327 11 265 13 234 16 452 19 45 29 19 32 59 39 161 44 214 50 257 60 18 61 162 77 222 85 123 92 224 109 111 110 102 113 69 118 173 124 353 136 21 146 146 157 82 159 19 162 11 164 58 176 87 196 18 200 60 204 41 213 104 214 112 9 122 53 104 93 189 135 41 
1089 -0.16606221279816097 -0.0796742453581366 1.0172198738093 0 0 0 0.32 2 189 4 328 9 123 13 235 19 46 32 60 38 226 39 162 60 19 77 223 92 225 109 112 110 103 113 70 124 354 146 147 148 53 157 83 158 37 162 12 164 59 172 21 176 88 200 61 
1090 -0.19709268175490477 -0.0789324384674881 1.022342889497649 0 0 0 0.26 2 190 11 266 32 61 36 61 39 163 44 215 50 258 92 226 118 174 124 355 200 62 
1091 0.023900469076711867 -0.043853849445140314 0.9928796191933165 0 0 0 0.3 2 191 39 164 50 259 60 20 
1092 -0.1629872002105179 -0.019764611929396967 1.0085486075000882 0 0 0 0.32 2 192 4 329 39 165 77 224 157 84 162 13 213 105 232 32 16 453 28 140 110 104 113 71 
1093 -0.1601319710550123 -0.015472343576912767 1.0076874862238232 0 0 0 0.24 2 193 4 330 9 124 16 454 28 141 32 62 33 151 36 62 38 227 39 166 44 216 50 260 60 21 61 163 77 225 92 227 109 113 113 72 124 356 146 148 148 54 157 85 164 60 172 22 176 89 200 63 213 106 214 113 
1094 0.021438759103484785 -0.010979565931390127 0.9882031184701147 0 0 0 0.2 2 194 39 167 157 86 
1095 -0.043881278688963035 0.04052095298399863 0.9770441973433008 0 0 0 0.13 2 195 38 228 39 168 146 149 200 64 
1096 -0.042244591381351636 0.060050894692947596 0.9738602457942642 0 0 0 0.07 2 196 16 455 39 169 
1097 -0.0930331024580386 -0.08599778589366368 1.0069205899132687 0 0 0 0.29 2 197 4 331 11 267 19 47 29 20 32 63 39 170 44 217 50 261 53 105 60 22 71 12 77 226 85 124 97 9 98 474 110 105 124 357 148 55 157 87 158 38 162 14 164 61 172 23 194 43 200 65 204 42 93 190 
1098 0.2078165482838709 -0.08390963783362826 0.9888721863932084 0 0 0 0.26 2 198 4 332 11 268 13 236 19 48 28 142 29 21 33 152 38 229 39 171 44 218 50 262 53 106 60 23 71 13 77 227 85 125 92 228 93 191 98 475 112 376 118 175 124 358 135 42 146 150 148 56 157 88 158 39 162 15 164 62 175 62 185 26 194 44 196 19 214 114 234 38 9 125 61 164 91 35 109 114 176 90 197 18 201 151 204 43 
1099 0.2449770979632152 -0.08352505963578996 0.9866692109433138 0 0 0 0.32 2 199 19 49 39 172 85 126 93 192 164 63 172 24 194 45 196 20 
1100 0.04243788784695632 -0.12932364699990537 0.9999736444953025 0 0 0 0.54 2 200 9 126 19 50 32 64 33 153 39 173 53 107 60 24 71 14 85 127 109 115 124 359 159 20 162 16 172 25 176 91 185 27 196 21 200 66 204 44 214 115 219 14 13 237 
1101 -0.0893605202144414 -0.019823625991098028 0.9950174573902163 0 0 0 0.5 2 201 9 127 33 154 39 174 44 219 60 25 85 128 92 229 97 10 109 116 110 106 113 73 124 360 135 43 148 57 164 64 176 92 194 46 200 67 214 116 219 15 
1102 -0.09270701409868874 -0.01362064519350366 0.9970422422962852 0 0 0 0.35 2 202 16 456 29 22 39 175 85 129 92 230 113 74 136 22 159 21 164 65 185 28 196 22 214 117 
1103 -0.16601338416293354 -0.07776648908179012 1.0172671789836099 0 0 0 0.35 2 203 4 333 9 128 11 269 13 238 19 51 32 65 33 155 38 230 39 176 44 220 50 263 53 108 60 26 61 165 71 15 77 228 85 130 97 11 98 476 110 107 118 176 124 361 148 58 157 89 158 40 159 22 162 17 164 66 196 23 200 68 213 107 219 16 232 33 
1104 0.19638803839257088 -0.1468878073755452 0.9969819043838412 0 0 0 0.29 4 334 32 66 39 177 60 27 124 362 146 151 157 90 
1105 0.1649228205997804 -0.09269179631340224 0.9875257132788477 0 0 0 0.28 4 335 28 143 36 63 39 178 77 229 85 131 93 193 110 108 146 152 148 59 157 91 194 47 196 24 
1106 0.00801883126974188 -0.08214865853755812 0.9935417074885539 0 0 0 0.25 4 336 11 270 32 67 33 156 36 64 39 179 77 230 98 477 113 75 146 153 
1107 -0.12136956013750126 -0.08269817272736628 1.0111308023820043 0 0 0 0.3 4 337 9 129 11 271 13 239 32 68 39 180 44 221 61 166 92 231 113 76 135 44 146 154 200 69 204 45 
1108 0.21220943458891872 -0.07758490475414691 0.9869191208087184 0 0 0 0.14 4 338 39 181 77 231 92 232 124 363 157 92 214 118 
1109 -0.13726511055544402 -0.08229736051224375 1.0127300599382376 0 0 0 0.33 4 339 11 272 13 240 33 157 39 182 50 264 85 132 110 109 148 60 159 23 213 108 
1110 -0.16027711612626835 -0.07975092281552731 1.0164653804163155 0 0 0 0.25 4 340 28 144 36 65 38 231 39 183 93 194 109 117 146 155 164 67 
1111 -0.18055880965097532 -0.07937208517207703 1.0196251198930675 0 0 0 0.58 4 341 13 241 28 145 39 184 98 478 124 364 146 156 176 93 
1112 0.027583428276592804 -0.04888314072924949 0.9928689405982422 0 0 0 0.2 4 342 39 185 50 265 157 93 
1113 -0.09264071397660693 -0.025425506897810975 0.9977901285805435 0 0 0 0.21 4 343 16 457 39 186 98 479 124 365 146 157 157 94 
1114 -0.046465003991575916 -0.007472175308340321 0.9883029653921785 0 0 0 0.12 4 344 16 458 39 187 
1115 0.02700015847880087 0.01645381980279262 0.982395855624712 0 0 0 0.06 4 345 39 188 213 109 
1116 -0.07065789136588536 0.04637378486553117 0.9725156138216324 0 0 0 0.26 4 346 39 189 124 366 176 94 213 110 
1117 0.030842944951588777 -0.09527903667039114 0.9958340390762487 0 0 0 0.29 4 347 36 66 39 190 109 118 124 367 146 158 157 95 185 29 201 152 
1118 0.14871823044677393 -0.09307445416233812 0.9870052481439077 0 0 0 0.26 4 348 9 130 11 273 32 69 33 158 36 67 39 191 44 222 50 266 61 167 77 232 85 133 118 177 146 159 157 96 164 68 213 111 214 119 
1119 -0.14293898030913813 -0.09421526375443719 1.0129228566956587 0 0 0 0.43 4 349 11 274 29 23 33 159 36 68 39 192 98 480 110 110 200 70 204 46 
1120 0.16641508072894953 -0.08809950626067363 0.9898751694068373 0 0 0 0.34 4 350 28 146 39 193 44 223 77 233 98 481 146 160 175 63 219 17 
1121 0.2021563722129133 -0.08040578315301157 0.9873127344125802 0 0 0 0.3 4 351 13 242 32 70 39 194 175 64 9 131 11 275 44 224 85 134 91 36 128 11 164 69 201 153 213 112 214 120 
1122 0.22347064376048442 -0.07751269979357092 0.9865908695163083 0 0 0 0.35 4 352 11 276 13 243 28 147 39 195 44 225 61 168 93 195 98 482 112 377 124 368 146 161 176 95 204 47 213 113 234 39 85 135 91 37 92 233 148 61 164 70 194 48 201 154 9 132 
1123 -0.09540862604419056 -0.08052144226873176 1.0054038017629294 0 0 0 0.15 4 353 28 148 39 196 44 226 77 234 92 234 158 41 164 71 
1124 -0.15525383172240864 -0.0797894150892879 1.0158498745657352 0 0 0 0.25 4 354 9 133 13 244 19 52 29 24 33 160 36 69 38 232 39 197 60 28 92 235 110 111 113 77 136 23 146 162 148 62 159 24 162 18 176 96 213 114 
1125 -0.1834547972289408 -0.07907779147890502 1.0202489395835477 0 0 0 0.4 4 355 11 277 13 245 28 149 32 71 39 198 50 267 92 236 98 483 109 119 110 112 113 78 118 178 124 369 146 163 157 97 164 72 185 30 213 115 
1126 -0.19415105519127895 -0.0748576069878293 1.021375488195187 0 0 0 0.42 4 356 9 134 13 246 32 72 33 161 39 199 44 227 92 237 113 79 118 179 200 71 213 116 
1127 -0.18580037082572018 -0.05706565756827797 1.0154426737154276 0 0 0 0.34 4 357 39 200 50 268 146 164 
1128 0.02601125305301402 0.021327479728108535 0.980569239660572 0 0 0 0.24 4 358 11 278 38 233 39 201 146 165 176 97 213 117 118 180 
1129 0.13764362665119473 -0.08953052266050769 0.988838694209747 0 0 0 0.34 4 359 9 135 32 73 39 202 61 169 92 238 219 18 
1130 -0.15903180010986806 -0.021874078095399818 1.0082378994309569 0 0 0 0.32 4 360 19 53 29 25 33 162 38 234 39 203 44 228 77 235 85 136 92 239 110 113 113 80 148 63 159 25 164 73 214 121 
1131 -0.16618508017026115 -0.021593356066607006 1.00923088433164 0 0 0 0.32 4 361 11 279 39 204 50 269 53 109 60 29 77 236 85 137 110 114 113 81 124 370 135 45 146 166 158 42 159 26 176 98 200 72 232 34 
1132 0.02061210604338591 -0.12776403262851238 1.0002875471585493 0 0 0 0.28 4 362 39 205 53 110 77 237 92 240 109 120 135 46 148 64 164 74 214 122 219 19 232 35 
1133 0.24203072986387025 -0.08357079267226074 0.9869046048821583 0 0 0 0.4 4 363 29 26 39 206 61 170 71 16 77 238 85 138 93 196 112 378 124 371 148 65 158 43 162 19 185 31 200 73 232 36 234 40 50 270 91 38 201 155 204 48 
1134 -0.17641295776546087 -0.054844288300135074 1.0177780314406728 0 0 0 0.37 4 364 39 207 71 17 
1135 -0.1326793254284828 -0.07181100411821476 1.013736218356858 0 0 0 0.11 4 365 39 208 113 82 
1136 0.1741133633298405 -0.09331331314333026 0.991983145968616 0 0 0 0.71 4 366 39 209 53 111 71 18 77 239 118 181 164 75 176 99 200 74 204 49 214 123 219 20 232 37 
1137 -0.14601416878630055 -0.07840745789188877 1.013161401679657 0 0 0 0.42 4 367 29 27 39 210 53 112 71 19 77 240 85 139 97 12 159 27 185 32 204 50 219 21 232 38 
1138 0.19279946301553166 -0.162495820973119 1.0043442834369014 0 0 0 0.27 9 136 39 211 124 372 
1139 -0.010218797425014343 -0.13172182043257405 0.9971507593962742 0 0 0 0.2 9 137 28 150 39 212 98 484 112 379 187 983 
1140 0.20611162546064318 -0.1167160889636802 0.9943834316603589 0 0 0 0.18 9 138 39 213 92 241 112 380 124 373 146 167 214 124 
1141 0.07918617711611864 -0.11605296217890403 0.9974635856287272 0 0 0 0.27 9 139 39 214 93 197 112 381 187 984 85 140 92 242 110 115 
1142 0.051650787531676914 -0.09897297862268115 0.9951067841660174 0 0 0 0.36 9 140 39 215 124 374 176 100 194 49 
1143 -0.06252226867135192 -0.10144029295768299 0.9960964925612581 0 0 0 0.1 9 141 13 247 39 216 
1144 0.10611843932464736 -0.09112428081930099 0.9914265152931399 0 0 0 0.26 9 142 36 70 39 217 110 116 124 375 
1145 0.09532884394478199 -0.09098326592380068 0.992717556168783 0 0 0 0.35 9 143 13 248 32 74 36 71 39 218 92 243 124 376 176 101 214 125 
1146 0.10238539322601896 -0.08849494925465741 0.9909533809403208 0 0 0 0.25 9 144 19 54 28 151 36 72 39 219 44 229 112 382 124 377 135 47 146 168 164 76 176 102 
1147 0.2147224309185976 -0.08285441019309134 0.988923963191414 0 0 0 0.33 9 145 39 220 93 198 98 485 112 383 124 378 146 169 200 75 213 118 
1148 0.10202463106705709 -0.08632248655576948 0.9907991910407002 0 0 0 0.29 9 146 13 249 16 459 39 221 44 230 93 199 112 384 124 379 146 170 157 98 194 50 214 126 
1149 0.09930551368053295 -0.08629127561681545 0.9909881245648845 0 0 0 0.25 9 147 36 73 39 222 93 200 112 385 124 380 157 99 214 127 13 250 
1150 0.12124978471293206 -0.08169872069411029 0.9886391035779557 0 0 0 0.17 9 148 13 251 33 163 39 223 44 231 92 244 93 201 98 486 124 381 157 100 175 65 194 51 200 76 16 460 38 235 201 156 
1151 -0.09737744101843566 -0.07036153686755618 1.0048921374193367 0 0 0 0.19 9 149 39 224 85 141 92 245 124 382 214 128 
1152 -0.14463115219665643 -0.05719265976403481 1.0109503073971897 0 0 0 0.48 9 150 13 252 16 461 39 225 60 30 61 171 77 241 98 487 124 383 146 171 157 101 176 103 214 129 
1153 0.02558200342951702 -0.046136188441699144 0.992597667824649 0 0 0 0.27 9 151 39 226 44 232 50 271 
1154 -0.04614412590237886 -0.04417952287171005 0.9949473937910279 0 0 0 0.08 9 152 39 227 44 233 
1155 0.08916648347908744 -0.021866162649936155 0.9968357303891425 0 0 0 0.62 9 153 39 228 44 234 
1156 0.18834237172470042 -0.009681273424080218 0.9810438617919287 0 0 0 0.21 9 154 39 229 124 384 
1157 0.06040194679987764 0.04581468015421533 0.972629762571063 0 0 0 0.22 9 155 38 236 39 230 
1158 0.06693263325879495 -0.10649118300844458 0.9965258804706939 0 0 0 0.35 9 156 13 253 36 74 39 231 92 246 110 117 124 385 135 48 157 102 214 130 61 172 85 142 
1159 0.09128489070723463 -0.09467152889262427 0.9940939253465345 0 0 0 0.47 9 157 13 254 39 232 92 247 124 386 157 103 214 131 
1160 0.22441804023455142 -0.08005263174379054 0.9869137834916324 0 0 0 0.3 9 158 11 280 13 255 28 152 32 75 39 233 44 235 61 173 85 143 92 248 98 488 112 386 124 387 135 49 148 66 157 104 175 66 200 77 214 132 201 157 194 52 
1161 0.0530638365054727 -0.06610937097070319 0.9955519210047281 0 0 0 0.16 9 159 39 234 231 30 
1162 0.22195290469400838 -0.01893137299460773 0.9775824433174969 0 0 0 0.39 9 160 13 256 36 75 39 235 124 388 157 105 164 77 214 133 
1163 0.22145430673793579 -0.016347874018059826 0.9780531741417545 0 0 0 0.26 9 161 32 76 39 236 44 236 92 249 164 78 13 257 214 134 
1164 0.09051262510919761 -0.015514590888758681 0.9823600145770204 0 0 0 0.34 9 162 39 237 124 389 
1165 -0.12364893183934642 -0.14656667701887663 1.0212556595771982 0 0 0 0.28 9 163 32 77 39 238 44 237 85 144 124 390 
1166 0.017330444283543637 -0.11900335447484682 1.0017101868472271 0 0 0 0.21 9 164 39 239 124 391 
1167 0.10340829328929757 -0.0931333587247958 0.9920693716499751 0 0 0 0.26 9 165 36 76 39 240 92 250 110 118 124 392 176 104 214 135 
1168 0.17703682262670312 -0.08419419934899136 0.9897126059736806 0 0 0 0.28 9 166 11 281 13 258 28 153 32 78 38 237 39 241 44 238 53 113 77 242 85 145 92 251 93 202 110 119 112 387 148 67 164 79 185 33 194 53 196 25 214 136 
1169 -0.08346716224385323 -0.026339326651906535 0.9962319898048594 0 0 0 0.3 9 167 29 28 38 238 39 242 113 83 164 80 214 137 231 31 232 39 
1170 -0.06555791828631197 -0.1635278073997087 1.0178488189323283 0 0 0 0.16 9 168 39 243 44 239 124 393 
1171 0.048718365321577424 -0.12842308005031713 0.9998479684170749 0 0 0 0.52 9 169 13 259 32 79 39 244 44 240 77 243 85 146 93 203 98 489 110 120 124 394 162 20 172 26 196 26 200 78 204 51 201 158 
1172 0.16613542331868678 -0.08451947231656676 0.9902294114556527 0 0 0 0.54 9 170 29 29 39 245 61 174 98 490 112 388 159 28 164 81 
1173 0.1431569533729562 -0.17082442779288062 1.0065333946853297 0 0 0 0.25 9 171 32 80 39 246 44 241 50 272 61 175 77 244 112 389 135 50 146 172 214 138 92 252 109 121 
1174 0.15642724039398953 -0.1006892554611373 0.9844372361557467 0 0 0 0.44 9 172 39 247 44 242 92 253 
1175 -0.07712198187215624 -0.07874942844972478 1.001946497395626 0 0 0 0.42 9 173 29 30 33 164 39 248 60 31 77 245 92 254 124 395 136 24 158 44 162 21 164 82 176 105 185 34 200 79 204 52 219 22 232 40 
1176 -0.03899027244035855 -0.032858167322596214 0.9896579519817732 0 0 0 0.29 9 174 39 249 113 84 196 27 231 32 
1177 -0.08190372994402008 -0.02324872374223544 0.9929615473773311 0 0 0 0.57 9 175 29 31 33 165 39 250 71 20 77 246 124 396 148 68 159 29 164 83 185 35 194 54 214 139 
1178 -0.09208772747173928 -0.07170214024203894 1.0067268434672896 0 0 0 0.47 9 176 29 32 39 251 44 243 77 247 113 85 136 25 162 22 
1179 0.08214282911300855 -0.1520088224779616 1.0118646174826673 0 0 0 0.68 9 177 39 252 135 51 214 140 
1180 -0.006893137916581914 -0.15370041384403482 1.0180764596161365 0 0 0 0.87 9 178 32 81 39 253 44 244 92 255 135 52 
1181 -0.049025010702078826 -0.00802861885943039 0.9893583304890341 0 0 0 0.1 11 282 39 254 146 173 
1182 0.020551362748130738 0.0359982078768963 0.9817938970587369 0 0 0 0.15 11 283 39 255 146 174 
1183 -0.16959432574827252 -0.0851968703386209 1.0197775064697723 0 0 0 0.32 11 284 19 55 29 33 38 239 39 256 60 32 71 21 77 248 85 147 97 13 148 69 162 23 164 84 204 53 172 27 
1184 -0.15741311229660113 -0.024997826166173128 1.0083997830104514 0 0 0 0.58 11 285 39 257 85 148 113 86 124 397 200 80 204 54 219 23 
1185 0.18647144607187346 -0.02612625379745383 0.9809389043244914 0 0 0 0.26 11 286 13 260 28 154 36 77 39 258 50 273 112 390 146 175 172 28 176 106 
1186 0.018513294044498852 -0.004689264229251561 0.9861836418142059 0 0 0 0.13 11 287 16 462 36 78 39 259 
1187 0.1907155580594547 -0.11977763205236334 0.996142571027373 0 0 0 0.35 11 288 36 79 39 260 44 245 146 176 172 29 
1188 -0.0620456897203761 -0.049146031175263914 0.9957630541538395 0 0 0 0.66 11 289 29 34 38 240 39 261 50 274 71 22 77 249 118 182 157 106 158 45 159 30 204 55 219 24 28 155 
1189 0.003002321755442747 -0.046734666968835575 0.9914970162498109 0 0 0 0.33 11 290 39 262 77 250 109 122 118 183 176 107 185 36 214 141 232 41 
1190 -0.059089336828906366 -0.18271395833857293 1.016743244647384 0 0 0 0.27 13 261 39 263 124 398 
1191 -0.012543568095350175 -0.1334599745019899 0.9955691306002961 0 0 0 0.34 13 262 39 264 53 114 97 14 109 123 
1192 0.03238061906951551 -0.1158110060345257 0.9990441602091511 0 0 0 0.26 13 263 16 463 39 265 109 124 124 399 157 107 176 108 214 142 28 156 98 491 112 391 146 177 200 81 
1193 -0.019603741189345006 -0.0993716082230852 0.9997208408851327 0 0 0 0.25 13 264 32 82 36 80 39 266 92 256 113 87 124 400 194 55 214 143 
1194 0.006274820995629132 -0.09708947855678629 0.9972984953076699 0 0 0 0.2 13 265 32 83 39 267 124 401 
1195 -0.03901103772505533 -0.08660861622319779 0.9983981066933255 0 0 0 0.2 13 266 39 268 124 402 157 108 214 144 
1196 0.114851820790228 -0.08420516419404671 0.9904536999184507 0 0 0 0.29 13 267 39 269 146 178 157 109 175 67 194 56 200 82 214 145 
1197 0.1523099622523188 -0.08534746683285158 0.9906792952535911 0 0 0 0.3 13 268 39 270 112 392 200 83 201 159 
1198 0.13509295797003557 -0.08350831397906072 0.9889571025372282 0 0 0 0.23 13 269 16 464 33 166 39 271 109 125 112 393 157 110 175 68 194 57 200 84 201 160 
1199 -0.17601206353766508 -0.06322195160202576 1.0186470381956352 0 0 0 0.5 13 270 39 272 93 204 124 403 
1200 0.21843683102312636 -0.0847456384593127 0.9884627097879425 0 0 0 0.21 13 271 39 273 175 69 194 58 201 161 
1201 0.25026565447980315 -0.08460876164390986 0.9872626417520485 0 0 0 0.4 13 272 39 274 214 146 201 162 
1202 0.2459150884560875 -0.08202988795430012 0.9869036082716861 0 0 0 0.33 13 273 39 275 124 404 175 70 194 59 200 85 214 147 
1203 -0.13593240877280585 -0.027287105556053026 1.007136586088095 0 0 0 0.54 13 274 39 276 124 405 
1204 -0.02256515739544648 -0.02726747117385059 0.989779175354058 0 0 0 0.09 13 275 39 277 98 492 
1205 -0.13411060476611064 -0.017390586817395783 1.0049386786484176 0 0 0 0.44 13 276 28 157 39 278 98 493 124 406 176 109 213 119 
1206 0.16049648654606297 0.040756457642273765 0.9734359468648838 0 0 0 0.43 13 277 39 279 175 71 
1207 0.006975474123157305 0.05215219950146416 0.9702200043385961 0 0 0 0.28 13 278 39 280 124 407 146 179 
1208 0.16168974350331558 0.0491957519452063 0.9703184898208664 0 0 0 0.32 13 279 39 281 124 408 175 72 201 163 
1209 0.11286139405000432 0.052916696641655596 0.9675233083076122 0 0 0 0.31 13 280 39 282 124 409 200 86 
1210 -0.011790558954512068 -0.1356194360639313 0.995715479722227 0 0 0 0.52 13 281 39 283 92 257 109 126 
1211 0.1971666445151204 -0.12826325422784524 0.9933181942975536 0 0 0 0.35 13 282 39 284 112 394 146 180 157 111 201 164 
1212 0.1047382591724735 -0.10283101824635588 0.9941577238097813 0 0 0 0.26 13 283 39 285 112 395 187 985 213 120 214 148 
1213 0.11287625619869629 -0.09254711620571514 0.9913093715891151 0 0 0 0.41 13 284 39 286 124 410 135 53 176 110 
1214 0.17303439625287922 -0.08526249226478333 0.9901338965238842 0 0 0 0.3 13 285 39 287 50 275 98 494 112 396 124 411 157 112 175 73 38 241 201 165 
1215 0.23323214813060228 -0.079984926205602 0.9865533448213616 0 0 0 0.31 13 286 33 167 39 288 93 205 124 412 135 54 146 181 164 85 175 74 200 87 
1216 0.18884299394882054 -0.030374908068885095 0.9842736905263847 0 0 0 0.29 13 287 39 289 124 413 200 88 
1217 0.19134163098655005 -0.029080856132201714 0.9848499862891937 0 0 0 0.23 13 288 39 290 44 246 164 86 
1218 0.012225669192835692 0.04583012730413541 0.9753069398234344 0 0 0 0.17 13 289 39 291 176 111 
1219 0.0747190703777745 0.04804933668857594 0.9677126346408756 0 0 0 0.37 13 290 39 292 175 75 176 112 231 33 28 158 112 397 201 166 213 121 
1220 0.12322669962269384 0.04664445510814226 0.9711302320236458 0 0 0 0.14 13 291 39 293 124 414 157 113 
1221 0.011683602855054546 0.05146091877592418 0.971835584527886 0 0 0 0.08 13 292 39 294 124 415 231 34 
1222 0.062242297401856904 -0.10797475007893094 0.9980309597114909 0 0 0 0.33 13 293 39 295 61 176 124 416 146 182 200 89 204 56 
1223 -0.04357722772209576 -0.09164065300086434 0.9982908885143077 0 0 0 0.22 13 294 39 296 124 417 
1224 0.18850369804039502 -0.12279014788520001 0.9965043686732569 0 0 0 0.44 13 295 32 84 39 297 124 418 
1225 0.0005537843734000141 -0.07729602105363804 0.9945522300547527 0 0 0 0.21 13 296 32 85 39 298 92 258 93 206 113 88 176 113 214 149 231 35 
1226 -0.1021371087063158 -0.04973526119009052 1.0022920961748027 0 0 0 0.51 13 297 29 35 38 242 39 299 50 276 71 23 92 259 232 42 97 15 176 114 204 57 
1227 0.12997635958147927 -0.08366763795412636 0.9889070267470721 0 0 0 0.23 16 465 39 300 93 207 109 127 146 183 200 90 214 150 
1228 0.00017657691517545502 -0.08000274806511143 0.9941371761395545 0 0 0 0.16 16 466 39 301 187 986 
1229 -0.1800420538557474 -0.05679986440790613 1.0158926880385435 0 0 0 0.3 39 302 50 277 60 33 92 260 124 419 146 184 157 114 213 122 
1230 -0.005038562761399615 -0.023962965177497804 0.9893633213649408 0 0 0 0.33 16 467 39 303 92 261 124 420 157 115 176 115 213 123 214 151 
1231 -0.11297233546992103 -0.021919506420063378 1.0016565969227635 0 0 0 0.15 16 468 28 159 39 304 146 185 213 124 
1232 -0.0066145034214448875 -0.022685348683658867 0.9898224240219482 0 0 0 0.23 16 469 39 305 157 116 213 125 
1233 -0.01897836769341216 -0.020543519316276883 0.9891671772043692 0 0 0 0.21 16 470 39 306 124 421 176 116 
1234 0.09461971863736769 -0.0217357408375487 0.9838481457414483 0 0 0 0.19 16 471 39 307 112 398 124 422 213 126 
1235 0.05910183257719863 0.04269545372321719 0.974431381595771 0 0 0 0.17 16 472 39 308 124 423 157 117 213 127 
1236 -0.06865685270498464 0.047752581615023416 0.9723999949043977 0 0 0 0.27 16 473 39 309 124 424 146 186 213 128 
1237 -0.12744206147186066 -0.1335288231441388 1.0198215025564346 0 0 0 0.29 39 310 44 247 110 121 124 425 146 187 176 117 
1238 0.05932307564201822 -0.011213577081157305 0.9856902576887852 0 0 0 0.38 16 474 39 311 61 177 124 426 146 188 175 76 201 167 231 36 
1239 0.02118958417047486 -0.006521223076678758 0.9873818723244393 0 0 0 0.19 16 475 36 81 39 312 146 189 213 129 
1240 0.12442940238614804 0.042447400172689165 0.9693755716894382 0 0 0 0.29 16 476 39 313 110 122 200 91 
1241 -0.07549561203694255 0.060282443373284054 0.9749542399078239 0 0 0 0.38 16 477 39 314 113 89 
1242 0.007845206323464998 -0.07711725567200321 0.9936055471032813 0 0 0 0.35 16 478 39 315 92 262 110 123 113 90 124 427 146 190 176 118 214 152 
1243 0.02673067479788593 0.00433115717682652 0.9847827133514506 0 0 0 0.17 16 479 39 316 146 191 
1244 0.06012072671082371 0.05871688267773786 0.9693721592743348 0 0 0 0.58 16 480 39 317 53 115 118 184 219 25 201 168 
1245 -0.061597010976498806 -0.17232171883661598 1.0175560301682423 0 0 0 0.48 19 56 28 160 32 86 39 318 44 248 92 263 112 399 124 428 176 119 200 92 214 153 
1246 0.12571802721782666 -0.09451147275701552 0.992186913652821 0 0 0 0.39 19 57 32 87 39 319 71 24 124 429 164 87 
1247 0.19232933828404072 -0.08414442322943574 0.9891386168314147 0 0 0 0.38 28 161 29 36 39 320 93 208 118 185 164 88 172 30 185 37 194 60 204 58 13 298 92 264 109 128 201 169 
1248 0.17562245911380533 -0.04608365291593574 0.9862692263007642 0 0 0 0.56 39 321 158 46 187 987 234 41 
1249 -0.06664656214477567 -0.1802672480918033 1.0193670770321892 0 0 0 0.22 28 162 39 322 124 430 
1250 -0.12270364420647058 -0.15403293525052592 1.0227600232374887 0 0 0 0.34 28 163 39 323 124 431 
1251 -0.10494933742340065 -0.12103114437744633 1.0150042856651544 0 0 0 0.24 28 164 39 324 98 495 124 432 
1252 0.0420009019956341 -0.14061248627489165 0.995568304814568 0 0 0 0.27 28 165 39 325 112 400 124 433 146 192 176 120 200 93 13 299 109 129 201 170 
1253 -0.14502226631549994 -0.0991682857137614 1.011574875819124 0 0 0 0.5 28 166 39 326 98 496 124 434 
1254 -0.10641028365833811 -0.09797559885835398 1.0058969365775403 0 0 0 0.12 28 167 39 327 98 497 124 435 
1255 -0.1074058893643628 -0.09651092115915147 1.0055715524203699 0 0 0 0.18 28 168 39 328 124 436 
1256 -0.009129438823476973 -0.11426791430213251 1.001378096822143 0 0 0 0.15 28 169 39 329 109 130 124 437 187 988 
1257 -0.07201519426667811 -0.09822595682337214 0.9968485924770336 0 0 0 0.41 28 170 39 330 112 401 
1258 0.041651061699327654 -0.11749631904518434 0.9996402716098862 0 0 0 0.28 28 171 39 331 124 438 146 193 157 118 176 121 214 154 
1259 -0.12686394951840582 -0.08385627857891016 1.0102627743836297 0 0 0 0.23 28 172 39 332 124 439 
1260 0.08293123359390558 -0.10818505424033739 0.9960849173840249 0 0 0 0.27 28 173 39 333 112 402 146 194 157 119 187 989 
1261 -0.14458357006641476 -0.06062071962273764 1.011242524942762 0 0 0 0.19 28 174 39 334 124 440 
1262 -0.17612814799894336 -0.0571463961872744 1.0188951579304666 0 0 0 0.49 28 175 39 335 124 441 
1263 0.035443263863483114 -0.07966109696333698 0.9925238589989768 0 0 0 0.25 28 176 33 168 39 336 146 195 
1264 -0.10394365197329453 -0.0594639138448682 1.0045381787383285 0 0 0 0.23 28 177 39 337 98 498 
1265 0.13978870300671525 -0.09050086294268148 0.9870616601247906 0 0 0 0.14 28 178 39 338 175 77 
1266 0.14505647326759402 0.03658161071270536 0.966049520860173 0 0 0 0.28 28 179 39 339 124 442 175 78 187 990 
1267 -0.016020497828260937 0.04426146924300994 0.9735169191855297 0 0 0 0.35 28 180 39 340 175 79 187 991 
1268 -0.10981014948863178 0.06429033740194184 0.9806529849653248 0 0 0 0.1 28 181 39 341 124 443 
1269 -0.13030235135428786 -0.15240284045451466 1.0230976236359675 0 0 0 0.44 28 182 39 342 93 209 98 499 124 444 146 196 200 94 214 155 
1270 -0.03487807830914666 -0.11448977359965326 0.9997840446619826 0 0 0 0.38 28 183 39 343 112 403 
1271 0.19410570077137965 -0.15951257988484116 1.0007968936493088 0 0 0 0.36 28 184 36 82 39 344 124 445 187 992 
1272 0.18248375557154267 -0.14733897406022978 0.9980634756093832 0 0 0 0.25 28 185 39 345 234 42 
1273 0.1993902571799896 -0.1464108365943961 0.9959226474475289 0 0 0 0.41 28 186 187 993 200 95 234 43 39 346 146 197 201 171 
1274 0.09381541794009166 -0.1169468048978243 0.9969834002894221 0 0 0 0.28 28 187 39 347 112 404 146 198 213 130 
1275 -0.06517441092983249 -0.0831803987984309 0.999024241597786 0 0 0 0.5 28 188 39 348 214 156 
1276 -0.06716679244965124 -0.08041982465932464 0.9975530733789837 0 0 0 0.38 28 189 39 349 124 446 200 96 
1277 -0.10039821405068257 -0.06263674918938775 1.003973262534384 0 0 0 0.17 28 190 39 350 124 447 200 97 
1278 0.14702397960189612 -0.08472243123175233 0.9895959929191953 0 0 0 0.37 28 191 32 88 39 351 98 500 112 405 118 186 124 448 146 199 157 120 
1279 0.1528785622447265 -0.07847952365274828 0.988774344596932 0 0 0 0.14 28 192 39 352 98 501 112 406 124 449 146 200 157 121 175 80 187 994 234 44 
1280 -0.15795965083862612 -0.017059255329145612 1.0093837364075713 0 0 0 0.43 28 193 39 353 124 450 214 157 
1281 -0.013213006586599 0.0441966146864799 0.9758264734725374 0 0 0 0.35 28 194 39 354 146 201 176 122 187 995 
1282 0.03540172380477034 0.05262145764726868 0.9660350714593162 0 0 0 0.2 28 195 39 355 187 996 109 131 175 81 
1283 -0.1132629032214754 0.05904258305636074 0.9809536552410545 0 0 0 0.24 28 196 39 356 124 451 146 202 214 158 231 37 
1284 -0.10748164565206254 0.06435629957146861 0.9779214723545995 0 0 0 0.19 28 197 39 357 231 38 
1285 -0.10393427525929944 0.06424494786697765 0.9793012739259324 0 0 0 0.18 28 198 39 358 98 502 124 452 
1286 0.19275414597160392 -0.12304266781913822 0.9950519314924023 0 0 0 0.25 28 199 32 89 36 83 39 359 53 116 92 265 124 453 146 203 157 122 201 172 
1287 0.15617725862577378 -0.08386583717851541 0.9878352554437402 0 0 0 0.99 28 200 39 360 92 266 164 89 124 454 201 173 
1288 -0.04204788304551747 0.04521420198257696 0.9782160034973906 0 0 0 0.23 28 201 39 361 124 455 157 123 176 123 213 131 
1289 -0.12500786555770368 0.05173399197545204 0.986740339870146 0 0 0 0.23 28 202 39 362 113 91 124 456 146 204 
1290 0.08986597866105055 -0.13089256206272698 0.9919396323260551 0 0 0 0.16 28 203 39 363 93 210 
1291 0.1124361062361656 -0.11537339150393201 0.9912194666971593 0 0 0 0.39 28 204 39 364 124 457 157 124 
1292 -0.12212985042435921 -0.15891960723160617 1.0237822173232072 0 0 0 0.39 28 205 39 365 124 458 
1293 -0.11338511230708626 -0.15309672701306068 1.0196541395294143 0 0 0 0.35 28 206 39 366 98 503 124 459 200 98 
1294 0.08404865949914811 -0.13228138894129174 0.9914496201577655 0 0 0 0.23 28 207 39 367 124 460 
1295 -0.05828453857748507 -0.166783315929675 1.0129669120704377 0 0 0 0.9 28 208 36 84 39 368 98 504 
1296 -0.044270770936505506 -0.08038196967328735 0.9984072077906118 0 0 0 0.54 36 85 39 369 124 461 185 38 214 159 232 43 
1297 0.16075412318016957 -0.07818491024635163 0.9857048109403759 0 0 0 0.72 28 209 29 37 38 243 39 370 53 117 112 407 118 187 146 205 232 44 234 45 
1298 0.19012471181508134 -0.12590041386722065 0.9948135015796037 0 0 0 0.38 29 38 39 371 50 278 92 267 93 211 98 505 146 206 187 997 234 46 
1299 0.07825429198215192 0.04493973845012661 0.9716374419821924 0 0 0 0.35 29 39 39 372 158 47 175 82 11 291 15 73 50 279 146 207 152 7 201 174 
1300 0.12965313471176362 -0.09681347792848931 0.9903859238345201 0 0 0 0.39 29 40 39 373 85 149 97 16 98 506 109 132 124 462 176 124 219 26 
1301 0.023409360264145095 -0.09055353488278467 0.9955642197201063 0 0 0 0.55 29 41 32 90 36 86 39 374 97 17 112 408 124 463 159 31 185 39 232 45 
1302 -0.08899982549369548 -0.03190860835916719 1.0007801583785636 0 0 0 0.29 29 42 32 91 39 375 124 464 
1303 0.12419306938114143 -0.07695809850087927 0.9876075211281886 0 0 0 0.6 29 43 32 92 36 87 39 376 50 280 124 465 146 208 175 83 176 125 204 59 
1304 -0.09168916506111333 -0.033273318511634224 0.9979187896355366 0 0 0 0.6 29 44 32 93 39 377 71 25 77 251 110 124 113 92 148 70 200 99 214 160 
1305 0.1582001236174557 -0.07639718680742068 0.9859064757683834 0 0 0 0.62 29 45 39 378 53 118 97 18 110 125 148 71 159 32 162 24 172 31 185 40 194 61 204 60 219 27 232 46 
1306 0.14585280507317444 -0.09086374260083666 0.989031734742012 0 0 0 0.47 29 46 32 94 36 88 38 244 39 379 146 209 213 132 232 47 
1307 -0.029374487826909778 -0.04722488408256053 0.9921903792009948 0 0 0 0.31 29 47 39 380 77 252 
1308 0.15745560455683708 0.009099956421513882 0.9723771506964611 0 0 0 1.12 29 48 39 381 97 19 109 133 
1309 0.09290574218500225 -0.1249492195634061 0.9940707751893637 0 0 0 0.23 32 95 39 382 98 507 146 210 
1310 0.1948368417806456 -0.1207703768255053 0.9970667328492357 0 0 0 0.48 32 96 36 89 39 383 61 178 
1311 -0.1785887954967298 -0.12244776348012638 1.0265798985929364 0 0 0 0.16 32 97 36 90 39 384 
1312 -0.005392815840766643 -0.10248761985032444 0.9998045113094417 0 0 0 0.23 32 98 36 91 39 385 61 179 110 126 159 33 214 161 
1313 -0.01441708031188396 -0.09391086516459539 0.9971818657400491 0 0 0 0.12 32 99 36 92 39 386 
1314 -0.035476917288307076 -0.08971464172918239 1.0013026831316014 0 0 0 0.26 32 100 36 93 39 387 92 268 
1315 0.15563006288053652 -0.026495892626009526 0.9798865720136202 0 0 0 0.22 32 101 39 388 157 125 
1316 0.21939259918326656 -0.025521809572101685 0.9786308746377792 0 0 0 0.45 32 102 39 389 112 409 187 998 213 133 
1317 0.15406594781167293 -0.02333986845241774 0.9802954376728976 0 0 0 0.22 32 103 39 390 110 127 124 466 16 481 28 210 109 134 157 126 201 175 
1318 -0.036385714132810346 -0.019996470131983118 0.9865946073989197 0 0 0 0.35 32 104 39 391 85 150 110 128 113 93 124 467 176 126 
1319 -0.011881041131021463 0.02755694876984182 0.9842207596920343 0 0 0 0.1 32 105 39 392 124 468 157 127 
1320 -0.011876299698428952 0.0313137496437942 0.9841348542051367 0 0 0 0.14 32 106 39 393 124 469 
1321 -0.014506389592758885 0.032990937733781325 0.9820246096384576 0 0 0 0.23 32 107 39 394 50 281 124 470 
1322 -0.006657001819821791 0.04334822073423962 0.9737949851239835 0 0 0 0.25 32 108 39 395 44 249 92 269 113 94 124 471 
1323 -0.10125382590599961 0.04372801318436503 0.9807986181720202 0 0 0 0.2 32 109 39 396 113 95 
