# 3D point list with one line of data per point:
#   POINT3D_ID, X, Y, Z, R, G, B, ERROR, TRACK[] as (IMAGE_ID, POINT2D_IDX)
# Number of points: 389, mean track length: 7.36
7587 0.38328792766242215 -0.13058721255629976 1.0455188929166381 0 0 0 0.72 17 2430 128 1043 164 2272 232 1763 
7588 -0.36378947267340833 -0.08140221542874453 0.7463120553205331 0 0 0 0.3 12 350 17 2431 118 1870 128 1044 232 1764 
7589 -0.35294264128699454 -0.08838543895620501 0.9488720598551901 0 0 0 0.1 17 2432 118 1871 232 1765 
7590 -0.36769816927398646 -0.06805771835080056 0.61003605771197 0 0 0 0.27 17 2433 118 1872 172 878 232 1766 
7591 -0.35376195631147067 -0.08217867154830852 0.8833183648512444 0 0 0 0.51 17 2434 118 1873 128 1045 157 1486 232 1767 
7592 -0.35568265079737243 -0.06699476176776616 0.667729992988516 0 0 0 0.62 17 2435 118 1874 128 1046 232 1768 
7593 -0.3603070763167072 -0.07448946710493982 0.8383016187679478 0 0 0 0.4 17 2436 118 1875 128 1047 232 1769 
7594 -0.3287493713315245 -0.0877867521416103 1.0896234483464784 0 0 0 0.28 12 351 17 2437 29 830 118 1876 128 1048 157 1487 172 879 213 3749 221 1042 232 1770 
7595 -0.328755614080874 -0.08777242450804158 1.089427576297871 0 0 0 0.24 17 2438 118 1877 128 1049 138 71 157 1488 179 282 213 3750 
7596 -0.16666998474166783 -0.08522614736639589 1.0588495032635998 0 0 0 0.33 9 923 17 2439 29 831 114 195 152 397 176 1894 181 259 198 393 199 308 200 846 219 841 220 461 221 1043 
7597 -0.3632982683537801 -0.06313637694317034 0.740985874333738 0 0 0 0.09 17 2440 118 1878 128 1050 232 1771 
7598 -0.3632982683537801 -0.06313637694317034 0.740985874333738 0 0 0 0.09 17 2441 118 1879 128 1051 232 1772 
7599 -0.36266426764285403 -0.057386007137128825 0.6403193262579885 0 0 0 0.22 12 352 17 2442 198 394 199 309 221 1044 232 1773 
7600 -0.360936568643233 -0.05848893111160231 0.761733564431597 0 0 0 0.55 12 353 17 2443 25 555 118 1880 128 1052 157 1489 181 260 198 395 199 310 221 1045 232 1774 
7601 0.06289613700858719 -0.0728664669534272 1.0465743124379314 0 0 0 0.36 17 2444 128 1053 152 398 157 1490 
7602 -0.36421195333782486 -0.051043010603543756 0.7418422302068564 0 0 0 0.17 17 2445 118 1881 128 1054 157 1491 232 1775 
7603 -0.364217614362891 -0.05102497946546687 0.7419158085603146 0 0 0 0.18 17 2446 118 1882 128 1055 232 1776 
7604 0.0887715321688338 -0.071887755927119 1.042996968860772 0 0 0 0.42 11 3515 17 2447 128 1056 190 771 219 842 
7605 -0.3544529662524598 -0.058994915051999094 1.0833565022134337 0 0 0 0.4 4 3515 17 2448 29 832 118 1883 176 1895 221 1046 232 1777 
7606 0.4131585525447816 -0.07571731075383413 1.0461428130525687 0 0 0 1.51 2 2335 3 1199 4 3516 17 2449 114 196 118 1884 147 721 164 2273 213 3751 232 1778 
7607 0.5222706015134977 -0.07343224543668778 0.9418324504515526 0 0 0 0.35 17 2450 118 1885 138 72 179 283 
7608 -0.3563082577901312 -0.04560142108955732 0.8378211215305681 0 0 0 0.29 17 2451 118 1886 128 1057 172 880 
7609 -0.3560899572846019 -0.04101960183773361 0.8162805175250668 0 0 0 0.59 12 354 17 2452 25 556 126 415 128 1058 157 1492 172 881 181 261 198 396 199 311 232 1779 
7610 -0.3564979675296877 -0.04100591809708671 0.8188407474829797 0 0 0 0.53 12 355 17 2453 128 1059 157 1493 172 882 198 397 199 312 232 1780 
7611 0.49036707745894 -0.05933426490026471 0.9145645115767229 0 0 0 0.15 17 2454 114 197 118 1887 227 606 
7612 0.4887237773488392 -0.05894773020562689 0.9116158460527908 0 0 0 0.51 17 2455 114 198 158 838 227 607 232 1781 
7613 -0.35397441526401746 -0.03677385426250175 0.8952150774212418 0 0 0 0.52 3 1200 17 2456 118 1888 128 1060 172 883 219 843 
7614 0.4807840322179306 -0.05436758126878344 0.9423844492447245 0 0 0 0.39 17 2457 118 1889 232 1782 
7615 -0.3553528450474007 -0.026104668980922473 0.8792905451573545 0 0 0 0.29 3 1201 17 2458 118 1890 128 1061 219 844 232 1783 
7616 -0.35797573804190447 -0.024500106918421475 0.5649031155658064 0 0 0 0.11 17 2459 118 1891 232 1784 
7617 0.12066716936929756 -0.03398770382952247 1.0261081485281593 0 0 0 0.24 17 2460 118 1892 198 398 
7618 0.23169827269718754 -0.033903973810166965 1.0222660919916997 0 0 0 0.21 2 2336 17 2461 118 1893 213 3752 219 845 
7619 0.5105507481808986 -0.03844165286883968 0.8339227199054745 0 0 0 0.24 17 2462 120 46 227 608 
7620 -0.36225875929570234 -0.018030615315202614 0.5667081767981481 0 0 0 0.17 17 2463 118 1894 232 1785 
7621 0.49478859256157964 -0.030508257920308483 0.8894956542074973 0 0 0 0.6 17 2464 120 47 138 73 163 231 
7622 0.49437722235224124 -0.030221266191569323 0.8883225093562869 0 0 0 0.71 17 2465 120 48 138 74 163 232 179 284 
7623 -0.36029966770092475 -0.0114660691442841 0.82079095955864 0 0 0 0.38 12 356 17 2466 118 1895 128 1062 232 1786 
7624 -0.36252406645686397 -0.012572450632727595 0.6494746549288711 0 0 0 0.13 17 2467 118 1896 232 1787 
7625 0.4881425307402078 -0.023594902963814262 0.9331592175755834 0 0 0 0.46 17 2468 120 49 227 609 
7626 0.4881425307402078 -0.023594902963814262 0.9331592175755834 0 0 0 0.46 17 2469 120 50 227 610 
7627 0.4921871225931783 -0.023520222151482743 0.8835467697801017 0 0 0 0.3 17 2470 114 199 179 285 
7628 -0.36094692065804623 -0.007263890386191766 0.6345064282828717 0 0 0 0.32 12 357 17 2471 25 557 118 1897 128 1063 198 399 199 313 232 1788 
7629 -0.34687239925355157 -0.008086372566714484 0.6190273069835143 0 0 0 0.14 17 2472 118 1898 232 1789 
7630 0.20120757882993354 -0.0064082711716882314 1.0223950011017338 0 0 0 0.3 17 2473 199 314 219 846 232 1790 
7631 -0.32169728778602 0.020433744812774064 1.066300483166782 0 0 0 0.54 17 2474 118 1899 181 262 
7632 0.492301589065941 0.0019865378578458365 0.8805430873852033 0 0 0 0.31 17 2475 118 1900 120 51 184 525 
7633 -0.1580076098258401 0.019144046662261778 1.0377644062031206 0 0 0 0.45 17 2476 25 558 190 772 
7634 0.43346938250779077 0.009310838782876737 1.0309665025035117 0 0 0 0.4 17 2477 29 833 32 823 164 2274 
7635 0.501754071729005 0.0025110736449179922 0.8813103533127171 0 0 0 0.31 17 2478 114 200 120 52 179 286 
7636 -0.3642625980776035 0.0062992694956336345 0.6096487822152084 0 0 0 0.49 12 358 17 2479 118 1901 172 884 232 1791 
7637 0.15328004056821173 0.016365093355023477 1.0170658569923545 0 0 0 0.3 17 2480 146 2083 221 1047 
7638 0.5065357745187189 0.014743297687680646 1.0634555622250617 0 0 0 0.36 17 2481 32 824 118 1902 147 722 165 485 184 526 190 773 221 1048 232 1792 235 583 
7639 0.41081586698844935 0.018531411496666816 1.017777700777413 0 0 0 0.41 11 3516 17 2482 32 825 118 1903 128 1064 147 723 184 527 221 1049 222 764 232 1793 
7640 0.5119364256208294 0.023785732582253506 1.064217368119486 0 0 0 0.29 17 2483 32 826 118 1904 120 53 128 1065 184 528 190 774 197 485 221 1050 227 611 232 1794 
7641 0.24074868242336675 0.032462984641021084 1.0087699362257476 0 0 0 0.07 17 2484 135 435 232 1795 
7642 0.5315155992591438 0.0312596487681617 1.0427252820104902 0 0 0 0.43 17 2485 118 1905 120 54 
7643 0.18804929094530812 0.03445530015282481 1.0086309618003562 0 0 0 0.27 11 3517 17 2486 128 1066 152 399 190 775 227 612 
7644 -0.3616805651379241 0.019376629610822323 0.5724785247382319 0 0 0 0.28 17 2487 118 1906 232 1796 
7645 -0.3572951921396531 0.023581371978450272 0.6306366741302374 0 0 0 0.38 17 2488 25 559 118 1907 199 315 232 1797 
7646 0.48295803537904347 0.0328956115142891 0.9293094519695619 0 0 0 0.21 17 2489 118 1908 184 529 
7647 0.5064793430788633 0.03301641498606084 0.8493499922057646 0 0 0 0.18 17 2490 120 55 227 613 
7648 -0.09392616744170094 0.05094037005394944 1.0242489301635176 0 0 0 0.45 17 2491 127 693 185 548 
7649 0.5170187110807942 0.0523864566283011 1.0607987769531781 0 0 0 0.3 17 2492 118 1909 128 1067 184 530 190 776 
7650 0.5106083257143911 0.04498557192666816 0.897661186869379 0 0 0 0.35 17 2493 118 1910 120 56 
7651 0.4794040866068525 0.049752814510696984 0.9138852530203125 0 0 0 0.34 17 2494 29 834 114 201 147 724 184 531 222 765 227 614 
7652 -0.12351353141432816 0.06696888734571907 1.0324584281282805 0 0 0 0.15 17 2495 147 725 176 1896 
7653 0.5056446232638697 0.07033723386373976 1.0491848198750238 0 0 0 0.48 17 2496 120 57 221 1051 
7654 0.36545490901028455 0.07490271803756557 0.9968743212096156 0 0 0 0.33 2 2337 17 2497 127 694 213 3753 
7655 0.11446058410895628 0.08393953389412528 1.0023527937825054 0 0 0 0.28 2 2338 15 844 16 1883 17 2498 175 469 199 316 
7656 -0.35238394309168164 0.07771266819789803 0.8099752449988774 0 0 0 0.25 12 359 17 2499 118 1911 232 1798 
7657 -0.19679181935417409 0.09877412196664373 1.0187384931950965 0 0 0 0.6 11 3518 17 2500 118 1912 221 1052 
7658 -0.19705003910490976 0.09961988035947633 1.0255607847215398 0 0 0 0.5 11 3519 17 2501 118 1913 146 2084 204 1018 221 1053 232 1799 
7659 0.08295563795788637 0.10445413975000911 1.0034946965809215 0 0 0 0.26 16 1884 17 2502 146 2085 147 726 232 1800 
7660 0.30203257846513976 0.09560213573237217 0.8776545096114794 0 0 0 1.86 17 2503 198 400 
7661 -0.14517759186330875 0.11614202805101548 1.022216445729053 0 0 0 0.4 4 3517 11 3520 16 1885 17 2504 118 1914 128 1068 164 2275 176 1897 198 401 199 317 204 1019 213 3754 219 847 232 1801 
7662 -0.11830667385963156 0.11655646164233702 1.013314992689065 0 0 0 0.47 4 3518 16 1886 17 2505 118 1915 128 1069 146 2086 148 1563 172 885 176 1898 214 1364 219 848 221 1054 
7663 0.5246099805534572 0.12058687766142226 1.0588446934102826 0 0 0 0.22 17 2506 118 1916 120 58 172 886 190 777 
7664 -0.3637579546483549 -0.20913465570543832 0.5962709482852245 0 0 0 0.13 17 2507 118 1917 199 318 
7665 -0.3696984235012914 -0.1612652190142553 0.5901681298602323 0 0 0 0.35 17 2508 118 1918 232 1802 
7666 -0.3542709954283484 -0.21079939437066103 0.8853375130312693 0 0 0 0.61 2 2339 17 2509 118 1919 148 1564 181 263 198 402 199 319 219 849 221 1055 232 1803 
7667 -0.36029639733978697 -0.15371747158758253 0.6508186290035075 0 0 0 0.37 17 2510 118 1920 232 1804 
7668 -0.3563924597137375 -0.17539259041295036 0.791125833177563 0 0 0 0.5 17 2511 118 1921 128 1070 232 1805 
7669 -0.34626779893041765 -0.18406228841595418 0.856947936880455 0 0 0 0.38 17 2512 118 1922 232 1806 
7670 -0.3674378228821519 -0.15925486250461257 0.8640257772990726 0 0 0 0.14 17 2513 118 1923 128 1071 232 1807 
7671 -0.368447956918964 -0.11886971473769986 0.6001148237855412 0 0 0 0.2 17 2514 25 560 118 1924 198 403 199 320 221 1056 232 1808 
7672 -0.3648038695677537 -0.12090392249637144 0.6399846245761188 0 0 0 0.53 12 360 17 2515 25 561 118 1925 128 1072 198 404 199 321 221 1057 232 1809 
7673 -0.06040832090869833 -0.1806968283439292 1.061118662702403 0 0 0 0.57 2 2340 16 1887 17 2516 19 1031 118 1926 126 416 128 1073 158 839 164 2276 185 549 196 858 221 1058 224 625 232 1810 
7674 -0.35659054337646656 -0.13678761785613558 0.8538730556113001 0 0 0 0.25 17 2517 118 1927 128 1074 
7675 0.20300357816108533 -0.17417143921088354 1.0570895613832265 0 0 0 1.1 3 1202 4 3519 11 3521 15 845 17 2518 118 1928 138 75 152 400 179 287 197 486 204 1020 221 1059 227 615 232 1811 
7676 -0.35009632198355406 -0.13517587989120208 0.9051684277115666 0 0 0 0.38 3 1203 17 2519 118 1929 128 1075 219 850 232 1812 
7677 -0.3542684181441775 -0.1320672188463713 0.881723034112657 0 0 0 0.39 3 1204 12 361 17 2520 118 1930 219 851 232 1813 
7678 -0.29992181602498863 -0.15781186609936024 1.1275509618170103 0 0 0 0.47 17 2521 114 202 199 322 232 1814 
7679 -0.3018012836102053 -0.14997502311798364 1.1268559727119472 0 0 0 0.54 3 1205 11 3522 17 2522 29 835 118 1931 128 1076 157 1494 172 887 181 264 213 3755 
7680 -0.36018063727699884 -0.10801153306870095 0.7112048590448793 0 0 0 0.16 17 2523 118 1932 128 1077 232 1815 
7681 -0.3600021344261142 -0.13996533081059656 1.081227560319557 0 0 0 0.31 17 2524 118 1933 128 1078 232 1816 
7682 -0.3611890643212031 -0.14086127620221306 1.0893277413242202 0 0 0 0.37 12 362 17 2525 118 1934 128 1079 232 1817 
7683 -0.3543823532915567 -0.11751805926280467 0.8967066151124178 0 0 0 0.29 3 1206 17 2526 118 1935 219 852 232 1818 
7684 0.1604338917689368 -0.14886401097731725 1.04815943594735 0 0 0 0.92 17 2527 19 1032 199 323 220 462 
7685 -0.36641352521439263 -0.09722943164596097 0.7045254604262786 0 0 0 0.18 17 2528 118 1936 232 1819 
7686 -0.36339341533310787 -0.08879946866510323 0.7261094316539657 0 0 0 0.16 17 2529 118 1937 128 1080 232 1820 
7687 -0.3654994903863089 -0.11178419391891088 1.0995303573238735 0 0 0 0.17 17 2530 118 1938 232 1821 
7688 0.03429553044715512 -0.11189839241647835 1.0385450854254636 0 0 0 0.17 17 2531 152 401 221 1060 
7689 -0.35677013469562946 -0.0681779321795844 0.6950686077229591 0 0 0 0.23 17 2532 118 1939 128 1081 232 1822 
7690 -0.3598866693193011 -0.06042586379512211 0.6463153751927773 0 0 0 0.2 12 363 17 2533 118 1940 198 405 199 324 221 1061 232 1823 
7691 -0.3691874949943783 -0.05545692074426288 0.5594036381948757 0 0 0 0.17 12 364 17 2534 118 1941 232 1824 
7692 0.08753678449646903 -0.08424226143699545 1.0376804106626916 0 0 0 1.6 12 365 17 2535 19 1033 32 827 118 1942 128 1082 129 145 146 2087 159 722 194 838 196 859 198 406 204 1021 
7693 0.09828388145861629 -0.08460171319333011 1.0294232688235416 0 0 0 0.46 11 3523 15 846 17 2536 118 1943 128 1083 136 633 190 778 222 766 
7694 -0.3593700607073844 -0.03778529861089824 0.6588565313025154 0 0 0 0.31 12 366 17 2537 118 1944 128 1084 172 888 232 1825 
7695 -0.3481826590416964 -0.038113199735616124 0.9527150922726567 0 0 0 0.26 3 1207 12 367 17 2538 118 1945 128 1085 219 853 232 1826 
7696 -0.35851299909873074 -0.03485716543295936 0.8268592310908355 0 0 0 0.36 17 2539 128 1086 232 1827 
7697 -0.34929539198832604 -0.033999080792247005 1.072828648542854 0 0 0 0.28 3 1208 17 2540 118 1946 128 1087 219 854 232 1828 
7698 -0.16336522053503594 -0.03481408345476521 1.0506388914201046 0 0 0 1.3 9 924 11 3524 16 1888 17 2541 128 1088 146 2088 176 1899 200 847 213 3756 214 1365 
7699 0.5013988239848803 -0.039701406694544326 1.0637199633259955 0 0 0 0.55 17 2542 118 1947 190 779 
7700 -0.3513166383641065 -0.004113103821619126 1.0785488621040134 0 0 0 0.83 2 2341 3 1209 4 3520 12 368 17 2543 29 836 32 828 113 34 114 203 128 1089 148 1565 162 815 164 2277 176 1900 198 407 199 325 219 855 221 1062 224 626 232 1829 
7701 0.1670244341236531 -0.006627310569354582 1.0210505753190315 0 0 0 0.7 12 369 17 2544 118 1948 135 436 146 2089 152 402 158 840 159 723 162 816 190 780 199 326 200 848 213 3757 214 1366 219 856 223 178 232 1830 
7702 0.5049313917817563 -0.001490903068193429 1.065162348742575 0 0 0 0.32 15 847 17 2545 32 829 118 1949 128 1090 158 841 172 889 184 532 190 781 197 487 221 1063 222 767 227 616 232 1831 
7703 -0.36623808583628553 0.003662849354119486 0.5823807677221874 0 0 0 0.28 17 2546 25 562 118 1950 172 890 198 408 199 327 232 1832 
7704 0.1502001117060553 0.03528777073002125 1.004505862668061 0 0 0 0.42 2 2342 17 2547 138 76 146 2090 152 403 176 1901 204 1022 219 857 
7705 0.5147714978236979 0.03557262961092971 1.0570073752262392 0 0 0 0.23 17 2548 118 1951 190 782 232 1833 
7706 0.4902441326729899 0.03557208461745251 1.0530025222472759 0 0 0 0.38 15 848 17 2549 32 830 118 1952 128 1091 129 146 147 727 162 817 184 533 221 1064 227 617 232 1834 
7707 0.49011058706038724 0.03565524948648422 1.0527196326974588 0 0 0 0.39 15 849 17 2550 29 837 32 831 118 1953 128 1092 147 728 162 818 184 534 190 783 197 488 221 1065 222 768 227 618 232 1835 
7708 -0.3609052236109734 0.025601652560158502 0.6291580541305518 0 0 0 0.57 12 370 17 2551 25 563 118 1954 232 1836 
7709 0.49191572856577953 0.04929610449875096 1.055017223586482 0 0 0 0.12 17 2552 118 1955 222 769 
7710 0.3445167710299258 0.05926667504249888 1.0026075166940784 0 0 0 0.59 4 3521 11 3525 15 850 17 2553 118 1956 127 695 146 2091 147 729 159 724 164 2278 165 486 176 1902 184 535 190 784 204 1023 213 3758 221 1066 222 770 232 1837 235 584 
7711 0.5428788465285074 0.06368139149117329 1.0832319316189885 0 0 0 0.18 17 2554 118 1957 120 59 
7712 0.5399067185699541 0.07532948501820659 1.0771818031153482 0 0 0 0.17 17 2555 118 1958 120 60 
7713 -0.3588415911938562 0.04718349338344555 0.6405449105785005 0 0 0 0.29 17 2556 118 1959 232 1838 
7714 0.49942382925275147 0.07861240711691043 1.0445947360383139 0 0 0 0.21 17 2557 118 1960 120 61 147 730 184 536 190 785 222 771 
7715 -0.34292793943714905 0.04486828990021427 0.590396563961307 0 0 0 0.09 17 2558 118 1961 232 1839 
7716 0.12097093833188315 0.07963344858246332 1.0040017000831227 0 0 0 0.37 17 2559 199 328 232 1840 
7717 0.2303488655856676 0.08101071968371529 0.998632278269794 0 0 0 0.53 2 2343 17 2560 32 832 118 1962 135 437 146 2092 172 891 190 786 200 849 213 3759 222 772 
7718 0.5237747697095859 0.08518968216682628 1.046826319159321 0 0 0 0.12 17 2561 118 1963 120 62 
7719 0.4714382725528668 0.08445543286166177 0.9121481793342768 0 0 0 0.29 17 2562 120 63 190 787 
7720 0.5405594899974239 0.10203204945010098 1.0731126316888728 0 0 0 0.19 17 2563 118 1964 120 64 
7721 -0.34119580210639255 0.0859266281355976 0.863883483477491 0 0 0 0.28 17 2564 118 1965 232 1841 
7722 0.11299495279785729 0.10072751386547801 0.9982690518128621 0 0 0 0.41 4 3522 16 1889 17 2565 181 265 214 1367 227 619 234 223 
7723 -0.36944861290836095 -0.18808636144975896 0.6216138430600665 0 0 0 0.38 17 2566 118 1966 128 1093 
7724 -0.36447439541772525 -0.1718790631083144 0.6039620505938139 0 0 0 0.26 17 2567 118 1967 232 1842 
7725 -0.36157133109604855 -0.2023915008332758 0.7750523302571395 0 0 0 0.18 17 2568 118 1968 128 1094 232 1843 
7726 -0.3618293063172001 -0.20253968737826702 0.7765711626709436 0 0 0 0.39 17 2569 118 1969 128 1095 221 1067 232 1844 
7727 -0.3502880863621959 -0.17774400221839717 0.8887093727055748 0 0 0 0.25 17 2570 118 1970 128 1096 232 1845 
7728 -0.3532490073136027 -0.15778786648485818 0.7538841817709773 0 0 0 0.36 17 2571 118 1971 232 1846 
7729 0.15374887979829222 -0.19070620235606145 1.0553563034594364 0 0 0 0.4 17 2572 118 1972 128 1097 152 404 157 1495 158 842 190 788 227 620 
7730 -0.36876740020772414 -0.11324546495310159 0.5818794258605859 0 0 0 0.34 12 371 17 2573 25 564 118 1973 221 1068 232 1847 
7731 -0.36766266239641365 -0.1158023134164801 0.6457113078219776 0 0 0 0.21 17 2574 118 1974 172 892 232 1848 
7732 -0.3606054328747529 -0.11545027094585848 0.6749130817257993 0 0 0 0.53 17 2575 118 1975 128 1098 232 1849 
7733 -0.3537646286032892 -0.12197610377517926 0.752211271036491 0 0 0 0.52 17 2576 118 1976 232 1850 
7734 -0.36757804169620084 -0.11096798816040537 0.7016293846724366 0 0 0 0.07 17 2577 118 1977 128 1099 
7735 -0.13497982218360305 -0.15174508171177484 1.066978243782319 0 0 0 0.63 2 2344 9 925 11 3526 16 1890 17 2578 29 838 118 1978 128 1100 164 2279 176 1903 185 550 214 1368 221 1069 224 627 232 1851 
7736 -0.3620645447360656 -0.1016781123945443 0.7086292269965594 0 0 0 0.22 17 2579 172 893 232 1852 
7737 -0.3629721637380466 -0.1019298509683932 0.7129392381360853 0 0 0 0.3 17 2580 118 1979 128 1101 172 894 232 1853 
7738 -0.35826285159891597 -0.067002018720009 0.6369052706968203 0 0 0 0.18 12 372 17 2581 118 1980 232 1854 
7739 -0.37014810292877326 -0.058860222073942134 0.5831122529287501 0 0 0 0.69 12 373 17 2582 25 565 118 1981 198 409 199 329 221 1070 232 1855 
7740 -0.03692974770468748 -0.08578708608968286 1.0384962484642046 0 0 0 0.46 12 374 16 1891 17 2583 27 537 29 839 32 833 127 696 157 1496 158 843 176 1904 181 266 222 773 232 1856 
7741 -0.36037363594491545 -0.05116710288092243 0.696803185235643 0 0 0 0.14 17 2584 118 1982 232 1857 
7742 -0.3431181576034013 -0.03740137032066284 0.9736662251842855 0 0 0 0.78 12 375 17 2585 118 1983 199 330 232 1858 
7743 -0.36427586686323166 -0.029350540220360474 0.6366848528847101 0 0 0 0.36 12 376 17 2586 118 1984 128 1102 232 1859 
7744 0.5065429398377735 -0.043190375430031236 0.866434769819472 0 0 0 0.74 17 2587 120 65 138 77 227 621 
7745 -0.18254845461333896 -0.02449594350263219 1.0520518494498257 0 0 0 0.3 16 1892 17 2588 118 1985 146 2093 172 895 176 1905 219 858 
7746 -0.3634348838313309 -0.016567179447667998 0.7950039238134428 0 0 0 0.18 17 2589 118 1986 232 1860 
7747 -0.3648171046073331 -0.00801829120994029 1.1101756089228167 0 0 0 0.28 17 2590 118 1987 232 1861 
7748 0.4885093024803746 -0.0218226332145363 0.9064509212756624 0 0 0 0.19 17 2591 114 204 120 66 227 622 
7749 0.4885093024803746 -0.0218226332145363 0.9064509212756624 0 0 0 0.19 17 2592 114 205 120 67 227 623 
7750 -0.3707535997929614 -0.007560582194241136 0.5865747166605695 0 0 0 0.25 12 377 17 2593 118 1988 232 1862 
7751 0.49941015150964785 -0.012941116596461641 0.8589181398908983 0 0 0 0.35 17 2594 120 68 162 819 163 233 227 624 
7752 -0.2059651429474062 0.0058360884685865885 1.0386515079086989 0 0 0 0.22 17 2595 118 1989 213 3760 232 1863 
7753 0.5031438878192709 0.025009617742764487 0.8388941409518712 0 0 0 0.62 17 2596 120 69 147 731 162 820 184 537 227 625 
7754 0.5279571167805297 0.04606527894177401 1.0398025317536894 0 0 0 0.23 17 2597 118 1990 120 70 
7755 0.48370482837348894 0.04745497456684058 0.9064052773666249 0 0 0 0.49 17 2598 29 840 114 206 118 1991 120 71 147 732 165 487 184 538 222 774 235 585 
7756 -0.3470485790342995 0.055872694062083006 0.9178759023007128 0 0 0 0.79 12 378 17 2599 219 859 232 1864 
7757 0.44181858193692364 0.08153872499072874 1.0155677462287085 0 0 0 0.45 17 2600 118 1992 163 234 
7758 -0.13129723091866263 0.09698329393139078 1.0205639994231086 0 0 0 0.39 16 1893 17 2601 25 566 27 538 118 1993 128 1103 146 2094 164 2280 172 896 204 1024 213 3761 219 860 
7759 0.519395752788873 0.10618578478057375 1.051765054287139 0 0 0 0.36 17 2602 32 834 118 1994 120 72 147 733 190 789 
7760 -0.0795857944725675 0.119500007646273 0.9572314757291673 0 0 0 0.33 17 2603 147 734 213 3762 
7761 0.02474660136402323 0.1274690850799679 0.9947877575679734 0 0 0 0.23 17 2604 158 844 188 181 
7762 -0.3635653899613988 -0.20976261357560705 0.661694204800085 0 0 0 0.18 17 2605 25 567 232 1865 
7763 -0.36370315924719354 -0.19474656576517432 0.7921734203979696 0 0 0 0.22 17 2606 118 1995 232 1866 
7764 -0.3569148116289397 -0.13519529837702451 0.634988332474678 0 0 0 0.28 12 379 17 2607 118 1996 232 1867 
7765 -0.3683079712503566 -0.12409900954107979 0.6406542232325895 0 0 0 0.22 17 2608 118 1997 172 897 
7766 -0.07500075229783754 -0.1727459545891198 1.0687734994479492 0 0 0 0.56 17 2609 118 1998 232 1868 
7767 0.20578480891327378 -0.14847786112420278 1.0439021880390766 0 0 0 0.54 9 926 17 2610 19 1034 136 634 146 2095 220 463 
7768 -0.35574906273405754 -0.10604502512424094 0.8056444927920281 0 0 0 0.39 12 380 17 2611 25 568 118 1999 181 267 198 410 199 331 221 1071 232 1869 
7769 -0.007854426638477005 -0.13952653446041494 1.0409501442558977 0 0 0 0.93 9 927 17 2612 19 1035 152 405 196 860 198 411 199 332 220 464 221 1072 224 628 
7770 -0.36114850186728104 -0.1024675838637687 0.7796069869625972 0 0 0 0.41 17 2613 118 2000 157 1497 172 898 
7771 0.31226803838619516 -0.14741110652812214 1.0398833402246017 0 0 0 0.48 2 2345 3 1210 4 3523 11 3527 17 2614 118 2001 126 417 148 1566 162 821 164 2281 181 268 184 539 185 551 190 790 197 489 199 333 204 1025 213 3763 221 1073 232 1870 
7772 -0.05908949661055953 -0.11221939689318315 1.0320229734287603 0 0 0 1.46 16 1894 17 2615 157 1498 158 845 176 1906 
7773 0.48870675418484055 -0.048399057604281884 0.9096147128629574 0 0 0 0.56 17 2616 114 207 118 2002 162 822 184 540 221 1074 222 775 227 626 232 1871 
7774 0.49483800649086473 -0.04500296109578657 0.9746060357300215 0 0 0 1.05 17 2617 118 2003 232 1872 
7775 0.4811420956965981 -0.03773012604534235 0.9227840816100311 0 0 0 0.44 17 2618 118 2004 120 73 190 791 227 627 232 1873 
7776 0.49075539283725256 -0.03425634197878646 0.9119580824498935 0 0 0 0.38 17 2619 114 208 120 74 227 628 
7777 0.4868131823960903 -0.03479127605336187 0.9054823053474471 0 0 0 0.34 17 2620 118 2005 120 75 147 735 227 629 
7778 0.49173136648057286 -0.008973822872618664 0.8769295280498945 0 0 0 0.65 17 2621 114 209 120 76 138 78 162 823 
7779 -0.36740187405474023 0.012715965977645925 0.6225207388665734 0 0 0 0.54 17 2622 118 2006 232 1874 
7780 0.5009245269187492 0.009567037534012635 0.8624638547770863 0 0 0 0.54 17 2623 114 210 120 77 138 79 163 235 227 630 
7781 -0.34306121207982965 0.011988699026479161 0.6230981201542244 0 0 0 0.15 17 2624 118 2007 232 1875 
7782 0.4754406165676746 0.025148050160367977 1.04661955738135 0 0 0 0.57 15 851 17 2625 29 841 118 2008 129 147 147 736 190 792 232 1876 
7783 0.4453857485242727 0.04250933556315936 1.0310280708952588 0 0 0 0.4 3 1211 11 3528 15 852 17 2626 32 835 118 2009 128 1104 172 899 190 793 
7784 0.5110580810247092 0.047533427696188034 1.0687677576617343 0 0 0 0.51 17 2627 118 2010 120 78 190 794 
7785 0.5472454089817954 0.0515584342818579 1.1370314488039714 0 0 0 0.38 17 2628 118 2011 120 79 
7786 0.49692348581438517 0.050256906466051195 0.8724541586291583 0 0 0 0.56 17 2629 118 2012 120 80 162 824 163 236 222 776 227 631 
7787 0.4863400469994471 0.058294654430499956 0.9249584527515959 0 0 0 0.26 17 2630 118 2013 147 737 
7788 0.4865284613673561 0.07508609836342155 0.9221827710832451 0 0 0 0.55 17 2631 120 81 147 738 
7789 -0.3453196560393008 0.0786399887428007 0.8214719431649938 0 0 0 0.1 17 2632 118 2014 232 1877 
7790 0.4460461397432281 0.09930405288483866 1.0267642243891228 0 0 0 0.3 3 1212 17 2633 118 2015 162 825 163 237 
7791 -0.37389687231485963 -0.2527584278668087 0.7283542110945591 0 0 0 0.45 17 2634 118 2016 232 1878 
7792 -0.37389687231485963 -0.2527584278668087 0.7283542110945591 0 0 0 0.45 17 2635 118 2017 232 1879 
7793 -0.3662033296997714 -0.1931485734343128 0.7556923023766463 0 0 0 0.07 17 2636 118 2018 232 1880 
7794 0.1394281747486083 -0.18549172822993007 1.1087290852159064 0 0 0 1.3 2 2346 3 1213 15 853 17 2637 118 2019 128 1105 138 80 164 2282 179 288 190 795 204 1026 219 861 232 1881 
7795 0.16549552992801503 -0.17788136682372177 1.0496280120270083 0 0 0 0.73 3 1214 15 854 17 2638 118 2020 138 81 152 406 179 289 197 490 198 412 221 1075 232 1882 
7796 -0.3647277507331679 -0.1114270386032618 0.6313755455520622 0 0 0 0.79 17 2639 118 2021 172 900 221 1076 
7797 -0.36230576714481444 -0.09894818667970352 0.6407454666364842 0 0 0 0.22 17 2640 118 2022 172 901 232 1883 
7798 -0.358493829000043 -0.12903030214391029 0.9841523464771811 0 0 0 0.09 17 2641 118 2023 232 1884 
7799 0.05201992801674884 -0.14876372425514175 1.0432140906207432 0 0 0 0.67 2 2347 17 2642 127 697 147 739 172 902 181 269 196 861 198 413 199 334 
7800 0.2631276778316765 -0.10017840156353604 1.0284875918190939 0 0 0 0.5 17 2643 198 414 199 335 
7801 -0.1943089225029231 -0.05272355906446011 1.0615729392258948 0 0 0 0.27 17 2644 146 2096 172 903 213 3764 
7802 -0.03164494952097492 -0.054066263086281964 1.0348341468464404 0 0 0 0.17 16 1895 17 2645 146 2097 213 3765 
7803 -0.03164494952097492 -0.054066263086281964 1.0348341468464404 0 0 0 0.17 16 1896 17 2646 146 2098 213 3766 
7804 0.49574643632310417 -0.04434957749882856 0.8944180835452825 0 0 0 0.8 17 2647 29 842 114 211 118 2024 120 82 162 826 165 488 197 491 227 632 232 1885 235 586 
7805 0.05566403800956188 -0.014575025306686817 1.0261084996474041 0 0 0 0.6 2 2348 4 3524 9 928 11 3529 15 855 16 1897 17 2648 25 569 27 539 29 843 32 836 118 2025 127 698 128 1106 129 148 146 2099 147 740 148 1567 157 1499 172 904 176 1907 190 796 196 862 198 415 204 1027 213 3767 214 1369 217 385 219 862 221 1077 232 1886 
7806 -0.2337810840346349 -0.007421915923947472 1.0658989464177684 0 0 0 0.61 11 3530 17 2649 157 1500 190 797 
7807 -0.2337810840346349 -0.007421915923947472 1.0658989464177684 0 0 0 0.61 11 3531 17 2650 157 1501 190 798 
7808 -0.19432098973284523 -0.007166026844497419 1.051118120179789 0 0 0 0.76 2 2349 11 3532 17 2651 25 570 114 212 118 2026 128 1107 157 1502 213 3768 217 386 
7809 -0.19449465182452333 -0.006229798827695959 1.0527060909666686 0 0 0 1.01 2 2350 11 3533 17 2652 25 571 29 844 114 213 118 2027 127 699 128 1108 157 1503 164 2283 198 416 199 336 213 3769 217 387 221 1078 232 1887 
7810 0.16740126493662746 -0.013433463975510505 1.0236199591091861 0 0 0 0.53 11 3534 15 856 17 2653 29 845 32 837 118 2028 128 1109 146 2100 152 407 157 1504 172 905 190 799 197 492 199 337 204 1028 213 3770 217 388 219 863 221 1079 222 777 232 1888 
7811 -0.06703906057479438 -0.0059608852305265215 1.0300008732091626 0 0 0 1.21 4 3525 16 1898 17 2654 25 572 27 540 118 2029 213 3771 221 1080 232 1889 
7812 0.036985706568430456 -0.008123296618156953 1.0245086728050201 0 0 0 1.0 2 2351 4 3526 11 3535 12 381 15 857 16 1899 17 2655 19 1036 25 573 29 846 32 838 118 2030 127 700 128 1110 129 149 146 2101 148 1568 152 408 157 1505 172 906 213 3772 214 1370 217 389 221 1081 232 1890 
7813 0.07365747397270972 -0.008391415180747059 1.0230430217573727 0 0 0 0.25 17 2656 157 1506 213 3773 
7814 0.2576098252170447 -0.004882493806498709 1.0177187477271297 0 0 0 0.26 17 2657 118 2031 157 1507 
7815 0.49716306215375644 0.003544790744041201 0.8805575296455546 0 0 0 0.21 17 2658 114 214 227 633 
7816 -0.049988246473929306 0.019603374891949646 1.0239950970533565 0 0 0 0.9 4 3527 11 3536 16 1900 17 2659 118 2032 128 1111 146 2102 164 2284 232 1891 
7817 -0.15437336838754853 0.025353151048249953 1.0372269540065473 0 0 0 1.01 16 1901 17 2660 118 2033 213 3774 
7818 -0.0685217363070177 0.02742550240494535 1.02003223798743 0 0 0 0.37 4 3528 16 1902 17 2661 25 574 118 2034 128 1112 213 3775 
7819 0.1291829211411335 0.023485795182490672 1.0230706496621083 0 0 0 0.25 17 2662 29 847 221 1082 
7820 0.49807618262869807 0.019733194268589833 0.879159039327057 0 0 0 0.5 17 2663 114 215 120 83 
7821 0.5968267227977916 0.04108874410021746 1.1743035086515423 0 0 0 0.43 17 2664 118 2035 120 84 
7822 -0.3546625016659517 0.03432377751119178 0.8211282055988668 0 0 0 0.63 12 382 17 2665 118 2036 232 1892 
7823 -0.36168588198789825 0.036619466218854625 0.70851547219989 0 0 0 0.21 17 2666 118 2037 232 1893 
7824 0.5757570248006225 0.07469805329853318 1.1340397368258242 0 0 0 0.38 17 2667 118 2038 120 85 
7825 -0.11324375754014115 0.07414509527300273 1.021678945190653 0 0 0 0.45 2 2352 3 1215 16 1903 17 2668 19 1037 25 575 27 541 118 2039 136 635 146 2103 179 290 181 270 196 863 199 338 200 850 220 465 224 629 
7826 0.503893293957706 0.09363949735297211 1.0499294721454215 0 0 0 0.46 17 2669 118 2040 120 86 147 741 190 800 221 1083 
7827 -0.07304565418425979 0.10508776535085568 0.9990612552121033 0 0 0 0.32 11 3537 17 2670 118 2041 147 742 213 3776 219 864 
7828 0.45975110791707635 0.11160492218499704 1.0273107636202776 0 0 0 0.62 3 1216 11 3538 17 2671 19 1038 147 743 162 827 163 238 184 541 222 778 
7829 0.1086383294142058 0.11089412699518016 0.9979039930225884 0 0 0 0.37 16 1904 17 2672 146 2104 158 846 217 390 
7830 -0.1557681000747592 0.11792009924187723 1.0207600516598663 0 0 0 0.9 2 2353 17 2673 32 839 118 2042 157 1508 158 847 162 828 200 851 220 466 221 1084 
7831 -0.15593942050526444 0.11681141281570587 1.021617335854669 0 0 0 0.71 2 2354 4 3529 17 2674 25 576 118 2043 146 2105 157 1509 164 2285 176 1908 198 417 199 339 204 1029 213 3777 219 865 221 1085 232 1894 
7832 0.18228069551098597 0.11579235986273309 0.9945612307010103 0 0 0 0.63 4 3530 17 2675 146 2106 164 2286 172 907 199 340 223 179 
7833 0.18228069551098597 0.11579235986273309 0.9945612307010103 0 0 0 0.63 4 3531 17 2676 146 2107 164 2287 172 908 199 341 223 180 
7834 0.1453832076182997 0.13030783109391256 0.9963012875641102 0 0 0 0.67 17 2677 32 840 146 2108 199 342 
7835 0.10809465949679736 0.13419901290821426 0.989930802656744 0 0 0 0.31 17 2678 25 577 146 2109 
7836 -0.34859261729816765 -0.17615101012060996 0.7101695353617183 0 0 0 0.64 17 2679 118 2044 232 1895 
7837 -0.3555320310662852 -0.18939551571104868 0.8250633435104192 0 0 0 0.58 17 2680 221 1086 232 1896 
7838 -0.08145927674723302 -0.18890548474289504 1.0883022024026767 0 0 0 0.3 17 2681 172 909 232 1897 
7839 -0.2884980955166848 -0.1669008203306099 1.1296163269881732 0 0 0 1.15 17 2682 27 542 199 343 219 866 
7840 -0.174253099058184 -0.07224007363419552 1.0665565258230976 0 0 0 0.98 16 1905 17 2683 146 2110 213 3778 
7841 -0.15306248104568806 -0.05430075379695958 1.0501869915974476 0 0 0 0.33 16 1906 17 2684 146 2111 172 910 213 3779 
7842 -0.1529342412398984 -0.05455750302927053 1.0513671795138206 0 0 0 0.27 17 2685 146 2112 172 911 
7843 -0.10942748053013678 -0.05595020546142998 1.0444851796005608 0 0 0 0.19 16 1907 17 2686 146 2113 213 3780 
7844 -0.10942669403756364 -0.055974771120881665 1.0446217646331337 0 0 0 0.17 16 1908 17 2687 146 2114 172 912 213 3781 
7845 -0.06626965121754941 -0.05637476777170933 1.037869648622809 0 0 0 0.37 9 929 16 1909 17 2688 146 2115 172 913 213 3782 
7846 -0.0664351850239304 -0.0560986079263427 1.0355542748747761 0 0 0 0.17 16 1910 17 2689 146 2116 213 3783 
7847 -0.049138904332597606 -0.04556599615406832 1.0335044276844667 0 0 0 0.39 16 1911 17 2690 25 578 136 636 146 2117 172 914 213 3784 
7848 -0.04906123141435022 -0.04552093615346152 1.0347103607029668 0 0 0 0.35 16 1912 17 2691 25 579 146 2118 213 3785 
7849 -0.15440149980774848 -0.027130795551541836 1.0461258823711075 0 0 0 0.34 16 1913 17 2692 172 915 213 3786 
7850 -0.06807365091335492 -0.025385441470982723 1.0294314850824553 0 0 0 0.47 16 1914 17 2693 25 580 213 3787 
7851 0.22327364821829146 -0.02433992313556736 1.0237005819883649 0 0 0 0.5 17 2694 29 848 32 841 118 2045 136 637 197 493 204 1030 213 3788 217 391 220 467 
7852 0.20403304379321116 -0.011090501153205961 1.0219624340047357 0 0 0 0.57 11 3539 15 858 17 2695 32 842 118 2046 128 1113 146 2119 152 409 157 1510 179 291 
7853 0.3103149189159422 -0.0005189197801860973 1.018013196790756 0 0 0 0.47 17 2696 190 801 213 3789 222 779 
7854 0.506126465035107 0.03923990808663277 0.9059492113666389 0 0 0 0.56 17 2697 120 87 227 634 
7855 0.4709211746989317 0.09091244254987606 1.0292494760408224 0 0 0 0.66 17 2698 147 744 184 542 190 802 222 780 
7856 -0.29363578125534673 0.11183889132135803 1.0433738254630258 0 0 0 0.6 17 2699 25 581 162 829 164 2288 198 418 199 344 221 1087 232 1898 
7857 -0.2931874826146809 0.1120860616640526 1.04184358583994 0 0 0 0.87 17 2700 25 582 118 2047 146 2120 158 848 162 830 164 2289 198 419 199 345 204 1031 221 1088 232 1899 
7858 0.12643513191828645 0.10982031788846829 0.993243605648399 0 0 0 0.25 11 3540 17 2701 25 583 146 2121 
7859 0.05313793620898046 0.110718708570129 0.9989150871330889 0 0 0 0.22 17 2702 198 420 227 635 
7860 0.05304750059744022 0.11050640796273076 1.0002748494995601 0 0 0 0.68 17 2703 25 584 198 421 217 392 
7861 -0.11313570160321057 0.12601194156747966 1.0107300576565317 0 0 0 0.51 11 3541 16 1915 17 2704 19 1039 27 543 146 2122 148 1569 162 831 200 852 221 1089 
7862 -0.11330108851327242 0.1257451218561266 1.011216826705514 0 0 0 0.41 17 2705 27 544 162 832 
7863 0.1643454190043801 0.12079620649281171 0.9939815618216962 0 0 0 0.49 17 2706 199 346 223 181 
7864 0.10703337693313923 -0.19054069251068506 1.0731772370438784 0 0 0 0.59 15 859 17 2707 118 2048 128 1114 213 3790 232 1900 
7865 -0.08842769841007324 -0.07048893161056448 1.025745423168277 0 0 0 0.28 16 1916 17 2708 213 3791 
7866 -0.08840269274416315 -0.04471016000913244 1.0402452754899456 0 0 0 0.75 16 1917 17 2709 146 2123 213 3792 
7867 -0.17407386725358823 -0.005002214291179774 1.0473596494577586 0 0 0 0.53 16 1918 17 2710 146 2124 157 1511 213 3793 
7868 -0.17412662224684067 -0.005118252537064703 1.042879353959555 0 0 0 0.53 16 1919 17 2711 157 1512 213 3794 
7869 -0.1538838978295208 0.09202465237292996 1.0268536982873404 0 0 0 0.39 2 2355 4 3532 17 2712 25 585 164 2290 196 864 198 422 199 347 214 1371 220 468 232 1901 
7870 -0.11244797880915285 0.09149099076008019 1.0164039741524042 0 0 0 0.69 2 2356 17 2713 27 545 118 2049 148 1570 164 2291 213 3795 221 1090 
7871 -0.11252248086873251 0.09141481910783802 1.0167720291143219 0 0 0 0.71 2 2357 11 3542 17 2714 27 546 118 2050 148 1571 164 2292 213 3796 221 1091 
7872 -0.03424035850153337 0.09026413882990672 1.0065765414069852 0 0 0 0.31 16 1920 17 2715 19 1040 27 547 118 2051 147 745 164 2293 213 3797 232 1902 
7873 -0.034240358501533376 0.09026413882990668 1.006576541406985 0 0 0 0.31 16 1921 17 2716 19 1041 27 548 118 2052 147 746 164 2294 213 3798 232 1903 
7874 0.0733994744438126 0.09429810681660757 1.004072026584614 0 0 0 0.73 2 2358 3 1217 16 1922 17 2717 25 586 118 2053 164 2295 188 182 213 3799 217 393 220 469 234 224 
7875 0.10854381521781888 0.09508240430858565 1.001408395364522 0 0 0 0.36 17 2718 118 2054 217 394 
7876 -0.0722623280107139 0.09546334128311824 1.01563316319489 0 0 0 0.8 17 2719 147 747 221 1092 
7877 -0.33252069925923994 -0.12590538189828504 1.1072430696745037 0 0 0 0.52 3 1218 17 2720 118 2055 128 1115 158 849 232 1904 
7878 -0.33252069925923994 -0.12590538189828504 1.1072430696745037 0 0 0 0.52 3 1219 17 2721 118 2056 128 1116 158 850 232 1905 
7879 0.46979454561797107 -0.06549287324406697 1.0865932917225236 0 0 0 0.67 15 860 17 2722 129 150 172 916 190 803 
7880 0.3125385469947248 -0.16152994903108037 1.039580600233404 0 0 0 0.3 2 2359 19 1042 159 725 184 543 185 552 
7881 0.3310007500679408 -0.13963318029017188 1.0387824005725652 0 0 0 0.42 19 1043 162 833 184 544 
7882 0.33276406910256406 -0.13695456394188832 1.0394760985302856 0 0 0 0.45 4 3533 19 1044 136 638 196 865 
7883 0.08126330993554759 -0.16820468585557047 1.0748895397192053 0 0 0 0.52 19 1045 159 726 196 866 
7884 0.36595256242797747 -0.12607929713151342 1.0345521668340216 0 0 0 0.29 2 2360 4 3534 19 1046 136 639 148 1572 164 2296 165 489 184 545 213 3800 235 587 
7885 0.32977143117505114 -0.1283057936518927 1.0354623070759938 0 0 0 0.25 19 1047 148 1573 196 867 
7886 0.009171729090693503 -0.16261903368133093 1.0525177072176943 0 0 0 0.23 19 1048 200 853 224 630 
7887 0.29378706424960604 -0.12921408496181747 1.038178259616876 0 0 0 0.07 19 1049 148 1574 196 868 
7888 0.25800576764312144 -0.13208113551675452 1.036816149786716 0 0 0 0.32 9 930 19 1050 136 640 185 553 214 1372 
7889 0.30340709809685573 -0.12429316166960591 1.0379698299646576 0 0 0 0.1 19 1051 136 641 184 546 
7890 0.35049353900016733 -0.11924040517097341 1.0505375714258836 0 0 0 1.09 19 1052 164 2297 196 869 
7891 0.3699871119756765 -0.11438283639139223 1.0321566569880067 0 0 0 0.24 19 1053 148 1575 165 490 
7892 0.36173029528358097 -0.11503110164302725 1.0353189615393374 0 0 0 0.43 2 2361 4 3535 19 1054 127 701 136 642 148 1576 162 834 164 2298 196 870 197 494 213 3801 
7893 0.060604262554378036 -0.13385039771073534 0.9786450225839939 0 0 0 1.39 19 1055 159 727 196 871 
7894 0.19042703049039977 -0.12921265303940993 1.0375960606271477 0 0 0 0.52 9 931 19 1056 127 702 146 2125 159 728 185 554 196 872 200 854 213 3802 214 1373 
7895 0.21223652296522177 -0.12264824649545318 1.0397690643225155 0 0 0 0.23 19 1057 159 729 185 555 
7896 0.30722671686329045 -0.11166210545020752 1.0354516489918615 0 0 0 0.17 19 1058 126 418 148 1577 
7897 -7.807472717213094e-05 -0.14204560178112735 1.041614090138156 0 0 0 0.74 4 3536 9 932 19 1059 32 843 136 643 157 1513 162 835 176 1909 185 556 200 855 224 631 
7898 -0.011612661801461213 -0.13867235090115507 1.0434199189805229 0 0 0 0.26 19 1060 127 703 157 1514 
7899 -0.011647466880132323 -0.13854822519734153 1.0427587734240036 0 0 0 0.22 19 1061 157 1515 176 1910 
7900 0.2117179519010399 -0.11404479502760984 1.0382342885322564 0 0 0 0.25 19 1062 148 1578 196 873 
7901 -0.020199978903281825 -0.13498190855800998 1.0416880152883012 0 0 0 0.17 19 1063 127 704 157 1516 
7902 0.20500476322491587 -0.1085263882533235 1.0343622730973725 0 0 0 0.2 19 1064 163 239 164 2299 
7903 0.19459343485341485 -0.1089257468641007 1.0349532435519584 0 0 0 0.24 19 1065 127 705 148 1579 220 470 
7904 0.39055568637432253 -0.08861892633758268 1.0287229309190984 0 0 0 0.29 19 1066 148 1580 213 3803 
7905 -0.24272682687316047 -0.1563853899648983 1.0820032463282339 0 0 0 0.12 19 1067 164 2300 224 632 
7906 0.16894577249357592 -0.108483493407468 1.0304887703288006 0 0 0 0.53 19 1068 162 836 163 240 
7907 -0.023534410866759628 -0.12868388045398513 1.0443823088213524 0 0 0 0.18 4 3537 16 1923 17 2723 19 1069 157 1517 164 2301 213 3804 
7908 0.06448506983605518 -0.11750916280105289 1.0410977395946561 0 0 0 0.64 2 2362 9 933 19 1070 126 419 136 644 159 730 196 874 200 856 204 1032 
7909 -0.03743916267198367 -0.12669798077361938 1.0420144056703124 0 0 0 0.43 11 3543 19 1071 27 549 159 731 162 837 196 875 213 3805 224 633 
7910 -0.037386532481139656 -0.12658772511566804 1.0415321563640252 0 0 0 0.37 19 1072 27 550 162 838 196 876 213 3806 224 634 
7911 0.33408105637426794 -0.08874123931033001 1.0232328931729384 0 0 0 0.36 19 1073 162 839 163 241 
7912 0.3988520733072726 -0.08184295468314286 1.026734005324747 0 0 0 0.51 19 1074 136 645 165 491 220 471 
7913 -0.042528098812176764 -0.12346895051415621 1.0417454839654952 0 0 0 0.41 11 3544 19 1075 157 1518 162 840 213 3807 220 472 
7914 0.37432364182680417 -0.08250984518034349 1.0312896272835297 0 0 0 0.3 19 1076 196 877 220 473 
7915 0.31395586819434856 -0.0863474300396155 1.0305798676964315 0 0 0 0.05 4 3538 19 1077 163 242 
7916 0.26503903862901096 -0.0898795586511957 1.0280449545548904 0 0 0 0.11 19 1078 185 557 235 588 
7917 0.2907346817121877 -0.08648682174773768 1.0274264913653777 0 0 0 0.39 19 1079 148 1581 184 547 235 589 
7918 -0.0706247537890061 -0.12281677221296725 1.0495851835486607 0 0 0 0.47 19 1080 162 841 185 558 220 474 224 635 
7919 0.1554365760289691 -0.09873148221921454 1.0307636956217205 0 0 0 0.38 19 1081 127 706 200 857 
7920 0.16656069524545908 -0.09801782703890216 1.0331254484885664 0 0 0 0.09 19 1082 157 1519 200 858 
7921 0.16656069524545974 -0.09801782703890272 1.033125448488569 0 0 0 0.09 19 1083 157 1520 200 859 
7922 -0.1893884790505906 -0.13483089514652835 1.073840273795012 0 0 0 0.37 19 1084 29 849 172 917 214 1374 
7923 0.1361670533026529 -0.09789802260545884 1.0336951389539042 0 0 0 0.45 19 1085 135 438 162 842 234 225 
7924 0.12212264936147291 -0.09880691589603383 1.0348059644129441 0 0 0 0.34 11 3545 16 1924 19 1086 126 420 127 707 148 1582 159 732 164 2302 200 860 213 3808 214 1375 
7925 0.18450762061563197 -0.09255664628794044 1.0340512430514988 0 0 0 0.12 19 1087 135 439 175 470 
7926 0.008996396905683724 -0.10835881104721967 1.0400979746709256 0 0 0 0.46 19 1088 135 440 162 843 196 878 224 636 
7927 0.25988833504014214 -0.08377946245283478 1.0287454271118301 0 0 0 0.12 19 1089 136 646 157 1521 
7928 0.2154892514317738 -0.0872610534689976 1.0311605305529499 0 0 0 0.37 4 3539 9 934 11 3546 19 1090 29 850 32 844 128 1117 136 647 159 733 164 2303 172 918 175 471 182 49 185 559 194 839 200 861 213 3809 214 1376 222 781 
7929 0.2293898804767953 -0.08421647793657593 1.0304566252405112 0 0 0 0.36 2 2363 19 1091 135 441 148 1583 157 1522 159 734 163 243 185 560 194 840 213 3810 214 1377 
7930 0.0036377756376013326 -0.10367787923167454 1.040651721286398 0 0 0 0.33 19 1092 135 442 136 648 200 862 224 637 
7931 0.23438264688158425 -0.07923394399927969 1.0290885515054335 0 0 0 0.16 19 1093 136 649 163 244 164 2304 196 879 
7932 0.0981309727028496 -0.09169781236656818 1.035898844588032 0 0 0 0.24 16 1925 19 1094 135 443 157 1523 159 735 175 472 214 1378 
7933 0.12617421804588333 -0.08596146732557486 1.032159362056337 0 0 0 0.78 2 2364 11 3547 19 1095 127 708 136 650 157 1524 176 1911 185 561 
7934 0.23006866610176535 -0.07501049957320206 1.027318848947108 0 0 0 0.14 19 1096 148 1584 159 736 
7935 0.13812691280773845 -0.08066142874752957 1.030343910169397 0 0 0 0.24 19 1097 127 709 135 444 197 495 
7936 -0.19698762807207842 -0.1136022388817449 1.0750991626269224 0 0 0 0.24 19 1098 185 562 224 638 
7937 0.02384514912063448 -0.08890614233478979 1.0360778305701452 0 0 0 0.34 2 2365 4 3540 16 1926 19 1099 136 651 162 844 194 841 196 880 200 863 227 636 
7938 0.2268666429617575 -0.06899414885414419 1.0287693507314557 0 0 0 0.14 19 1100 200 864 220 475 
7939 0.33136876781811675 -0.05930299373290727 1.024391234342214 0 0 0 0.34 19 1101 136 652 146 2126 176 1912 196 881 213 3811 
7940 0.2386176173637726 -0.06791774820756252 1.0335923771547861 0 0 0 0.31 19 1102 136 653 163 245 164 2305 194 842 
7941 -0.18178808622511694 -0.10398605466641142 1.059050690324989 0 0 0 0.22 19 1103 162 845 224 639 
7942 0.23856192590472777 -0.06355933507042431 1.032370835348189 0 0 0 0.06 19 1104 136 654 194 843 
7943 0.42518714622405296 -0.04716037551842679 1.0375941909715374 0 0 0 0.42 19 1105 164 2306 184 548 
7944 -0.10316275034999595 -0.09033521086315775 1.0496132543583674 0 0 0 0.52 19 1106 157 1525 159 737 162 846 164 2307 176 1913 204 1033 219 867 
7945 -0.35163346726895317 -0.11526121104987792 1.0985019397089828 0 0 0 0.22 19 1107 148 1585 157 1526 232 1906 
7946 0.23833676020546718 -0.05727302883822168 1.032590762919839 0 0 0 0.2 19 1108 162 847 164 2308 
7947 -0.12289664168258639 -0.0867670006931233 1.049293872966722 0 0 0 0.23 19 1109 128 1118 152 410 162 848 219 868 
7948 -0.1572953652213112 -0.08956336856874485 1.0596816096477404 0 0 0 0.15 16 1927 19 1110 118 2057 136 655 164 2309 
7949 -0.16869925266178057 -0.08931333360346323 1.0601450963355343 0 0 0 0.42 11 3548 19 1111 27 551 29 851 32 845 118 2058 127 710 128 1119 136 656 179 292 204 1034 219 869 227 637 
7950 -0.01457955592382499 -0.07387380060228715 1.0438839144565204 0 0 0 0.25 19 1112 162 849 224 640 
7951 -0.014397308221744811 -0.07400088180070716 1.043519415560507 0 0 0 0.16 19 1113 148 1586 224 641 
7952 0.43846581852572714 -0.034401432684784676 1.0425705578143099 0 0 0 0.27 19 1114 136 657 184 549 
7953 -0.21279160437428746 -0.09169899576095294 1.0687209241233318 0 0 0 0.48 19 1115 164 2310 200 865 
7954 0.23052480982513512 -0.05083953819842163 1.0302880089240314 0 0 0 0.1 19 1116 148 1587 194 844 
7955 -0.38926541987558333 -0.10974674818295181 1.1075199614536704 0 0 0 0.35 2 2366 19 1117 148 1588 159 738 164 2311 196 882 224 642 
7956 -0.24480428493374579 -0.08838980863623656 1.0719891614058714 0 0 0 0.36 19 1118 158 851 204 1035 219 870 
7957 -0.24524059108182825 -0.08832466072346509 1.072412704700373 0 0 0 0.58 19 1119 158 852 172 919 
7958 -0.07131122220706086 -0.06966667363258089 1.0365687041794247 0 0 0 0.1 19 1120 135 445 159 739 
7959 -0.266258215632694 -0.08776207586681348 1.0741255099355018 0 0 0 0.49 2 2367 19 1121 29 852 157 1527 159 740 176 1914 213 3812 
7960 0.11598505654038481 -0.05270497108201615 1.0266439211440122 0 0 0 0.21 19 1122 127 711 136 658 
7961 0.2488664170050621 -0.04224531695868587 1.032200728086582 0 0 0 0.05 19 1123 159 741 163 246 
7962 0.38973125715398615 -0.030108364740295487 1.022310300939548 0 0 0 0.27 19 1124 164 2312 235 590 
7963 -0.3673005722959564 -0.09671390988591443 1.0907981692044952 0 0 0 0.31 2 2368 19 1125 148 1589 164 2313 224 643 
7964 0.3882950424876264 -0.027226982755027766 1.01929689819847 0 0 0 0.34 2 2369 19 1126 136 659 164 2314 165 492 184 550 196 883 213 3813 
7965 0.4402687946069434 -0.023187339055141244 1.0416164036820779 0 0 0 0.29 19 1127 136 660 184 551 
7966 0.01190789053269869 -0.05556414987633098 1.0168451573183064 0 0 0 0.14 19 1128 148 1590 224 644 
7967 0.39162064983798467 -0.02416050503839381 1.0194109306241017 0 0 0 0.44 19 1129 146 2127 164 2315 
7968 0.24276598383000147 -0.03311521459134907 1.028385833827504 0 0 0 0.28 19 1130 148 1591 159 742 214 1379 
7969 0.3026547863870185 -0.028115013903658236 1.0202670804689609 0 0 0 0.21 19 1131 136 661 165 493 184 552 235 591 
7970 -0.0595924490648079 -0.05774432204407428 1.037951994897665 0 0 0 0.11 19 1132 196 884 200 866 
7971 -0.10654020647101543 -0.061044848519230595 1.0465110615671116 0 0 0 0.2 19 1133 136 662 200 867 224 645 
7972 0.3989914267549874 -0.019165573499170356 1.020442033474999 0 0 0 0.2 19 1134 136 663 148 1592 
7973 -0.19425988347746348 -0.06816524075732426 1.0608179780314873 0 0 0 0.29 4 3541 11 3549 19 1135 27 552 127 712 128 1120 146 2128 157 1528 158 853 164 2316 194 845 200 868 213 3814 224 646 
7974 0.23075240310259845 -0.031274820098481974 1.023933958469867 0 0 0 0.14 19 1136 126 421 163 247 
7975 0.39140392202321567 -0.017322867636988225 1.0179408959521605 0 0 0 0.19 19 1137 148 1593 164 2317 
