# 3D point list with one line of data per point:
#   POINT3D_ID, X, Y, Z, R, G, B, ERROR, TRACK[] as (IMAGE_ID, POINT2D_IDX)
# Number of points: 390, mean track length: 6.17
717 -0.004109156440631358 -0.22284172023745333 1.1641677974440754 0 0 0 0.26 2 40 4 27 9 19 11 7 33 42 40 75 44 25 77 47 85 81 109 50 148 360 157 9 159 251 176 53 185 93 196 326 213 84 224 134 229 200 164 160 
718 0.007699568308071517 -0.2211403364622553 1.1603939388954956 0 0 0 0.26 2 41 9 20 17 16 19 31 27 34 33 43 44 26 77 48 85 82 109 51 148 361 164 161 229 201 
719 -0.0025022451217401958 -0.22120430535877816 1.1652511024023455 0 0 0 0.31 2 42 4 28 9 21 27 35 33 44 44 27 77 49 85 83 118 102 164 162 176 54 213 85 224 135 229 202 
720 0.2365301725222856 -0.16537653842633643 1.0777658287743663 0 0 0 0.37 2 43 4 29 33 45 38 21 109 52 127 58 229 203 
721 0.17664702555293005 -0.16378498624303045 1.0927989876141937 0 0 0 0.19 2 44 16 8 33 46 44 28 50 6 109 53 148 362 196 327 229 204 
722 0.03714949140786184 -0.15935683949165952 1.1505923056865366 0 0 0 0.28 2 45 11 8 21 6 27 36 33 47 52 44 77 50 118 103 128 30 148 363 159 252 162 79 164 163 196 328 200 33 213 86 224 136 229 205 232 91 
723 -0.024406195627953216 -0.13572823812771936 1.1753992060759044 0 0 0 0.23 2 46 148 364 196 329 229 206 
724 0.1299278507617327 -0.10582237349792407 1.1074126725183095 0 0 0 0.17 2 47 19 32 33 48 44 29 77 51 159 253 185 94 196 330 224 137 229 207 
725 0.22786779445681796 -0.06763542429425631 1.0815573368175821 0 0 0 0.3 2 48 4 30 33 49 44 30 85 84 92 10 110 14 148 365 194 38 214 36 223 60 229 208 
726 0.06495851242741733 -0.0630749517315162 1.133230920162732 0 0 0 0.19 2 49 44 31 164 164 229 209 
727 0.2108881121983275 -0.2619332262410129 1.0791667874846402 0 0 0 0.37 2 50 4 31 16 9 19 33 33 50 40 76 44 32 50 7 52 45 77 52 85 85 109 54 128 31 146 31 148 366 157 10 162 80 164 165 196 331 229 210 
728 0.23745126001769917 -0.23959004467864053 1.0764131463214437 0 0 0 0.28 2 51 33 51 38 22 40 77 77 53 148 367 229 211 50 8 52 46 196 332 213 87 
729 0.14854754602879688 -0.23086854904665216 1.099446757798542 0 0 0 0.32 2 52 4 32 11 9 16 10 17 17 77 54 85 86 92 11 109 55 110 15 112 3 146 32 159 254 164 166 185 95 196 333 213 88 229 212 
730 0.16584328829765732 -0.2299092027891191 1.0941752881505633 0 0 0 0.33 2 53 11 10 16 11 28 1 42 39 44 33 85 87 109 56 126 307 164 167 196 334 200 34 213 89 224 138 229 213 232 92 
731 0.005292118836891181 -0.23024120455595856 1.1636399732774165 0 0 0 0.44 2 54 40 78 229 214 
732 0.21852925509572496 -0.21928050395137572 1.0804292059551823 0 0 0 0.2 2 55 4 33 9 22 16 12 17 18 33 52 38 23 40 79 44 34 50 9 77 55 85 88 92 12 93 11 109 57 110 16 146 33 148 368 157 11 159 255 176 55 196 335 200 35 213 90 220 182 229 215 
733 0.1695070342302551 -0.21822797919602555 1.093080709846246 0 0 0 0.33 2 56 4 34 11 11 16 13 33 53 40 80 44 35 77 56 85 89 109 58 112 4 118 104 146 34 148 369 157 12 196 336 213 91 223 61 224 139 229 216 
734 0.03296474247271044 -0.22251750698345152 1.149713043148973 0 0 0 0.23 2 57 4 35 9 23 11 12 17 19 33 54 44 36 50 10 77 57 85 90 92 13 118 105 148 370 157 13 159 256 162 81 164 168 176 56 196 337 200 36 213 92 220 183 224 140 229 217 27 37 109 59 128 32 
735 0.10897624139889683 -0.2192598503263985 1.1190801826588423 0 0 0 0.23 2 58 4 36 11 13 17 20 19 34 27 38 44 37 50 11 52 47 77 58 85 91 92 14 109 60 110 17 118 106 146 35 157 14 159 257 162 82 164 169 196 338 200 37 213 93 220 184 224 141 229 218 9 24 176 57 
736 -0.02016767650607077 -0.22300962125190313 1.1708486600356365 0 0 0 0.33 2 59 9 25 27 39 33 55 77 59 85 92 92 15 109 61 148 371 164 170 196 339 224 142 229 219 44 38 52 48 126 308 128 33 159 258 40 81 
737 0.07151168047688183 -0.20775952581340243 1.1383211273494103 0 0 0 0.27 2 60 52 49 229 220 
738 0.07223620306975867 -0.16530451255652487 1.1364749179499372 0 0 0 0.34 2 61 9 26 33 56 44 39 85 93 92 16 126 309 127 59 148 372 164 171 224 143 229 221 
739 0.004473958160102321 -0.10159855470819062 1.1583615896538073 0 0 0 0.31 2 62 4 37 33 57 118 107 148 373 157 15 196 340 229 222 232 93 
740 -0.022036552057283568 -0.0979237886142432 1.1715824840189888 0 0 0 0.41 2 63 33 58 44 40 164 172 176 58 196 341 213 94 229 223 
741 0.2474914048471232 -0.09147996640889518 1.0704024052728711 0 0 0 0.23 2 64 4 38 9 27 11 14 16 14 17 21 28 2 33 59 38 24 44 41 50 12 77 60 85 94 92 17 93 12 118 108 146 36 148 374 185 96 194 39 196 342 213 95 214 37 229 224 
742 0.06899352557065208 -0.06421600785398321 1.1359854781693137 0 0 0 0.14 2 65 33 60 42 40 44 42 77 61 126 310 148 375 164 173 220 185 229 225 
743 -0.09875910603270353 -0.04906085852090466 1.0398394825174326 0 0 0 0.39 148 376 196 343 220 186 229 226 
744 -0.06835109243786594 -0.27974817154214016 1.198400470873604 0 0 0 0.8 27 40 40 82 42 41 77 62 85 95 196 344 229 227 
745 0.19268994824333285 -0.23991406678107607 1.0880688583185705 0 0 0 0.43 2 66 4 39 9 28 11 15 16 15 25 17 27 41 52 50 77 63 85 96 112 5 146 37 176 59 223 62 224 144 229 228 
746 0.0882718752491286 -0.22802609513534836 1.1273297187045932 0 0 0 0.47 2 67 4 40 11 16 27 42 33 61 40 83 44 43 50 13 71 18 77 64 85 97 109 62 110 18 118 109 146 38 164 174 176 60 196 345 213 96 220 187 224 145 229 229 232 94 
747 0.020311969703473237 -0.22593780172307587 1.156166918179764 0 0 0 0.3 2 68 4 41 17 22 19 35 40 84 42 42 50 14 71 19 77 65 85 98 118 110 128 34 148 377 164 175 229 230 232 95 
748 0.004754375669078422 -0.10849129419441444 1.1595951123918227 0 0 0 0.26 2 69 44 44 148 378 164 176 176 61 220 188 229 231 
749 -0.026657032239514055 -0.0893110462532012 1.1715822830120357 0 0 0 0.26 33 62 40 85 42 43 44 45 52 51 77 66 85 99 148 379 159 259 196 346 224 146 229 232 
750 0.09335002969378835 -0.05530302329115066 1.1227799106761844 0 0 0 0.31 2 70 4 42 25 18 44 46 52 52 77 67 92 18 128 35 148 380 162 83 164 177 176 62 196 347 200 38 224 147 229 233 
751 0.16144104750158209 -0.2984843758288833 1.0989610347997865 0 0 0 0.33 2 71 19 36 40 86 52 53 77 68 85 100 109 63 159 260 196 348 229 234 
752 -0.0837173147765545 -0.25506669755766453 1.199387867477075 0 0 0 0.35 19 37 26 23 40 87 142 693 148 381 159 261 164 178 196 349 224 148 229 235 
753 0.20441627012628188 -0.2323643285929508 1.0855103105993689 0 0 0 0.42 2 72 26 24 27 43 38 25 52 54 77 69 109 64 127 60 148 382 164 179 196 350 224 149 229 236 33 63 118 111 
754 0.06773271485268108 -0.06049454526406451 1.1298556499890016 0 0 0 0.44 2 73 25 19 26 25 33 64 77 70 200 39 220 189 224 150 229 237 
755 0.164687002690902 -0.30716100487210185 1.0994220348550898 0 0 0 0.36 2 74 27 44 40 88 77 71 112 6 146 39 159 262 164 180 185 97 196 351 198 62 199 65 224 151 229 238 9 29 63 9 126 311 142 694 
756 0.17784904159700574 -0.20762031800197803 1.091495752393263 0 0 0 0.59 2 75 42 44 44 47 77 72 85 101 93 13 109 65 196 352 229 239 
757 0.16869227940404583 -0.26109962476692894 1.0940756408358345 0 0 0 0.53 2 76 50 15 77 73 229 240 
758 0.2216066228784495 -0.2985627968278855 1.0821621382164417 0 0 0 0.19 4 43 33 65 164 181 229 241 
759 0.22808606171841034 -0.24487657255784454 1.0783100699701056 0 0 0 0.38 4 44 11 17 16 16 33 66 38 26 213 97 229 242 
760 0.23065819681875302 -0.23508783005185738 1.07791109491064 0 0 0 0.29 4 45 11 18 27 45 109 66 148 383 164 182 196 353 229 243 
761 0.16727089490664335 -0.2280918132783491 1.0947321816544873 0 0 0 0.31 4 46 17 23 33 67 77 74 229 244 
762 0.14287232868381353 -0.22560200603513908 1.1040754278613931 0 0 0 0.32 4 47 110 19 148 384 229 245 
763 0.20441223454687288 -0.22170019221753645 1.0846476418491615 0 0 0 0.16 4 48 38 27 112 7 146 40 229 246 
764 0.21188674178995603 -0.21938768765785643 1.0819827439809075 0 0 0 0.31 4 49 11 19 16 17 28 3 33 68 38 28 50 16 112 8 146 41 148 385 157 16 159 263 185 98 196 354 213 98 214 38 224 152 229 247 
765 0.21536180980515812 -0.21948440936563657 1.0815156259861933 0 0 0 0.26 4 50 11 20 16 18 17 24 28 4 33 69 38 29 50 17 77 75 85 102 112 9 118 112 127 61 146 42 148 386 159 264 176 63 185 99 196 355 213 99 214 39 224 153 229 248 
766 0.22143945851882826 -0.21933219726763808 1.0796819409726148 0 0 0 0.37 4 51 16 19 27 46 38 30 50 18 77 76 85 103 159 265 185 100 213 100 229 249 33 70 
767 0.10989215569386249 -0.22178341539895768 1.1190267775867462 0 0 0 0.22 4 52 9 30 33 71 50 19 93 14 109 67 110 20 157 17 164 183 176 64 200 40 213 101 229 250 
768 0.11368378181714203 -0.2219155939300209 1.1183396262800158 0 0 0 0.3 4 53 9 31 11 21 92 19 146 43 176 65 200 41 224 154 229 251 
769 0.1000625134399663 -0.22162140624270407 1.1217778249089825 0 0 0 0.19 4 54 11 22 33 72 85 104 148 387 159 266 213 102 224 155 229 252 
770 0.22573042233509233 -0.21710522153584036 1.0783695495892711 0 0 0 0.11 4 55 38 31 77 77 85 105 148 388 164 184 185 101 213 103 229 253 16 20 92 20 109 68 146 44 214 40 
771 0.15969841576214783 -0.1991275271114125 1.0962956326784528 0 0 0 0.24 4 56 27 47 44 48 52 55 77 78 109 69 146 45 148 389 224 156 229 254 
772 0.2208616130512214 -0.15422186170765492 1.0807337070014542 0 0 0 0.53 4 57 148 390 176 66 229 255 
773 0.24475153654832674 -0.09155979835015267 1.071102542099056 0 0 0 0.24 4 58 11 23 16 21 28 5 33 73 38 32 50 20 77 79 85 106 93 15 110 21 146 46 148 391 159 267 194 40 213 104 214 41 223 63 229 256 42 45 
774 0.20229820806218235 -0.0925695711294713 1.0856584311484072 0 0 0 0.48 4 59 11 24 194 41 229 257 
775 0.24377852475091524 -0.08933579681080188 1.0724163011902763 0 0 0 0.2 4 60 11 25 16 22 28 6 38 33 85 107 146 47 164 185 194 42 213 105 223 64 229 258 
776 0.18675382668501936 -0.09008449791044205 1.086606818461152 0 0 0 0.36 4 61 16 23 85 108 148 392 176 67 214 42 229 259 
777 0.23902226135817264 -0.08454697352638443 1.0734076935044663 0 0 0 0.32 4 62 148 393 229 260 
778 0.24331781703110017 -0.06645536787558198 1.0728136663219048 0 0 0 0.18 4 63 11 26 38 34 52 56 229 261 
779 0.18634124877083216 -0.035499975692966444 1.0876762459295257 0 0 0 0.24 4 64 16 24 33 74 77 80 85 109 110 22 146 48 164 186 214 43 229 262 
780 -0.07401225122157898 -0.2799736606427177 1.1973269360733134 0 0 0 0.33 4 65 19 38 27 48 40 89 85 110 148 394 196 356 224 157 229 263 
781 0.19591244011825262 -0.2390440163326577 1.087037667975333 0 0 0 0.17 4 66 11 27 16 25 17 25 19 39 25 20 27 49 33 75 38 35 40 90 44 49 50 21 71 20 77 81 85 111 112 10 118 113 126 312 127 62 128 36 148 395 157 18 164 187 185 102 196 357 200 42 213 106 220 190 224 158 229 264 232 96 
782 0.1298678263873161 -0.22411878885312295 1.111994661025611 0 0 0 0.36 4 67 11 28 27 50 33 76 71 21 110 23 148 396 159 268 224 159 229 265 77 82 157 19 164 188 185 103 
783 0.220788085359179 -0.2172817346915378 1.0799208858855576 0 0 0 0.21 4 68 16 26 28 7 38 36 42 46 50 22 77 83 85 112 92 21 109 70 110 24 112 11 118 114 127 63 146 49 148 397 164 189 185 104 196 358 213 107 214 44 224 160 229 266 
784 0.1447999944288035 -0.21858241407948234 1.1047763177257415 0 0 0 0.27 4 69 9 32 11 29 16 27 19 40 27 51 44 50 52 57 77 84 85 113 109 71 127 64 148 398 185 105 229 267 
785 0.04075776078083936 -0.22022395919510118 1.146703215850353 0 0 0 0.28 4 70 9 33 11 30 19 41 21 7 27 52 33 77 44 51 77 85 85 114 92 22 109 72 110 25 127 65 128 37 148 399 157 20 159 269 162 84 164 190 176 68 185 106 200 43 213 108 220 191 224 161 229 268 232 97 196 359 
786 0.16342399501829002 -0.15195641909163135 1.0948035587076348 0 0 0 0.39 4 71 27 53 118 115 148 400 229 269 232 98 
787 0.09816321869363909 -0.10032525165702419 1.121266065601407 0 0 0 0.26 4 72 33 78 50 23 146 50 148 401 196 360 229 270 
788 0.18948288241912528 -0.09214895344972142 1.0857497587682006 0 0 0 0.4 4 73 11 31 16 28 44 52 85 115 92 23 118 116 146 51 148 402 159 270 164 191 176 69 185 107 196 361 213 109 214 45 229 271 17 26 
789 0.19338891712610148 -0.09230740615859798 1.0856527637794615 0 0 0 0.27 4 74 11 32 16 29 33 79 38 37 77 86 85 116 92 24 146 52 148 403 164 192 185 108 196 362 213 110 214 46 229 272 
790 0.006594996313388762 -0.09519039760042836 1.1593697208323772 0 0 0 0.17 4 75 11 33 77 87 118 117 148 404 164 193 196 363 213 111 229 273 232 99 
791 -0.02856241332653727 -0.09590282527406606 1.171369812593861 0 0 0 0.27 4 76 11 34 17 27 33 80 77 88 118 118 148 405 157 21 159 271 196 364 213 112 229 274 
792 -0.024341796546367558 -0.09532836438800965 1.1723492268908444 0 0 0 0.15 4 77 11 35 33 81 44 53 77 89 148 406 157 22 164 194 176 70 229 275 
793 0.05515496586341634 -0.0824908772329656 1.138153859510857 0 0 0 0.28 4 78 9 34 11 36 17 28 27 54 77 90 128 38 148 407 196 365 229 276 
794 0.2186879941696182 -0.06183581743437923 1.0792928204859689 0 0 0 0.27 4 79 38 38 52 58 77 91 109 73 110 26 213 113 214 47 223 65 229 277 
795 0.1879600946614284 -0.04545537099059917 1.0873426727809914 0 0 0 0.33 4 80 11 37 16 30 17 29 27 55 52 59 77 92 85 117 92 25 93 16 110 27 118 119 146 53 148 408 164 195 176 71 213 114 214 48 223 66 229 278 232 100 
796 0.22385389094392252 -0.21458451997848826 1.0792510892660656 0 0 0 0.25 4 81 11 38 16 31 19 42 27 56 33 82 38 39 40 91 42 47 44 54 52 60 77 93 85 118 92 26 93 17 109 74 112 12 118 120 126 313 128 39 146 54 148 409 159 272 162 85 164 196 185 109 196 366 213 115 214 49 220 192 224 162 229 279 
797 0.009188698696018868 -0.16052448158297145 1.1629393585339223 0 0 0 0.24 4 82 17 30 19 43 33 83 44 55 71 22 118 121 148 410 162 86 164 197 196 367 213 116 220 193 229 280 232 101 
798 -0.0031173109069863396 -0.16018627404120522 1.1648620450991694 0 0 0 0.31 4 83 11 39 17 31 50 24 118 122 229 281 
799 0.06786749874679089 -0.06792902589573176 1.1345669575256532 0 0 0 0.58 4 84 27 57 229 282 232 102 
800 -0.04167064233641736 -0.12794087088606632 1.180711621812032 0 0 0 0.29 4 85 9 35 19 44 21 8 40 92 44 56 52 61 71 23 73 5 77 94 85 119 92 27 109 75 148 411 159 273 164 198 196 368 220 194 224 163 229 283 
801 -0.03795312543084637 -0.1262135989054162 1.1792898577150661 0 0 0 0.38 4 86 17 32 19 45 21 9 25 21 44 57 52 62 73 6 77 95 148 412 164 199 220 195 224 164 229 284 
802 0.16997612185308345 -0.2277710250004132 1.093542221902443 0 0 0 0.39 4 87 9 36 16 32 25 22 26 26 27 58 40 93 42 48 44 58 52 63 71 24 77 96 85 120 93 18 109 76 126 314 127 66 146 55 148 413 159 274 164 200 185 110 196 369 200 44 223 67 224 165 229 285 
803 -0.0460201372967438 -0.18473885421525815 1.1836092892824603 0 0 0 0.32 4 88 17 33 26 27 71 25 198 63 199 66 229 286 
804 0.2041325781628809 -0.08051441321073796 1.0847529192870238 0 0 0 0.36 4 89 11 40 17 34 25 23 26 28 38 40 85 121 118 123 164 201 196 370 198 64 213 117 229 287 232 103 
805 0.17024327170496392 -0.27607595890979764 1.0944097750282873 0 0 0 0.32 9 37 33 84 109 77 112 13 213 118 229 288 
806 0.25015599769191765 -0.2166393918432924 1.0720603715822394 0 0 0 0.23 9 38 213 119 229 289 
807 0.22166295976452038 -0.08141640035474662 1.078690377721293 0 0 0 0.34 9 39 38 41 52 64 148 414 194 43 213 120 229 290 
808 0.1853995144545237 -0.21783857284395527 1.0887929088257735 0 0 0 0.21 9 40 28 8 77 97 112 14 146 56 157 23 229 291 
809 0.23500195643771962 -0.2144948397967972 1.0754067952096071 0 0 0 0.35 9 41 33 85 196 371 229 292 
810 0.11291597029014254 -0.22416211170363404 1.1191120533598304 0 0 0 0.41 9 42 50 25 110 28 176 72 200 45 229 293 
811 0.03041735104483679 -0.10952530763519186 1.1465734576317008 0 0 0 0.29 9 43 44 59 52 65 109 78 148 415 159 275 229 294 
812 0.1797849623761481 -0.24152536769378521 1.0902685702235897 0 0 0 0.65 9 44 42 49 85 122 146 57 164 202 196 372 200 46 229 295 
813 0.17257479011870064 -0.23621737470893392 1.0929999622731015 0 0 0 0.54 9 45 164 203 200 47 213 121 229 296 
814 -0.11982457234916045 -0.17886023477352886 1.2160081887154612 0 0 0 0.17 9 46 85 123 229 297 
815 -0.08430555402471693 -0.04737530294942449 1.1976038900796555 0 0 0 0.19 9 47 44 60 229 298 
816 0.16861533071991633 -0.29837085129463053 1.0995092188244722 0 0 0 0.31 9 48 19 46 40 94 77 98 196 373 224 166 229 299 
817 -0.014373763851754755 -0.07371359606191027 1.1661539119160385 0 0 0 0.36 9 49 196 374 229 300 
818 0.10060985751395109 -0.23393199514699187 1.1226446565849504 0 0 0 0.63 9 50 33 86 40 95 44 61 63 10 77 99 109 79 142 695 159 276 164 204 185 111 196 375 220 196 224 167 229 301 
819 0.22826332393687068 -0.2466730924365413 1.0781467711739536 0 0 0 0.21 11 41 16 33 33 87 157 24 200 48 213 122 229 302 
820 0.2014129298293421 -0.23693392860980425 1.0847345484571935 0 0 0 0.35 11 42 16 34 33 88 38 42 109 80 127 67 213 123 229 303 
821 0.24375956702898885 -0.23123565992199052 1.0742653177632442 0 0 0 0.18 11 43 33 89 38 43 52 66 109 81 164 205 196 376 213 124 229 304 
822 0.24987014003021502 -0.2236762929601641 1.0727050100480067 0 0 0 0.23 11 44 33 90 229 305 
823 0.18026866843385972 -0.22020702411491794 1.0906268303740634 0 0 0 0.28 11 45 16 35 28 9 176 73 213 125 229 306 
824 0.22418641680382606 -0.2191567382491409 1.0789708648163039 0 0 0 0.25 11 46 33 91 38 44 44 62 77 100 110 29 148 416 157 25 213 126 214 50 229 307 
825 0.24677587220010647 -0.1774760406577011 1.074581117056594 0 0 0 0.16 11 47 52 67 229 308 
826 0.23056608286041924 -0.16227753813253737 1.0793577934494034 0 0 0 0.24 11 48 52 68 127 68 229 309 
827 0.24785741862180877 -0.15897358310635762 1.0736251673039772 0 0 0 0.06 11 49 33 92 164 206 229 310 
828 0.006645712722237904 -0.15813836961432123 1.1624849882111297 0 0 0 0.4 11 50 33 93 50 26 52 69 164 207 224 168 229 311 
829 0.21858085310692726 -0.15132867605008782 1.0822573347329898 0 0 0 0.14 11 51 16 36 229 312 
830 0.2439461913227202 -0.08365215716691854 1.0727575681957027 0 0 0 0.16 11 52 38 45 85 124 213 127 229 313 
831 0.21391898479709107 -0.06770579004918859 1.0802268811058893 0 0 0 0.45 11 53 52 70 148 417 229 314 
832 0.16858423261290834 -0.064821694519039 1.092005382975817 0 0 0 0.55 11 54 52 71 229 315 
833 0.24851197916487103 -0.06106339509252383 1.0716857435416658 0 0 0 0.16 11 55 16 37 28 10 93 19 146 58 213 128 214 51 229 316 
834 0.24324181209595475 -0.057567322628837896 1.073216546370081 0 0 0 0.25 11 56 146 59 213 129 229 317 
835 0.1864746306468746 -0.04330148338363822 1.0876152761175026 0 0 0 0.33 11 57 16 38 52 72 77 101 92 28 110 30 146 60 148 418 176 74 213 130 214 52 223 68 229 318 
836 0.1694107064644174 -0.26943642161113074 1.0959625695363 0 0 0 0.34 11 58 33 94 44 63 50 27 148 419 196 377 229 319 
837 0.17799564077952404 -0.22350193075910973 1.0924529138290118 0 0 0 0.85 11 59 19 47 85 125 93 20 224 169 229 320 33 95 38 46 109 82 213 131 
838 0.14319643103153712 -0.2233847437166619 1.1061471533683198 0 0 0 0.32 11 60 16 39 17 35 50 28 77 102 162 87 164 208 176 75 196 378 213 132 224 170 229 321 
839 -0.014142258668979196 -0.22340449435075566 1.1697517925047762 0 0 0 0.22 11 61 110 31 148 420 224 171 229 322 
840 0.16870559180058664 -0.15762628129145298 1.0952475026843291 0 0 0 0.22 11 62 38 47 52 73 148 421 196 379 213 133 229 323 
841 0.21994615962336767 -0.14622314163207228 1.0809167426914716 0 0 0 0.28 11 63 33 96 118 124 148 422 229 324 
842 0.24208420968816868 -0.09137403110344258 1.0716908186206562 0 0 0 0.31 11 64 159 277 194 44 229 325 
843 0.12904173865228033 -0.09145978046546631 1.107878210014366 0 0 0 0.23 11 65 16 40 33 97 44 64 50 29 92 29 128 40 146 61 148 423 157 26 159 278 164 209 176 76 200 49 213 134 224 172 229 326 
844 0.18688767344014987 -0.07785634709312556 1.0873885707775657 0 0 0 0.36 11 66 17 36 33 98 52 74 118 125 146 62 229 327 
845 0.21367119706931403 -0.07102150350184737 1.0804333283830112 0 0 0 0.29 11 67 33 99 229 328 
846 0.2474415000250762 -0.06312447337708776 1.0719461926778067 0 0 0 0.56 11 68 38 48 229 329 
847 -0.018951256153956084 -0.2293673529944709 1.1687609365762635 0 0 0 0.27 11 69 77 103 148 424 229 330 
848 0.13489786700721373 -0.16459734411792254 1.1103836138921672 0 0 0 0.31 11 70 26 29 146 63 159 279 229 331 
849 -0.0012990551444682825 -0.08730656588709103 1.160859272367534 0 0 0 0.33 11 71 27 59 85 126 148 425 164 210 229 332 
850 0.06100264598831473 -0.07214238846659604 1.136155287324546 0 0 0 0.37 11 72 27 60 148 426 196 380 229 333 
851 0.14241344284276894 -0.06335772984346406 1.1064232866141999 0 0 0 0.43 11 73 25 24 52 75 77 104 118 126 148 427 229 334 
852 0.10046006574721603 -0.06296837439306616 1.1227947496628812 0 0 0 0.39 11 74 17 37 27 61 77 105 118 127 148 428 229 335 
853 0.13460377043634472 -0.06244439644199182 1.1080767357962353 0 0 0 0.37 11 75 25 25 26 30 27 62 42 50 52 76 63 11 148 429 229 336 
854 0.09090349983686388 -0.04708100094377783 1.1238288063527138 0 0 0 0.21 11 76 17 38 229 337 
855 0.1029043332483643 -0.06762846481272841 1.1230248210260192 0 0 0 0.39 11 77 77 106 118 128 148 430 164 211 229 338 
856 0.15875181725813176 -0.22982805288270472 1.0961106697449703 0 0 0 0.87 11 78 25 26 26 31 27 63 77 107 109 83 126 315 127 69 146 64 148 431 185 112 224 173 229 339 
857 0.24690172730258642 -0.22908485849697513 1.073027350599946 0 0 0 0.29 16 41 213 135 229 340 
858 0.20497571013790092 -0.22363310617119322 1.084663265003377 0 0 0 0.22 16 42 33 100 157 27 229 341 
859 0.2277230328096215 -0.0710744269135429 1.0807705465468336 0 0 0 0.43 16 43 38 49 93 21 109 84 127 70 229 342 194 45 213 136 
860 0.07594688751529408 -0.09474722428867625 1.1333306992866514 0 0 0 0.32 77 108 85 127 148 432 159 280 213 137 229 343 
861 0.24684302564077842 -0.06857087185183752 1.0719893481457534 0 0 0 0.25 16 44 28 11 38 50 52 77 77 109 118 129 148 433 213 138 229 344 
862 0.06819598943212013 -0.18016149578761048 1.1386767245429004 0 0 0 0.18 17 39 52 78 148 434 229 345 
863 0.2143380047824183 -0.24887060665451494 1.0814120889044683 0 0 0 0.24 19 48 33 101 148 435 196 381 229 346 
864 -0.07589507725954732 -0.2699545394436616 1.1976951446483997 0 0 0 0.24 85 128 148 436 196 382 229 347 
865 0.1347013355491516 -0.22165495666361118 1.1091706836186133 0 0 0 0.32 19 49 40 96 110 32 157 28 159 281 162 88 164 212 176 77 229 348 
866 0.11944265587621004 -0.21894622827790353 1.1143566324898029 0 0 0 0.3 19 50 40 97 77 110 85 129 159 282 164 213 185 113 229 349 
867 0.09510860940516266 -0.21947353013876209 1.1241484776807547 0 0 0 0.19 19 51 33 102 52 79 85 130 92 30 109 85 148 437 164 214 196 383 220 197 224 174 229 350 232 104 
868 0.07581021701342147 -0.22007958058297594 1.1324330163416614 0 0 0 0.25 19 52 27 64 33 103 52 80 85 131 110 33 148 438 159 283 229 351 
869 0.03862002700326641 -0.20271604345546226 1.1507778864575209 0 0 0 0.46 19 53 42 51 200 50 229 352 
870 0.0066078379005805946 -0.16508255703191174 1.162377336932086 0 0 0 0.17 19 54 26 32 44 65 52 81 77 111 148 439 196 384 200 51 224 175 229 353 
871 -0.026037447680841864 -0.05127588672459695 1.170763376889799 0 0 0 0.32 19 55 196 385 229 354 
872 0.0965867396137861 -0.27566664951764036 1.127543982950026 0 0 0 0.25 19 56 148 440 196 386 229 355 
873 0.17257488337412671 -0.24095411172689232 1.0895847122555227 0 0 0 0.39 19 57 28 12 85 132 92 31 146 65 176 78 200 52 224 176 229 356 40 98 148 441 
874 -0.08596538829126539 -0.22074803078703406 1.201533116709045 0 0 0 0.17 19 58 40 99 159 284 196 387 224 177 229 357 52 82 85 133 109 86 
875 -0.05586100622624577 -0.19325517894249014 1.1883195355395195 0 0 0 0.13 19 59 52 83 229 358 
876 -0.04064005149143241 -0.18164926365080325 1.1813270353702785 0 0 0 0.11 19 60 40 100 85 134 142 696 229 359 
877 -0.11095250653137005 -0.13290352357873578 1.2103794570508861 0 0 0 0.49 19 61 52 84 159 285 196 388 224 178 229 360 
878 0.017236908789554594 -0.26181026493303605 1.155817810632364 0 0 0 0.25 19 62 142 697 229 361 
879 -0.06021898231473156 -0.08740374609632094 1.1888621165414621 0 0 0 0.35 40 101 42 52 52 85 77 112 148 442 229 362 19 63 27 65 44 66 85 135 109 87 142 698 159 286 196 389 220 198 
880 -0.11245111957226213 -0.07227562447236001 1.2100120930677334 0 0 0 0.41 19 64 196 390 224 179 229 363 
881 0.02033259924061114 -0.05919790241267164 1.1521014424063833 0 0 0 0.4 19 65 224 180 229 364 
882 0.09004871915256127 -0.25917729230956693 1.1289744525002576 0 0 0 0.19 19 66 148 443 229 365 
883 0.10263279161320064 -0.24319527778304914 1.1248240613823095 0 0 0 0.26 19 67 27 66 142 699 196 391 220 199 224 181 229 366 63 12 
884 -0.09616882042579751 -0.22116389224193342 1.0581185185702469 0 0 0 0.41 159 287 196 392 229 367 
885 -0.11330971269418173 -0.1908385574210789 1.2095106921934975 0 0 0 0.37 40 102 52 86 109 88 142 700 196 393 229 368 
886 -0.10170245311466569 -0.14961095654308668 1.0255323451215395 0 0 0 0.43 40 103 142 701 224 182 229 369 
887 -0.10424794855582999 -0.2835627924318242 1.0166330372821062 0 0 0 0.21 142 702 224 183 229 370 
888 0.10942101835924917 -0.2756399671042528 1.122050316355331 0 0 0 0.47 19 68 142 703 229 371 
889 -0.09837175337483743 -0.24104575415385954 1.0418819961782528 0 0 0 0.46 19 69 26 33 229 372 148 444 159 288 
890 -0.10032016065013533 -0.21071296611643772 1.0337182591230283 0 0 0 0.41 21 10 224 184 229 373 
891 -0.10758503938769678 -0.20432255778587585 1.0070582744874863 0 0 0 0.15 21 11 148 445 229 374 
892 -0.02382170034020373 -0.20044628488543936 1.1756568213371754 0 0 0 0.1 21 12 40 104 44 67 162 89 229 375 
893 -0.0881065935870364 -0.18761397891956572 1.0694365080471002 0 0 0 0.38 21 13 148 446 229 376 52 87 109 89 159 289 
894 -0.09096487010798866 -0.17220516433637903 1.0640480835878834 0 0 0 0.18 21 14 196 394 229 377 
895 -0.20237374792612897 -0.2273041369293323 0.6875440780903866 0 0 0 0.95 21 15 224 185 229 378 
896 -0.20261109821327877 -0.2246180549208276 0.6860890745278911 0 0 0 0.6 21 16 224 186 229 379 
897 -0.18364955724006327 -0.18465293718957157 0.7403153445276829 0 0 0 0.31 21 17 224 187 229 380 
898 -0.18421485489358308 -0.16301165264699172 0.7403111215861817 0 0 0 0.25 21 18 224 188 229 381 
899 -0.09923553505551383 -0.20389561541118273 1.0300321804116472 0 0 0 0.57 21 19 42 53 229 382 159 290 
900 -0.09784180761936458 -0.20414111544840105 1.037517197482707 0 0 0 0.49 21 20 77 113 229 383 
901 -0.022845749015386614 -0.22076716101157984 1.1715100709879906 0 0 0 0.62 21 21 27 67 40 105 52 88 77 114 85 136 109 90 164 215 229 384 
902 -0.1593777879993991 -0.15443398577801348 0.8292792736418743 0 0 0 0.63 21 22 63 13 185 114 229 385 
903 -0.15887445036639303 -0.14782427495080608 0.8311015497031686 0 0 0 0.12 21 23 63 14 229 386 
904 -0.09309450676135422 -0.17204192927168852 1.0577090626035428 0 0 0 0.21 21 24 224 189 229 387 
905 -0.15659366161199734 -0.13121556757634087 0.8316147563199252 0 0 0 0.35 21 25 142 704 229 388 
906 -0.1652779914921913 -0.08683495678608233 0.7959164969261812 0 0 0 0.18 21 26 63 15 229 389 
907 -0.13499508351950468 -0.08119270180967718 0.9186658945217047 0 0 0 0.43 21 27 27 68 229 390 
908 -0.14609292115585587 -0.07378556644418874 0.8466140867224833 0 0 0 0.09 21 28 224 190 229 391 
909 -0.14442377136107878 -0.07222125405291646 0.8482127956353077 0 0 0 0.09 21 29 224 191 229 392 
910 -0.16419249914788836 -0.0657834939746554 0.7989877851756269 0 0 0 0.31 21 30 224 192 229 393 
911 -0.18488984254048935 -0.2484124335151514 0.7420760377965906 0 0 0 0.61 21 31 224 193 229 394 
912 -0.1502095933845327 -0.2709889210640243 0.8552984027241541 0 0 0 0.43 21 32 142 705 229 395 
913 -0.12032233947590952 -0.19181426780441224 0.964403755223125 0 0 0 0.32 21 33 27 69 126 316 229 396 
914 -0.15545305853994235 -0.09968143000993315 0.8318234449040713 0 0 0 0.23 21 34 142 706 229 397 
915 -0.16422556031148527 -0.07687562241303372 0.7997362518774693 0 0 0 0.16 21 35 142 707 229 398 
916 -0.16622091814287873 -0.0728469887875331 0.7959427882190688 0 0 0 0.12 21 36 224 194 229 399 
917 -0.16561523399729478 -0.06762137902379607 0.7977398860975908 0 0 0 0.28 21 37 142 708 224 195 229 400 
918 -0.14593769582785174 -0.06857950395385981 0.8482448268359778 0 0 0 0.37 21 38 224 196 229 401 
919 0.030707496482287364 -0.08053101502349667 1.1479794916106256 0 0 0 0.19 148 447 196 395 229 402 
920 -0.1658035851377879 -0.06403032104504089 0.7980769030261133 0 0 0 0.24 21 39 142 709 229 403 
921 -0.16555877694406246 -0.058673125146070815 0.7976970693602707 0 0 0 0.34 21 40 224 197 229 404 
922 -0.11158455140887986 -0.05278998281756934 0.996985865807185 0 0 0 0.25 21 41 142 710 229 405 
923 -0.1877700861074923 -0.25438652220944497 0.7343402601788707 0 0 0 0.51 21 42 63 16 73 7 224 198 229 406 
924 -0.18380655340729707 -0.2535294786209704 0.7425243151538765 0 0 0 0.96 21 43 26 34 224 199 229 407 
925 -0.18504566942427003 -0.07403416825610457 0.7295701881453753 0 0 0 0.42 21 44 25 27 229 408 
926 -0.16361005321861413 -0.06163415320839322 0.7994159876510748 0 0 0 0.18 21 45 142 711 229 409 
927 -0.14798933840045822 -0.278719231823782 0.8601132032384589 0 0 0 0.76 21 46 26 35 63 17 142 712 229 410 
928 -0.16154541850937432 -0.19292835700437283 0.8174600833050365 0 0 0 0.4 21 47 142 713 229 411 
929 -0.17682911337161727 -0.18042224557055098 0.7641140260029079 0 0 0 0.49 21 48 63 18 224 200 229 412 
930 -0.17799194959735196 -0.16366631398921902 0.7612385293732066 0 0 0 0.43 21 49 199 67 224 201 229 413 
931 -0.13870084968047713 -0.1812091741323606 0.9031460424370932 0 0 0 0.43 21 50 142 714 229 414 
932 -0.16143649398310617 -0.1529620436387956 0.8203609069979101 0 0 0 0.36 21 51 63 19 142 715 229 415 
933 -0.1434023319307435 -0.15616131030608763 0.8873502034538205 0 0 0 0.28 21 52 63 20 73 8 229 416 
934 -0.15989372434726654 -0.08568611889452231 0.8175072401976516 0 0 0 0.21 21 53 142 716 229 417 
935 -0.16862976280644973 -0.08283662138621707 0.790194644765996 0 0 0 0.31 21 54 73 9 224 202 229 418 
936 -0.13840599636786854 -0.09195830142590262 0.9017471440732542 0 0 0 0.46 21 55 142 717 229 419 
937 0.06498378917970038 -0.08189507454900094 1.1353236799347373 0 0 0 0.37 21 56 42 54 52 89 77 115 85 137 126 317 148 448 229 420 
938 -0.1826614891205458 -0.19103566553449658 0.7410843445665892 0 0 0 0.35 21 57 199 68 229 421 
939 -0.1730423194497859 -0.19648002525359962 0.7663090366430392 0 0 0 0.36 21 58 26 36 73 10 229 422 
940 -0.11638819049629252 -0.19872492519841134 0.9731807218820063 0 0 0 0.39 21 59 42 55 73 11 126 318 142 718 229 423 
941 -0.14875270619904332 -0.16318653328402913 0.8547377259717006 0 0 0 0.53 21 60 142 719 229 424 
942 -0.15252232541429186 -0.14770739894569176 0.8366578745771981 0 0 0 0.33 21 61 142 720 229 425 
943 -0.1266596347680451 -0.10173339334143491 0.9424555240466992 0 0 0 0.22 21 62 142 721 229 426 
944 -0.15987633222314002 -0.18712932535337795 0.8272275486368266 0 0 0 0.38 21 63 26 37 63 21 73 12 142 722 199 69 229 427 
945 -0.13369773506462648 -0.20329887101630373 0.9184183537551207 0 0 0 0.46 21 64 142 723 229 428 
946 -0.16469143652319257 -0.14455429415162308 0.8049038253709766 0 0 0 0.42 21 65 63 22 229 429 
947 -0.1533890571256221 -0.22260688632644673 0.8305324028060559 0 0 0 0.54 21 66 142 724 229 430 
948 -0.15362630690464257 -0.19209353665899434 0.8405642983494178 0 0 0 0.24 21 67 142 725 229 431 
949 -0.13618099622495847 -0.19539404482905393 0.9122009318190007 0 0 0 0.19 21 68 142 726 229 432 
950 -0.13199846949464691 -0.1959829696906605 0.9330982560953119 0 0 0 0.39 21 69 142 727 229 433 
951 -0.1257859483381949 -0.1957342191361833 0.9559561040532262 0 0 0 0.45 21 70 142 728 229 434 
952 -0.1164567635906146 -0.18864253598048947 0.9789276164678261 0 0 0 0.36 21 71 142 729 229 435 
953 -0.13696444812750436 -0.17377566007018422 0.9123502591178344 0 0 0 0.28 21 72 142 730 229 436 
954 -0.13786742000353022 -0.15555507109957364 0.912511336686128 0 0 0 0.7 21 73 142 731 224 203 229 437 
955 -0.15367976519605583 -0.20489997035923296 0.8310574333607643 0 0 0 0.4 21 74 142 732 229 438 
956 -0.15311066858758568 -0.17337415925813107 0.8350683400766091 0 0 0 0.56 21 75 142 733 229 439 
957 0.14895587239184693 -0.23328156118416463 1.098563164434724 0 0 0 0.37 25 28 26 38 33 104 71 26 77 116 110 34 128 41 146 66 148 449 159 291 164 216 213 139 229 440 232 105 
958 -0.06169734257446693 -0.2082444814329749 1.1900879054718045 0 0 0 0.33 25 29 40 106 42 56 126 319 224 204 229 441 
959 -0.04212644204087207 -0.13620219580035997 1.1802990838256695 0 0 0 0.29 25 30 118 130 126 320 159 292 220 200 229 442 
960 0.2165823816580987 -0.09171832277550715 1.0785997549350972 0 0 0 0.35 25 31 26 39 85 138 109 91 148 450 194 46 223 69 229 443 38 51 164 217 214 53 
961 -0.18693634092496395 -0.06016255286922228 0.7267531289353114 0 0 0 0.55 25 32 26 40 73 13 229 444 
962 0.12570600819681607 -0.048178826915715366 1.109933515624324 0 0 0 0.27 25 33 126 321 148 451 229 445 
963 -0.18352312248217015 -0.15405571522404674 0.7387438992637605 0 0 0 0.56 25 34 73 14 229 446 
964 0.13819563794323056 -0.060122439207840356 1.1082553720216743 0 0 0 0.25 25 35 142 734 229 447 
965 -0.001196119923006523 -0.05115697475069254 1.1608860101336311 0 0 0 0.3 25 36 26 41 52 90 71 27 126 322 148 452 196 396 220 201 224 205 229 448 
966 -0.038360633725126256 -0.1451857877339851 1.1785096249130778 0 0 0 0.27 25 37 40 107 127 71 148 453 164 218 196 397 198 65 199 70 220 202 224 206 229 449 
967 -0.15338979577152656 -0.3024956074369177 0.8548720761648104 0 0 0 0.55 25 38 73 15 229 450 
968 0.1918185001825394 -0.10069559137943758 1.086009370275047 0 0 0 0.38 25 39 142 735 198 66 213 140 229 451 
969 -0.02938244967919682 -0.06935426301037192 1.17395627186514 0 0 0 0.73 25 40 27 70 196 398 199 71 220 203 224 207 229 452 
970 -0.17869401546642683 -0.2630384007743645 0.763923635603579 0 0 0 0.36 26 42 63 23 224 208 229 453 
971 -0.1331260699331991 -0.22775524569167593 0.9252250523128287 0 0 0 0.43 26 43 142 736 229 454 
972 0.24292914981780286 -0.21074014138585387 1.0733976309413589 0 0 0 0.28 26 44 40 108 52 91 127 72 142 737 148 454 159 293 196 399 229 455 
973 0.12436689845462097 -0.2245100869886227 1.1133016970905016 0 0 0 0.48 26 45 42 57 71 28 85 139 110 35 148 455 185 115 220 204 229 456 
974 0.21298865560600863 -0.16267947842001557 1.0826540043376744 0 0 0 0.44 26 46 42 58 142 738 229 457 
975 0.009741754870530493 -0.17187480840140337 1.162519695893567 0 0 0 0.3 26 47 40 109 220 205 224 209 229 458 
976 0.08987060793218574 -0.09447728654189345 1.1239467297046521 0 0 0 0.32 26 48 109 92 229 459 
977 -0.1439446617470685 -0.07920483028661457 0.8339179539800539 0 0 0 0.24 26 49 142 739 229 460 
978 -0.006192226731166577 -0.08047792784341122 1.1615689887238159 0 0 0 0.45 26 50 33 105 92 32 200 53 229 461 
979 -0.06899810156743177 -0.051859214045956316 1.1898808284723401 0 0 0 0.58 26 51 109 93 142 740 159 294 229 462 
980 -0.18783540741253782 -0.12810696054225024 0.7277346377529321 0 0 0 0.31 26 52 73 16 198 67 229 463 
981 -0.18851240133622707 -0.056030957080307385 0.7266755933125449 0 0 0 0.29 26 53 199 72 229 464 
982 -0.19713276482906322 -0.20546561430821228 0.6928013855226809 0 0 0 0.81 26 54 224 210 229 465 
983 0.20083544707886083 -0.210412046890113 1.0853434720656359 0 0 0 0.4 26 55 63 24 71 29 162 90 176 79 198 68 229 466 
984 -0.20030872309983527 -0.14406820541486617 0.6869866436146067 0 0 0 0.21 26 56 199 73 229 467 
985 0.18602174933910065 -0.25016675349181616 1.0850090398903636 0 0 0 0.23 27 71 44 68 229 468 224 211 
986 0.24202355627913535 -0.2390019767606679 1.073854395314646 0 0 0 0.17 27 72 33 106 148 456 229 469 
987 0.23285034043477806 -0.16329416318372023 1.0783913438556911 0 0 0 0.26 27 73 42 59 85 140 127 73 148 457 196 400 223 70 229 470 
988 0.19048176486655918 -0.24831422750565235 1.0866899920020945 0 0 0 0.68 27 74 128 42 148 458 185 116 200 54 229 471 
989 -0.06648280597814882 -0.13958649525260802 1.1904974210072914 0 0 0 0.31 27 75 40 110 142 741 196 401 224 212 229 472 
990 0.2469608061210348 -0.005084781827910922 1.0468839653902893 0 0 0 1.21 27 76 77 117 229 473 
991 0.04037982239618093 -0.22533392840374775 1.1471161652904547 0 0 0 0.46 27 77 33 107 110 36 127 74 128 43 148 459 157 29 159 295 162 91 200 55 213 141 220 206 224 213 229 474 
992 -0.13051551045423407 -0.05120207029340571 0.9356248008565019 0 0 0 0.47 27 78 224 214 229 475 
993 -0.13984364599889743 -0.2030730059191435 0.9036731192481062 0 0 0 0.28 27 79 142 742 229 476 
994 0.20590719768195678 -0.24960250733870382 1.0818993487279884 0 0 0 0.21 27 80 164 219 224 215 229 477 
995 0.24756485410009102 -0.08494443710607566 1.071671436235637 0 0 0 0.06 28 13 213 142 229 478 
996 0.20309952683573365 -0.2140517267436412 1.0848543185225508 0 0 0 0.26 28 14 40 111 52 92 63 25 85 141 109 94 148 460 159 296 223 71 229 479 
997 -0.0963844317101301 -0.237529298337814 1.0439409464438176 0 0 0 0.1 148 461 224 216 229 480 
998 0.09538182028033924 -0.10604762948490125 1.121312144511988 0 0 0 0.25 40 112 42 60 52 93 148 462 159 297 229 481 
999 0.24449741114407314 -0.23338466973026584 1.0741205565574918 0 0 0 0.26 33 108 85 142 229 482 
1000 0.226600834874129 -0.22531603528722965 1.078128417808456 0 0 0 0.5 33 109 146 67 157 30 213 143 229 483 
1001 0.16736313136700295 -0.22065991265576243 1.094691249074827 0 0 0 0.16 33 110 109 95 213 144 229 484 159 298 
1002 0.06929999585277859 -0.20946057529844805 1.1377914796339865 0 0 0 0.14 33 111 85 143 196 402 229 485 
1003 0.22290535753742563 -0.15119449476649158 1.0802119442607965 0 0 0 0.23 33 112 38 52 52 94 229 486 
1004 0.24005809846820442 -0.23477404678056796 1.074873079571232 0 0 0 0.35 33 113 164 220 229 487 
1005 0.25201224491973284 -0.2298462845915471 1.072191822251239 0 0 0 0.3 33 114 148 463 229 488 
1006 0.25033768074480706 -0.22567043999580833 1.0727881102341965 0 0 0 0.4 33 115 148 464 229 489 
1007 0.23136093389402515 -0.22367296859978542 1.0779500829491415 0 0 0 0.26 33 116 146 68 213 145 229 490 38 53 
1008 0.15949537531043495 -0.21842293439937194 1.0974897086700037 0 0 0 0.24 33 117 38 54 127 75 148 465 185 117 196 403 224 217 229 491 
1009 0.03704159917988747 -0.1246237735573011 1.1499558736512274 0 0 0 0.32 33 118 224 218 229 492 
1010 0.2493156987061896 -0.10406707540663335 1.070589089194082 0 0 0 0.13 33 119 148 466 159 299 229 493 
1011 0.16376344607788082 -0.10446317121691698 1.091041518611216 0 0 0 0.14 33 120 148 467 196 404 229 494 159 300 
1012 -0.029091120688625495 -0.10801907657726897 1.1714668087030358 0 0 0 0.15 33 121 52 95 229 495 
1013 0.2231491205111144 -0.06669451960078115 1.0793040309998416 0 0 0 0.3 33 122 196 405 223 72 229 496 
1014 0.11137004913259343 -0.28033973533559714 1.118892812430764 0 0 0 0.18 33 123 40 113 85 144 127 76 148 468 159 301 229 497 
1015 0.1393742212448053 -0.21539102115446712 1.1076539445069955 0 0 0 0.23 33 124 77 118 148 469 229 498 
1016 0.035099173298653294 -0.22059190482734123 1.1495737656254705 0 0 0 0.36 33 125 44 69 52 96 92 33 109 96 148 470 159 302 162 92 164 221 196 406 224 219 229 499 
1017 0.13535450358032086 -0.17816390840251728 1.1110110300632805 0 0 0 0.23 33 126 77 119 196 407 229 500 
1018 0.07906328391794636 -0.17061008027725752 1.1329410122976005 0 0 0 0.17 148 471 159 303 229 501 224 220 
1019 0.05192902038920898 -0.16938666431090757 1.143522913336869 0 0 0 0.42 33 127 85 145 109 97 148 472 229 502 
1020 0.21550512554107795 -0.15617737640136886 1.0824501439190364 0 0 0 0.42 33 128 40 114 109 98 224 221 229 503 
1021 0.0822662586341009 -0.1675368861433348 1.13150129542732 0 0 0 0.31 33 129 52 97 85 146 159 304 196 408 224 222 229 504 
1022 0.21802114473101955 -0.2621588649664185 1.0782682909110723 0 0 0 0.41 85 147 92 34 159 305 229 505 
1023 0.13451226733490365 -0.13863757769338822 1.1104435000731838 0 0 0 0.19 52 98 148 473 229 506 
1024 0.1905855195529338 -0.09885788134922052 1.084159475650092 0 0 0 0.37 38 55 214 54 229 507 
1025 0.22856134421817687 -0.09353759061512185 1.0781964881547688 0 0 0 0.13 38 56 77 120 229 508 
1026 0.0678001181856435 -0.09396957333624238 1.1345351855784065 0 0 0 0.14 42 61 77 121 85 148 148 474 196 409 229 509 
1027 0.15795851408305106 -0.0846344150849686 1.0936571138325009 0 0 0 0.34 109 99 148 475 164 222 229 510 
1028 0.1853501312582531 -0.19760588723575712 1.0913815365074178 0 0 0 0.4 85 149 223 73 229 511 
1029 0.2193600473143921 -0.07232143955826859 1.078732922856937 0 0 0 0.32 38 57 52 99 85 150 148 476 164 223 214 55 223 74 229 512 
1030 0.09923099037746631 -0.24701387684582019 1.1249182780594333 0 0 0 0.41 128 44 196 410 229 513 
1031 -0.09641864501528659 -0.24484681813509251 1.044575646669137 0 0 0 0.31 40 115 148 477 229 514 
1032 0.013284035502445671 -0.2600774628455006 1.1565882356464248 0 0 0 0.58 40 116 52 100 77 122 109 100 196 411 200 56 229 515 
1033 -0.10257363913164645 -0.2208930375263249 1.0079204685444543 0 0 0 0.34 40 117 42 62 229 516 
1034 0.06650193119161579 -0.2362985373275166 1.1310937657022495 0 0 0 0.14 40 118 85 151 229 517 
1035 0.17358985361661108 -0.21454434206132805 1.0927493198138458 0 0 0 0.28 40 119 77 123 109 101 146 69 164 224 185 118 223 75 229 518 
1036 -0.14530734359987799 -0.24960200139396096 1.2254370585579881 0 0 0 0.64 40 120 42 63 142 743 196 412 229 519 
1037 -0.1373985579295677 -0.248494154213532 1.222064729840717 0 0 0 0.23 40 121 52 101 159 306 229 520 
1038 -0.14313237421164443 -0.24668896437044918 1.2255494541676575 0 0 0 0.15 40 122 52 102 229 521 
1039 -0.14617455830236137 -0.22906214364561045 1.2234751984149577 0 0 0 0.33 40 123 52 103 229 522 
1040 0.09739882493795114 -0.19634720575419645 1.123310327007581 0 0 0 0.25 40 124 224 223 229 523 
1041 0.24372122488934753 -0.17246378708279161 1.0751186561327732 0 0 0 0.25 40 125 52 104 229 524 
1042 -0.10282255516561321 -0.21098535874674654 1.209917597173476 0 0 0 0.35 40 126 196 413 229 525 
1043 -0.11057098723646595 -0.20375637304406102 1.207726339834814 0 0 0 0.33 40 127 52 105 109 102 229 526 
1044 0.06833122790001422 -0.1756545939883161 1.1380832564665742 0 0 0 0.17 40 128 42 64 229 527 
1045 -0.08732573228966078 -0.1922782167334688 1.201420829271939 0 0 0 0.3 40 129 52 106 229 528 
1046 0.18474249807780957 -0.1576299474929005 1.0910716853986735 0 0 0 0.33 40 130 85 152 109 103 148 478 196 414 223 76 229 529 
1047 -0.06303511847240391 -0.15110719528065109 1.1874815518302253 0 0 0 0.33 40 131 224 224 229 530 
1048 -0.10042482552797628 -0.1512737339989213 1.2068493526108168 0 0 0 0.23 40 132 196 415 224 225 229 531 
1049 -0.034133929381525846 -0.14320471265475757 1.1774442555483722 0 0 0 0.38 40 133 224 226 229 532 
1050 -0.06441408246673241 -0.14250914228770212 1.18639762790712 0 0 0 0.2 40 134 196 416 229 533 
1051 -0.041165362400881804 -0.14090029070835827 1.1798699886409125 0 0 0 0.09 40 135 196 417 229 534 
1052 -0.10998987130866926 -0.14135311837067813 1.2091146790158984 0 0 0 0.46 40 136 196 418 229 535 
1053 0.11402761297731037 -0.10765669816727477 1.1169421360154186 0 0 0 0.13 40 137 196 419 229 536 
1054 0.010358005986909976 -0.11215969771471333 1.1601400808909943 0 0 0 0.16 40 138 109 104 196 420 229 537 
1055 0.032539709424446346 -0.10753574504006592 1.146073613565829 0 0 0 0.12 40 139 52 107 159 307 196 421 229 538 
1056 0.009998589041850744 -0.2814177148670529 1.1613166760546294 0 0 0 0.47 40 140 126 323 159 308 196 422 229 539 
1057 -0.0250721590587124 -0.2607824159975826 1.1784402097788986 0 0 0 0.25 40 141 42 65 196 423 229 540 
1058 -0.05748541054078556 -0.21536289884468499 1.1903291260082423 0 0 0 0.14 40 142 85 153 159 309 196 424 224 227 229 541 
1059 -0.10209852123576088 -0.20566400491568396 1.2086897592366295 0 0 0 0.39 40 143 44 70 77 124 148 479 196 425 229 542 
1060 -0.08133515451734899 -0.20225367826591065 1.1966591793200145 0 0 0 0.26 40 144 42 66 109 105 196 426 229 543 
1061 0.14949723677731896 -0.1667799209977145 1.1040030605892484 0 0 0 0.23 40 145 196 427 229 544 
1062 -0.11860349311007645 -0.19567467616380776 1.2124758448780626 0 0 0 0.43 40 146 196 428 229 545 
1063 0.15134680989051222 -0.16344819258491122 1.1026604902603538 0 0 0 0.38 40 147 52 108 85 154 109 106 196 429 229 546 
1064 0.19952742164652149 -0.15719296203647662 1.0889446355077308 0 0 0 0.1 40 148 196 430 229 547 
1065 -0.1206958687029402 -0.18106273901287442 1.213203571867484 0 0 0 0.14 40 149 159 310 229 548 
1066 0.024731007840834502 -0.159743964781427 1.1526844212544491 0 0 0 0.33 40 150 44 71 85 155 148 480 196 431 224 228 229 549 
1067 0.039932117055399834 -0.14462440152082223 1.1511166095660987 0 0 0 0.12 40 151 196 432 229 550 
1068 -0.0787751814578561 -0.15448325706699048 1.1997474513944926 0 0 0 0.46 40 152 196 433 229 551 
1069 -0.08585824317210876 -0.15106352428985537 1.1966197995972068 0 0 0 0.46 40 153 196 434 229 552 
1070 -0.03843039569921057 -0.1338650276292207 1.1798048575670292 0 0 0 0.23 40 154 126 324 196 435 220 207 224 229 229 553 
1071 -0.09871474237762794 -0.1389176353309301 1.2058296528859869 0 0 0 0.15 40 155 142 744 229 554 
1072 -0.11808875332768015 -0.09243046341199598 1.2108512630889021 0 0 0 0.32 40 156 52 109 229 555 
1073 -0.11209545755111666 -0.09105403038158745 1.206510961647262 0 0 0 0.3 40 157 52 110 85 156 109 107 196 436 229 556 
1074 0.007219149743016016 -0.285577499646241 1.1589269961903343 0 0 0 0.39 40 158 42 67 126 325 229 557 
1075 0.19586578073551417 -0.24734937278202593 1.0856758317082595 0 0 0 0.22 40 159 127 77 229 558 
1076 -0.07994288476065761 -0.2590151913468228 1.1983757556978423 0 0 0 0.36 40 160 42 68 85 157 109 108 142 745 159 311 229 559 
1077 -0.14798243378396897 -0.26644866085424573 1.2224281047718015 0 0 0 0.27 40 161 109 109 229 560 
1078 -0.1484284183995882 -0.2540666973056796 1.2263095166388427 0 0 0 0.36 40 162 42 69 52 111 109 110 142 746 196 437 229 561 
1079 -0.059090606742975844 -0.20464217688995417 1.1887750302135114 0 0 0 0.33 40 163 42 70 224 230 229 562 
1080 -0.020783799013166338 -0.16105761330454846 1.1745831385474355 0 0 0 0.19 40 164 52 112 85 158 142 747 229 563 
1081 -0.1085369600659469 -0.22971158226625546 1.0010145819105372 0 0 0 0.58 40 165 142 748 229 564 
1082 -0.11907196925337288 -0.1853686557612811 0.9773029250894426 0 0 0 0.4 40 166 142 749 229 565 
1083 -0.11582493458364926 -0.1851267528797986 0.9847661378667885 0 0 0 0.29 40 167 142 750 229 566 
1084 -0.11728020847832114 -0.16186831656360043 0.9748550432788643 0 0 0 0.24 40 168 142 751 229 567 
1085 -0.11589487078683507 -0.21361476030231885 1.2149816689240907 0 0 0 0.28 40 169 85 159 196 438 229 568 142 752 
1086 -0.11929933187932878 -0.11440772770679059 0.9761308696431849 0 0 0 0.19 40 170 142 753 229 569 
1087 -0.11850252866463158 -0.09984419762679948 0.975040072492249 0 0 0 0.1 40 171 142 754 229 570 
1088 -0.13533326170385482 -0.09337292204110327 1.217181284129891 0 0 0 0.32 40 172 52 113 229 571 
1089 -0.13097209380549807 -0.27825903336842445 0.939957065637331 0 0 0 0.51 40 173 142 755 229 572 
1090 -0.13050172096919543 -0.1564274094854265 0.9389301637696872 0 0 0 0.07 40 174 142 756 229 573 
1091 -0.10673357681901834 -0.19980407567003355 1.2098479491276357 0 0 0 0.24 40 175 52 114 142 757 229 574 
1092 -0.061274558331171874 -0.1460593083366075 1.1883081080259201 0 0 0 0.23 40 176 196 439 224 231 229 575 
1093 -0.023470229407159628 -0.26528641814591347 1.1840230318994411 0 0 0 0.18 40 177 196 440 229 576 
1094 -0.01021468077540239 -0.25349303291767683 1.1715709827411185 0 0 0 0.94 40 178 85 160 109 111 229 577 
1095 -0.07475349819492828 -0.18300559503614647 1.1980096455884917 0 0 0 0.14 40 179 142 758 229 578 
1096 -0.07334633880244344 -0.1279748534944321 1.1910043626921554 0 0 0 0.35 40 180 42 71 196 441 229 579 
1097 -0.12464286748786237 -0.12701066654770204 1.2158348719007979 0 0 0 0.43 40 181 109 112 142 759 196 442 229 580 
1098 -0.12545128072773704 -0.11119501815184532 1.2163304569119937 0 0 0 0.22 40 182 52 115 142 760 229 581 
1099 -0.09980650035778994 -0.2643199632018717 1.0340639491449939 0 0 0 0.38 40 183 159 312 229 582 
1100 0.1407219046620467 -0.2194021880647395 1.1038667317592261 0 0 0 0.46 40 184 42 72 85 161 109 113 142 761 196 443 224 232 229 583 
1101 -0.10383186982139135 -0.14107404801103468 1.0230795453904546 0 0 0 0.62 40 185 148 481 159 313 229 584 
1102 0.016882442535850615 -0.12920650391900335 1.1577837123990786 0 0 0 0.47 40 186 52 116 142 762 229 585 
1103 0.047135841728928075 -0.1579319365250307 1.1461238243220992 0 0 0 0.37 40 187 200 57 229 586 
1104 0.1606742358928274 -0.23072949771678264 1.0923880002633368 0 0 0 0.54 42 73 44 72 148 482 164 225 196 444 224 233 229 587 
1105 -0.09300873367862378 -0.20587513192955717 1.0696230147059413 0 0 0 0.22 42 74 159 314 229 588 
1106 -0.09770900987423223 -0.1935897613827182 1.0357274976615976 0 0 0 0.43 42 75 159 315 229 589 
