# 3D point list with one line of data per point:
#   POINT3D_ID, X, Y, Z, R, G, B, ERROR, TRACK[] as (IMAGE_ID, POINT2D_IDX)
# Number of points: 356, mean track length: 9.06
2880 -0.01823051504077301 -0.1182115331828671 1.1584729499555002 0 0 0 1.2 0 1200 2 287 11 453 26 343 32 106 50 610 61 562 77 483 81 242 89 244 97 249 118 670 147 384 148 895 159 661 176 473 190 441 196 532 213 538 221 449 232 646 12 123 96 336 179 239 138 140 198 298 204 446 219 356 227 327 1 239 25 269 56 383 71 389 100 28 129 200 181 249 217 419 220 546 224 376 33 287 53 399 88 122 142 459 162 470 185 422 
2881 -0.11081962629666837 -0.05561862385998523 1.1884907654176817 0 0 0 0.95 0 1201 61 563 111 441 77 484 92 246 164 789 
2882 -0.1109760013656728 -0.03237924804712985 1.187103448394018 0 0 0 0.83 0 1202 4 400 43 203 67 205 81 243 97 250 111 442 138 141 172 499 176 474 157 373 158 288 204 447 217 420 221 450 232 647 1 240 26 344 50 611 179 240 118 671 128 383 198 299 41 88 71 390 114 169 56 384 88 123 
2883 -0.07333681539806208 -0.033593708245569606 1.1805386170372056 0 0 0 0.44 0 1203 157 374 158 289 
2884 -0.186854772476389 -0.015376491179704218 1.2350422197451358 0 0 0 0.39 0 1204 53 400 61 564 172 500 
2885 -0.1277699472796087 -0.015115005568496957 1.1901765309956391 0 0 0 0.46 0 1205 2 288 11 454 25 270 27 382 50 612 61 565 67 206 77 485 81 244 128 384 157 375 158 290 172 501 176 475 198 300 219 357 221 451 217 421 232 648 138 142 148 896 179 241 4 401 111 443 114 170 164 790 181 250 43 204 26 345 56 385 127 227 126 1041 142 460 
2886 -0.02618442110433956 -0.020904497079182537 1.145551493282591 0 0 0 0.44 0 1206 71 391 176 476 
2887 0.42734578833605763 -0.0558366162566183 0.6964407309358842 0 0 0 0.5 0 1207 69 307 120 442 
2888 -0.11196433054781285 -0.0005367528940341557 1.1820541592642286 0 0 0 0.63 0 1208 26 346 77 486 81 245 111 444 164 791 56 386 88 124 181 251 217 422 220 547 224 377 
2889 -0.1127738550110941 0.02434235468673372 1.175402024247056 0 0 0 0.16 0 1209 27 383 118 672 
2890 -0.09713762388720333 0.025983032141445726 1.1125997183838146 0 0 0 0.29 0 1210 97 251 157 376 
2891 -0.09699501207758955 0.08516435093926156 1.157410103818995 0 0 0 0.39 0 1211 50 613 129 201 157 377 
2892 0.42284664006670947 -0.0022972597359901506 1.0553174435702384 0 0 0 0.61 0 1212 61 566 69 308 
2893 -0.19180512536400024 0.04758021290962027 1.205483150837996 0 0 0 0.49 0 1213 25 271 146 243 190 442 198 301 199 245 221 452 
2894 0.06630816178617197 -0.1670451887716953 1.1382012488382738 0 0 0 0.5 0 1214 61 567 118 673 152 490 1 241 56 387 97 252 147 385 217 423 232 649 
2895 0.260783485357782 -0.13401078047897041 1.0866691951435619 0 0 0 0.88 0 1215 12 124 15 260 54 128 69 309 71 392 88 125 118 674 147 386 217 424 222 412 232 650 56 388 190 443 
2896 -0.08381231565504735 -0.1285500284047193 1.1914301060247134 0 0 0 0.29 0 1216 219 358 220 548 
2897 -0.2185995980035463 -0.10201241108496119 1.245888136890487 0 0 0 0.2 0 1217 213 539 232 651 
2898 -0.17228765464524107 -0.08397682276188585 1.2097748231109842 0 0 0 0.45 0 1218 204 448 221 453 227 328 232 652 160 282 219 359 
2899 0.01835001649113665 -0.08366059976834388 1.1391486539067426 0 0 0 0.23 0 1219 219 360 227 329 96 337 160 283 
2900 -0.10687099489838583 -0.06528533055590137 1.183446116006695 0 0 0 0.17 0 1220 204 449 221 454 
2901 0.2819618198497164 -0.10774438989989307 1.064613259920295 0 0 0 0.11 0 1221 204 450 232 653 
2902 -0.20556682811600469 -0.05458536095062952 1.2422275068469033 0 0 0 0.13 0 1222 204 451 227 330 
2903 0.001454478322832078 -0.06661858663098386 1.1340842975116647 0 0 0 0.19 0 1223 213 540 232 654 
2904 0.3034107609347814 -0.06823158838846213 1.052174743912562 0 0 0 0.33 0 1224 199 246 222 413 
2905 0.25021782975009726 -0.06050119882620022 1.0690094935639611 0 0 0 0.12 0 1225 190 444 204 452 222 414 
2906 0.1932700797150825 -0.027361351630375192 1.078386866609064 0 0 0 0.16 0 1226 204 453 219 361 179 242 
2907 0.19175298059665188 -0.02466096863761372 1.080523987818603 0 0 0 0.18 0 1227 190 445 232 655 
2908 -0.0028178184106979376 0.015865536652717668 1.1363330561751552 0 0 0 0.19 0 1228 219 362 231 22 
2909 -0.16310477915202987 0.04562724667578183 1.1857526592906449 0 0 0 0.37 0 1229 213 541 221 455 232 656 
2910 0.2925698411450106 0.03822823321972671 1.0423265874327323 0 0 0 0.22 0 1230 196 533 213 542 222 415 
2911 0.32335095692346216 0.03757954019808086 1.0356641464026588 0 0 0 0.24 0 1231 222 416 232 657 234 27 
2912 0.21799880172557826 0.05703782172834753 1.0558708316162677 0 0 0 0.2 0 1232 222 417 234 28 
2913 -0.20505154340148982 0.08337966602448689 1.2037097074358303 0 0 0 0.2 0 1233 204 454 219 363 
2914 -0.14721742345228975 0.09094580404987386 1.1664025262212363 0 0 0 0.27 0 1234 219 364 227 331 
2915 -0.19912510624804147 0.04484270721748678 1.2055770104865708 0 0 0 0.21 0 1235 217 425 227 332 
2916 -0.20293052958731325 0.07971142846181634 1.203040283771267 0 0 0 0.35 0 1236 190 446 221 456 
2917 -0.3116550526468214 -0.020681388867301323 1.0394992145719368 0 0 0 0.69 0 1237 190 447 227 333 
2918 -0.058224534693127154 0.03956972499047331 1.150387540903239 0 0 0 0.1 0 1238 198 302 199 247 
2919 -0.005735591358472533 -0.028611362996472833 1.1399761056206106 0 0 0 0.31 0 1239 196 534 217 426 
2920 -0.14502764524287362 0.058779114982513155 1.1769495089568707 0 0 0 0.42 0 1240 219 365 227 334 
2921 -0.12104084513385971 -0.08523503631790233 1.1987088179964136 0 0 0 0.39 0 1241 198 303 199 248 
2922 -0.1663051598138326 -0.06958778956648691 1.22006578501107 0 0 0 0.91 0 1242 204 455 219 366 227 335 
2923 0.09042310341076344 -0.00537011121546417 1.1054577241936376 0 0 0 0.46 0 1243 220 549 221 457 
2924 0.19962749565467022 0.005001345206720232 1.0759935483384342 0 0 0 0.64 0 1244 204 456 213 543 120 443 160 284 
2925 -0.04214799761360275 -0.03640904909035884 1.1606646736857171 0 0 0 0.48 0 1245 190 448 198 304 199 249 
2926 -0.2067944943531454 0.02310199266907203 1.2197824485010431 0 0 0 0.44 0 1246 190 449 213 544 
2927 -0.20361045902891742 -0.11309846291052032 1.2390100547886547 0 0 0 1.28 0 1247 179 243 190 450 138 143 227 336 
2928 0.20245804370268622 -0.15875621555623662 1.0977118004148836 0 0 0 0.28 1 242 67 207 179 244 65 195 111 445 217 427 56 389 97 253 134 32 181 252 
2929 0.15786702242144812 -0.16655143471808956 1.1717446316959497 0 0 0 0.5 1 243 15 261 17 484 96 338 179 245 190 451 227 337 160 285 232 658 118 675 
2930 0.19400609575976913 -0.10679122695980464 1.092657395603231 0 0 0 0.26 1 244 3 382 19 224 89 245 179 246 
2931 0.24213267067631536 -0.07946383522916703 1.0764201833076672 0 0 0 0.05 1 245 67 208 179 247 
2932 -0.08093871525321059 -0.11290823595580812 1.1878943366607742 0 0 0 0.36 1 246 43 205 81 246 97 254 179 248 56 390 71 393 89 246 103 229 118 676 128 385 190 452 
2933 -0.2169287465097162 -0.03031135787393607 1.235229490072898 0 0 0 0.25 1 247 4 402 179 249 
2934 -0.18116138365884446 -0.02298622128602972 1.2208271624244547 0 0 0 0.23 1 248 4 403 26 347 96 339 179 250 81 247 227 338 232 659 56 391 67 209 
2935 -0.1667032400068806 -0.09813568173014063 1.221138870415153 0 0 0 0.45 1 249 65 196 67 210 97 255 179 251 4 404 41 89 64 98 114 171 213 545 160 286 
2936 -0.2126259451642081 -0.05729223724728895 1.2355238937354946 0 0 0 0.37 1 250 4 405 111 446 179 252 21 549 41 90 44 422 73 319 88 126 114 172 198 305 213 546 103 230 118 677 128 386 204 457 209 186 219 367 26 348 56 392 81 248 199 250 232 660 
2937 -0.19935177493040873 -0.0038975613219106374 1.221422469621332 0 0 0 0.25 1 251 97 256 179 253 204 458 232 661 43 206 77 487 103 231 118 678 209 187 
2938 0.16008121390259572 -0.1607837088883794 1.1327917766063684 0 0 0 0.65 1 252 11 455 15 262 17 485 65 197 89 247 97 257 179 254 118 679 152 491 190 453 213 547 219 368 227 339 232 662 129 202 138 144 160 287 12 125 56 393 81 249 103 232 147 387 197 166 
2939 -0.0422653142200502 -0.035712319802322874 1.1574782860359798 0 0 0 0.75 1 253 26 349 29 126 38 104 71 394 88 127 179 255 12 126 43 207 129 203 158 291 221 458 56 394 128 387 111 447 
2940 -0.24148275374611755 -0.08890238442044307 1.257489222237655 0 0 0 0.22 2 289 4 406 50 614 61 568 96 340 103 233 179 256 172 502 204 459 157 378 53 401 128 388 209 188 213 548 227 340 
2941 -0.25020988452600895 -0.08726554476075798 1.2654833726532466 0 0 0 0.71 2 290 17 486 50 615 67 211 103 234 179 257 138 145 219 369 53 402 128 389 
2942 0.15290480094675846 -0.08905943597836852 1.0956152950858937 0 0 0 0.25 2 291 11 456 19 225 27 384 44 423 50 616 61 569 77 488 179 258 146 244 158 292 164 792 200 106 213 549 219 370 
2943 -0.06635439616740209 0.10411412280210476 1.1419626650968397 0 0 0 0.35 2 292 33 288 44 424 50 617 179 259 157 379 158 293 
2944 0.201280803362903 -0.13755129147638945 1.0935261360621165 0 0 0 0.3 2 293 17 487 19 226 44 425 50 618 61 570 92 247 179 260 146 245 164 793 200 107 213 550 4 407 33 289 40 251 103 235 142 461 136 265 196 535 
2945 -0.06176746338657273 -0.07069791133856282 1.1668830560783015 0 0 0 0.56 2 294 27 385 60 231 179 261 146 246 
2946 -0.15817351435016636 -0.06932623800841528 1.2110671000986488 0 0 0 0.26 2 295 3 383 33 290 44 426 111 448 179 262 4 408 157 380 172 503 227 341 50 619 53 403 77 489 92 248 103 236 176 477 204 460 209 189 213 551 219 371 118 680 128 390 158 294 9 132 11 457 17 488 85 249 148 897 159 662 162 471 164 794 196 536 200 108 220 550 224 378 229 89 27 386 109 64 
2947 -0.08085887008234031 -0.07000378362095921 1.1767230802481243 0 0 0 0.27 2 296 3 384 4 409 11 458 17 489 19 227 27 387 44 427 50 620 61 571 77 490 92 249 103 237 111 449 179 263 118 681 146 247 157 381 176 478 204 461 213 552 227 342 114 173 52 176 85 250 109 65 110 92 159 663 162 472 164 795 196 537 200 109 220 551 224 379 229 90 9 133 
2948 -0.02643175978911942 -0.039649108281024484 1.147275900842358 0 0 0 0.29 2 297 17 490 33 291 44 428 77 491 179 264 
2949 -0.046211010541665924 -0.017816136865431372 1.155870260391104 0 0 0 0.18 2 298 3 385 4 410 11 459 17 491 19 228 44 429 50 621 61 572 71 395 77 492 92 250 96 341 111 450 179 265 118 682 128 391 146 248 158 295 176 479 213 553 219 372 227 343 232 663 
2950 -0.11480383906050466 -0.015177887481673969 1.1852407217176486 0 0 0 0.26 2 299 3 386 4 411 11 460 50 622 61 573 71 396 77 493 103 238 111 451 179 266 118 683 146 249 158 296 176 480 204 462 227 344 232 664 33 292 43 208 92 251 114 174 
2951 0.082884528044907 -0.015237983326800663 1.1111542483676233 0 0 0 0.28 2 300 17 492 33 293 179 267 118 684 213 554 219 373 232 665 
2952 0.12465558029409853 -0.016063600139243586 1.0977719363346639 0 0 0 0.4 2 301 4 412 17 493 19 229 33 294 38 105 44 430 60 232 61 574 96 342 103 239 179 268 172 504 213 555 
2953 0.18209745788326862 -0.0159197806602965 1.0843895918601578 0 0 0 0.36 2 302 4 413 77 494 179 269 219 374 
2954 0.09122814296845902 -0.006732092958946954 1.105770994716359 0 0 0 0.35 2 303 50 623 61 575 179 270 
2955 0.014778159262525263 0.08380696791947698 1.1178605046676724 0 0 0 0.22 2 304 19 230 179 271 
2956 -0.08523290526047467 -0.12460322781390888 1.1911151242210598 0 0 0 0.25 2 305 89 248 179 272 
2957 -0.17932284133177762 -0.11770811813714803 1.229041250209375 0 0 0 0.25 2 306 3 387 43 209 61 576 111 452 179 273 138 146 
2958 0.00645569955623979 -0.022263268449955256 1.1344458447823411 0 0 0 0.43 2 307 26 350 71 397 103 240 179 274 
2959 -0.06210003325912778 0.09890791292242647 1.1403021235403124 0 0 0 0.32 2 308 33 295 44 431 179 275 19 231 
2960 -0.06377628620157658 0.11653225031378624 1.1383079268263703 0 0 0 0.24 2 309 33 296 44 432 50 624 61 577 179 276 19 232 118 685 157 382 204 463 
2961 -0.2569808711252938 -0.1117348246515723 1.2707875172475067 0 0 0 0.4 2 310 3 388 17 494 179 277 
2962 -0.04905108893569291 -0.015127069477274848 1.1554343577902704 0 0 0 0.3 2 311 33 297 44 433 60 233 65 198 111 453 179 278 138 147 190 454 217 428 114 175 
2963 -0.11969737244292827 0.0017884101137278922 1.1877662418827974 0 0 0 0.27 2 312 50 625 179 279 
2964 0.18372722713480716 -0.007685446010238797 1.081025829205661 0 0 0 0.55 2 313 11 461 17 495 25 272 65 199 179 280 29 127 81 250 138 148 199 251 198 306 1 254 26 351 56 395 128 392 147 388 221 459 222 418 69 310 89 249 118 686 4 414 15 263 27 388 33 298 77 495 88 128 103 241 142 462 164 796 190 455 196 538 
2965 -0.06436597516163364 0.06966365181201255 1.147009769435799 0 0 0 0.43 2 314 4 415 17 496 27 389 44 434 50 626 65 200 77 496 81 251 111 454 179 281 3 389 118 687 129 204 146 250 
2966 0.046361599824122524 -0.06104078382665288 1.1276323405352082 0 0 0 0.77 2 315 4 416 179 282 138 149 146 251 1 255 25 273 26 352 56 396 60 234 65 201 100 29 118 688 128 393 147 389 190 456 198 307 221 460 222 419 232 666 29 128 52 177 142 463 85 251 
2967 0.15974951114148092 -0.1670475237023352 1.157244668446963 0 0 0 0.31 3 390 15 264 89 250 179 283 41 91 53 404 97 258 118 689 
2968 -0.07467968220718904 -0.15290456017648038 1.1929643799807694 0 0 0 0.33 3 391 60 235 67 212 89 251 111 455 179 284 138 150 217 429 
2969 0.16322468055228492 -0.16360827547787862 1.1537614001346044 0 0 0 0.38 3 392 4 417 15 265 17 497 89 252 179 285 118 690 190 457 213 556 227 345 56 397 65 202 
2970 0.029257155637315905 -0.15866347158471603 1.209475960496481 0 0 0 0.68 3 393 4 418 25 274 65 203 67 213 97 259 111 456 179 286 190 458 213 557 232 667 147 390 152 492 160 288 222 420 56 398 138 151 
2971 -0.08643823229873435 -0.13443886718153641 1.189783269030931 0 0 0 0.3 3 394 60 236 179 287 162 473 227 346 
2972 0.21216759505864727 -0.14346363901244896 1.0938567915687223 0 0 0 0.23 3 395 67 214 179 288 
2973 -0.18035373728432172 -0.12421659607776252 1.2295309334476319 0 0 0 0.14 3 396 103 242 179 289 
2974 0.09789347360061315 -0.11747649166423418 1.1192870779041206 0 0 0 0.36 3 397 17 498 27 390 33 299 96 343 179 290 204 464 128 394 146 252 157 383 160 289 172 505 176 481 213 558 222 421 11 462 32 107 44 435 50 627 60 237 77 497 118 691 4 419 19 233 28 1 29 129 38 106 40 252 42 34 52 178 85 252 109 66 148 898 159 664 164 797 185 423 196 539 200 110 142 464 126 1042 136 266 
2975 -0.22272440561300103 -0.10556660026686976 1.2494005211952945 0 0 0 0.24 3 398 65 204 179 291 138 152 190 459 
2976 0.191081837706724 -0.09326739691767334 1.0844203711501552 0 0 0 0.41 3 399 60 238 111 457 179 292 32 108 64 99 120 444 160 290 172 506 190 460 213 559 217 430 56 399 89 253 96 344 199 252 
2977 0.14974966883568555 -0.08759203590140026 1.099697545330923 0 0 0 0.31 3 400 96 345 179 293 27 391 33 300 50 628 120 445 160 291 152 493 176 482 
2978 -0.09504618338584721 -0.06958604956913789 1.182689624704243 0 0 0 0.29 3 401 11 463 33 301 89 254 96 346 179 294 219 375 227 347 19 234 52 179 85 253 92 252 109 67 148 899 164 798 196 540 220 552 224 380 229 91 232 668 
2979 0.14653603743983015 -0.07532934505985109 1.099093871761468 0 0 0 0.4 3 402 11 464 17 499 27 392 29 130 60 239 71 398 96 347 179 295 128 395 152 494 162 474 164 799 172 507 176 483 204 465 213 560 222 422 9 134 19 235 40 253 42 35 61 578 85 254 196 541 52 180 142 465 
2980 -0.1228954449340244 -0.02325538656958232 1.19211038879774 0 0 0 0.46 3 403 26 353 179 296 4 420 67 215 114 176 
2981 -0.01950421382190465 -0.02308226348123548 1.1431914299914074 0 0 0 0.22 3 404 44 436 179 297 157 384 176 484 
2982 -0.052879598609437826 -0.009132228794365527 1.1584572263073771 0 0 0 0.17 3 405 33 302 77 498 179 298 213 561 
2983 0.19750554687937716 -0.13719799979359087 1.0969727393929356 0 0 0 0.29 3 406 60 240 89 255 179 299 217 431 227 348 
2984 -0.05815494299831129 -0.1226505200268473 1.177608011661913 0 0 0 0.18 3 407 4 421 27 393 71 399 97 260 179 300 138 153 204 466 217 432 227 349 232 669 
2985 -0.04596540737827286 -0.11081101266600132 1.1789268275163416 0 0 0 0.82 3 408 96 348 179 301 118 692 213 562 50 629 61 579 114 177 
2986 -0.12318486818794216 -0.10540979694784773 1.2035556826537113 0 0 0 0.15 3 409 43 210 71 400 111 458 179 302 209 190 219 376 
2987 0.18602475890520254 -0.1139667943368178 1.0941788909385721 0 0 0 0.33 3 410 11 465 25 275 71 401 89 256 179 303 152 495 204 467 217 433 147 391 160 292 190 461 213 563 118 693 
2988 0.20704807104650663 -0.02461992258689225 1.0784145266074712 0 0 0 0.27 3 411 17 500 50 630 179 304 118 694 128 396 146 253 158 297 204 468 219 377 
2989 0.09236023652896924 -0.007217752498159069 1.1099332757348133 0 0 0 0.21 3 412 44 437 179 305 
2990 -0.22648558931151938 0.002006973799971061 1.2305420563744958 0 0 0 0.33 3 413 67 216 71 402 96 349 97 261 179 306 172 508 190 462 227 350 232 670 17 501 64 100 73 320 114 178 
2991 0.15670530730615867 -0.16294429389264065 1.1761018171917907 0 0 0 0.68 3 414 15 266 17 502 60 241 89 257 103 243 179 307 97 262 138 154 152 496 217 434 227 351 232 671 1 256 56 400 71 403 81 252 147 392 181 253 
2992 0.159724664588586 -0.1529157013780952 1.1125336039375222 0 0 0 0.35 3 415 15 267 17 503 89 258 179 308 138 155 232 672 1 257 56 401 65 205 81 253 97 263 190 463 217 435 
2993 0.19828032903377127 -0.12151425339094515 1.0927489818552327 0 0 0 0.1 3 416 25 276 81 254 111 459 
2994 -0.13759056609299813 -0.06061050148683279 1.1985915362652542 0 0 0 0.36 3 417 11 466 17 504 81 255 88 129 179 309 118 695 138 156 190 464 213 564 4 422 33 303 41 92 114 179 50 631 209 191 227 352 26 354 56 402 
2995 0.20074200107734852 -0.15466447187795207 1.103248916606693 0 0 0 0.71 3 418 67 217 179 310 1 258 25 277 56 403 65 206 71 404 97 264 217 436 
2996 -0.18317163658461272 -0.12041507058759418 1.2338269447943184 0 0 0 0.45 3 419 4 423 43 211 67 218 71 405 81 256 96 350 179 311 204 469 217 437 219 378 227 353 27 394 33 304 50 632 73 321 114 180 118 696 128 397 158 298 172 509 1 259 56 404 97 265 152 497 190 465 232 673 
2997 0.1622144113109058 -0.05455607649420586 1.093853488061287 0 0 0 0.36 3 420 15 268 25 278 179 312 
2998 0.15558321710899015 -0.1698541745673183 1.1520656479677052 0 0 0 0.47 4 424 15 269 17 505 179 313 128 398 158 299 213 565 217 438 
2999 -0.19558871280947035 -0.09261038069983779 1.2331629559645072 0 0 0 0.18 4 425 61 580 179 314 
3000 -0.14546626225491519 -0.06998621719127174 1.2060033685222464 0 0 0 0.21 4 426 11 467 77 499 179 315 21 550 176 485 209 192 
3001 -0.14223445311974633 -0.07016716973455082 1.2054014178388035 0 0 0 0.3 4 427 11 468 179 316 50 633 157 385 176 486 209 193 
3002 -0.25706314446273637 -0.10619020873703983 1.2676899339252223 0 0 0 0.31 4 428 17 506 50 634 103 244 179 317 227 354 232 674 
3003 -0.18383510137670475 -0.06644065117882719 1.2223361190982327 0 0 0 0.27 4 429 11 469 17 507 27 395 33 305 44 438 50 635 77 500 179 318 213 566 232 675 160 293 92 253 204 470 219 379 2 316 9 135 19 236 85 255 109 68 148 900 164 800 229 92 
3004 -0.13196401433351618 -0.04766966437407835 1.1960966915878128 0 0 0 0.29 4 430 17 508 111 460 179 319 213 567 219 380 232 676 114 181 190 466 44 439 50 636 92 254 204 471 209 194 227 355 
3005 -0.16636038186074292 -0.017323067079990356 1.2091305579025562 0 0 0 0.32 4 431 50 637 179 320 
3006 -0.06919853191787574 -0.011546048961622018 1.1651267302835961 0 0 0 0.22 4 432 11 470 179 321 
3007 -0.2535079190396526 -0.06462166194524144 1.2538546202491383 0 0 0 0.46 4 433 17 509 50 638 65 207 179 322 138 157 172 510 
3008 0.16151566392402747 -0.11396735402809828 1.1004000145008408 0 0 0 0.2 4 434 61 581 111 461 179 323 
3009 -0.18597061711359159 -0.014002490817283544 1.2183836779609425 0 0 0 0.33 4 435 11 471 179 324 
3010 0.17310247517816346 -0.013347129139785118 1.0827624136610412 0 0 0 0.45 4 436 103 245 179 325 
3011 0.15268121096725626 -0.07489717940335913 1.0990049177361068 0 0 0 0.8 4 437 19 237 25 279 26 355 60 242 111 462 179 326 11 472 97 266 129 205 146 254 152 498 198 308 162 475 217 439 157 386 160 294 190 467 213 568 1 260 56 405 81 257 89 259 96 351 158 300 208 154 15 270 17 510 29 131 33 306 44 440 77 501 118 697 120 446 
3012 -0.0765168570041176 -0.034990327164710726 1.175434098564024 0 0 0 0.54 4 438 12 127 26 356 50 639 179 327 81 258 128 399 217 440 56 406 111 463 221 461 
3013 0.20341349343091755 -0.1542407864897509 1.099074727882459 0 0 0 0.44 11 473 17 511 179 328 60 243 
3014 0.06015397508152643 -0.014289424980146747 1.116972859283537 0 0 0 0.27 11 474 27 396 33 307 44 441 179 329 128 400 158 301 176 487 164 801 229 93 
3015 -0.02601769147504427 -0.1395533419596511 1.1647222695403943 0 0 0 0.3 11 475 33 308 61 582 179 330 
3016 -0.05824370449646385 -0.11928696476227423 1.1768570794380102 0 0 0 0.23 11 476 27 397 77 502 179 331 128 401 
3017 0.11808372083072992 -0.09856493637029402 1.111870320237707 0 0 0 0.17 11 477 111 464 179 332 
3018 -0.22402535630797915 -0.0663374807600391 1.2387374561527054 0 0 0 0.4 11 478 17 512 50 640 179 333 21 551 176 488 209 195 
3019 -0.06511846698602056 -0.07079887408495585 1.170132375676997 0 0 0 0.2 11 479 17 513 33 309 44 442 60 244 103 246 179 334 118 698 157 387 158 302 176 489 204 472 213 569 219 381 232 677 
3020 -0.22716001081582 -0.06112554710534652 1.2423798417341065 0 0 0 0.38 11 480 12 128 179 335 172 511 190 468 160 295 217 441 
3021 -0.03094226782196188 -0.06963274778725775 1.1526918754883166 0 0 0 0.24 11 481 17 514 61 583 96 352 111 465 179 336 118 699 128 402 146 255 152 499 157 388 158 303 172 512 176 490 204 473 213 570 219 382 
3022 0.12432393050307143 -0.07715923206334013 1.1059502469921438 0 0 0 0.2 11 482 27 398 60 245 179 337 2 317 4 439 9 136 16 78 19 238 33 310 38 107 40 254 42 36 44 443 50 641 61 584 77 503 85 256 92 255 93 9 109 69 110 93 127 228 146 256 148 901 157 389 159 665 162 476 164 802 176 491 185 424 196 542 200 111 213 571 
3023 0.2280953680356215 -0.07601669208898032 1.0769367269539305 0 0 0 0.46 11 483 43 212 179 338 67 219 4 440 9 137 44 444 60 246 61 585 91 63 92 256 142 466 136 267 148 902 164 803 165 209 176 492 204 474 213 572 
3024 0.12972064491519122 -0.01652480977022387 1.0990681075357946 0 0 0 0.12 11 484 27 399 179 339 176 493 219 383 
3025 -0.10801379000262239 -0.10654181783054535 1.1900258819842788 0 0 0 0.84 11 485 27 400 71 406 179 340 118 700 204 475 
3026 0.009283474232338353 -0.09163277936291002 1.143017001408669 0 0 0 0.43 11 486 19 239 27 401 33 311 60 247 61 586 71 407 96 353 179 341 128 403 222 423 227 356 
3027 0.24915500808495625 -0.10468999060131111 1.0717858143847372 0 0 0 0.24 11 487 15 271 179 342 
3028 -0.18621920639024778 -0.02770880844902651 1.21821273632222 0 0 0 0.31 11 488 81 259 179 343 176 494 204 476 
3029 0.09972007556130444 -0.01151136262282226 1.1062904035533403 0 0 0 0.31 11 489 89 260 179 344 129 206 138 158 152 500 160 296 199 253 56 407 
3030 -0.08531566996215528 -0.02711171619117774 1.1805928580147484 0 0 0 0.28 11 490 26 357 179 345 128 404 138 159 56 408 198 309 
3031 -0.07089675951687514 -0.031239753370434647 1.167323444867678 0 0 0 0.66 11 491 88 130 179 346 56 409 128 405 
3032 -0.05952023641645805 -0.01576433459460556 1.1613134252245898 0 0 0 0.62 11 492 89 261 179 347 128 406 138 160 81 260 114 182 181 254 1 261 56 410 67 220 
3033 -0.21609895404589344 -0.11426175913051975 1.2554581781829195 0 0 0 0.75 12 129 50 642 179 348 190 469 232 678 4 441 27 402 33 312 43 213 67 221 71 408 73 322 81 261 111 466 114 183 181 255 56 411 118 701 217 442 
3034 0.20349668324070763 -0.1202633827834382 1.0896946843671358 0 0 0 0.19 15 272 111 467 179 349 118 702 152 501 213 573 
3035 0.06785524297586432 -0.015309356573467839 1.1161999795324276 0 0 0 0.16 15 273 17 515 25 280 29 132 179 350 
3036 -0.16792869911038974 -0.019406601807563883 1.2104247790854175 0 0 0 0.11 17 516 92 257 179 351 
3037 -0.17051215473013046 -0.019295754431559654 1.2128410795634006 0 0 0 0.1 17 517 50 643 179 352 204 477 213 574 
3038 -0.1193074691636274 -0.01757747812109826 1.1905958769832317 0 0 0 0.26 17 518 50 644 179 353 176 495 213 575 
3039 -0.0045139567614767406 0.03569445938156034 1.1271582848658597 0 0 0 0.32 17 519 19 240 25 281 179 354 
3040 0.41669265722995175 -0.0617272900734676 0.9058589346641923 0 0 0 0.34 17 520 67 222 179 355 
3041 0.0069403372721300845 0.07799983146739074 1.119515398806431 0 0 0 0.25 17 521 25 282 29 133 61 587 179 356 
3042 0.12621425547659476 -0.011266784882608091 1.0980822841456321 0 0 0 0.3 17 522 89 262 179 357 118 703 158 304 190 470 
3043 0.4149102730109444 -0.03226804059595676 0.9045770470915747 0 0 0 0.37 17 523 61 588 89 263 179 358 
3044 0.41503048638260903 -0.02673391193653435 0.9040859504075768 0 0 0 0.51 17 524 61 589 89 264 179 359 138 161 152 502 64 101 87 7 114 184 134 33 
3045 0.41321450945578003 -0.004403928338977245 0.890249596435979 0 0 0 0.44 17 525 67 223 179 360 114 185 120 447 152 503 182 117 
3046 -0.044360267712903266 -0.07120265712306735 1.1604022161544505 0 0 0 0.43 19 241 77 504 179 361 128 407 158 305 219 384 4 442 9 138 11 493 16 79 27 403 44 445 52 181 85 257 109 70 127 229 148 903 185 425 229 94 
3047 -0.1721994535183327 -0.06902164173707942 1.2174561256999241 0 0 0 0.33 19 242 21 552 179 362 92 258 209 196 219 385 
3048 0.0006422149965119123 0.1098528252430849 1.1140841554048837 0 0 0 0.33 19 243 27 404 179 363 
3049 0.1971175684757556 -0.0911225897335377 1.0829041801272665 0 0 0 0.04 19 244 111 468 179 364 
3050 -0.17096861520476384 -0.07194165865004706 1.218389321331307 0 0 0 0.34 19 245 21 553 179 365 111 469 172 513 209 197 11 494 50 645 71 409 92 259 96 354 118 704 160 297 176 496 204 478 213 576 217 443 219 386 232 679 40 255 42 37 85 258 110 94 148 904 2 318 4 443 17 526 77 505 128 408 164 804 229 95 
3051 -0.06631164843764493 0.11959310064886362 1.1392785768212619 0 0 0 0.33 19 246 33 313 50 646 179 366 
3052 0.021304631078981544 -0.08622089549702307 1.1404349068743065 0 0 0 0.35 19 247 26 358 44 446 50 647 60 248 96 355 179 367 172 514 217 444 160 298 152 504 
3053 0.01215001369594242 0.07757807046612201 1.1197334141012638 0 0 0 0.39 19 248 33 314 179 368 138 162 217 445 
3054 -0.062668690727734 0.10307700016044308 1.1397835072407514 0 0 0 0.39 19 249 33 315 44 447 179 369 138 163 
3055 -0.09589316186065504 -0.04865185821324844 1.1819359352531644 0 0 0 0.16 21 554 33 316 179 370 
3056 0.20471055481985131 -0.13761779839503124 1.0911555876481076 0 0 0 0.44 25 283 96 356 179 371 
3057 0.12267939236806918 -0.07483676511156563 1.1087495302495392 0 0 0 0.18 25 284 96 357 179 372 
3058 -0.0043427208971173826 -0.01091321613332594 1.138627948877035 0 0 0 0.28 25 285 33 317 179 373 
3059 -0.09246387046789244 0.03945254375989238 1.1649460851928375 0 0 0 0.54 26 359 89 265 111 470 179 374 
3060 0.2178359419523885 -0.12194992221864728 1.0875665285132077 0 0 0 0.52 27 405 61 590 111 471 179 375 
3061 -0.11166397254582738 -0.018491697412434435 1.184316529063169 0 0 0 0.4 27 406 111 472 179 376 128 409 204 479 
3062 -0.19757278431380026 -0.06540723604543733 1.227877607198162 0 0 0 0.32 33 318 50 648 179 377 128 410 157 390 172 515 227 357 44 448 96 358 176 497 204 480 213 577 219 387 
3063 0.00376252839914355 -0.06348620498036665 1.1401095425763945 0 0 0 0.21 33 319 71 410 179 378 
3064 0.16168754064466978 -0.10702802105014939 1.09957753602855 0 0 0 0.33 38 108 89 266 111 473 179 379 64 102 77 506 160 299 219 388 
3065 0.1581816231146545 -0.17616379002013705 1.1134326587081165 0 0 0 0.27 43 214 44 449 179 380 
3066 -0.16047310739172585 -0.08906827228916027 1.2156184337075768 0 0 0 0.24 43 215 81 262 111 474 179 381 41 93 64 103 114 186 158 306 209 198 
3067 0.05733151829195012 -0.020494896518309207 1.1200014202158883 0 0 0 0.57 44 450 61 591 179 382 157 391 
3068 -0.18026190435028167 0.09128812435166707 1.196943223429397 0 0 0 0.35 44 451 61 592 92 260 179 383 50 649 
3069 -0.08718838750083506 -0.0073150045223668945 1.1740394666261986 0 0 0 0.45 44 452 50 650 179 384 138 164 1 262 26 360 56 412 88 131 181 256 217 446 11 495 109 71 142 467 198 310 199 254 52 182 229 96 
3070 0.21625950563048157 0.03313987365774133 1.0614820007551538 0 0 0 0.19 44 453 61 593 96 359 179 385 152 505 172 516 
3071 -0.03706294304635381 -0.022507227962945606 1.1512265729268287 0 0 0 0.22 50 651 60 249 179 386 
3072 -0.007065170434141118 0.09144400610450995 1.1161711528271359 0 0 0 0.26 50 652 61 594 179 387 
3073 0.1267476419578739 -0.07461291601768208 1.104725675996476 0 0 0 0.1 60 250 96 360 179 388 
3074 -0.013190660220753533 0.08851202613110519 1.1243380860942476 0 0 0 0.41 81 263 89 267 179 389 138 165 152 506 158 307 227 358 
3075 -0.051293711872087484 -0.10107719447579191 1.1742269136259755 0 0 0 0.42 60 251 111 475 179 390 138 166 
3076 -0.06955064785306059 -0.13240737845838008 1.1816268086292143 0 0 0 0.23 61 595 103 247 179 391 
3077 0.005284233757410693 -0.07847428579759216 1.145123399614853 0 0 0 0.18 67 224 96 361 179 392 129 207 162 477 217 447 227 359 
3078 0.15598029760193874 -0.1706431817453689 1.16525625622743 0 0 0 0.57 71 411 97 267 111 476 179 393 190 471 232 680 
3079 0.02733043980054064 -0.09259636348635007 1.1368603512359223 0 0 0 0.15 71 412 96 362 103 248 179 394 
3080 -0.06932479670168856 -0.007524079003398325 1.1635868610256 0 0 0 0.46 81 264 88 132 179 395 53 405 114 187 118 705 128 411 181 257 213 578 1 263 26 361 56 413 129 208 
3081 0.05236458880653298 -0.09625322616976209 1.127759879935475 0 0 0 0.51 89 268 96 363 179 396 
3082 0.0448576958576197 -0.07290158930106276 1.1285025012125156 0 0 0 0.33 89 269 96 364 179 397 3 421 17 527 27 407 54 129 61 596 142 468 118 706 147 393 159 666 162 478 172 517 219 389 220 553 222 424 4 444 9 139 44 454 52 183 77 507 85 259 92 261 93 10 109 72 110 95 146 257 148 905 164 805 176 498 185 426 196 543 213 579 214 161 229 97 
3083 0.14770190396659116 0.040825909732417155 1.0805871065664074 0 0 0 0.33 92 262 96 365 179 398 
3084 -0.24826694786831205 -0.05621472925357921 1.2533853286922338 0 0 0 0.2 118 707 179 399 227 360 
3085 0.10813821189607761 0.03776783270979863 1.0880090566261913 0 0 0 0.21 118 708 128 412 179 400 
3086 0.22062820701652416 0.03984561079827348 1.0615430837912498 0 0 0 0.33 118 709 179 401 227 361 
3087 -0.2534212411873497 -0.09060168890154993 1.2623925270929637 0 0 0 0.29 118 710 179 402 190 472 232 681 
3088 0.4102508201171351 -0.056092137771110884 0.9150579953115726 0 0 0 0.34 118 711 179 403 190 473 222 425 
3089 -0.3872047177459372 -0.13587679930500393 0.7895752362588786 0 0 0 0.59 118 712 179 404 232 682 
3090 -0.06366905134341182 -0.12616132830312163 1.1897354503529094 0 0 0 0.26 118 713 128 413 179 405 227 362 
3091 -0.05819025146881419 0.0388678300630369 1.1498203599684054 0 0 0 0.1 118 714 146 258 179 406 
3092 0.12931167791093687 -0.02968758695107497 1.0975596837117376 0 0 0 0.49 118 715 138 167 179 407 198 311 1 264 3 422 11 496 120 448 160 300 56 414 65 208 
3093 0.1703188221020018 0.009546293643370328 1.0579331385290307 0 0 0 0.49 118 716 138 168 179 408 
3094 0.19906841073609657 -0.12170983785535652 1.0944557881092851 0 0 0 0.18 138 169 190 474 217 448 
3095 0.11337155837040962 -0.011626557078104638 1.103450976706934 0 0 0 0.28 129 209 138 170 179 409 160 301 221 462 1 265 12 130 26 362 56 415 89 270 147 394 232 683 120 449 
3096 0.1904768757101452 0.010519632619553939 1.07609965683702 0 0 0 0.22 152 507 179 410 232 684 
3097 0.19329502861670766 0.01907006863237456 1.079284609071692 0 0 0 0.12 138 171 158 308 179 411 
3098 0.2150112785005803 -0.12481196777499003 1.0905666858410297 0 0 0 0.31 138 172 179 412 217 449 
3099 0.19328369996109465 -0.0036779177306968816 1.0806052541407927 0 0 0 0.11 128 414 138 173 179 413 
3100 0.17504396407641076 -0.06619110833418805 1.090814490625304 0 0 0 0.22 129 210 152 508 179 414 199 255 
3101 0.15853025972622534 -0.14961523588868933 1.1289318029621604 0 0 0 0.42 138 174 179 415 222 426 227 363 
3102 -0.16361808555080265 -0.06931238713454381 1.2130679495297307 0 0 0 0.31 127 230 172 518 179 416 157 392 158 309 204 481 209 199 
3103 -0.08651559924611826 -0.022212554372646125 1.1755511520303659 0 0 0 0.26 127 231 128 415 164 806 179 417 
3104 0.08914989277139101 -0.003995199287242574 1.1054369204152148 0 0 0 0.2 127 232 157 393 179 418 213 580 
3105 0.007870484341591986 -0.06563035159953835 1.1393437234606567 0 0 0 0.17 127 233 179 419 224 381 
3106 0.07153275479391824 -0.12211878023778217 1.1229299726109139 0 0 0 0.3 128 416 179 420 227 364 
3107 -0.2598383266930414 -0.11298416073134677 1.2694776389131088 0 0 0 0.48 159 667 164 807 179 421 224 382 
3108 0.014224101582426953 -0.09304419192972191 1.1439319109708543 0 0 0 0.28 128 417 176 499 179 422 
3109 -0.05449989758463776 -0.02945907284044511 1.1622266473593237 0 0 0 0.19 128 418 164 808 179 423 
3110 0.0219113875916551 -0.01673966208539391 1.114931390018881 0 0 0 0.33 128 419 179 424 190 475 
3111 -0.05442967932691043 -0.11629373829999423 1.1868546022320479 0 0 0 0.09 128 420 179 425 190 476 
3112 0.016907660330762953 0.04041339521260709 1.1340045886207306 0 0 0 0.22 128 421 138 175 179 426 
3113 0.1730051620863409 -0.012951304033137092 1.081965199361825 0 0 0 0.17 138 176 190 477 217 450 
3114 0.2232536100919218 -0.013719456035086243 1.0704108921363344 0 0 0 0.17 128 422 138 177 164 809 179 427 190 478 1 266 56 416 69 311 172 519 
3115 0.03240740519747511 -0.15472364610601008 1.151775855012912 0 0 0 0.27 129 211 138 178 179 428 
3116 0.02441666425442453 -0.1500494332983148 1.1590144611050892 0 0 0 0.42 129 212 179 429 190 479 204 482 227 365 
3117 -0.04786247444776491 -0.06993881880528627 1.1649886230699567 0 0 0 0.15 129 213 162 479 179 430 
3118 0.012696942797275994 -0.1530727453162982 1.1808264670117665 0 0 0 0.52 129 214 138 179 179 431 
3119 0.04933943085549031 -0.14203444042371907 1.1550867328959504 0 0 0 0.46 129 215 138 180 179 432 
3120 0.04308077010533911 -0.14947196484811892 1.1679849100825441 0 0 0 0.11 129 216 138 181 179 433 
3121 -0.08087747510557008 -0.09074313355003605 1.1821848030775242 0 0 0 0.19 136 268 172 520 179 434 
3122 -0.09092588027344138 -0.06323373567240724 1.1787286633672078 0 0 0 0.13 136 269 172 521 179 435 
3123 -0.07630734181486255 -0.10169160587415796 1.1827988004230445 0 0 0 0.38 138 182 179 436 41 94 64 104 114 188 111 477 
3124 -0.30158304214762016 -0.161525004946154 1.0815664327898264 0 0 0 0.34 138 183 179 437 224 383 
3125 -0.07375266151908189 -0.12748799691104093 1.1651539553282395 0 0 0 0.29 138 184 179 438 227 366 
3126 -0.02560598291277757 -0.13126350987228713 1.164501380081462 0 0 0 0.27 138 185 179 439 190 480 
3127 0.2114814950986149 -0.1491968895839165 1.099973698640379 0 0 0 0.29 138 186 179 440 227 367 
3128 -0.22978957025580005 -0.08694290025119239 1.2435847745311421 0 0 0 0.16 138 187 172 522 179 441 
3129 0.2516149939745722 -0.11689352658879544 1.0929318265205514 0 0 0 0.47 138 188 179 442 219 390 
3130 -0.11375868956832684 -0.018726858085054133 1.1943840136712691 0 0 0 0.26 138 189 179 443 204 483 
3131 0.1921322132912534 -0.03143078127891934 1.0823773966356747 0 0 0 0.23 138 190 179 444 199 256 213 581 
3132 -0.05911416678219835 0.07831353803822617 1.1411039775972256 0 0 0 0.11 138 191 179 445 200 112 
3133 0.02710299935548357 -0.14901357416759006 1.1933007646677525 0 0 0 0.91 138 192 152 509 179 446 160 302 204 484 56 417 65 209 81 265 147 395 190 481 67 225 15 274 53 406 
3134 -0.040241545972584065 -0.08772692229600045 1.1569310781642872 0 0 0 0.13 138 193 179 447 200 113 
3135 0.07047532649035215 -0.06653379594830582 1.1209571459603622 0 0 0 0.2 138 194 179 448 199 257 
3136 -0.16329021014286188 0.02694042530079648 1.2223385222209906 0 0 0 0.15 138 195 157 394 179 449 
3137 -0.004232011758991066 0.07304599334757024 1.122363116115696 0 0 0 0.26 138 196 152 510 179 450 224 384 
3138 0.16266977406129243 -0.013081766584874139 1.0877809806754248 0 0 0 0.41 138 197 172 523 179 451 190 482 204 485 146 259 160 303 185 427 213 582 217 451 219 391 1 267 56 418 158 310 181 258 42 38 52 184 
3139 -0.17252423059528335 0.09829890945365055 1.1882964463946954 0 0 0 0.47 138 198 179 452 200 114 
3140 -0.1612827492209937 0.011228199354204662 1.2331038593130923 0 0 0 0.34 138 199 157 395 179 453 
3141 0.008150982478114226 0.07242960995910393 1.1157139967142977 0 0 0 0.21 138 200 179 454 227 368 56 419 81 266 
3142 -0.11339337701043811 -0.059058951552033306 1.2033507920437014 0 0 0 0.25 138 201 179 455 213 583 
3143 -0.10452352253522927 -0.026862377500064268 1.1819036205266051 0 0 0 0.44 138 202 179 456 190 483 220 554 
3144 -0.22448592862771843 -0.09856392520934591 1.2137339636170843 0 0 0 0.22 138 203 179 457 190 484 
3145 0.07658550839589902 -0.03604417043573085 1.1174277969207056 0 0 0 0.35 138 204 179 458 199 258 
3146 0.13750899708095227 -0.036470101939624945 1.0979814109177364 0 0 0 0.27 138 205 179 459 199 259 
3147 -0.012376363612220788 -0.005724718307252307 1.1364753442776436 0 0 0 0.52 138 206 179 460 220 555 
3148 0.07325548173734739 -0.0610963501034447 1.1110009281985807 0 0 0 0.84 138 207 146 260 179 461 199 260 
3149 0.10749664750083118 -0.059028034397934435 1.1096966849601761 0 0 0 0.22 138 208 179 462 199 261 
3150 -0.02694987612871605 -0.017376849009670826 1.1444145688035048 0 0 0 0.52 138 209 179 463 220 556 
3151 0.16157746977650334 -0.17228784969564936 1.1115939471158143 0 0 0 0.29 146 261 158 311 179 464 
3152 -0.026187009406902526 -0.11079465277544606 1.1628439008610598 0 0 0 0.47 146 262 158 312 179 465 190 485 
3153 0.1764183611241738 -0.02657855927651872 1.0866037648279503 0 0 0 0.19 162 480 179 466 200 115 
3154 -0.019020658099623024 -0.11265929007752185 1.1567238084809888 0 0 0 0.48 148 906 179 467 200 116 224 385 19 250 25 286 40 256 71 413 142 469 164 810 
3155 -0.055905382526604395 -0.06438123004202043 1.1651824521595653 0 0 0 0.36 148 907 162 481 164 811 179 468 41 95 103 249 114 189 19 251 52 185 142 470 146 263 
3156 0.1593323183279608 -0.16028907094503023 1.1555247067926646 0 0 0 0.44 152 511 179 469 190 486 213 584 227 369 232 685 147 396 160 304 
3157 -0.15391943507314182 -0.09982412385880818 1.2176724429395671 0 0 0 0.17 152 512 159 668 179 470 
3158 -0.12416381204590769 -0.10097928276274995 1.1966954425508447 0 0 0 0.11 157 396 179 471 219 392 
3159 0.034754143699549545 -0.01964173457667293 1.1250318407252513 0 0 0 0.3 157 397 179 472 200 117 224 386 
3160 -0.09100413882404192 -0.01883597574125528 1.1765648606029349 0 0 0 0.49 157 398 158 313 172 524 176 500 179 473 204 486 
3161 -0.18577010410672565 -0.009506798296452674 1.2174585557563575 0 0 0 0.31 157 399 162 482 179 474 
3162 -0.12507481911488313 -0.1136084300776166 1.2069748441289658 0 0 0 0.4 179 475 204 487 213 585 219 393 164 812 176 501 209 200 27 408 32 109 160 305 157 400 
3163 -0.060097792869553676 -0.1107462154679086 1.1741315059668258 0 0 0 0.18 158 314 162 483 179 476 219 394 
3164 -0.029379317268340123 -0.10469981316319203 1.1603006690313358 0 0 0 0.42 158 315 176 502 179 477 
3165 -0.09111587243412193 -0.09297006009000286 1.1928314821261516 0 0 0 0.33 158 316 172 525 179 478 
3166 -0.050228862137084065 -0.017737050500250602 1.1554909585457585 0 0 0 0.27 158 317 179 479 190 487 217 452 
3167 -0.06330839789021701 -0.07292359795256541 1.1697345368007332 0 0 0 0.22 162 484 172 526 179 480 2 319 4 445 19 252 27 409 33 320 77 508 85 260 110 96 118 717 148 908 213 586 224 387 229 98 
3168 0.03753225594237634 -0.07287326899711909 1.1303563676735358 0 0 0 0.08 162 485 179 481 227 370 
3169 -0.22571151443557588 -0.06406919666510444 1.241461277415242 0 0 0 0.23 162 486 172 527 179 482 204 488 
3170 -0.09701800589619522 -0.0853360281090553 1.1819584449105116 0 0 0 0.2 162 487 172 528 179 483 
3171 0.1569075051432494 -0.17442210741089717 1.116322851813697 0 0 0 0.33 164 813 179 484 227 371 
3172 0.17977072226241728 -0.030492756880499152 1.0878862292056908 0 0 0 0.3 176 503 179 485 213 587 
3173 0.2472723991385512 -0.11670020491901326 1.078914291069191 0 0 0 0.35 179 486 204 489 219 395 11 497 43 216 67 226 120 450 127 234 160 306 152 513 197 167 221 463 
3174 0.051346140310497515 -0.1442752090255432 1.2046294327411338 0 0 0 0.69 179 487 213 588 232 686 
3175 0.2004324286756655 -0.14309054316919512 1.0913974400651762 0 0 0 0.2 179 488 213 589 222 427 
3176 0.023205158793332025 -0.1187267524902701 1.1384137917558252 0 0 0 0.4 179 489 200 118 204 490 219 396 222 428 
3177 -0.3510955544991561 -0.21127569314912734 0.8946068830042389 0 0 0 0.56 179 490 190 488 232 687 
3178 -0.18338869699108856 -0.13057778747069398 1.2308002649564815 0 0 0 0.39 179 491 204 491 227 372 
3179 -0.3518802812236994 -0.21350706115142204 0.895362037683123 0 0 0 0.36 179 492 190 489 232 688 
3180 -0.03795277985072641 -0.1116917072400145 1.1723203816124252 0 0 0 0.93 179 493 213 590 217 453 
3181 0.19464586435597514 -0.05443807442265175 1.0871640353504237 0 0 0 0.49 179 494 204 492 219 397 
3182 0.3646486261013475 -0.1194600292798307 1.044709954651824 0 0 0 0.34 3 423 4 446 15 275 67 227 73 323 97 268 103 250 111 478 114 190 134 34 158 318 163 174 165 210 182 118 190 490 
3183 0.30115843213025945 -0.10750128639169051 1.0568615658751217 0 0 0 0.33 3 424 73 324 111 479 114 191 120 451 162 488 164 814 160 307 
3184 0.29902943029695706 -0.1055749881207619 1.060773301881036 0 0 0 0.35 3 425 111 480 114 192 158 319 164 815 182 119 
3185 -0.23348738827585772 -0.03470723929212818 1.2399685292228284 0 0 0 0.23 3 426 25 287 43 217 96 366 114 193 204 493 
3186 -0.10880838882581775 -0.015557856749994369 1.1850089897457659 0 0 0 0.07 3 427 114 194 164 816 
3187 -0.026238585004522214 -0.007415811085369969 1.140744970476464 0 0 0 0.44 3 428 61 597 114 195 164 817 158 320 
3188 -0.2153442984895219 0.028864934549796394 1.2238143471600926 0 0 0 0.29 3 429 53 407 96 367 114 196 213 591 
3189 -0.05734180690306775 -0.11523243026577727 1.1774983643937305 0 0 0 0.34 3 430 53 408 67 228 96 368 97 269 114 197 181 259 204 494 
3190 0.339744484730637 -0.12132673542615333 1.0557604571343198 0 0 0 0.41 3 431 15 276 17 528 53 409 97 270 114 198 120 452 182 120 184 128 190 491 197 168 
3191 -0.13768258212215348 -0.07324234780816999 1.203358153218938 0 0 0 0.3 3 432 27 410 96 369 111 481 114 199 146 264 158 321 164 818 176 504 204 495 213 592 157 401 209 201 227 373 11 498 32 110 43 218 53 410 118 718 160 308 152 514 159 669 217 454 219 398 220 557 224 388 40 257 42 39 109 73 2 320 19 253 26 363 33 321 71 414 85 261 110 97 142 471 
3192 -0.21729423412862756 -0.01523077645175394 1.2309152353632087 0 0 0 0.25 3 433 61 598 71 415 96 370 114 200 157 402 172 529 176 505 204 496 
3193 0.4575291195251266 -0.05556945880083793 1.0531620842360563 0 0 0 0.16 3 434 103 251 114 201 56 420 89 271 111 482 129 217 
3194 -0.2334100154478656 -0.01220182225086946 1.2381591630380835 0 0 0 0.47 3 435 25 288 41 96 114 202 138 210 
3195 -0.05296010221909112 -0.11133814565400037 1.1729619665547846 0 0 0 0.34 3 436 41 97 43 219 97 271 114 203 176 506 204 497 
3196 -0.20004301281693404 -0.0032183538832852763 1.220446899035354 0 0 0 0.28 3 437 114 204 146 265 199 262 
3197 -0.1690656103912299 -0.0035780804362950374 1.2077815091950503 0 0 0 0.36 3 438 25 289 67 229 114 205 198 312 213 593 1 268 56 421 221 464 232 689 
3198 0.403736346125784 -0.08184635703374558 1.0599015744836984 0 0 0 0.52 3 439 4 447 15 277 53 411 65 210 67 230 77 509 103 252 111 483 114 206 129 218 172 530 190 492 197 169 56 422 62 26 71 416 73 325 89 272 118 719 147 397 164 819 217 455 232 690 
3199 0.40520520399509447 -0.0715671957485261 1.0609353231767165 0 0 0 0.66 3 440 15 278 17 529 67 231 71 417 111 484 114 207 118 720 129 219 56 423 89 273 147 398 217 456 
3200 -0.07086055472373652 0.006001153477085615 1.1601189547007011 0 0 0 0.5 3 441 25 290 114 208 
3201 -0.09461174415917567 -0.13674036702637837 1.2159413977165354 0 0 0 0.56 3 442 64 105 114 209 
3202 0.40760790926820206 -0.08043915220210489 1.0544019059407406 0 0 0 0.47 4 448 15 279 71 418 77 510 114 210 164 820 182 121 184 129 
3203 -0.22623046127095 -0.09065142035929613 1.2467227893599944 0 0 0 0.31 4 449 27 411 71 419 73 326 103 253 111 485 114 211 162 489 
3204 -0.15745886594204037 -0.11873671008736142 1.2204809844542357 0 0 0 0.14 4 450 25 291 50 653 114 212 
3205 -0.12341029871291327 -0.10536626088821238 1.2035304442126868 0 0 0 0.29 4 451 17 530 27 412 50 654 65 211 114 213 118 721 128 423 146 266 152 515 158 322 164 821 190 493 148 909 160 309 213 594 232 691 142 472 220 558 
3206 -0.2614267049641047 0.009555670623879974 1.246107283792511 0 0 0 0.23 4 452 96 371 114 214 176 507 209 202 
3207 -0.23225591996993308 -0.08174030279600364 1.2438428505419312 0 0 0 0.37 4 453 27 413 43 220 71 420 73 327 103 254 111 486 114 215 25 292 209 203 217 457 1 269 56 424 67 232 65 212 190 494 
3208 -0.13325195692196007 -0.06122026045393658 1.1968928932657228 0 0 0 0.34 4 454 111 487 114 216 158 323 213 595 50 655 61 599 157 403 209 204 227 374 
3209 0.33979407160843034 -0.026658291062435283 1.0391319371436414 0 0 0 0.18 4 455 15 280 50 656 92 263 114 217 128 424 147 399 158 324 165 211 172 531 44 455 160 310 
3210 -0.14742364038539243 -0.01160819546593273 1.200415936778993 0 0 0 0.38 4 456 114 218 118 722 190 495 199 263 
3211 -0.2395206784107783 0.035341534714079664 1.2317808601883813 0 0 0 0.32 4 457 17 531 43 221 114 219 199 264 
3212 -0.1604271466607403 -0.1413219631551277 1.2639700040273003 0 0 0 1.04 4 458 73 328 114 220 164 822 198 313 
3213 0.42354444328706853 -0.10537824640373811 1.0577903221317644 0 0 0 0.34 15 281 67 233 71 421 73 329 92 264 111 488 114 221 128 425 172 532 77 511 165 212 40 258 85 262 105 78 
3214 0.44818436636069536 -0.06359186030358616 1.0562384263885392 0 0 0 0.31 15 282 17 532 44 456 53 412 65 213 67 234 71 422 103 255 111 489 114 222 120 453 129 220 184 130 56 425 105 79 147 400 165 213 217 458 232 692 235 203 89 274 118 723 134 35 
3215 -0.022423358491935347 -0.01035431435443657 1.1418294589982145 0 0 0 0.29 15 283 27 414 41 98 65 214 111 490 114 223 1 270 26 364 56 426 127 235 128 426 217 459 
3216 0.4535362764732778 -0.0372080523817944 1.0508162701466288 0 0 0 0.34 15 284 77 512 111 491 114 224 129 221 147 401 165 214 217 460 235 204 56 427 65 215 67 235 89 275 
3217 0.34028893475466454 -0.11732213217137931 1.0525258015408787 0 0 0 0.44 15 285 27 415 77 513 97 272 114 225 184 131 190 496 197 170 
3218 0.4439230629479242 -0.03615925918141985 1.0499989550937634 0 0 0 0.32 15 286 17 533 65 216 77 514 114 226 129 222 147 402 165 215 184 132 190 497 197 171 232 693 235 205 
3219 0.4142890720261109 -0.06016585317072284 0.9349115717289302 0 0 0 0.29 17 534 53 413 67 236 82 4 111 492 114 227 163 175 182 122 
3220 0.365035700970263 -0.10129050809027877 1.04207269322601 0 0 0 0.22 17 535 65 217 67 237 71 423 111 493 114 228 134 36 
3221 -0.19452738996472882 -0.0432345301791426 1.2259207219957824 0 0 0 0.1 17 536 25 293 96 372 114 229 118 724 
3222 0.41455974591632694 -0.0633006851113116 0.8526687267467934 0 0 0 0.28 17 537 114 230 182 123 
3223 0.4461543532049892 -0.029792704831070653 1.0527793520307154 0 0 0 0.44 17 538 87 8 114 231 
3224 0.4177936114290243 0.013198159995310954 0.8874279704170425 0 0 0 0.48 17 539 114 232 120 454 152 516 
3225 0.4116903341668126 0.039819006643188874 0.9257319077548581 0 0 0 0.38 17 540 67 238 82 5 111 494 114 233 120 455 134 37 147 403 163 176 182 124 190 498 
3226 0.4170707853936011 -0.10817201150691934 0.8511171333087483 0 0 0 0.57 17 541 111 495 114 234 120 456 
3227 0.4162863134049502 -0.06779745957710269 0.8540896392778957 0 0 0 0.37 17 542 67 239 82 6 111 496 114 235 120 457 182 125 
3228 0.4108669218784685 -0.0024682518248914723 0.9110283289536961 0 0 0 0.5 17 543 61 600 82 7 97 273 114 236 118 725 134 38 152 517 182 126 
3229 -0.23577478931041246 0.043065900947599524 1.2272059723209172 0 0 0 0.35 17 544 25 294 114 237 
3230 0.4151394570766096 0.03415159124269585 0.8867971799720927 0 0 0 0.36 17 545 61 601 87 9 114 238 152 518 182 127 
3231 0.41715946129478637 0.03568534701762893 0.897765361539591 0 0 0 0.2 17 546 87 10 114 239 
3232 0.41113726887834817 0.037209282959777254 0.9058687410798132 0 0 0 0.35 17 547 61 602 82 8 87 11 111 497 114 240 118 726 120 458 134 39 147 404 163 177 182 128 
3233 0.4107899621253634 0.03820787014060794 0.9148495051908302 0 0 0 0.29 17 548 82 9 87 12 111 498 114 241 134 40 182 129 
3234 0.410482553241334 0.04110441154529248 0.9329582448118703 0 0 0 0.27 17 549 114 242 182 130 
3235 0.4116236625236537 0.04423633311444124 0.905425600273695 0 0 0 0.34 17 550 61 603 114 243 182 131 
