# 3D point list with one line of data per point:
#   POINT3D_ID, X, Y, Z, R, G, B, ERROR, TRACK[] as (IMAGE_ID, POINT2D_IDX)
# Number of points: 313, mean track length: 6.59
122 0.25596678896348274 0.06751648131588826 0.9904161852313342 0 0 0 0.2 2 122 13 77 92 49 175 17 
123 0.3163676519404564 0.06832200357133461 0.9883091942357989 0 0 0 0.21 2 123 13 78 33 53 
124 0.216770032497351 0.0797044251188573 0.9890171337210664 0 0 0 0.27 2 124 13 79 38 22 93 37 
125 0.10991304032310914 0.08409668540700747 0.9906470903478098 0 0 0 0.26 2 125 4 51 13 80 16 44 28 53 33 54 44 57 175 18 
126 0.026309974535308464 0.0856824582409342 0.9992489306661483 0 0 0 0.28 2 126 3 1 4 52 13 81 16 45 17 7 27 4 28 54 50 45 53 1 61 33 69 0 92 50 96 3 103 0 111 2 118 11 175 19 
127 0.1778617365678478 0.08418518378140248 0.988760810333185 0 0 0 0.41 2 127 12 0 13 82 
128 -0.130016313022785 0.09009063453659656 1.015242246917334 0 0 0 0.31 2 128 9 33 13 83 41 1 44 58 50 46 61 34 135 20 157 31 
129 -0.2061847132041305 0.09294397591293578 1.0249064002177362 0 0 0 0.37 2 129 4 53 13 84 118 12 146 38 158 14 176 36 
130 0.26261315036126737 0.09105539104583797 0.9888467527672143 0 0 0 0.36 2 130 13 85 19 26 33 55 42 26 91 12 109 26 110 11 
131 0.07032100838318316 0.09141500207574553 0.9920282470307911 0 0 0 0.18 2 131 13 86 44 59 50 47 53 2 60 20 61 35 69 1 85 37 92 51 93 38 158 15 164 24 175 20 
132 0.06766186046479471 0.0948105785965946 0.991601893367666 0 0 0 0.25 2 132 13 87 92 52 93 39 136 8 
133 -0.04302715139272213 0.09725646534899936 0.9989864058194649 0 0 0 0.22 2 133 4 54 11 35 16 46 28 55 38 23 
134 0.14448937626624442 0.09731850905636526 0.9864407853514723 0 0 0 0.19 2 134 13 88 17 8 146 39 
135 0.27396749379236746 0.0973022081082582 0.9874368003653062 0 0 0 0.32 2 135 13 89 19 27 44 60 50 48 60 21 93 40 109 27 110 12 135 21 136 9 146 40 164 25 175 21 
136 0.27382281945334375 0.09725333289115669 0.9872654048652953 0 0 0 0.23 2 136 11 36 13 90 28 56 44 61 50 49 61 36 93 41 110 13 146 41 164 26 175 22 
137 0.2771681094466598 0.09705131583454668 0.9843264353869617 0 0 0 0.31 2 137 11 37 13 91 17 9 25 0 28 57 36 7 40 13 42 27 44 62 50 50 53 3 54 1 63 1 77 28 96 4 105 10 110 14 118 13 146 42 158 16 164 27 
138 -0.16835056198975484 0.1002694097355581 1.0144390899154454 0 0 0 0.31 2 138 4 55 11 38 28 58 50 51 61 37 
139 0.27252051888735235 0.101281728864532 0.9895170484225082 0 0 0 0.61 2 139 13 92 44 63 146 43 
140 0.23721961569731992 0.10581919791875517 0.9837935014527454 0 0 0 0.29 2 140 13 93 146 44 
141 0.06800618454577304 0.10679758544751068 0.9894256877833398 0 0 0 0.28 2 141 13 94 33 56 93 42 175 23 
142 0.21020971695770532 0.10750159557328248 0.9843516732225969 0 0 0 0.35 2 142 11 39 13 95 40 14 44 64 109 28 146 45 175 24 
143 0.07032386002221985 0.10839011571237739 0.9891967528724711 0 0 0 0.07 2 143 13 96 33 57 44 65 
144 0.06416345237958256 0.10918370051555207 0.988709699034702 0 0 0 0.41 2 144 13 97 32 17 44 66 60 22 61 38 69 2 146 46 
145 -0.2333338752385703 0.11408305465264809 1.0220868086841002 0 0 0 0.3 2 145 11 40 13 98 146 47 
146 -0.23346974005472437 0.11411132080954048 1.0227678637768334 0 0 0 0.32 2 146 13 99 146 48 157 32 
147 0.0020722015222217026 0.11130612962185768 0.9921458826277466 0 0 0 0.41 2 147 4 56 11 41 13 100 16 47 17 10 25 1 28 59 38 24 44 67 50 52 53 4 61 39 69 3 92 53 96 5 118 14 146 49 158 17 164 28 175 25 
148 0.21904088874965896 0.11068115245973506 0.982461618306756 0 0 0 0.22 2 148 42 28 52 6 
149 0.21932648834514823 0.11070203976607124 0.9825031777881207 0 0 0 0.4 2 149 11 42 13 101 19 28 28 60 33 58 38 25 60 23 77 29 91 13 135 22 146 50 164 29 175 26 
150 0.39575037944532354 0.1138389863118098 0.9874404093436822 0 0 0 0.44 2 150 33 59 42 29 44 68 85 38 
151 -0.031114041544153526 0.11924292209287725 0.9919231482251435 0 0 0 0.28 2 151 4 57 13 102 33 60 50 53 93 43 146 51 176 37 
152 0.17724594953336772 0.11860201181274246 0.9824185321011489 0 0 0 0.24 2 152 13 103 19 29 32 18 33 61 44 69 50 54 60 24 93 44 135 23 146 52 175 27 
153 0.34823500717857964 0.1197102825896202 0.9782656877835203 0 0 0 0.39 2 153 42 30 44 70 85 39 
154 -0.031230546028262546 0.12164128386747843 0.9918654616230003 0 0 0 0.17 2 154 13 104 93 45 146 53 
155 0.17931335090600806 0.12049924223108843 0.9817510814658184 0 0 0 0.23 2 155 13 105 19 30 33 62 44 71 60 25 61 40 93 46 
156 0.10819227963226216 0.12177647225427742 0.9846981888962943 0 0 0 0.34 2 156 4 58 13 106 27 5 28 61 33 63 38 26 50 55 92 54 93 47 109 29 110 15 164 30 175 28 
157 -0.03673441115636175 0.1232464406209041 0.9920239851165812 0 0 0 0.27 2 157 4 59 11 43 13 107 16 48 33 64 41 2 44 72 50 56 60 26 77 30 85 40 92 55 110 16 146 54 164 31 
158 -0.1524445970866259 0.1263418333537514 1.0085483301140719 0 0 0 0.26 2 158 13 108 32 19 33 65 36 8 44 73 50 57 92 56 93 48 157 33 
159 0.38528561374490006 0.1273569374902387 0.9812292714672056 0 0 0 0.28 2 159 4 60 19 31 33 66 40 15 42 31 52 7 85 41 105 11 
160 -0.03484622789891478 0.13012426650609513 0.9906900371092062 0 0 0 0.51 2 160 13 109 41 3 44 74 50 58 93 49 164 32 
161 0.17886709166242232 0.1309826687465292 0.9803951476884696 0 0 0 0.39 2 161 13 110 33 67 
162 0.17677305308873598 0.1324489395739652 0.9803137131582743 0 0 0 0.29 2 162 13 111 33 68 50 59 175 29 
163 -0.03717758565057695 0.13862218067414456 0.9898579109665417 0 0 0 0.25 2 163 13 112 36 9 44 75 60 27 92 57 
164 0.17679190425698432 0.13738076993706475 0.9799972507532144 0 0 0 0.27 2 164 9 34 13 113 50 60 93 50 146 55 175 30 
165 -0.03715130409239213 0.14153638414480643 0.9891530330772068 0 0 0 0.16 2 165 13 114 36 10 44 76 60 28 
166 0.3171879548680521 0.14267198366493858 0.9756173933862468 0 0 0 0.32 2 166 42 32 60 29 77 31 85 42 91 14 
167 0.12197526160301563 0.14827524969478875 0.9837336925398615 0 0 0 0.29 2 167 13 115 77 32 92 58 146 56 164 33 
168 -0.1346621433472864 -0.14250026125322457 1.0557597614835896 0 0 0 0.35 2 168 9 35 13 116 32 20 36 11 43 0 44 77 50 61 53 5 60 30 77 33 89 0 92 59 96 6 110 17 164 34 
169 0.05431263402783361 -0.13767911658129425 1.0295839149528712 0 0 0 0.05 2 169 42 33 52 8 
170 -0.0022038278643359407 -0.13196724322563577 1.0329078646556085 0 0 0 0.28 2 170 4 61 9 36 13 117 15 2 16 49 17 11 19 32 28 62 29 2 32 21 33 69 36 12 38 27 42 34 44 78 50 62 52 9 53 6 54 2 60 31 61 41 69 4 71 1 77 34 85 43 92 60 96 7 109 30 112 30 113 24 118 15 
171 0.18607489928000612 -0.12286724348172146 1.026411277152169 0 0 0 0.2 2 171 33 70 38 28 42 35 52 10 85 44 118 16 
172 0.39011086324060135 -0.12214830378769152 1.0199329268144257 0 0 0 0.29 2 172 28 63 44 79 50 63 
173 0.12970240851673767 -0.11226974340417684 1.0208844837997126 0 0 0 0.42 2 173 16 50 17 12 28 64 36 13 38 29 44 80 113 25 
174 0.020502650084873085 -0.10978429517067247 1.0299996209325135 0 0 0 0.22 2 174 3 2 4 62 11 44 16 51 17 13 19 33 28 65 33 71 38 30 40 16 42 36 44 81 50 64 52 11 61 42 69 5 77 35 85 45 93 51 96 8 111 3 112 31 113 26 118 17 
175 0.12261121199256071 -0.10878813714114369 1.0253089869355474 0 0 0 0.46 2 175 4 63 11 45 16 52 17 14 19 34 38 31 42 37 44 82 50 65 60 32 77 36 85 46 110 18 
176 0.1247377221467964 -0.10314089499169747 1.0242646981416037 0 0 0 0.34 2 176 4 64 9 37 11 46 13 118 16 53 17 15 19 35 25 2 28 66 29 3 33 72 38 32 40 17 42 38 44 83 50 66 52 12 54 3 60 33 61 43 69 6 77 37 85 47 92 61 93 52 110 19 111 4 112 32 113 27 118 18 135 24 175 31 
177 -0.08175005750072895 -0.0991118017981194 1.0330702172182689 0 0 0 0.31 2 177 4 65 11 47 16 54 17 16 28 67 38 33 77 38 85 48 92 62 96 9 109 31 110 20 112 33 113 28 
178 0.15473108011388456 -0.09765526742752133 1.0185425325695474 0 0 0 0.37 2 178 4 66 11 48 16 55 17 17 33 73 42 39 44 84 77 39 85 49 93 53 
179 -0.06098283309163748 -0.09822629757146435 1.0308972962386567 0 0 0 0.41 2 179 11 49 13 119 16 56 19 36 28 68 29 4 38 34 42 40 44 85 85 50 92 63 109 32 113 29 159 4 
180 0.3635093520411871 -0.09582328711121883 1.0138089934277816 0 0 0 0.59 2 180 28 69 44 86 91 15 
181 -0.06470414479987248 -0.09486802452416096 1.0312279322493574 0 0 0 0.39 2 181 4 67 9 38 11 50 16 57 17 18 28 70 33 74 36 14 38 35 50 67 53 7 61 44 77 40 112 34 118 19 
182 -0.020595546340261495 -0.09113892267998669 1.029028114283907 0 0 0 0.36 2 182 4 68 9 39 13 120 16 58 17 19 28 71 33 75 38 36 71 2 85 51 92 64 93 54 109 33 112 35 118 20 172 1 176 38 
183 0.1438715422779384 -0.0891873177236626 1.02091973787774 0 0 0 0.25 2 183 4 69 9 40 11 51 13 121 15 3 16 59 17 20 19 37 25 3 28 72 29 5 32 22 33 76 40 18 42 41 43 1 44 87 50 68 54 4 61 45 63 2 69 7 71 3 77 41 85 52 92 65 93 55 96 10 97 0 109 34 111 5 112 36 118 21 
184 -0.10590732242661022 -0.08999149072533397 1.0408621720231335 0 0 0 0.2 2 184 4 70 9 41 13 122 16 60 28 73 61 46 77 42 109 35 146 57 
185 0.3362506360167768 -0.08616167836624423 1.016022433860933 0 0 0 0.38 2 185 13 123 40 19 50 69 175 32 
186 0.0020249860818338894 -0.08632498807559785 1.0257275918185176 0 0 0 0.24 2 186 4 71 9 42 11 52 16 61 17 21 28 74 29 6 32 23 33 77 36 15 38 37 44 88 50 70 54 5 61 47 77 43 85 53 92 66 93 56 110 21 113 30 
187 0.07194212635575133 -0.08591399409436902 1.0220334716057997 0 0 0 0.36 2 187 9 43 13 124 16 62 32 24 33 78 36 16 40 20 44 89 50 71 135 25 146 58 157 34 
188 0.0786538034658825 -0.0858211070231651 1.0225615973005315 0 0 0 0.31 2 188 4 72 9 44 11 53 13 125 16 63 19 38 32 25 33 79 36 17 38 38 40 21 44 90 50 72 61 48 77 44 85 54 92 67 93 57 109 36 113 31 118 22 128 6 135 26 146 59 148 15 157 35 158 18 164 35 175 33 
189 0.12160378926135541 -0.0859050991680207 1.0206250998560418 0 0 0 0.29 2 189 4 73 9 45 11 54 13 126 16 64 17 22 28 75 33 80 38 39 40 22 41 4 44 91 50 73 52 13 60 34 77 45 85 55 91 16 92 68 93 58 109 37 112 37 113 32 128 7 135 27 146 60 148 16 159 5 164 36 175 34 176 39 
190 0.37265642027313595 -0.08551708807417185 1.017385669444685 0 0 0 0.4 2 190 4 74 19 39 29 7 33 81 42 42 43 2 44 92 50 74 52 14 60 35 63 3 77 46 85 56 91 17 92 69 93 59 105 12 
191 0.19838437453454394 -0.08470403826668359 1.0193197382858388 0 0 0 0.35 2 191 3 3 11 55 12 1 13 127 17 23 28 76 29 8 38 40 42 43 44 93 52 15 54 6 85 57 91 18 92 70 93 60 96 11 109 38 110 22 118 23 128 8 136 10 146 61 157 36 164 37 172 2 175 35 176 40 185 6 
192 0.01051162436937206 -0.08407731240383494 1.0255839330158592 0 0 0 0.26 2 192 9 46 12 2 13 128 32 26 33 82 40 23 44 94 61 49 92 71 93 61 164 38 
193 -0.0795280849191592 -0.0842862792564542 1.0340916968596228 0 0 0 0.25 2 193 13 129 32 27 50 75 77 47 135 28 157 37 176 41 
194 0.1273865098035444 -0.0832615241665986 1.0199789837674218 0 0 0 0.21 2 194 4 75 9 47 11 56 13 130 16 65 19 40 28 77 33 83 36 18 41 5 44 95 50 76 52 16 77 48 85 58 92 72 93 62 109 39 112 38 113 33 135 29 146 62 148 17 157 38 162 2 175 36 176 42 
195 0.12738650980354443 -0.0832615241665986 1.0199789837674218 0 0 0 0.21 2 195 4 76 9 48 11 57 13 131 16 66 19 41 28 78 33 84 36 19 41 6 44 96 50 77 52 17 77 49 85 59 92 73 93 63 109 40 112 39 113 34 135 30 146 63 148 18 157 39 162 3 175 37 176 43 
196 0.1373543321483304 -0.08335222892905492 1.0200727944438799 0 0 0 0.33 2 196 28 79 42 44 50 78 112 40 
197 -0.12446343214698397 -0.08414194384576656 1.0422006853248307 0 0 0 0.25 2 197 4 77 9 49 13 132 17 24 19 42 28 80 32 28 33 85 50 79 53 8 60 36 61 50 92 74 146 64 148 19 157 40 158 19 164 39 
198 -0.12446712222066962 -0.08415169908359794 1.0422890558519464 0 0 0 0.24 2 198 4 78 9 50 13 133 17 25 19 43 28 81 32 29 33 86 50 80 53 9 60 37 61 51 146 65 157 41 158 20 
199 -0.22447822382754076 -0.08516411470022706 1.0594302920341174 0 0 0 0.31 2 199 3 4 4 79 9 51 11 58 13 134 28 82 29 9 32 30 33 87 44 97 50 81 53 10 60 38 61 52 77 50 85 60 92 75 109 41 110 23 113 35 118 24 128 9 146 66 148 20 157 42 158 21 159 6 164 40 176 44 
200 -0.2244604138413846 -0.08514009629499272 1.05938819461553 0 0 0 0.3 2 200 4 80 9 52 11 59 13 135 17 26 28 83 32 31 33 88 44 98 50 82 60 39 61 53 77 51 85 61 92 76 109 42 110 24 111 6 113 36 118 25 128 10 146 67 148 21 157 43 158 22 159 7 164 41 172 3 176 45 
201 -0.13118369070110683 -0.08391558089288498 1.0431569855350398 0 0 0 0.29 2 201 3 5 4 81 11 60 13 136 16 67 17 27 19 44 27 6 32 32 40 24 41 7 44 99 50 83 52 18 60 40 61 54 77 52 85 62 92 77 109 43 110 25 111 7 113 37 118 26 136 11 146 68 157 44 159 8 162 4 164 42 176 46 
202 0.22720299923920803 -0.0818655943619964 1.0185635514075442 0 0 0 0.45 2 202 11 61 13 137 19 45 42 45 44 100 50 84 77 53 92 78 93 64 136 12 159 9 164 43 
203 -0.17187033504055674 -0.08375917182671745 1.0498473486798352 0 0 0 0.24 2 203 4 82 9 53 13 138 17 28 32 33 33 89 38 41 60 41 77 54 92 79 110 26 113 38 128 11 146 69 157 45 158 23 164 44 176 47 
204 -0.16064521430506068 -0.08387576918756096 1.048668381816185 0 0 0 0.25 2 204 3 6 4 83 9 54 11 62 12 3 13 139 16 68 19 46 27 7 29 10 33 90 36 20 38 42 44 101 53 11 60 42 61 55 77 55 92 80 110 27 113 39 118 27 136 13 146 70 148 22 157 46 162 5 176 48 
205 0.23726821449975258 -0.08147705875694054 1.017656146587204 0 0 0 0.28 2 205 19 47 40 25 42 46 44 102 52 19 60 43 61 56 77 56 85 63 
206 0.24946827581931927 -0.08130946340556014 1.0173842313140755 0 0 0 0.27 2 206 13 140 50 85 157 47 
207 0.2889500284845904 -0.08133950042887339 1.0162600425190336 0 0 0 0.35 2 207 4 84 13 141 25 4 29 11 40 26 42 47 44 103 53 12 60 44 61 57 77 57 85 64 91 19 93 65 96 12 112 41 136 14 146 71 157 48 162 6 172 4 176 49 
208 0.3025829097368536 -0.08133726423450902 1.016305148650611 0 0 0 0.2 2 208 19 48 33 91 42 48 85 65 91 20 92 81 111 8 
209 0.3092187709013633 -0.08098525172098264 1.0151669388248874 0 0 0 0.5 2 209 9 55 13 142 44 104 50 86 60 45 61 58 77 58 93 66 
210 0.34257804429110533 -0.08066188163868677 1.0142557952439324 0 0 0 0.32 2 210 3 7 4 85 13 143 33 92 42 49 50 87 60 46 77 59 85 66 92 82 93 67 118 28 146 72 175 38 
211 0.35904584461094974 -0.08071948240927797 1.0144848402359898 0 0 0 0.22 2 211 4 86 19 49 33 93 40 27 42 50 44 105 60 47 85 67 91 21 105 13 
212 -0.20911957913711177 -0.08266581956805166 1.0557691317993965 0 0 0 0.33 2 212 3 8 4 87 11 63 13 144 17 29 28 84 29 12 33 94 53 13 77 60 92 83 110 28 113 40 118 29 128 12 148 23 164 45 172 5 176 50 
213 -0.07720338113010712 -0.07995317202799411 1.0330018934478165 0 0 0 0.29 2 213 4 88 9 56 16 69 17 30 27 8 28 85 44 106 50 88 61 59 77 61 92 84 112 42 118 30 
214 -0.1613523431044879 -0.07974373120173196 1.0486776971951044 0 0 0 0.21 2 214 13 145 19 50 29 13 92 85 
215 0.16062670878571145 -0.07776194156532923 1.0204428215841577 0 0 0 0.46 2 215 29 14 38 43 42 51 60 48 63 4 77 62 85 68 91 22 
216 0.1929421757737564 -0.07755317464953868 1.0188049660465204 0 0 0 0.22 2 216 4 89 11 64 13 146 33 95 36 21 60 49 91 23 92 86 93 68 109 44 148 24 164 46 
217 0.19818283316921398 -0.07749619635786026 1.018793443441891 0 0 0 0.29 2 217 4 90 9 57 11 65 13 147 44 107 50 89 61 60 91 24 92 87 109 45 118 31 135 31 146 73 157 49 158 24 
218 -0.20690933824241323 -0.07889034084251169 1.0573269212985803 0 0 0 0.32 2 218 11 66 13 148 148 25 
219 -0.2688414056742826 -0.05693817586000778 1.0642511813356286 0 0 0 0.47 2 219 13 149 33 96 164 47 
220 0.07124057155187692 -0.05423494264518102 1.0193581787347492 0 0 0 0.21 2 220 17 31 19 51 40 28 42 52 52 20 
221 -0.10645646817549778 -0.04234411456857912 1.0335762601383733 0 0 0 0.4 2 221 3 9 4 91 16 70 28 86 29 15 50 90 61 61 71 4 77 63 
222 0.4399108714300246 -0.041159255499781555 1.0319619746505244 0 0 0 0.34 2 222 4 92 11 67 17 32 19 52 42 53 50 91 60 50 77 64 85 69 105 14 110 29 
223 -0.08222902248254875 -0.024830672020403267 1.0276082033761471 0 0 0 0.25 2 223 3 10 11 68 16 71 25 5 28 87 33 97 38 44 44 108 50 92 53 14 61 62 77 65 92 88 103 1 112 43 
224 -0.0823047553282987 -0.02483622583714961 1.027343434070209 0 0 0 0.3 2 224 3 11 4 93 9 58 11 69 16 72 25 6 28 88 33 98 38 45 44 109 50 93 53 15 61 63 63 5 71 5 77 66 92 89 93 69 96 13 110 30 111 9 112 44 
225 -0.1722016856790563 -0.0235417383793422 1.0423259841569514 0 0 0 0.15 2 225 4 94 11 70 28 89 53 16 61 64 77 67 
226 -0.1686402629052159 -0.021543423696778977 1.0405643739505823 0 0 0 0.21 2 226 4 95 16 73 17 33 27 9 28 90 77 68 118 32 
227 0.06319472860911517 -0.01792388014052932 1.014664904044887 0 0 0 0.28 2 227 4 96 11 71 16 74 17 34 28 91 33 99 38 46 50 94 60 51 69 8 77 69 103 2 112 45 113 41 118 33 
228 -0.135155872667353 -0.017618176021237348 1.035693349060623 0 0 0 0.21 2 228 3 12 4 97 11 72 13 150 16 75 50 95 92 90 128 13 136 15 157 50 176 51 
229 -0.16580185008553855 -0.017103020888304017 1.0401688747920352 0 0 0 0.24 2 229 4 98 11 73 13 151 16 76 28 92 32 34 44 110 50 96 61 65 92 91 113 42 
230 0.32812242101429934 -0.011891003016902742 1.0062327062616143 0 0 0 0.22 2 230 4 99 11 74 17 35 29 16 33 100 40 29 42 54 43 3 52 21 73 0 91 25 111 10 
231 -0.03337470861901858 0.030970955847837885 1.0049782904416376 0 0 0 0.35 2 231 9 59 13 152 44 111 
232 -0.18893176597083675 0.04320541754466575 1.027302970416976 0 0 0 0.31 2 232 4 100 28 93 44 112 
233 -0.10754269352087997 0.04250397717723807 1.012378899491619 0 0 0 0.19 2 233 4 101 11 75 16 77 28 94 33 101 38 47 50 97 61 66 103 3 118 34 
234 -0.1468882365850841 0.04474332032300959 1.0195482948313344 0 0 0 0.31 2 234 4 102 11 76 16 78 17 36 28 95 29 17 33 102 38 48 42 55 50 98 52 22 
235 -0.14426567433283707 0.0465775945195096 1.0211875376604547 0 0 0 0.28 2 235 9 60 28 96 33 103 42 56 52 23 77 70 118 35 
236 -0.14427452544494349 0.046537460751183965 1.0217436212213513 0 0 0 0.35 2 236 4 103 28 97 29 18 33 104 50 99 77 71 111 11 118 36 
237 -0.14706618009913128 0.05363415042044107 1.0189018629880466 0 0 0 0.27 2 237 4 104 17 37 28 98 33 105 44 113 61 67 
238 -0.20537233930470858 0.057810595751301125 1.0312020817298533 0 0 0 0.24 2 238 3 13 13 153 44 114 
239 -0.03271797158480815 0.05845392545415575 1.0007382224009893 0 0 0 0.15 2 239 33 106 42 57 44 115 52 24 92 92 93 70 
240 -0.0282321663065612 0.05836254625113939 1.0025290243098202 0 0 0 0.07 2 240 42 58 44 116 92 93 
241 0.036826783215118175 0.05884653555266802 0.997714469770262 0 0 0 0.19 2 241 4 105 11 77 16 79 17 38 28 99 38 49 44 117 50 100 53 17 61 68 77 72 92 94 93 71 118 37 
242 0.10758299658939123 0.05898480186719663 0.993271954560111 0 0 0 0.24 2 242 13 154 25 7 36 22 93 72 176 52 
243 0.1779637571837579 0.059863077794666354 0.9911753534306947 0 0 0 0.25 2 243 4 106 9 61 11 78 13 155 17 39 28 100 38 50 44 118 50 101 61 69 92 95 93 73 96 14 135 32 146 74 157 51 164 48 175 39 176 53 
244 0.2521597134801088 0.06087991925059376 0.9891312357349162 0 0 0 0.39 2 244 13 156 19 53 33 107 36 23 50 102 93 74 135 33 146 75 
245 0.2523520410877189 0.06087612791602223 0.9894853909838307 0 0 0 0.47 2 245 13 157 17 40 50 103 93 75 109 46 135 34 136 16 146 76 148 26 
246 0.25825563090917936 0.061503596761538826 0.9904677335386899 0 0 0 0.19 2 246 44 119 92 96 93 76 146 77 
247 0.3685603067758414 0.06274104746314756 0.9910071097450494 0 0 0 0.48 2 247 19 54 42 59 77 73 
248 -0.18432079788684724 0.0660709071485701 1.0232026600291988 0 0 0 0.33 2 248 4 107 11 79 17 41 28 101 42 60 93 77 
249 0.3939347866643464 0.06685219972418556 0.9942003761784496 0 0 0 0.25 2 249 4 108 42 61 73 1 
250 0.4110503362622192 0.07422219730457247 1.0014403692462528 0 0 0 0.32 2 250 3 14 42 62 
251 -0.14808020469020597 0.08016867148584453 1.015282172514964 0 0 0 0.23 2 251 4 109 17 42 27 10 28 102 50 104 
252 -0.1537907265001853 0.08330483600260778 1.0165551149419805 0 0 0 0.34 2 252 9 62 13 158 17 43 19 55 44 120 50 105 61 70 85 70 92 97 93 78 118 38 157 52 
253 0.0027361969053762113 0.08681378891987361 0.9965959814830635 0 0 0 0.25 2 253 4 110 9 63 16 80 17 44 28 103 33 108 38 51 44 121 60 52 61 71 77 74 92 98 96 15 111 12 
254 0.067825391682886 0.08879314822836917 0.9927260878077532 0 0 0 0.23 2 254 13 159 36 24 92 99 93 79 162 7 
255 -0.17253910121642949 0.09269006428946569 1.02107000260415 0 0 0 0.39 2 255 4 111 11 80 17 45 28 104 50 106 61 72 77 75 118 39 
256 -0.09122268878915647 0.09323303647724501 1.0093522514776567 0 0 0 0.3 2 256 13 160 43 4 96 16 
257 0.21442943033269107 0.09122076617531712 0.9872414331386026 0 0 0 0.24 2 257 4 112 13 161 25 8 33 109 42 63 43 5 44 122 53 18 61 73 93 80 146 78 172 6 
258 0.055142398518763125 0.09484891637568063 0.9974533327500814 0 0 0 0.38 2 258 3 15 13 162 32 35 44 123 61 74 175 40 
259 0.0703080481558525 0.09555987008147993 0.9911813619813402 0 0 0 0.24 2 259 4 113 11 81 13 163 16 81 17 46 19 56 28 105 33 110 44 124 50 107 52 25 60 53 77 76 85 71 92 100 93 81 118 40 136 17 146 79 158 25 162 8 164 49 175 41 
260 0.07032576920829334 0.09546080742367268 0.9910259321115844 0 0 0 0.29 2 260 17 47 28 106 33 111 38 52 50 108 85 72 118 41 
261 0.07281614904277105 0.09731853996572488 0.9906784559585026 0 0 0 0.23 2 261 4 114 11 82 13 164 16 82 17 48 19 57 27 11 33 112 42 64 44 125 60 54 61 75 77 77 92 101 93 82 96 17 136 18 146 80 164 50 175 42 
262 -0.19295003249640136 0.10194887002329413 1.016676638471737 0 0 0 0.14 2 262 4 115 28 107 50 109 118 42 
263 0.06788227392315692 0.10129002165013194 0.9906514018623653 0 0 0 0.33 2 263 13 165 27 12 36 25 92 102 
264 0.36098228584801145 0.1181979580436876 0.9777600011096168 0 0 0 0.44 2 264 17 49 33 113 42 65 52 26 63 6 77 78 85 73 91 26 105 15 110 31 
265 0.39022376803506503 0.12464982953476458 0.9849519162041929 0 0 0 0.36 2 265 4 116 33 114 42 66 85 74 110 32 
266 0.0705690667044518 0.1259331970769707 0.9855814547250612 0 0 0 0.07 2 266 33 115 42 67 
267 0.3514558685334394 0.12517721867597642 0.9773770318435239 0 0 0 0.36 2 267 4 117 11 83 28 108 42 68 44 126 50 110 61 76 77 79 85 75 91 27 105 16 
268 0.3013594062412244 -0.14704433850164772 1.0261257616494919 0 0 0 0.44 2 268 9 64 13 166 43 6 50 111 53 19 61 77 92 103 158 26 
269 0.10669232305888875 -0.1352834021315657 1.0224883212043385 0 0 0 0.18 2 269 28 109 29 19 
270 0.030865175507108423 -0.13457452550340285 1.030669832695874 0 0 0 0.63 2 270 3 16 4 118 9 65 13 167 16 83 17 50 28 110 29 20 33 116 40 30 42 69 43 7 44 127 50 112 54 7 61 78 69 9 71 6 77 80 85 76 92 104 93 83 96 18 109 47 112 46 113 43 118 43 
271 0.025045950214178003 -0.12925348094279998 1.0327336263135654 0 0 0 0.39 2 271 9 66 13 168 15 4 16 84 17 51 28 111 40 31 42 70 43 8 44 128 53 20 54 8 63 7 77 81 85 77 92 105 93 84 96 19 97 1 109 48 113 44 164 51 176 54 
272 0.09561836063136411 -0.11200508379538802 1.0282037928904229 0 0 0 0.46 2 272 4 119 11 84 15 5 16 85 17 52 19 58 28 112 44 129 50 113 61 79 69 10 77 82 85 78 93 85 96 20 97 2 111 13 112 47 
273 0.03363079615782009 -0.09517796754971643 1.0271529678122342 0 0 0 0.29 2 273 40 32 42 71 
274 0.03330067768704117 -0.0951598376403135 1.0270150084713117 0 0 0 0.34 2 274 4 120 9 67 15 6 16 86 17 53 19 59 26 0 29 21 33 117 38 53 40 33 42 72 44 130 50 114 52 27 53 21 54 9 60 55 61 80 63 8 71 7 77 83 85 79 92 106 96 21 109 49 118 44 
275 0.14635646077068792 -0.0926027010292991 1.0196490687023054 0 0 0 0.3 2 275 4 121 11 85 15 7 16 87 17 54 25 9 28 113 38 54 44 131 50 115 54 10 61 81 71 8 77 84 85 80 97 3 109 50 118 45 
276 -0.10469086884441278 -0.09373328297589069 1.0395506299272428 0 0 0 0.42 2 276 11 86 16 88 28 114 32 36 33 118 38 55 50 116 77 85 
277 0.2816270346349213 -0.09216343633896965 1.0203222411538644 0 0 0 0.36 2 277 40 34 42 73 77 86 
278 -0.06402300317918587 -0.09086779006590563 1.030838557238868 0 0 0 0.31 2 278 3 17 4 122 9 68 16 89 17 55 19 60 25 10 26 1 28 115 29 22 33 119 38 56 40 35 42 74 44 132 52 28 63 9 71 9 77 87 85 81 93 86 109 51 118 46 
279 -0.20809039928343565 -0.09262342837726852 1.0563667180424707 0 0 0 0.27 2 279 28 116 32 37 33 120 50 117 77 88 118 47 
280 -0.09615560230974644 -0.09031536609159593 1.0392316072917203 0 0 0 0.26 2 280 3 18 4 123 9 69 11 87 13 169 16 90 17 56 19 61 28 117 29 23 32 38 33 121 38 57 40 36 42 75 44 133 50 118 53 22 60 56 61 82 71 10 77 89 85 82 92 107 93 87 97 4 109 52 110 33 111 14 112 48 118 48 135 35 164 52 
281 0.21593167022949156 -0.08817398575130299 1.020275092233756 0 0 0 0.29 2 281 3 19 4 124 9 70 11 88 12 4 13 170 15 8 17 57 19 62 26 2 28 118 33 122 38 58 40 37 42 76 44 134 50 119 53 23 60 57 63 10 71 11 73 2 77 90 85 83 91 28 92 108 93 88 96 22 105 17 109 53 111 15 112 49 118 49 135 36 146 81 148 27 158 27 164 53 175 43 176 55 185 7 
282 0.22123863882343342 -0.08853611605796627 1.020687941834666 0 0 0 0.35 2 282 4 125 9 71 12 5 13 171 15 9 17 58 19 63 26 3 28 119 33 123 38 59 40 38 42 77 43 9 44 135 50 120 52 29 53 24 60 58 63 11 71 12 73 3 77 91 85 84 91 29 92 109 93 89 96 23 109 54 111 16 118 50 135 37 146 82 157 53 159 10 162 9 164 54 185 8 
283 0.22851576284406516 -0.08814691975577787 1.0191637987797244 0 0 0 0.34 2 283 3 20 9 72 11 89 13 172 15 10 17 59 19 64 25 11 26 4 28 120 29 24 33 124 42 78 43 10 44 136 50 121 53 25 54 11 61 83 63 12 69 11 71 13 73 4 77 92 85 85 91 30 92 110 93 90 96 24 97 5 105 18 109 55 111 17 118 51 146 83 152 0 158 28 159 11 176 56 185 9 
284 0.1556116649433283 -0.028188879520928578 1.0121407997914431 0 0 0 0.26 2 284 4 126 11 90 28 121 50 122 53 26 61 84 69 12 77 93 118 52 
285 0.1262487942391275 -0.02414809870258197 1.0118792452765641 0 0 0 0.25 2 285 19 65 42 79 44 137 77 94 85 86 109 56 
286 0.1359258341816507 -0.01762644619512053 1.0101322092679967 0 0 0 0.25 2 286 4 127 11 91 15 11 16 91 17 60 28 122 33 125 50 123 52 30 53 27 60 59 63 13 69 13 77 95 85 87 91 31 112 50 118 53 
287 -0.0347079383408592 -0.015835840713451354 1.0173181602959154 0 0 0 0.21 2 287 9 73 42 80 60 60 71 14 
288 0.3917807281524878 -0.005856762631433164 1.0063600641057644 0 0 0 0.31 2 288 3 21 19 66 33 126 40 39 42 81 44 138 60 61 71 15 73 5 77 96 85 88 91 32 105 19 111 18 
289 0.0012247087667537424 0.03941536634360649 1.0026248804455615 0 0 0 0.14 2 289 16 92 17 61 28 123 61 85 
290 0.274706151209836 0.061839538604440386 0.9918048692359369 0 0 0 0.22 2 290 3 22 13 173 38 60 44 139 50 124 146 84 
291 -0.13381720333393463 0.09006153710402143 1.0167628404260014 0 0 0 0.37 2 291 9 74 13 174 44 140 111 19 135 38 
292 -0.1765531078706362 0.09941933171001446 1.016081414510082 0 0 0 0.54 2 292 3 23 4 128 27 13 28 124 43 11 50 125 53 28 61 86 77 97 92 111 96 25 
293 0.023008728115058937 0.0976811583914546 1.0009524579747289 0 0 0 0.35 2 293 4 129 13 175 15 12 43 12 53 29 92 112 96 26 152 1 158 29 175 44 
294 0.05762874151299657 0.09767750023614916 0.9958305044562485 0 0 0 0.19 2 294 13 176 44 141 50 126 111 20 152 2 158 30 
295 0.09504207641410177 0.09856408811979514 0.991931516184406 0 0 0 0.45 2 295 3 24 4 130 11 92 12 6 13 177 16 93 28 125 32 39 33 127 44 142 50 127 61 87 92 113 96 27 110 34 113 45 118 54 146 85 
296 -0.21921903687657648 0.10306110953982171 1.0223021073790124 0 0 0 0.4 2 296 33 128 42 82 
297 -0.2192249545919329 0.10295489350053112 1.0224044405384878 0 0 0 0.45 2 297 33 129 42 83 52 31 
298 -0.1548143945902659 0.10200656764647255 1.011204875261716 0 0 0 0.29 2 298 4 131 11 93 17 62 27 14 28 126 53 30 97 6 111 21 118 55 
299 0.4005947764989252 0.10406574259539025 0.992152250940461 0 0 0 0.5 2 299 19 67 33 130 42 84 60 62 63 14 77 98 110 35 111 22 
300 -0.0639809697457019 0.10892990338393105 0.9929812372055848 0 0 0 0.43 2 300 33 131 42 85 52 32 
301 0.41970208952564475 0.11295247310970441 0.9985513159617785 0 0 0 0.53 2 301 42 86 43 13 54 12 71 16 73 6 77 99 105 20 110 36 118 56 
302 0.061910932561994474 0.11172125381260857 0.9856565184098685 0 0 0 0.32 2 302 13 178 16 94 44 143 50 128 61 88 69 14 118 57 146 86 152 3 
303 0.18692198563715956 0.11253688748878778 0.9830365713206981 0 0 0 0.49 2 303 4 132 13 179 146 87 
304 0.0020658324622877693 0.11493758777081063 0.9902860374757665 0 0 0 0.4 2 304 4 133 11 94 13 180 15 13 16 95 17 63 25 12 27 15 28 127 44 144 50 129 53 31 60 63 61 89 69 15 77 100 89 1 92 114 96 28 110 37 111 23 118 58 146 88 152 4 158 31 164 55 175 45 
305 0.10334311155027663 0.11463988831455285 0.9859841107828434 0 0 0 0.34 2 305 4 134 12 7 17 64 25 13 53 32 61 90 77 101 85 89 92 115 135 39 172 7 
306 0.4139937465098196 0.11663530374970574 0.9968786848776895 0 0 0 0.4 2 306 3 25 19 68 42 87 50 130 53 33 60 64 77 102 85 90 110 38 111 24 
307 -0.10783078568233984 0.12508365758777548 1.000332777566611 0 0 0 0.26 2 307 13 181 44 145 50 131 118 59 158 32 
308 0.1824348186954135 0.14070203895786398 0.9785646032310075 0 0 0 0.34 2 308 4 135 13 182 43 14 50 132 93 91 
309 -0.34536953148045335 -0.20004953796416164 0.8833327131080844 0 0 0 0.49 2 309 3 26 17 65 42 88 53 34 
310 -0.34536953148045335 -0.20004953796416164 0.8833327131080844 0 0 0 0.49 2 310 3 27 17 66 42 89 53 35 
311 0.10025350936705138 -0.11963848633120816 1.0275949747517452 0 0 0 0.44 2 311 3 28 4 136 11 95 16 96 17 67 25 14 28 128 29 25 33 132 38 61 50 133 53 36 63 15 77 103 85 91 96 29 97 7 109 57 110 39 111 25 113 46 118 60 
312 0.05575252046229014 -0.11519801099997987 1.0290408694579782 0 0 0 0.33 2 312 4 137 9 75 16 97 28 129 44 146 69 16 112 51 
313 -0.07014631493076734 -0.09440999781894804 1.0327560887327 0 0 0 0.46 2 313 3 29 9 76 13 183 16 98 25 15 28 130 40 40 42 90 43 15 44 147 50 134 53 37 61 91 92 116 93 92 96 30 109 58 112 52 
314 0.27290001618385074 -0.08789322231446338 1.018081493474794 0 0 0 0.31 2 314 4 138 11 96 15 14 33 133 38 62 42 91 61 92 
315 0.2633404401995873 -0.08794440285631652 1.0187863734860876 0 0 0 0.49 2 315 3 30 4 139 9 77 11 97 13 184 17 68 19 69 29 26 33 134 42 92 43 16 44 148 52 33 60 65 61 93 73 7 85 92 92 117 96 31 105 21 118 61 128 14 158 33 
316 0.2850132221109246 -0.08787759148524862 1.0183038881492747 0 0 0 0.41 2 316 3 31 13 185 19 70 28 131 29 27 33 135 38 63 40 41 42 93 43 17 44 149 52 34 60 66 61 94 69 17 73 8 91 33 92 118 93 93 96 32 111 26 112 53 136 19 146 89 152 5 158 34 162 10 164 56 172 8 176 57 
317 0.29625834232953946 -0.08775746996099103 1.0179505615259719 0 0 0 0.3 2 317 3 32 4 140 9 78 13 186 17 69 19 71 28 132 33 136 42 94 43 18 44 150 50 135 60 67 61 95 71 17 77 104 85 93 91 34 92 119 93 94 96 33 146 90 152 6 158 35 164 57 175 46 176 58 
318 0.3782420221081746 -0.03060959378313822 1.009228317685681 0 0 0 0.31 2 318 29 28 42 95 43 19 50 136 60 68 61 96 63 16 77 105 91 35 
319 0.3443807638999142 -0.02322161804634562 1.007841846817679 0 0 0 0.17 2 319 4 141 11 98 42 96 43 20 44 151 77 106 111 27 
320 -0.03447198182667499 -0.019919757461344324 1.017752101809336 0 0 0 0.34 2 320 16 99 28 133 38 64 43 21 50 137 60 69 71 18 77 107 92 120 96 34 112 54 118 62 
321 -0.02671870960638444 -0.020313496071250527 1.0185545505981215 0 0 0 0.22 2 321 3 33 4 142 11 99 16 100 28 134 50 138 61 97 71 19 118 63 
322 0.38943449558589943 -0.0008416371651629506 1.0024518842118653 0 0 0 0.34 2 322 3 34 4 143 33 137 42 97 43 22 63 17 92 121 111 28 118 64 
323 0.3893600138986971 -0.0008643655921685701 1.002264539701889 0 0 0 0.29 2 323 3 35 4 144 11 100 17 70 33 138 40 42 42 98 60 70 61 98 77 108 91 36 92 122 111 29 118 65 
324 0.148938001929442 0.03987307024531623 0.9950867785508343 0 0 0 0.48 2 324 13 187 15 15 44 152 53 38 128 15 135 40 
325 0.21439216847300444 0.06759063209046662 0.9913517604325843 0 0 0 0.45 2 325 4 145 11 101 12 8 13 188 15 16 17 71 33 139 43 23 50 139 69 18 77 109 89 2 92 123 93 95 96 35 146 91 157 54 158 36 162 11 164 58 175 47 
326 -0.2048454875202266 0.08566287944408998 1.0250463167886443 0 0 0 0.87 2 326 13 189 17 72 25 16 77 110 158 37 
327 -0.1675976073470431 0.09701554672943336 1.0144074475378646 0 0 0 0.3 2 327 11 102 27 16 28 135 50 140 61 99 
328 0.24345132413980744 0.09595105705987278 0.9851933921015711 0 0 0 0.23 2 328 4 146 13 190 17 73 25 17 43 24 44 153 50 141 61 100 77 111 93 96 118 66 146 92 
329 -0.1800940280409508 0.10425058799716343 1.0166804433080103 0 0 0 0.39 2 329 3 36 4 147 11 103 17 74 25 18 27 17 28 136 50 142 61 101 118 67 
330 -0.004201913746937152 0.10171983602691743 0.9939295855353175 0 0 0 0.31 2 330 13 191 33 140 44 154 50 143 
331 0.2609494509874482 0.10186499094768921 0.9837199298293734 0 0 0 0.39 2 331 3 37 13 192 17 75 32 40 36 26 43 25 44 155 53 39 60 71 61 102 77 112 89 3 93 97 96 36 135 41 146 93 158 38 
332 0.2612534631133817 0.10179433060295134 0.9840182912628874 0 0 0 0.41 2 332 4 148 11 104 13 193 44 156 50 144 53 40 61 103 93 98 96 37 118 68 146 94 162 12 175 48 
333 0.388032960714612 0.11824571958083424 0.9839013827345625 0 0 0 0.3 2 333 4 149 19 72 33 141 42 99 43 26 60 72 71 20 77 113 85 94 105 22 110 40 111 30 
334 0.08321916912785378 -0.12627213490273279 1.0299071907551058 0 0 0 0.5 2 334 3 38 26 5 29 29 33 142 38 65 42 100 44 157 52 35 60 73 63 18 77 114 85 95 93 99 111 31 
335 0.02814490997405188 -0.1234947780308338 1.0325566949739466 0 0 0 0.36 2 335 4 150 11 105 16 101 17 76 28 137 33 143 50 145 65 0 69 19 97 8 
336 -0.03473916886491103 -0.10461857577451378 1.032352536856221 0 0 0 0.45 2 336 4 151 19 73 26 6 38 66 42 101 63 19 71 21 77 115 85 96 93 100 118 69 
337 -0.056194116111556246 -0.09590312179714795 1.0314947937711618 0 0 0 0.43 2 337 3 39 4 152 9 79 16 102 17 77 25 19 27 18 28 138 38 67 40 43 42 102 44 158 52 36 53 41 60 74 63 20 71 22 77 116 85 97 92 124 93 101 109 59 111 32 112 55 113 47 118 70 
338 0.1118175012207036 0.08172979502910276 0.9912415194977479 0 0 0 0.26 2 338 13 194 16 103 17 78 50 146 175 49 
339 0.06518712641252862 0.09679898738004956 0.9910922711714043 0 0 0 0.52 2 339 4 153 13 195 15 17 16 104 19 74 25 20 28 139 33 144 43 27 44 159 50 147 53 42 61 104 69 20 85 98 92 125 96 38 111 33 118 71 152 7 158 39 162 13 175 50 
340 0.32132913423399256 0.10740008944022343 0.9812174550807158 0 0 0 0.39 2 340 3 40 13 196 17 79 19 75 33 145 43 28 44 160 52 37 53 43 61 105 71 23 93 102 110 41 111 34 146 95 158 40 172 9 
341 0.18231828574436051 0.11425740844081504 0.9844233453070697 0 0 0 0.43 2 341 13 197 50 148 111 35 162 14 
342 0.18748592976584152 0.14019401926609995 0.9783346737835654 0 0 0 0.41 2 342 4 154 13 198 50 149 92 126 
343 -0.02993835979002037 -0.11408739738462699 1.0330908107539158 0 0 0 0.38 2 343 3 41 4 155 11 106 13 199 16 105 17 80 19 76 28 140 29 30 33 146 38 68 43 29 44 161 50 150 52 38 53 44 61 106 71 24 77 117 93 103 96 39 97 9 111 36 112 56 113 48 118 72 135 42 172 10 176 59 
344 0.4220442983772548 -0.005685783397382784 1.0210478262571976 0 0 0 0.45 2 344 3 42 42 103 71 25 
345 0.42140643706862063 0.00923143913042827 1.0174814620265842 0 0 0 0.23 2 345 4 156 11 107 42 104 54 13 63 21 91 37 
346 0.17861095560177567 0.052403838398795824 0.988255314176947 0 0 0 0.18 2 346 12 9 13 200 44 162 53 45 61 107 89 4 92 127 152 8 
347 0.1784725939422528 0.05244103109559159 0.9879046333015787 0 0 0 0.15 2 347 13 201 44 163 89 5 92 128 
348 0.23879319471873695 0.10000159451009302 0.9853502383291478 0 0 0 0.52 2 348 13 202 25 21 38 69 50 151 61 108 77 118 89 6 93 104 135 43 158 41 
349 0.18202407594822193 0.12510074328307433 0.981797218211281 0 0 0 0.22 2 349 13 203 69 21 158 42 
350 0.3727592926757445 -0.07899847373548162 1.0142851248105182 0 0 0 0.35 2 350 4 157 11 108 15 18 17 81 19 77 29 31 42 105 44 164 50 152 52 39 54 14 60 75 63 22 71 26 77 119 85 99 92 129 93 105 111 37 118 73 
351 -0.05896285931079481 -0.0878556523668098 1.032287016072527 0 0 0 0.99 2 351 4 158 13 204 16 106 17 82 19 78 29 32 33 147 36 27 40 44 42 106 43 30 44 165 52 40 61 109 85 100 97 10 109 60 118 74 146 96 159 12 
352 -0.10532030142166907 -0.05247030149591511 1.0342008139925294 0 0 0 0.37 2 352 13 205 29 33 33 148 38 70 71 27 113 49 148 28 176 60 
353 0.14311906783988598 0.07331767821300239 0.9907141714602778 0 0 0 0.23 2 353 4 159 11 109 13 206 17 83 38 71 52 41 53 46 61 110 146 97 172 11 
354 0.17916511836485646 0.07261907372739858 0.9912666765662215 0 0 0 0.31 2 354 4 160 11 110 13 207 17 84 25 22 38 72 40 45 43 31 44 166 53 47 77 120 89 7 91 38 96 40 109 61 135 44 146 98 148 29 
355 0.17926684339857765 0.07252374031640914 0.9912466118168751 0 0 0 0.3 2 355 4 161 13 208 38 73 53 48 89 8 
356 0.2829565887824293 0.07568797400028658 0.9883195057783521 0 0 0 0.38 2 356 3 43 4 162 11 111 13 209 17 85 19 79 25 23 40 46 42 107 44 167 50 153 53 49 60 76 61 111 77 121 85 101 89 9 91 39 93 106 111 38 118 75 146 99 148 30 158 43 164 59 
357 0.3670105974357567 0.10974844163934812 0.9823718586127803 0 0 0 0.36 2 357 3 44 4 163 17 86 19 80 42 108 43 32 53 50 54 15 63 23 71 28 73 9 77 122 111 39 
358 0.367016012183343 0.10976242844781002 0.9824898900128632 0 0 0 0.4 2 358 3 45 4 164 19 81 42 109 54 16 63 24 71 29 73 10 77 123 111 40 
359 0.026857864354575836 -0.12405263682992126 1.0305755589728343 0 0 0 0.42 2 359 4 165 16 107 17 87 28 141 29 34 38 74 44 168 50 154 61 112 63 25 85 102 118 76 
360 0.2167873344325866 -0.0797861655824279 1.0154540157199914 0 0 0 0.33 2 360 11 112 42 110 53 51 
361 0.2663977779592036 0.07400391993578487 0.9892940769920362 0 0 0 0.42 2 361 4 166 13 210 15 19 25 24 32 41 33 149 40 47 44 169 50 155 53 52 61 113 69 22 71 30 89 10 93 107 97 11 111 41 128 16 148 31 158 44 164 60 
362 0.1945717411217737 0.11989956575640005 0.9831927522046929 0 0 0 0.45 2 362 4 167 13 211 17 88 25 25 42 111 50 156 60 77 77 124 146 100 
363 0.163114780563249 -0.06507578408919587 1.0181241963847194 0 0 0 0.75 2 363 4 168 16 108 19 82 25 26 26 7 28 142 40 48 42 112 50 157 60 78 73 11 77 125 109 62 111 42 118 77 
364 0.17901613668730945 0.09189554716744953 0.9855722682045218 0 0 0 0.82 2 364 13 212 32 42 33 150 60 79 158 45 
365 -0.3417871547939584 -0.20247920384374962 0.8857237703579205 0 0 0 0.51 3 46 17 89 42 113 53 53 96 41 
366 0.20803308785235863 -0.15069703101831752 1.0294356774127689 0 0 0 0.41 3 47 13 213 61 114 69 23 
367 0.0875605353341223 -0.11015024241374001 1.0272848429896748 0 0 0 0.26 3 48 16 109 25 27 28 143 29 35 61 115 63 26 85 103 93 108 112 57 
368 0.075212350474199 -0.0891755094692553 1.0238130951393831 0 0 0 0.49 3 49 4 169 9 80 12 10 13 214 17 90 19 83 25 28 28 144 29 36 33 151 40 49 42 114 43 33 44 170 53 54 60 80 61 116 63 27 77 126 85 104 96 42 109 63 111 43 113 50 118 78 135 45 148 32 152 9 159 13 162 15 164 61 176 61 185 10 
369 0.18390249474318432 -0.0884449169476358 1.0209038089168558 0 0 0 0.3 3 50 4 170 9 81 11 113 13 215 15 20 28 145 32 43 38 75 40 50 43 34 44 171 53 55 77 127 85 105 91 40 92 130 93 109 110 42 112 58 135 46 148 33 152 10 164 62 
370 0.07860584871975149 -0.08579226994648428 1.0224398014508038 0 0 0 0.33 3 51 4 171 9 82 11 114 12 11 13 216 15 21 16 110 17 91 19 84 25 29 28 146 29 37 32 44 33 152 36 28 38 76 40 51 42 115 44 172 50 158 61 117 77 128 85 106 92 131 93 110 109 64 112 59 113 51 118 79 128 17 146 101 148 34 152 11 157 55 158 46 159 14 175 51 176 62 185 11 
371 -0.09854396240897804 -0.08445105886820234 1.0370626341050384 0 0 0 0.28 3 52 4 172 28 147 77 129 
372 -0.09853760741316021 -0.0844540081542163 1.0370921819672319 0 0 0 0.23 3 53 4 173 28 148 44 173 77 130 
373 0.1825157787531897 -0.08511460017981815 1.0210662053992303 0 0 0 0.58 3 54 4 174 11 115 13 217 29 38 40 52 42 116 61 118 63 28 91 41 92 132 118 80 136 20 162 16 172 12 185 12 
374 0.20251418164672616 -0.08470219281740317 1.019000515237549 0 0 0 0.44 3 55 13 218 17 92 29 39 32 45 38 77 42 117 43 35 52 42 54 17 77 131 85 107 91 42 92 133 96 43 146 102 175 52 176 63 
375 0.24772233424776532 -0.0841231332188204 1.0172504789991594 0 0 0 0.3 3 56 11 116 12 12 28 149 29 40 40 53 42 118 43 36 50 159 53 56 61 119 63 29 77 132 91 43 112 60 118 81 
376 0.29318966328128276 -0.08380487066185618 1.0163849871757962 0 0 0 0.38 3 57 4 175 13 219 19 85 33 153 38 78 42 119 44 174 50 160 60 81 61 120 85 108 91 44 92 134 96 44 111 44 112 61 146 103 157 56 158 47 164 63 175 53 
377 0.299533464873544 -0.08370404821202322 1.015835564519004 0 0 0 0.34 3 58 4 176 13 220 17 93 19 86 42 120 60 82 61 121 77 133 85 109 91 45 92 135 93 111 146 104 162 17 176 64 
378 0.319736595478323 -0.08367049513765233 1.0154194328984403 0 0 0 0.45 3 59 4 177 11 117 13 221 17 94 19 87 33 154 42 121 44 175 52 43 60 83 61 122 77 134 85 110 92 136 93 112 146 105 162 18 176 65 
379 -0.21502054797534317 -0.0828533259337068 1.0575940554752508 0 0 0 0.29 3 60 4 178 9 83 11 118 13 222 28 150 29 41 32 46 33 155 36 29 41 8 44 176 53 57 60 84 61 123 77 135 92 137 93 113 97 12 109 65 110 43 113 52 146 106 148 35 157 57 159 15 162 19 164 64 
380 -0.20910150419311446 -0.08265150231863375 1.0558173338222292 0 0 0 0.34 3 61 4 179 11 119 13 223 28 151 29 42 33 156 77 136 110 44 113 53 118 82 128 18 146 107 148 36 157 58 164 65 172 13 176 66 
381 0.1373598938731645 -0.08328915132989279 1.0199543162021873 0 0 0 0.35 3 62 4 180 9 84 11 120 13 224 16 111 17 95 19 88 28 152 29 43 40 54 42 122 53 58 61 124 69 24 71 31 77 137 85 111 92 138 96 45 112 62 128 19 135 47 152 12 158 48 162 20 164 66 172 14 176 67 
382 -0.016644060749760676 -0.08030598435589867 1.0266332879989029 0 0 0 0.23 3 63 11 121 15 22 28 153 54 18 85 112 113 54 118 83 
383 -0.08961767321747802 -0.024665120796963938 1.028985696657348 0 0 0 0.23 3 64 16 112 17 96 28 154 50 161 53 59 61 125 110 45 111 45 112 63 118 84 
384 0.12630794056289021 -0.02415851893884907 1.011531912703071 0 0 0 0.28 3 65 16 113 17 97 28 155 32 47 38 79 43 37 50 162 60 85 61 126 
385 -0.08065149976096421 -0.021591943910609677 1.0260158588846058 0 0 0 0.27 3 66 4 181 16 114 28 156 32 48 44 177 50 163 53 60 61 127 71 32 92 139 103 4 111 46 112 64 
386 -0.09171594548525895 -0.021299654554840338 1.027448853916263 0 0 0 0.21 3 67 4 182 11 122 16 115 28 157 44 178 50 164 53 61 61 128 77 138 118 85 
387 -0.03433731513452521 -0.015981148619093655 1.018014934967339 0 0 0 0.2 3 68 28 158 50 165 61 129 103 5 112 65 
388 -0.025982792861150197 -0.014351615115428117 1.0185770214026504 0 0 0 0.23 3 69 4 183 17 98 28 159 32 49 50 166 61 130 118 86 
389 0.3887044436509486 0.010863614580250668 1.000359442697317 0 0 0 0.3 3 70 4 184 11 123 19 89 33 157 42 123 43 38 60 86 77 139 111 47 
390 0.24292030024554706 0.0149541883859502 1.0069345681418944 0 0 0 0.23 3 71 28 160 69 25 
391 0.062211684711984815 0.021775013058856117 1.0086092060181395 0 0 0 0.16 3 72 13 225 172 15 
392 -0.03727108540289083 0.03714952545886582 1.0074985514306116 0 0 0 0.19 3 73 28 161 50 167 61 131 
393 -0.1308912875987715 0.043025837852642274 1.0217982307199678 0 0 0 0.29 3 74 4 185 9 85 11 124 12 13 13 226 16 116 17 99 27 19 32 50 36 30 38 80 44 179 50 168 61 132 77 140 89 11 118 87 128 20 135 48 146 108 157 59 158 49 164 67 176 68 
394 -0.1412763905116334 0.04663790225232217 1.0225805634931706 0 0 0 0.31 3 75 13 227 61 133 92 140 96 46 118 88 157 60 176 69 
395 0.35165215142180006 0.06167686800179324 0.9860960438170122 0 0 0 0.19 3 76 4 186 11 125 17 100 42 124 71 33 77 141 85 113 91 46 118 89 
396 0.09818619570935054 0.06534023737211264 0.997745714706963 0 0 0 0.13 3 77 13 228 17 101 50 169 
397 0.42180832789535144 0.06922049352231888 1.0051305378482627 0 0 0 0.26 3 78 42 125 54 19 71 34 85 114 110 46 
398 0.2932822766985796 0.08880242790366082 0.9867172525684823 0 0 0 0.24 3 79 11 126 13 229 50 170 146 109 158 50 175 54 
399 -0.17986353475524336 0.09671942098435643 1.0164441342231338 0 0 0 0.27 3 80 4 187 11 127 28 162 50 171 53 62 103 6 118 90 
400 -0.12038552935405279 0.09793309634734487 1.0100356955572853 0 0 0 0.3 3 81 17 102 25 30 28 163 118 91 
401 -0.11838013501115703 0.10063965181093483 1.007551996838297 0 0 0 0.29 3 82 4 188 17 103 28 164 38 81 53 63 97 13 110 47 113 55 118 92 
402 -0.1651320325364786 0.10078472941888268 1.0142274268586202 0 0 0 0.3 3 83 28 165 61 134 96 47 
403 0.1358557068474394 0.1027222954408218 0.9857150525947276 0 0 0 0.32 3 84 11 128 12 14 13 230 17 104 25 31 32 51 44 180 92 141 96 48 146 110 172 16 175 55 
404 0.03217254233174417 0.11572940133094271 0.9888343131341035 0 0 0 0.41 3 85 13 231 16 117 17 105 28 166 50 172 53 64 61 135 69 26 118 93 152 13 158 51 175 56 
405 0.37059015406657825 0.12100460453676737 0.9784277357572753 0 0 0 0.7 3 86 4 189 42 126 43 39 
406 0.2828775612159872 0.12572270742667582 0.9794240382017214 0 0 0 0.42 3 87 28 167 71 35 
407 0.3087632722005234 -0.16377551245232233 1.0305150447573745 0 0 0 0.28 3 88 40 55 42 127 
408 0.12800225920768343 -0.10633012536490269 1.0243430161837945 0 0 0 0.28 3 89 19 90 42 128 60 87 63 30 85 115 111 48 
409 0.24144732834988916 -0.0883637795951981 1.0198738204016942 0 0 0 0.36 3 90 9 86 11 129 13 232 15 23 17 106 29 44 42 129 43 40 44 181 50 173 53 65 54 20 63 31 69 27 77 142 85 116 92 142 109 66 146 111 
410 0.30542375427792884 -0.08761301518394432 1.0164249340647025 0 0 0 0.09 3 91 15 24 42 130 
411 0.31204636146062814 -0.08789715332435484 1.017457924828231 0 0 0 0.31 2 365 3 92 9 87 13 233 15 25 17 107 28 168 29 45 33 158 42 131 43 41 44 182 50 174 61 136 73 12 77 143 85 117 92 143 93 114 105 23 146 112 164 68 176 70 
412 0.34558604920711594 -0.08712362563229473 1.0154116243844282 0 0 0 0.48 3 93 4 190 42 132 53 66 77 144 85 118 
413 0.2892239807568535 -0.08473760601071303 1.0169269773253664 0 0 0 0.33 3 94 13 234 29 46 43 42 52 44 53 67 60 88 69 28 71 36 111 49 136 21 157 61 162 21 172 17 176 71 
414 0.15106776648652087 -0.07502629375720185 1.0170389128987654 0 0 0 0.29 3 95 4 191 15 26 25 32 26 8 38 82 40 56 42 133 52 45 54 21 71 37 73 13 77 145 91 47 96 49 111 50 
415 -0.05916464798007209 -0.037832203504482756 1.0242537656407833 0 0 0 0.51 3 96 11 130 12 15 13 235 28 169 29 47 38 83 89 12 118 94 
416 -0.002737944182152696 0.038894874611621603 1.0060872758073214 0 0 0 0.46 3 97 28 170 61 137 
417 0.09262392709346849 0.047591314956180464 1.0000029528149879 0 0 0 0.39 3 98 4 192 11 131 13 236 15 27 16 118 17 108 19 91 28 171 38 84 50 175 61 138 69 29 110 48 111 51 112 66 118 95 158 52 172 18 176 72 
418 0.13715017571615523 0.04938985970006573 0.9948629259344486 0 0 0 0.08 3 99 13 237 96 50 
419 -0.09855712066829676 0.0640584882108948 1.0118479911627047 0 0 0 0.2 3 100 13 238 176 73 
420 -0.11492279113800088 0.06716180497402949 1.0127819801378863 0 0 0 0.29 3 101 11 132 28 172 113 56 
421 0.10073669441308569 0.06787551956854587 0.99403280354952 0 0 0 0.33 3 102 4 193 13 239 25 33 26 9 27 20 28 173 42 134 97 14 118 96 176 74 
422 0.2549967094249672 0.0709390828585 0.9900720863144868 0 0 0 0.23 3 103 11 133 13 240 15 28 17 109 33 159 44 183 50 176 77 146 96 51 111 52 164 69 172 19 175 57 
423 0.38662654097854643 0.07262189954721374 0.9892075098862132 0 0 0 0.24 3 104 4 194 42 135 43 43 53 68 60 89 61 139 71 38 73 14 77 147 85 119 
424 -0.18498197325388166 0.07369903242423456 1.020879045362832 0 0 0 0.29 3 105 4 195 11 134 17 110 28 174 71 39 118 97 
425 0.27410448902674633 0.09288769835522667 0.9865382716705282 0 0 0 0.35 3 106 4 196 11 135 13 241 15 29 17 111 25 34 32 52 33 160 42 136 43 44 50 177 53 69 54 22 61 140 63 32 69 30 71 40 73 15 77 148 89 13 91 48 93 115 96 52 111 53 118 98 135 49 146 113 158 53 164 70 172 20 175 58 
426 0.08115249168133075 0.09414402840072163 0.9928488092248896 0 0 0 0.31 3 107 13 242 25 35 43 45 50 178 61 141 146 114 152 14 158 54 172 21 175 59 
427 -0.06373577730166138 0.09476165136831653 0.9959890226600709 0 0 0 0.24 3 108 4 197 11 136 15 30 17 112 25 36 26 10 27 21 28 175 38 85 42 137 43 46 53 70 77 149 96 53 97 15 103 7 118 99 
428 0.089451811921118 0.09774230338806064 0.9930939005928706 0 0 0 0.21 3 109 13 243 69 31 158 55 175 60 
429 0.09705147516257688 0.10227625120484178 0.9930940155790788 0 0 0 0.46 3 110 13 244 44 184 50 179 118 100 146 115 175 61 
430 0.2928011185399863 0.10457584429179195 0.9824612231755324 0 0 0 0.29 3 111 13 245 44 185 61 142 69 32 158 56 172 22 175 62 
431 -0.15017782428218052 0.10322000877326373 1.0119948018207985 0 0 0 0.27 2 366 3 112 4 198 11 137 12 16 13 246 16 119 28 176 33 161 36 31 43 47 44 186 50 180 52 46 53 71 61 143 77 150 92 144 96 54 97 16 110 49 111 54 113 57 118 101 
432 0.2828218381591065 0.10568814380956744 0.9819336611341634 0 0 0 0.27 3 113 19 92 25 37 33 162 40 57 42 138 43 48 52 47 54 23 63 33 71 41 91 49 110 50 
433 0.05104979328213144 -0.13435086475496305 1.0318496734473201 0 0 0 0.55 3 114 9 88 13 247 19 93 26 11 32 53 33 163 40 58 42 139 43 49 44 187 52 48 77 151 85 120 93 116 110 51 135 50 172 23 
434 0.010805404916968303 -0.13097375389477633 1.0320600923687389 0 0 0 0.51 2 367 3 115 4 199 9 89 12 17 13 248 16 120 17 113 19 94 26 12 28 177 29 48 33 164 36 32 38 86 42 140 43 50 44 188 52 49 53 72 54 24 60 90 61 144 63 34 71 42 77 152 85 121 89 14 92 145 97 17 109 67 111 55 112 67 113 58 118 102 146 116 152 15 157 62 159 16 172 24 176 75 185 13 
