# 3D point list with one line of data per point:
#   POINT3D_ID, X, Y, Z, R, G, B, ERROR, TRACK[] as (IMAGE_ID, POINT2D_IDX)
# Number of points: 268, mean track length: 10.81
8116 0.15251013180700917 0.3030506693607857 0.9693245112847615 0 0 0 0.66 77 2504 159 1344 164 2502 196 1508 
8117 0.5263262839159559 0.2532091720780186 0.9392824443964728 0 0 0 0.24 77 2505 146 2179 176 1787 
8118 0.36286075637674226 0.2828609601240379 0.9752398710626521 0 0 0 0.33 60 1913 77 2506 176 1788 185 924 213 2585 231 719 85 1727 148 2101 159 1345 214 1430 127 1225 136 1318 196 1509 9 960 33 1812 44 2586 4 2346 11 2377 109 909 52 1022 93 904 
8119 0.6445132490218446 0.2342695161222562 0.9056831276902537 0 0 0 0.13 77 2507 91 1993 213 2586 165 1808 235 1820 2 2085 4 2347 11 2378 
8120 0.20151221199253788 0.32011536618121217 1.0437248391828793 0 0 0 0.34 77 2508 118 2336 164 2503 213 2587 2 2086 4 2348 33 1813 50 2202 159 1346 52 1023 229 339 
8121 0.7123767848140856 0.22716011771920547 0.9034115536651709 0 0 0 0.64 77 2509 82 282 92 1995 164 2504 
8122 0.49853511224977315 0.2618475154166852 0.9426527488166538 0 0 0 0.28 77 2510 92 1996 136 1319 146 2180 110 1415 148 2102 213 2588 4 2349 109 910 201 300 
8123 0.5010882112116669 0.26128853341187985 0.941756044426398 0 0 0 0.27 77 2511 91 1994 213 2589 110 1416 146 2181 4 2350 16 1234 33 1814 38 1226 50 2203 157 1528 19 1438 136 1320 194 1077 52 1024 
8124 0.38526869520700197 0.28121074916042005 0.9684397257156224 0 0 0 0.38 77 2512 146 2182 164 2505 148 2103 157 1529 175 702 176 1789 200 1441 213 2590 224 913 2 2087 11 2379 16 1235 19 1439 33 1815 93 905 28 877 98 708 187 598 
8125 0.6529401685219955 0.2348179606087047 0.904260389874943 0 0 0 0.26 77 2513 92 1997 213 2591 164 2506 165 1809 184 1296 
8126 0.35584221827982543 0.28855232409373954 0.976075804067506 0 0 0 0.37 77 2514 128 1357 164 2507 176 1790 214 1431 157 1530 213 2592 231 720 11 2380 16 1236 33 1816 50 2204 187 599 39 300 124 933 
8127 0.30613444811693863 0.3014743703159595 0.9985330987324708 0 0 0 0.41 77 2515 176 1791 196 1510 11 2381 19 1440 27 870 40 830 96 1539 148 2104 157 1531 224 914 
8128 0.5305003211805301 0.25881321672476437 0.9297237402664646 0 0 0 0.25 77 2516 92 1998 214 1432 2 2088 4 2351 14 534 32 1057 38 1227 213 2593 93 906 
8129 0.2924820406829877 0.3081414729368884 1.0048753731317144 0 0 0 0.33 77 2517 176 1792 213 2594 146 2183 214 1433 2 2089 32 1058 61 2146 4 2352 11 2382 17 1855 
8130 0.3002866587232707 0.30676588269997696 0.9989885919727154 0 0 0 0.37 77 2518 92 1999 118 2337 146 2184 164 2508 176 1793 196 1511 213 2595 148 2105 214 1434 2 2090 16 1237 36 775 4 2353 28 878 
8131 0.2866959993805025 0.31109283147669403 1.0073451195823115 0 0 0 0.32 77 2519 146 2185 213 2596 92 2000 164 2509 176 1794 214 1435 16 1238 11 2383 28 879 
8132 0.3073623584068798 0.3055562743964954 0.9965867068609424 0 0 0 0.38 44 2587 61 2147 77 2520 92 2001 118 2338 146 2186 157 1532 164 2510 176 1795 196 1512 204 1396 213 2597 214 1436 224 915 231 721 110 1417 127 1226 148 2106 158 1336 159 1347 200 1442 219 998 232 1931 50 2205 2 2091 4 2354 9 961 11 2384 16 1239 33 1817 38 1228 13 750 28 880 124 934 98 709 135 707 
8133 0.35742472068658054 0.2934901459179622 0.973141053916426 0 0 0 0.27 44 2588 77 2521 85 1728 146 2187 196 1513 204 1397 213 2598 214 1437 92 2002 164 2511 194 1078 53 2109 110 1418 158 1337 176 1796 185 925 200 1443 219 999 222 1188 231 722 232 1932 50 2206 61 2148 2 2092 4 2355 9 962 11 2385 16 1240 17 1856 19 1441 32 1059 33 1818 36 776 38 1229 93 907 124 935 39 301 
8134 0.22242653021071995 0.32510580706896525 1.0313456728016357 0 0 0 0.3 77 2522 164 2512 213 2599 4 2356 11 2386 176 1797 
8135 0.2656779207155231 0.3160823064385607 1.0159415978476958 0 0 0 0.27 77 2523 110 1419 113 973 118 2339 146 2188 164 2513 204 1398 213 2600 148 2107 176 1798 11 2387 27 871 21 366 
8136 0.2734101869645871 0.3136788500597826 1.010200852321159 0 0 0 0.38 44 2589 77 2524 113 974 118 2340 146 2189 164 2514 176 1799 213 2601 224 916 92 2003 85 1729 148 2108 219 1000 2 2093 4 2357 9 963 11 2388 16 1241 27 872 33 1819 50 2207 36 777 19 1442 214 1438 109 911 124 936 13 751 107 599 200 1444 98 710 157 1533 28 881 21 367 209 341 
8137 0.29077726327890063 0.3103577151448323 1.0059291878817247 0 0 0 0.61 77 2525 85 1730 110 1420 159 1348 164 2515 213 2602 214 1439 4 2358 38 1230 148 2109 146 2190 176 1800 194 1079 28 882 229 340 
8138 0.29756894170134895 0.3079502310716104 1.000073538681033 0 0 0 0.65 44 2590 77 2526 85 1731 110 1421 159 1349 220 1001 221 1543 224 917 9 964 33 1820 38 1231 162 1331 200 1445 109 912 
8139 0.3152587922395837 0.30514234108282684 0.9964788376329169 0 0 0 0.29 77 2527 159 1350 164 2516 176 1801 196 1514 213 2603 214 1440 
8140 0.3472673884232794 0.2977839721500492 0.9826032732051768 0 0 0 0.35 77 2528 85 1732 92 2004 110 1422 113 975 146 2191 164 2517 176 1802 185 926 213 2604 214 1441 136 1321 148 2110 194 1080 200 1446 2 2094 4 2359 11 2389 16 1242 27 873 33 1821 38 1232 41 443 61 2149 60 1914 93 908 124 937 98 711 187 600 39 302 28 883 109 913 
8141 0.4296628472126239 0.2814444482715271 0.9542735036813231 0 0 0 0.28 77 2529 194 1081 213 2605 214 1442 146 2192 204 1399 92 2005 148 2111 159 1351 164 2518 188 157 219 1001 11 2390 16 1243 38 1233 28 884 187 601 
8142 0.44330826247190275 0.28017100545519197 0.9534951003244346 0 0 0 0.33 44 2591 77 2530 85 1733 92 2006 135 708 146 2193 159 1352 164 2519 194 1082 213 2606 214 1443 223 278 4 2360 11 2391 16 1244 38 1234 33 1822 93 909 
8143 0.4747296674203842 0.27473885970966433 0.9451056254109779 0 0 0 0.26 60 1915 77 2531 164 2520 185 927 220 1002 231 723 
8144 0.47997622991679345 0.27262065636514693 0.9407464844246543 0 0 0 0.28 44 2592 77 2532 196 1515 214 1444 185 928 213 2607 157 1534 175 703 176 1803 234 1129 2 2095 9 965 33 1823 50 2208 11 2392 16 1245 27 874 91 1995 13 752 28 885 197 1090 201 301 
8145 0.47797119647523595 0.27366103202665243 0.942867323066949 0 0 0 0.4 77 2533 214 1445 221 1544 
8146 0.2642108738143773 0.31849661130016704 1.0170386600646832 0 0 0 0.33 77 2534 110 1423 113 976 118 2341 204 1400 213 2608 146 2194 148 2112 158 1338 164 2521 176 1804 219 1002 232 1933 11 2393 27 875 29 1268 36 778 21 368 
8147 0.2858283854160209 0.31361708309193836 1.0083497948916151 0 0 0 0.3 77 2535 85 1734 92 2007 110 1424 113 977 146 2195 164 2522 176 1805 213 2609 148 2113 4 2361 11 2394 16 1246 17 1857 27 876 38 1235 53 2110 204 1401 
8148 0.28933284013100197 0.3131120253976442 1.0075865893980516 0 0 0 0.36 53 2111 77 2536 85 1735 92 2008 110 1425 113 978 118 2342 146 2196 164 2523 176 1806 213 2610 214 1446 96 1540 148 2114 159 1353 204 1402 219 1003 232 1934 4 2362 11 2395 17 1858 16 1247 
8149 0.2934738700993964 0.31193003723628765 1.0047061148241947 0 0 0 0.28 77 2537 164 2524 176 1807 146 2197 213 2611 214 1447 231 724 2 2096 33 1824 61 2150 200 1447 4 2363 11 2396 17 1859 16 1248 
8150 0.3251142495427092 0.30472914302669674 0.9917422363920048 0 0 0 0.26 44 2593 77 2538 92 2009 128 1358 146 2198 176 1808 185 929 213 2612 214 1448 2 2097 4 2364 11 2397 16 1249 33 1825 36 779 113 979 136 1322 219 1004 
8151 0.5261431766919392 0.26558847874003577 0.9297967289721436 0 0 0 0.37 77 2539 176 1809 223 279 148 2115 194 1083 92 2010 146 2199 159 1354 164 2525 213 2613 234 1130 11 2398 38 1236 28 886 201 302 
8152 0.2085768939277076 0.331389770499004 1.04045227218948 0 0 0 0.28 60 1916 61 2151 77 2540 85 1736 92 2011 110 1426 113 980 146 2200 159 1355 164 2526 213 2614 148 2116 157 1535 158 1339 176 1810 2 2098 4 2365 11 2399 32 1060 33 1826 50 2209 
8153 0.39472332524603615 0.2906463783244597 0.9667145825677955 0 0 0 0.18 77 2541 92 2012 146 2201 164 2527 214 1449 188 158 187 602 
8154 0.5486587968764689 0.26200166034472566 0.9250421985687132 0 0 0 0.36 77 2542 85 1737 91 1996 110 1427 194 1084 214 1450 146 2202 164 2528 234 1131 16 1250 38 1237 
8155 0.6128111175266322 0.2508398302989969 0.9072556365939682 0 0 0 0.41 44 2594 77 2543 92 2013 105 787 110 1428 146 2203 157 1536 164 2529 196 1516 213 2615 194 1085 50 2210 2 2099 40 831 4 2366 
8156 0.45444593364989516 0.27932993019491237 0.9479470222671582 0 0 0 0.26 77 2544 194 1086 223 280 28 887 175 704 234 1132 187 603 
8157 0.49937070267859096 0.272267055053622 0.9371876308032004 0 0 0 0.3 77 2545 91 1997 110 1429 146 2204 185 930 214 1451 223 281 85 1738 148 2117 4 2367 11 2400 16 1251 17 1860 38 1238 96 1541 113 981 164 2530 213 2616 109 914 
8158 0.396653238778176 0.29139094478619615 0.9647236008055133 0 0 0 0.13 77 2546 146 2205 214 1452 
8159 0.7008530583070558 0.24015414944617186 0.8956498901660224 0 0 0 0.4 35 916 77 2547 85 1739 92 2014 110 1430 148 2118 165 1810 184 1297 197 1091 235 1821 4 2368 19 1443 36 780 
8160 0.44448848532428037 0.284571402705192 0.9554578152776015 0 0 0 0.31 60 1917 63 1060 77 2548 92 2015 164 2531 214 1453 
8161 0.6247384296561365 0.2526860091752432 0.9098268657269042 0 0 0 0.18 77 2549 185 931 213 2617 
8162 0.4729504129586806 0.27942870433939093 0.9463231740907255 0 0 0 0.32 77 2550 110 1431 214 1454 223 282 146 2206 172 1343 176 1811 219 1005 2 2100 9 966 32 1061 33 1827 44 2595 
8163 0.4772135910169469 0.27623852680985533 0.9369397793896622 0 0 0 0.13 77 2551 164 2532 214 1455 
8164 0.30355180681964755 0.313426505151972 0.996317010062462 0 0 0 0.65 77 2552 113 982 164 2533 204 1403 146 2207 213 2618 4 2369 38 1239 159 1356 232 1935 11 2401 17 1861 
8165 0.5310933083149476 0.26870001307259284 0.9253987485507923 0 0 0 0.31 77 2553 91 1998 110 1432 
8166 0.5080289719249257 0.2748679072252376 0.9300656653750426 0 0 0 0.37 77 2554 92 2016 110 1433 136 1323 85 1740 91 1999 194 1087 213 2619 214 1456 223 283 146 2208 164 2534 234 1133 4 2370 11 2402 16 1252 38 1240 96 1542 148 2119 109 915 52 1025 201 303 
8167 0.27344102475061666 0.3235906585917482 1.007313308830088 0 0 0 0.3 77 2555 113 983 128 1359 148 2120 4 2371 9 967 11 2403 17 1862 27 877 44 2596 50 2211 196 1517 229 341 
8168 0.29876463147090754 0.3188177377876573 0.996115892420242 0 0 0 0.34 77 2556 176 1812 213 2620 214 1457 158 1340 9 968 11 2404 17 1863 41 444 50 2212 
8169 0.4610345871544137 0.2860970761849536 0.9424657027238912 0 0 0 0.37 77 2557 172 1344 204 1404 223 284 176 1813 
8170 0.24985198863595137 0.33081784903696826 1.0165065769637087 0 0 0 0.42 44 2597 77 2558 157 1537 213 2621 224 918 148 2121 50 2213 2 2101 11 2405 21 369 
8171 0.5346895169128577 0.27329011891081734 0.9224848637452112 0 0 0 0.66 77 2559 85 1741 194 1088 148 2122 11 2406 15 794 16 1253 17 1864 92 2017 109 916 234 1134 
8172 0.16941223543534928 0.3489479595332108 1.046910542731785 0 0 0 0.55 26 1167 77 2560 85 1742 96 1543 113 984 164 2535 196 1518 92 2018 148 2123 4 2372 50 2214 
8173 0.6123230436744488 0.26062720018472946 0.9027428304191343 0 0 0 0.15 77 2561 110 1434 214 1458 
8174 0.2515685612581479 0.33200406272697247 1.0144783494333784 0 0 0 0.34 77 2562 92 2019 157 1538 213 2622 
8175 0.2767996069180655 0.32627150437023744 1.0040397554529226 0 0 0 1.15 61 2152 77 2563 92 2020 110 1435 146 2209 157 1539 176 1814 231 725 2 2102 11 2407 4 2373 17 1865 27 878 148 2124 28 888 21 370 50 2215 
8176 0.4294955639347445 0.2946255938880534 0.9500793887884977 0 0 0 0.17 77 2564 194 1089 213 2623 223 285 
8177 0.31634887059497535 0.3203133644889742 0.9952128595249907 0 0 0 0.18 77 2565 92 2021 164 2536 214 1459 
8178 0.343961752926585 0.3142543149177729 0.985738940902523 0 0 0 0.59 77 2566 92 2022 164 2537 146 2210 176 1815 213 2624 4 2374 11 2408 16 1254 27 879 187 604 
8179 0.6298002037582464 0.25965897155888595 0.8981798721732718 0 0 0 0.36 77 2567 110 1436 136 1324 214 1460 148 2125 164 2538 165 1811 235 1822 
8180 0.3127341260928254 0.32173923404858895 0.9933702690884776 0 0 0 0.49 77 2568 146 2211 159 1357 164 2539 92 2023 231 726 
8181 0.4802297984153561 0.2869138455846824 0.9353507647009913 0 0 0 0.27 77 2569 85 1743 103 1017 110 1437 118 2343 126 1053 194 1090 223 286 4 2375 38 1241 232 1936 28 889 42 593 
8182 0.39291740839677364 0.30425843669659974 0.9610166341333439 0 0 0 0.07 77 2570 146 2212 164 2540 
8183 0.46095426842914167 0.29081432534073665 0.9408551300202778 0 0 0 0.43 77 2571 194 1091 214 1461 85 1744 136 1325 146 2213 11 2409 38 1242 201 304 187 605 
8184 0.6602213348499789 0.2556556812624235 0.8888755968216434 0 0 0 0.38 77 2572 85 1745 105 788 146 2214 165 1812 213 2625 235 1823 2 2103 4 2376 
8185 0.3163334671531404 0.3241763817884348 0.9897957141553984 0 0 0 0.47 77 2573 110 1438 113 985 118 2344 38 1243 148 2126 11 2410 164 2541 
8186 0.3243640792006367 0.3220648005190062 0.9863888804380412 0 0 0 0.31 77 2574 92 2024 110 1439 113 986 118 2345 146 2215 164 2542 176 1816 213 2626 214 1462 85 1746 136 1326 148 2127 4 2377 11 2411 16 1255 17 1866 27 880 38 1244 28 890 
8187 0.3841352776797231 0.3082328816976895 0.9602603669178642 0 0 0 0.34 77 2575 85 1747 176 1817 194 1092 213 2627 214 1463 113 987 4 2378 11 2412 38 1245 
8188 0.3203616266145864 0.3232707314443094 0.9872485914749559 0 0 0 0.46 77 2576 92 2025 110 1440 113 988 146 2216 157 1540 164 2543 213 2628 176 1818 13 753 33 1828 124 938 98 712 
8189 0.2023881157819411 0.3505371094758422 1.0314685545445825 0 0 0 0.47 77 2577 118 2346 164 2544 
8190 0.27844628820824213 0.33370821675433654 1.0009392392629515 0 0 0 0.37 77 2578 92 2026 110 1441 213 2629 21 371 33 1829 
8191 0.3072844799723737 0.32706895782143963 0.9885491818197674 0 0 0 0.31 77 2579 176 1819 213 2630 214 1464 
8192 0.3505469118665304 0.3175644081867681 0.9743659300346417 0 0 0 0.38 77 2580 85 1748 110 1442 118 2347 176 1820 213 2631 148 2128 194 1093 185 932 11 2413 17 1867 16 1256 38 1246 146 2217 214 1465 28 891 
8193 0.6076844901531918 0.2699007974926247 0.9012276287368733 0 0 0 0.37 77 2581 85 1749 110 1443 194 1094 214 1466 146 2218 148 2129 4 2379 
8194 0.26627307081678675 0.33728707925014534 1.0069209265708605 0 0 0 0.35 77 2582 113 989 164 2545 2 2104 11 2414 17 1868 
8195 0.40117379375007384 0.30780186695104644 0.9574031538152474 0 0 0 0.43 77 2583 85 1750 92 2027 110 1444 113 990 164 2546 176 1821 204 1405 146 2219 148 2130 188 159 213 2632 232 1937 11 2415 17 1869 27 881 109 917 28 892 
8196 0.2990265671739459 0.3296109265730139 0.9909870331030343 0 0 0 0.76 44 2598 77 2584 110 1445 113 991 164 2547 200 1448 60 1918 124 939 
8197 0.6059323966724456 0.2711844665179265 0.9004324490041858 0 0 0 0.37 77 2585 85 1751 110 1446 128 1360 136 1327 
8198 0.6129803650640279 0.2701875022937955 0.8986554911066779 0 0 0 0.39 77 2586 164 2548 213 2633 214 1467 197 1092 235 1824 11 2416 148 2131 
8199 0.5842542646965917 0.275279758571348 0.906391785714221 0 0 0 0.53 77 2587 146 2220 164 2549 213 2634 148 2132 50 2216 127 1227 4 2380 11 2417 17 1870 91 2000 52 1026 13 754 
8200 0.26552235427935644 0.3399821326544168 1.0078352767060408 0 0 0 0.32 77 2588 176 1822 204 1406 213 2635 148 2133 164 2550 200 1449 2 2105 11 2418 17 1871 33 1830 50 2217 4 2381 146 2221 157 1541 232 1938 
8201 0.3827521588974521 0.3126646260541358 0.9589334993991122 0 0 0 0.42 77 2589 92 2028 118 2348 146 2222 164 2551 172 1345 85 1752 194 1095 16 1257 38 1247 28 893 
8202 0.5372825140270683 0.28401258238432464 0.9173839947441803 0 0 0 0.33 77 2590 85 1753 92 2029 213 2636 214 1468 223 287 4 2382 16 1258 17 1872 
8203 0.46452914637410403 0.2975385663786107 0.9367206052840392 0 0 0 0.46 77 2591 194 1096 196 1519 85 1754 92 2030 188 160 213 2637 4 2383 13 755 231 727 
8204 0.3847389776687531 0.3131148720852786 0.9581244176327902 0 0 0 0.32 77 2592 110 1447 146 2223 176 1823 213 2638 214 1469 16 1259 28 894 187 606 
8205 0.46445423673001013 0.2993179903212629 0.9356306768630291 0 0 0 0.37 77 2593 92 2031 136 1328 213 2639 4 2384 11 2419 16 1260 33 1831 52 1027 93 910 13 756 175 705 231 728 234 1135 124 940 
8206 0.5596019248122267 0.28302879144622867 0.9110178610191844 0 0 0 0.74 77 2594 110 1448 146 2224 4 2385 11 2420 25 950 50 2218 164 2552 
8207 0.6129249932210109 0.2739620436647333 0.8974769756113048 0 0 0 0.51 61 2153 77 2595 118 2349 159 1358 164 2553 194 1097 196 1520 146 2225 148 2134 184 1298 213 2640 235 1825 44 2599 50 2219 2 2106 33 1832 40 832 11 2421 17 1873 52 1028 201 305 38 1248 15 795 97 919 172 1346 197 1093 
8208 0.636313229053886 0.2698700746120911 0.8907497810186594 0 0 0 0.35 77 2596 85 1755 213 2641 164 2554 165 1813 235 1826 
8209 0.3141196517184846 0.3332799741381287 0.9868994585419352 0 0 0 0.38 110 1449 146 2226 213 2642 2 2107 4 2386 16 1261 33 1833 38 1249 77 2597 92 2032 113 992 148 2135 158 1341 11 2422 136 1329 164 2555 224 919 232 1939 28 895 229 342 
8210 0.4828715561947935 0.2982006952857484 0.929869689872728 0 0 0 0.58 77 2598 92 2033 194 1098 213 2643 223 288 148 2136 164 2556 234 1136 11 2423 38 1250 28 896 187 607 
8211 0.5907783004284864 0.2798154677602678 0.9022278595226159 0 0 0 0.47 77 2599 96 1544 146 2227 164 2557 185 933 213 2644 85 1756 110 1450 184 1299 50 2220 11 2424 33 1834 38 1251 40 833 105 789 52 1029 93 911 109 918 222 1189 
8212 0.3829612439907861 0.3180097705911654 0.9568646331496237 0 0 0 0.32 77 2600 92 2034 110 1451 126 1054 176 1824 194 1099 232 1940 11 2425 15 796 28 897 187 608 
8213 0.5120589851096721 0.29329004228158717 0.9208736616345764 0 0 0 0.38 77 2601 92 2035 146 2228 194 1100 213 2645 214 1470 223 289 110 1452 197 1094 11 2426 16 1262 17 1874 2 2108 38 1252 52 1030 93 912 109 919 13 757 201 306 
8214 0.5087029555558136 0.2941866252249364 0.9202894269806624 0 0 0 0.36 77 2602 110 1453 126 1055 
8215 0.653128671571974 0.2696800753503174 0.8862794466697916 0 0 0 0.33 77 2603 85 1757 91 2001 213 2646 52 1031 
8216 0.5360946759441768 0.2906950760442698 0.9148384848050674 0 0 0 0.31 77 2604 85 1758 91 2002 136 1330 194 1101 213 2647 214 1471 223 290 146 2229 148 2137 164 2558 172 1347 4 2387 11 2427 16 1263 38 1253 52 1032 109 920 
8217 0.25242187290180307 0.34922837521322725 1.0075296550648414 0 0 0 0.3 77 2605 111 1401 164 2559 224 920 
8218 0.3678036318999572 0.3213373476888839 0.9600851079068865 0 0 0 0.26 77 2606 126 1056 164 2560 214 1472 110 1454 11 2428 19 1444 33 1835 38 1254 52 1033 93 913 42 594 
8219 0.7005650523263504 0.2657323779152927 0.8835918245821264 0 0 0 0.41 77 2607 105 790 164 2561 136 1331 148 2138 165 1814 196 1521 127 1228 162 1332 163 604 235 1827 44 2600 50 2221 2 2109 4 2388 11 2429 53 2112 19 1445 107 600 
8220 0.2544346366777931 0.3489295156035396 1.0056980431702798 0 0 0 0.76 44 2601 60 1919 77 2608 92 2036 164 2562 224 921 209 342 227 1020 
8221 0.4649576073246784 0.3048197124167909 0.9340985109852898 0 0 0 0.34 77 2609 92 2037 136 1332 4 2389 11 2430 38 1255 44 2602 148 2139 13 758 175 706 
8222 0.26635371145467024 0.3473924842032011 0.9979663761329843 0 0 0 0.29 44 2603 77 2610 92 2038 164 2563 220 1003 21 372 162 1333 
8223 0.27671633882688657 0.346213546289122 0.9967855067444383 0 0 0 0.33 60 1920 77 2611 118 2350 176 1825 
8224 0.46534812130676245 0.3070716957827218 0.933388073704608 0 0 0 0.26 77 2612 85 1759 113 993 223 291 126 1057 148 2140 4 2390 11 2431 
8225 0.5311968040619789 0.29733968306073183 0.9215569694489418 0 0 0 0.28 77 2613 96 1545 118 2351 146 2230 213 2648 214 1473 4 2391 16 1264 
8226 0.7318289246349368 0.2696983410230628 0.8873444053347491 0 0 0 0.76 77 2614 85 1760 110 1455 164 2564 184 1300 
8227 0.4073893653456717 0.32041414884894637 0.9476036787207223 0 0 0 0.34 26 1168 77 2615 85 1761 110 1456 126 1058 214 1474 
8228 0.4428105199885276 0.3137961460503867 0.9375372144112704 0 0 0 0.29 77 2616 118 2352 164 2565 
8229 0.5362378611078313 0.29697106026441744 0.9123699200676813 0 0 0 0.31 77 2617 164 2566 213 2649 85 1762 146 2231 194 1102 214 1475 223 292 4 2392 11 2432 148 2141 38 1256 52 1034 91 2003 110 1457 
8230 0.6588748238379781 0.2752058233121383 0.8809502686710459 0 0 0 0.34 77 2618 146 2232 164 2567 165 1815 235 1828 85 1763 91 2004 110 1458 
8231 0.5688009833540124 0.29188550652030865 0.9042349776038292 0 0 0 0.46 77 2619 91 2005 111 1402 146 2233 164 2568 194 1103 213 2650 
8232 0.3053113518032065 0.34401320090837056 0.9833351403261256 0 0 0 0.27 77 2620 118 2353 172 1348 213 2651 148 2142 4 2393 11 2433 17 1875 52 1035 229 343 
8233 0.43784282132803115 0.32008709074967084 0.9360666317981451 0 0 0 0.88 77 2621 164 2569 223 293 146 2234 190 1125 232 1941 147 1170 213 2652 1 735 3 1126 15 797 16 1265 17 1876 60 1921 118 2354 14 535 19 1446 33 1836 69 668 89 674 152 653 158 1342 13 759 28 898 50 2222 53 2113 172 1349 175 707 234 1137 98 713 187 609 227 1021 124 941 
8234 0.5828550462245866 0.28420527237937177 0.8683917889054 0 0 0 0.7 77 2622 213 2653 214 1476 
8235 0.635135301470024 0.28629253733047816 0.8846567754958465 0 0 0 0.39 77 2623 85 1764 164 2570 194 1104 148 2143 165 1816 184 1301 235 1829 
8236 0.334345908147718 0.3442453106784891 0.9687474669471652 0 0 0 0.47 77 2624 92 2039 110 1459 113 994 118 2355 146 2235 157 1542 164 2571 172 1350 176 1826 204 1407 213 2654 214 1477 221 1545 231 729 148 2144 158 1343 219 1006 227 1022 232 1942 147 1171 43 1015 4 2394 11 2434 12 496 16 1266 17 1877 33 1837 36 781 38 1257 27 882 13 760 
8237 0.41480847723130454 0.32954305028500297 0.940791033283415 0 0 0 0.4 44 2604 77 2625 110 1460 146 2236 164 2572 194 1105 204 1408 213 2655 214 1478 175 708 4 2395 11 2435 16 1267 98 714 33 1838 93 914 
8238 0.5368138575065947 0.30707544018961347 0.9082248710180486 0 0 0 0.52 77 2626 110 1461 194 1106 213 2656 214 1479 135 709 182 586 196 1522 2 2110 9 969 19 1447 33 1839 60 1922 175 709 200 1450 93 915 146 2237 13 761 164 2573 36 782 92 2040 231 730 
8239 0.3038833216456441 0.3554742731867421 0.9794272921342396 0 0 0 0.38 77 2627 157 1543 213 2657 146 2238 176 1827 200 1451 16 1268 33 1840 61 2154 11 2436 13 762 98 715 
8240 0.25121075056519165 0.36702634703405335 0.994380137918221 0 0 0 0.38 77 2628 92 2041 164 2574 
8241 0.7301777935056492 0.2844167375968614 0.8815294853088456 0 0 0 0.43 61 2155 77 2629 82 283 85 1765 105 791 110 1462 164 2575 184 1302 50 2223 4 2396 19 1448 36 783 11 2437 107 601 
8242 0.3859799060942136 0.33955304026077776 0.9474412356247468 0 0 0 0.46 77 2630 85 1766 231 731 44 2605 146 2239 224 922 16 1269 50 2224 13 763 200 1452 98 716 124 942 
8243 0.5370909599742925 0.3110378830285353 0.906148373585132 0 0 0 0.39 77 2631 85 1767 194 1107 223 294 148 2145 92 2042 96 1546 164 2576 172 1351 4 2397 11 2438 38 1258 146 2240 109 921 
8244 0.25469319298687854 0.3734674321408064 0.9991887332587568 0 0 0 0.25 77 2632 92 2043 220 1004 
8245 0.3369178844049789 0.3543892800172515 0.9637840286371663 0 0 0 0.55 77 2633 92 2044 164 2577 146 2241 148 2146 200 1453 224 923 11 2439 16 1270 17 1878 19 1449 194 1108 
8246 0.5371398340328094 0.31726351080892745 0.9040086601917005 0 0 0 0.37 77 2634 85 1768 146 2242 194 1109 2 2111 9 970 50 2225 175 710 93 916 13 764 16 1271 
8247 0.7329218860383028 0.3021387683646817 0.8732436690684766 0 0 0 0.54 77 2635 82 284 164 2578 4 2398 11 2440 36 784 73 1080 105 792 
8248 0.3492767700796641 0.12868393671804035 1.0514645410712387 0 0 0 0.58 77 2636 103 1018 128 1361 157 1544 185 934 224 924 92 2045 158 1344 162 1334 176 1828 200 1454 2 2112 9 971 16 1272 19 1450 27 883 38 1259 50 2226 63 1061 126 1059 0 758 111 1403 179 469 190 1126 220 1005 12 497 25 951 33 1841 97 920 
8249 0.40242636079215677 0.12984253785810798 1.0297619392748163 0 0 0 1.22 44 2606 77 2637 92 2046 159 1359 214 1480 128 1362 148 2147 158 1345 185 935 2 2113 9 972 17 1879 29 1269 33 1842 38 1260 110 1463 12 498 52 1036 85 1769 11 2441 118 2356 
8250 0.3545539919893181 0.1390260860130663 1.0413123202381716 0 0 0 0.5 44 2607 77 2638 85 1770 159 1360 214 1481 
8251 0.23120211498162205 0.16074622635511715 1.0971694180507716 0 0 0 0.2 77 2639 196 1523 224 925 
8252 0.5399186559787921 0.11100934303822702 0.9885851095265339 0 0 0 0.31 44 2608 77 2640 85 1771 103 1019 146 2243 157 1545 159 1361 164 2579 172 1352 176 1829 185 936 196 1524 214 1482 
8253 0.316463458704823 0.1560108765887665 1.0548863582468297 0 0 0 0.18 77 2641 128 1363 176 1830 
8254 0.3695547697282008 0.148159974685131 1.0319805750512692 0 0 0 0.3 77 2642 146 2244 196 1525 204 1409 4 2399 11 2442 27 884 50 2227 224 926 232 1943 
8255 0.6434475461402953 0.10983414766089072 0.9780323081862065 0 0 0 0.7 35 917 77 2643 213 2658 221 1546 
8256 0.4522416971206017 0.1434086605106509 1.004769335253343 0 0 0 0.36 77 2644 85 1772 110 1464 118 2357 172 1353 204 1410 
8257 0.42346508476467853 0.15025090777558867 1.0102635483194746 0 0 0 0.52 44 2609 77 2645 85 1773 92 2047 213 2659 214 1483 16 1273 13 765 
8258 0.23913068565087764 0.18496651309014273 1.0838853331413643 0 0 0 0.43 53 2114 61 2156 77 2646 92 2048 96 1547 97 921 118 2358 128 1364 146 2245 157 1546 172 1354 213 2660 190 1127 219 1007 227 1023 232 1944 43 1016 60 1923 162 1335 2 2114 3 1127 4 2400 32 1062 36 785 44 2610 50 2228 11 2443 
8259 0.5203938027038243 0.13838513793986817 0.9937368835022956 0 0 0 0.82 54 822 73 1081 77 2647 118 2359 164 2580 213 2661 221 1547 14 536 50 2229 2 2115 4 2401 38 1261 214 1484 9 973 44 2611 
8260 0.22766218191090723 0.19252157186865526 1.084740341884168 0 0 0 0.43 53 2115 77 2648 97 922 103 1020 110 1465 113 995 114 290 127 1229 128 1365 157 1547 172 1355 179 470 196 1526 204 1411 213 2662 3 1128 12 499 17 1880 29 1270 40 834 41 445 158 1346 159 1362 176 1831 194 1110 0 759 227 1024 52 1037 109 922 229 344 
8261 0.4786397054786495 0.14898536418691258 0.992317623944281 0 0 0 0.66 77 2649 96 1548 110 1466 159 1363 176 1832 204 1412 164 2581 219 1008 232 1945 11 2444 29 1271 98 717 
8262 0.4968700885532653 0.1461113059826641 0.9871199770448169 0 0 0 0.87 77 2650 127 1230 217 759 9 974 12 500 16 1274 36 786 50 2230 53 2116 73 1082 92 2049 135 710 147 1172 152 654 232 1946 146 2246 
8263 0.1691023191215381 0.2056951419654892 1.1090072997047022 0 0 0 0.36 77 2651 126 1060 164 2582 224 927 148 2148 
8264 0.19152500531350783 0.20127767679515338 1.1001799737426567 0 0 0 0.43 26 1169 60 1924 71 1354 77 2652 85 1774 92 2050 103 1021 111 1404 127 1231 146 2247 164 2583 196 1527 220 1006 224 928 
8265 0.3729355520205945 0.17010659582375925 1.0210967825289843 0 0 0 1.09 63 1062 77 2653 92 2051 96 1549 111 1405 113 996 157 1548 176 1833 224 929 158 1347 204 1413 219 1009 222 1190 3 1129 4 2402 27 885 29 1272 33 1843 40 835 89 675 142 578 98 718 185 937 61 2157 
8266 0.13501112264048043 0.20647353799212753 0.9744956025831756 0 0 0 0.89 77 2654 159 1364 164 2584 110 1467 148 2149 42 595 118 2360 142 579 229 345 21 373 196 1528 
8267 0.3241696208352738 0.18244724296198928 1.0416306704229905 0 0 0 0.28 44 2612 77 2655 118 2361 127 1232 128 1366 146 2248 159 1365 164 2585 185 938 220 1007 224 930 148 2150 162 1336 232 1947 50 2231 16 1275 17 1881 19 1451 27 886 33 1844 38 1262 93 917 
8268 0.6117299508382039 0.13193598319526248 0.9591663490814749 0 0 0 0.32 77 2656 127 1233 213 2663 
8269 0.2679305613712474 0.19409507861990474 1.06564320392879 0 0 0 0.33 77 2657 110 1468 113 997 29 1273 38 1263 
8270 0.5155284808151128 0.15270010668293346 0.9738400814027383 0 0 0 0.45 61 2158 77 2658 103 1022 110 1469 118 2362 126 1061 127 1234 128 1367 176 1834 185 939 213 2664 214 1485 85 1775 92 2052 96 1550 148 2151 197 1095 219 1010 232 1948 3 1130 11 2445 29 1274 222 1191 142 580 36 787 
8271 0.24327766594882258 0.2032614255381592 1.0714478403511298 0 0 0 0.33 53 2117 61 2159 67 744 77 2659 92 2053 96 1551 97 923 110 1470 113 998 118 2363 127 1235 128 1368 176 1835 185 940 204 1414 213 2665 220 1008 146 2249 148 2152 152 655 164 2586 219 1011 232 1949 50 2232 2 2116 4 2403 11 2446 17 1882 27 887 33 1845 227 1025 0 760 
8272 0.3032414349715119 0.19251189914932756 1.0433639953550338 0 0 0 0.56 53 2118 60 1925 61 2160 77 2660 96 1552 111 1406 113 999 118 2364 126 1062 159 1366 164 2587 185 941 224 931 219 1012 50 2233 3 1131 9 975 17 1883 27 888 32 1063 
8273 0.29804914514750463 0.1931476884911322 1.0433696941129795 0 0 0 0.41 53 2119 61 2161 77 2661 96 1553 97 924 110 1471 113 1000 118 2365 146 2250 159 1367 176 1836 204 1415 213 2666 219 1013 232 1950 2 2117 3 1132 4 2404 11 2447 12 501 27 889 29 1275 36 788 38 1264 127 1236 227 1026 13 766 148 2153 142 581 229 346 
8274 0.25982340682779337 0.2019014643979114 1.0566062589671081 0 0 0 0.18 77 2662 146 2251 176 1837 
8275 0.19722093061221121 0.2165548484332982 1.0822126836576644 0 0 0 0.22 77 2663 127 1237 159 1368 
8276 0.15006125400979456 0.22716353279255344 1.1115846227813095 0 0 0 0.62 77 2664 196 1529 221 1548 224 932 110 1472 148 2154 159 1369 164 2588 2 2118 29 1276 71 1355 21 374 
8277 0.5406158229384066 0.15683489621171123 0.9709587181113704 0 0 0 0.58 77 2665 146 2252 176 1838 213 2667 148 2155 11 2448 15 798 16 1276 71 1356 222 1192 
8278 0.2700504393359004 0.2076658595543364 1.0563001294784509 0 0 0 0.44 77 2666 176 1839 204 1416 158 1348 4 2405 11 2449 16 1277 17 1884 33 1846 50 2234 
8279 0.1396488809888493 0.22298436582443287 0.9765502913855613 0 0 0 0.78 77 2667 159 1370 164 2589 110 1473 148 2156 224 933 2 2119 19 1452 40 836 
8280 0.43840341687666545 0.184084010697589 0.9938025520662884 0 0 0 0.4 61 2162 77 2668 111 1407 118 2366 126 1063 159 1371 172 1356 213 2668 96 1554 147 1173 219 1014 222 1193 11 2450 27 890 0 761 14 537 204 1417 
8281 0.4635997962955425 0.1797057117187405 0.9868063442003305 0 0 0 0.59 77 2669 103 1023 118 2367 127 1238 159 1372 96 1555 148 2157 194 1111 217 760 227 1027 43 1017 2 2120 4 2406 11 2451 52 1038 
8282 0.2763551432466982 0.21872436481992774 1.0497256909210817 0 0 0 0.3 77 2670 128 1369 159 1373 185 942 
8283 0.22482462989941282 0.2305416862563574 1.070399502841448 0 0 0 0.28 77 2671 126 1064 146 2253 
8284 0.48623573785945656 0.18330403705420423 0.982155240043674 0 0 0 0.56 77 2672 164 2590 185 943 162 1337 
8285 0.1283445267985816 0.2519139079323633 1.1127356763590837 0 0 0 0.34 44 2613 77 2673 92 2054 126 1065 220 1009 224 934 85 1776 148 2158 159 1374 196 1530 40 837 109 923 42 596 
8286 0.6056889442425113 0.16440039555357838 0.9468737187820684 0 0 0 0.37 77 2674 85 1777 96 1556 128 1370 92 2055 126 1066 162 1338 200 1455 222 1194 3 1133 60 1926 4 2407 9 976 29 1277 118 2368 148 2159 159 1375 164 2591 185 944 204 1418 227 1028 235 1830 165 1817 194 1112 196 1531 52 1039 163 605 19 1453 40 838 136 1333 141 342 50 2235 62 709 63 1063 127 1239 182 587 93 918 232 1951 
8287 0.16459951270774245 0.24840161444122916 1.0942433732406434 0 0 0 0.47 60 1927 77 2675 85 1778 126 1067 164 2592 196 1532 220 1010 224 935 
8288 0.3524383839830772 0.2167259373589298 1.0111352488023089 0 0 0 0.53 77 2676 85 1779 164 2593 
8289 0.43002568822745285 0.20502026110966864 0.9885928964362155 0 0 0 0.55 77 2677 92 2056 159 1376 176 1840 185 945 194 1113 43 1018 96 1557 
8290 0.400967635065029 0.2145351658644485 0.998241160223122 0 0 0 0.23 77 2678 118 2369 128 1371 92 2057 146 2254 176 1841 213 2669 222 1195 232 1952 4 2408 27 891 38 1265 11 2452 28 899 112 479 219 1015 
8291 0.1631674494907256 0.263464142629655 1.0861697276152946 0 0 0 0.46 44 2614 73 1083 77 2679 92 2058 159 1377 220 1011 2 2121 50 2236 148 2160 
8292 0.25531372098551747 0.24602002845316673 1.0546237992164096 0 0 0 0.29 77 2680 128 1372 196 1533 
8293 0.1454000696700962 0.25118498576522263 0.9722779839890633 0 0 0 0.4 77 2681 164 2594 196 1534 224 936 
8294 0.6269523945265304 0.17956987445007683 0.9357698034122162 0 0 0 0.35 77 2682 146 2255 204 1419 213 2670 11 2453 60 1928 
8295 0.146347754263827 0.2541459164168943 0.9688476432845397 0 0 0 0.49 77 2683 159 1378 164 2595 19 1454 224 937 
8296 0.1305842711693841 0.28013477836647677 1.1004088908497405 0 0 0 0.4 77 2684 85 1780 224 938 148 2161 52 1040 109 924 
8297 0.28888761304557625 0.25459284676038063 1.0311270905110341 0 0 0 0.27 77 2685 118 2370 157 1549 196 1535 213 2671 110 1474 232 1953 162 1339 2 2122 4 2409 16 1278 17 1885 27 892 29 1278 40 839 113 1001 194 1114 52 1041 28 900 39 303 
8298 0.33788935089111827 0.24876755444378387 1.010265881860154 0 0 0 0.28 44 2615 77 2686 92 2059 103 1024 110 1475 111 1408 113 1002 118 2371 127 1240 128 1373 146 2256 157 1550 164 2596 172 1357 179 471 185 946 213 2672 220 1012 221 1549 147 1174 214 1486 50 2237 3 1134 4 2410 16 1279 19 1455 33 1847 38 1266 43 1019 28 901 200 1456 124 943 39 304 194 1115 
8299 0.27990849429805204 0.26453722701603355 1.0324927013038987 0 0 0 0.42 77 2687 118 2372 196 1536 1 736 3 1135 4 2411 16 1280 26 1170 11 2454 33 1848 
8300 0.47236333358095534 0.22877090893210555 0.9682417629673346 0 0 0 0.33 77 2688 146 2257 159 1379 176 1842 92 2060 197 1096 204 1420 213 2673 214 1487 221 1550 11 2455 27 893 113 1003 
8301 0.39669935545984036 0.24376999202382435 0.9890321541429293 0 0 0 0.21 77 2689 176 1843 185 947 213 2674 214 1488 92 2061 128 1374 164 2597 232 1954 146 2258 162 1340 16 1281 
8302 0.17651857830675619 0.2917402746955617 1.0745499278818416 0 0 0 0.52 77 2690 118 2373 127 1241 196 1537 221 1551 126 1068 164 2598 26 1171 43 1020 96 1558 162 1341 
8303 0.15691384691329602 0.2968423885129029 1.0839908400659044 0 0 0 0.56 77 2691 126 1069 196 1538 40 840 229 347 
8304 0.4959856071699328 0.22900745066560962 0.9598931232744083 0 0 0 0.23 77 2692 91 2006 135 711 185 948 223 295 
8305 0.1873580181404202 0.29027380550145654 1.064660601786709 0 0 0 0.37 77 2693 113 1004 146 2259 164 2599 110 1476 92 2062 127 1242 172 1358 2 2123 32 1064 36 789 44 2616 109 925 21 375 
8306 0.1776345974403957 0.2945947803188476 1.0750458973233445 0 0 0 0.99 77 2694 127 1243 224 939 126 1070 159 1380 232 1955 128 1375 50 2238 60 1929 2 2124 3 1136 32 1065 43 1021 19 1456 162 1342 17 1886 61 2163 164 2600 
8307 0.3910797529944381 0.25099097739036774 0.9873353524027603 0 0 0 0.23 77 2695 164 2601 214 1489 11 2456 16 1282 17 1887 50 2239 213 2675 
8308 0.41742571729716027 0.2465183176279899 0.9796581447713938 0 0 0 0.17 77 2696 185 949 214 1490 
8309 0.2315758746301558 0.28593122750767624 1.0500452560744058 0 0 0 0.31 77 2697 113 1005 146 2260 164 2602 85 1781 92 2063 148 2162 11 2457 17 1888 33 1849 157 1551 52 1042 107 602 190 1128 232 1956 27 894 
8310 0.2063440616999352 0.30419552937707023 1.0559068754351089 0 0 0 0.35 61 2164 77 2698 85 1782 126 1071 157 1552 221 1552 
8311 0.14873890617032515 0.2964464227649255 0.9661477033551259 0 0 0 0.67 77 2699 159 1381 164 2603 148 2163 229 348 
8312 0.39821830288567606 0.27099282480445014 0.9772470000968306 0 0 0 0.21 77 2700 146 2261 213 2676 53 2120 92 2064 172 1359 214 1491 176 1844 11 2458 16 1283 29 1279 222 1196 
8313 0.14564563104179207 0.2965172759204928 0.9503583342507663 0 0 0 0.58 77 2701 159 1382 164 2604 196 1539 220 1013 148 2164 
8314 0.6251495955486768 0.23782363770130271 0.9116584643637717 0 0 0 0.23 77 2702 91 2007 221 1553 4 2412 29 1280 235 1831 146 2262 201 307 
8315 0.6664674798051456 0.23081693699513345 0.9002600952328627 0 0 0 0.4 77 2703 92 2065 111 1409 118 2374 146 2263 213 2677 2 2125 3 1137 4 2413 11 2459 15 799 17 1889 36 790 44 2617 164 2605 235 1832 9 977 91 2008 107 603 162 1343 222 1197 
8316 0.6163565549486821 0.24113156928434692 0.911581512202416 0 0 0 0.33 35 918 77 2704 118 2375 204 1421 213 2678 182 588 222 1198 3 1138 4 2414 15 800 43 1022 89 676 152 656 235 1833 0 762 
8317 0.628833561122984 0.23865757015409855 0.9070229912597806 0 0 0 0.34 35 919 62 710 77 2705 91 2009 103 1025 110 1477 128 1376 164 2606 213 2679 221 1554 92 2066 146 2264 159 1383 182 589 197 1097 204 1422 232 1957 235 1834 2 2126 4 2415 15 801 17 1890 
8318 0.27076895012744073 0.309816273697712 1.010771070541518 0 0 0 0.49 77 2706 110 1478 220 1014 
8319 0.5294261461481409 0.2622373577277269 0.9294108528041302 0 0 0 0.72 61 2165 77 2707 213 2680 214 1492 164 2607 194 1116 50 2240 
8320 0.2834031480231871 0.31263798889510636 1.008488422632039 0 0 0 0.37 77 2708 85 1783 159 1384 176 1845 204 1423 213 2681 92 2067 148 2165 219 1016 44 2618 50 2241 61 2166 2 2127 16 1284 17 1891 25 952 33 1850 157 1553 214 1493 32 1066 164 2608 194 1117 52 1043 224 940 27 895 28 902 42 597 109 926 38 1267 196 1540 229 349 124 944 
8321 0.38013782906047094 0.29089779311746133 0.9696556353328982 0 0 0 0.37 44 2619 60 1930 77 2709 85 1784 111 1410 113 1006 127 1244 146 2265 157 1554 176 1846 185 950 196 1541 213 2682 214 1494 220 1015 224 941 231 732 221 1555 232 1958 2 2128 32 1067 50 2242 3 1139 4 2416 11 2460 15 802 16 1285 17 1892 19 1457 33 1851 38 1268 61 2167 110 1479 27 896 92 2068 124 945 148 2166 162 1344 187 610 93 919 164 2609 
8322 0.4102838124887619 0.2850273455034361 0.960338191659782 0 0 0 0.28 77 2710 85 1785 176 1847 213 2683 11 2461 16 1286 38 1269 
8323 0.40357375549838603 0.2870042728395093 0.9629958616433033 0 0 0 0.26 77 2711 164 2610 185 951 214 1495 92 2069 146 2266 157 1555 176 1848 135 712 158 1349 175 711 213 2684 231 733 113 1007 221 1556 232 1959 50 2243 69 669 4 2417 15 803 3 1140 16 1287 27 897 28 903 124 946 187 611 
8324 0.46178381084500164 0.2756102038164536 0.9458578713718886 0 0 0 0.36 77 2712 85 1786 176 1849 185 952 194 1118 213 2685 214 1496 223 296 2 2129 4 2418 11 2462 16 1288 27 898 33 1852 38 1270 44 2620 92 2070 146 2267 148 2167 164 2611 219 1017 28 904 234 1138 110 1480 201 308 
8325 0.4158858902324085 0.2851817690127965 0.9604748248560423 0 0 0 0.38 77 2713 159 1385 164 2612 185 953 196 1542 214 1497 4 2419 221 1557 25 953 148 2168 27 899 217 761 
8326 0.6279556823947268 0.2489290368427196 0.9040117210297036 0 0 0 0.27 77 2714 118 2376 146 2268 176 1850 204 1424 213 2686 164 2613 165 1818 235 1835 4 2420 11 2463 15 804 91 2010 148 2169 2 2130 17 1893 214 1498 201 309 33 1853 73 1084 105 793 32 1068 50 2244 92 2071 182 590 197 1098 
8327 0.46597312377927896 0.279673979150118 0.9453929307114347 0 0 0 0.48 26 1172 77 2715 164 2614 214 1499 221 1558 223 297 85 1787 147 1175 190 1129 194 1119 213 2687 126 1072 146 2269 152 657 175 712 219 1018 222 1199 3 1141 4 2421 11 2464 15 805 16 1289 17 1894 29 1281 38 1271 103 1026 113 1008 25 954 157 1556 188 161 217 762 
8328 0.5031978363315417 0.2727587033032831 0.9329832653366508 0 0 0 0.39 77 2716 194 1120 214 1500 53 2121 197 1099 221 1559 222 1200 232 1960 43 1023 50 2245 89 677 103 1027 2 2131 32 1069 36 791 4 2422 12 502 27 900 38 1272 227 1029 
8329 0.5514090291534551 0.2653077896650009 0.9231897146859757 0 0 0 0.54 77 2717 110 1481 223 298 222 1201 4 2423 11 2465 73 1085 
8330 0.3647966475551851 0.3010408289574301 0.9696876674889279 0 0 0 0.59 77 2718 92 2072 126 1073 164 2615 204 1425 213 2688 4 2424 11 2466 16 1290 17 1895 19 1458 27 901 71 1357 172 1360 176 1851 219 1019 222 1202 224 942 52 1044 85 1788 194 1121 28 905 187 612 148 2170 214 1501 
8331 0.15472931489173003 0.3506979551971548 1.0581929796086644 0 0 0 0.37 77 2719 164 2616 196 1543 
8332 0.5365826455302104 0.27485394882494896 0.9208755779520592 0 0 0 0.22 77 2720 85 1789 110 1482 118 2377 214 1502 223 299 109 927 
8333 0.25674255263747775 0.33228071521398955 1.01255627083018 0 0 0 0.38 61 2168 77 2721 113 1009 128 1377 157 1557 172 1361 176 1852 148 2171 164 2617 179 472 213 2689 219 1020 227 1030 50 2246 2 2132 4 2425 11 2467 41 446 209 343 
8334 0.28533762761733833 0.32796880049926175 1.0050642177994615 0 0 0 0.47 77 2722 118 2378 164 2618 176 1853 213 2690 231 734 126 1074 148 2172 142 582 92 2073 146 2270 157 1558 227 1031 4 2426 11 2468 16 1291 27 902 
8335 0.17421113785217288 0.35493841429117595 1.0430377254111787 0 0 0 0.39 77 2723 221 1560 224 943 
8336 0.34400532314893734 0.3175194754612515 0.9779745724278145 0 0 0 0.37 77 2724 118 2379 176 1854 213 2691 214 1503 148 2173 232 1961 11 2469 16 1292 38 1273 28 906 
8337 0.3999466639306249 0.30659942943218216 0.9593659862070026 0 0 0 0.41 61 2169 77 2725 92 2074 96 1559 110 1483 113 1010 146 2271 164 2619 204 1426 213 2692 214 1504 85 1790 148 2174 176 1855 194 1122 196 1544 219 1021 232 1962 4 2427 11 2470 16 1293 17 1896 27 903 38 1274 50 2247 187 613 
8338 0.14978803883884914 0.3303005285288295 0.9476648216258142 0 0 0 0.62 77 2726 126 1075 159 1386 164 2620 
8339 0.39755355258109637 0.3088169490820966 0.9584987411268066 0 0 0 0.85 77 2727 92 2075 110 1484 113 1011 146 2272 164 2621 194 1123 188 162 213 2693 214 1505 222 1203 231 735 232 1963 1 737 26 1173 43 1024 176 1856 4 2428 11 2471 15 806 17 1897 38 1275 217 763 28 907 16 1294 44 2621 50 2248 61 2170 93 920 175 713 200 1457 124 947 98 719 
8340 0.15165555969821887 0.33103855438409935 0.9504724738475111 0 0 0 0.65 77 2728 159 1387 164 2622 148 2175 
8341 0.4595636332188601 0.2967770118991424 0.9388015459140778 0 0 0 0.35 77 2729 92 2076 164 2623 188 163 194 1124 196 1545 200 1458 11 2472 93 921 124 948 98 720 
8342 0.6242215461041507 0.26774483106358427 0.896296501110934 0 0 0 0.33 77 2730 118 2380 164 2624 213 2694 11 2473 17 1898 
8343 0.3227634166777144 0.32677026113863045 0.9850478525947259 0 0 0 0.31 77 2731 92 2077 96 1560 110 1485 113 1012 118 2381 146 2273 164 2625 176 1857 213 2695 147 1176 148 2176 4 2429 11 2474 16 1295 17 1899 194 1125 28 908 
8344 0.4805846273822041 0.29943146431685513 0.9357465560419663 0 0 0 1.02 77 2732 92 2078 118 2382 146 2274 213 2696 43 1025 89 678 147 1177 172 1362 4 2430 15 807 16 1296 17 1900 27 904 11 2475 204 1427 28 909 96 1561 234 1139 
8345 0.4968191084957706 0.29750413048661717 0.9282551025173204 0 0 0 0.62 1 738 77 2733 85 1791 110 1486 118 2383 172 1363 213 2697 214 1506 223 300 53 2122 222 1204 234 1140 43 1026 44 2622 50 2249 69 670 89 679 13 767 158 1350 175 714 16 1297 52 1045 109 928 196 1546 217 764 227 1032 2 2133 15 808 27 905 208 300 220 1016 
8346 0.6191493711734911 0.277955198429592 0.894430888840441 0 0 0 0.52 53 2123 54 823 62 711 63 1064 71 1358 77 2734 85 1792 105 794 110 1487 118 2384 127 1245 146 2275 164 2626 194 1126 196 1547 214 1507 220 1017 148 2177 184 1303 197 1100 232 1964 235 1836 43 1027 165 1819 4 2431 11 2476 29 1282 50 2250 52 1046 40 841 60 1931 
8347 0.41398975037322694 0.31595360324777527 0.9481189978228254 0 0 0 0.71 77 2735 213 2698 214 1508 85 1793 110 1488 148 2178 164 2627 188 164 194 1127 222 1205 4 2432 11 2477 17 1901 27 906 38 1276 118 2385 172 1364 187 614 
8348 0.33413752434690425 0.3362602461795798 0.9723354240836438 0 0 0 0.33 77 2736 92 2079 110 1489 113 1013 118 2386 146 2276 164 2628 176 1858 204 1428 213 2699 214 1509 43 1028 4 2433 11 2478 16 1298 17 1902 25 955 26 1174 38 1277 53 2124 27 907 172 1365 219 1022 232 1965 28 910 187 615 126 1076 148 2179 147 1178 229 350 
8349 0.2586173445306055 0.35348860728445675 0.9996858819815435 0 0 0 0.28 77 2737 110 1490 164 2629 33 1854 
8350 0.5282530356880318 0.3008900066681594 0.9206388471023619 0 0 0 0.77 77 2738 85 1794 92 2080 
8351 0.3111330490992742 0.3434658101101686 0.9821426248049855 0 0 0 0.56 77 2739 111 1411 164 2630 96 1562 176 1859 204 1429 213 2700 219 1023 43 1029 25 956 28 911 157 1559 
8352 0.459140574461451 0.3138213521870767 0.9321447103585377 0 0 0 0.66 1 739 44 2623 61 2171 77 2740 85 1795 110 1491 146 2277 164 2631 172 1366 194 1128 196 1548 220 1018 231 736 148 2180 152 658 14 538 50 2251 9 978 11 2479 17 1903 19 1459 25 957 27 908 33 1855 38 1278 158 1351 200 1459 52 1047 93 922 13 768 234 1141 187 616 124 949 
8353 0.5704646402805394 0.29465185544943406 0.9019804820862224 0 0 0 0.62 77 2741 213 2701 214 1510 135 713 164 2632 
8354 0.536755846469165 0.30426853724627817 0.9094391011695107 0 0 0 0.36 77 2742 85 1796 96 1563 110 1492 118 2387 164 2633 194 1129 213 2702 214 1511 223 301 135 714 146 2278 148 2181 158 1352 163 606 175 715 182 591 196 1549 200 1460 231 737 2 2134 4 2434 9 979 11 2480 17 1904 19 1460 25 958 33 1856 38 1279 44 2624 50 2252 60 1932 111 1412 52 1048 109 929 142 583 126 1077 93 923 13 769 32 1070 124 950 107 604 
8355 0.5612102780495597 0.3047674917114414 0.9028190617592492 0 0 0 0.24 77 2743 92 2081 96 1564 118 2388 213 2703 4 2435 11 2481 38 1280 54 824 
8356 0.2823197193713839 0.3643403803399539 0.9809158839734409 0 0 0 0.53 44 2625 77 2744 92 2082 164 2634 194 1130 162 1345 33 1857 
8357 0.4611250146300877 0.32752202290709015 0.9245806793449112 0 0 0 0.15 77 2745 110 1493 214 1512 
8358 0.5416428263149202 0.31894832681687857 0.9021050283078741 0 0 0 0.44 77 2746 194 1131 223 302 43 1030 50 2253 148 2182 2 2135 4 2436 9 980 60 1933 172 1367 93 924 13 770 
8359 0.35177450191687076 0.15000578839437617 1.039062852642108 0 0 0 0.35 77 2747 146 2279 196 1550 214 1513 92 2083 159 1388 36 792 40 842 
8360 0.402010742153279 0.14309121752321743 1.015560506104958 0 0 0 0.38 71 1359 77 2748 159 1389 185 954 
8361 0.4546207139330888 0.1359913201476683 1.0018335069979016 0 0 0 0.49 26 1175 44 2626 61 2172 71 1360 73 1086 77 2749 85 1797 126 1078 127 1246 136 1334 146 2280 164 2635 214 1514 220 1019 147 1179 148 2183 159 1390 176 1860 9 981 25 959 29 1283 158 1353 222 1206 142 584 
8362 0.22509970637992538 0.17709675012517684 1.0932252094535595 0 0 0 0.52 44 2627 77 2750 92 2084 196 1551 224 944 126 1079 146 2281 159 1391 19 1461 36 793 40 843 229 351 107 605 
8363 0.5356065930544782 0.12624578404505957 0.9860279655634883 0 0 0 0.36 77 2751 118 2389 213 2704 181 485 227 1033 50 2254 69 671 9 982 19 1462 40 844 44 2628 85 1798 2 2136 3 1142 4 2437 11 2482 15 809 17 1905 29 1284 126 1080 127 1247 136 1335 138 169 148 2184 164 2636 176 1861 179 473 185 955 190 1130 198 854 204 1430 217 765 219 1024 220 1020 221 1561 222 1207 232 1966 25 960 63 1065 142 585 159 1392 162 1346 1 740 56 522 103 1028 182 592 
8364 0.4254861742890373 0.14658215384649143 1.01355277053742 0 0 0 0.66 77 2752 217 766 220 1021 
8365 0.15484842972156507 0.1961154760277171 1.12265945912498 0 0 0 0.56 77 2753 103 1029 128 1378 196 1552 224 945 85 1799 148 2185 164 2637 4 2438 17 1906 19 1463 40 845 113 1014 229 352 
8366 0.24979762632476218 0.1840438650340184 1.0974393774567346 0 0 0 0.24 77 2754 220 1022 224 946 
8367 0.5094411605549239 0.13887736495584915 0.9888369662559703 0 0 0 0.44 14 539 61 2173 77 2755 85 1800 111 1413 118 2390 128 1379 179 474 213 2705 221 1562 
8368 0.4170895166571654 0.15993232226834492 1.0114455931392912 0 0 0 0.85 14 540 77 2756 96 1565 146 2282 176 1862 204 1431 28 912 50 2255 19 1464 85 1801 
8369 0.13280402133960745 0.20379957503941973 0.9684032273277204 0 0 0 0.91 77 2757 126 1081 159 1393 164 2638 21 376 229 353 
8370 0.2577205334470321 0.21079558098301607 1.0614481430660818 0 0 0 0.4 77 2758 113 1015 118 2391 146 2283 159 1394 164 2639 176 1863 196 1553 204 1432 224 947 50 2256 2 2137 11 2483 17 1907 32 1071 33 1858 40 846 219 1025 232 1967 28 913 0 763 96 1566 
8371 0.1557048772926278 0.2323599540844038 1.1049042585907165 0 0 0 0.62 77 2759 92 2085 196 1554 85 1802 159 1395 2 2138 4 2439 19 1465 40 847 60 1934 113 1016 148 2186 36 794 110 1494 164 2640 224 948 44 2629 109 930 21 377 
8372 0.14188776659594382 0.22442932267982643 0.9803730672964617 0 0 0 0.67 77 2760 159 1396 164 2641 196 1555 110 1495 148 2187 
8373 0.16103532071152313 0.2431740259986617 1.0988968263189962 0 0 0 0.37 77 2761 196 1556 224 949 
8374 0.1408183851024195 0.23459874893432425 0.9711257854121746 0 0 0 0.66 77 2762 126 1082 159 1397 164 2642 196 1557 110 1496 148 2188 
8375 0.14359389876085957 0.2361274011464214 0.9739636647889414 0 0 0 0.33 77 2763 159 1398 164 2643 110 1497 
8376 0.16235337090239624 0.24922232127755733 1.0912564291757612 0 0 0 0.55 77 2764 220 1023 224 950 
8377 0.15478204772074458 0.2714297131507783 1.0948887785230934 0 0 0 0.45 26 1176 77 2765 92 2086 159 1399 164 2644 148 2189 224 951 44 2630 2 2139 19 1466 21 378 
8378 0.14280226396298068 0.256260933533013 0.9701054315215504 0 0 0 0.81 77 2766 126 1083 159 1400 164 2645 196 1558 224 952 110 1498 148 2190 2 2140 19 1467 142 586 21 379 42 598 229 354 
8379 0.14502597350354268 0.2580471579600471 0.9702419215360166 0 0 0 0.68 77 2767 164 2646 196 1559 159 1401 148 2191 224 953 
8380 0.14919907241357266 0.26197275650466156 0.9839030468945386 0 0 0 0.63 77 2768 159 1402 196 1560 126 1084 148 2192 164 2647 
8381 0.6132856770927765 0.19229850068161478 0.9334727200569759 0 0 0 0.04 77 2769 111 1414 159 1403 
8382 0.1356736519412226 0.29775884694766774 1.089740785224971 0 0 0 0.54 77 2770 164 2648 224 954 126 1085 148 2193 19 1468 40 848 21 380 44 2631 
8383 0.7237651846402338 0.1705149208277767 0.8080759920193749 0 0 0 0.38 77 2771 105 795 118 2392 
