# 3D point list with one line of data per point:
#   POINT3D_ID, X, Y, Z, R, G, B, ERROR, TRACK[] as (IMAGE_ID, POINT2D_IDX)
# Number of points: 255, mean track length: 16.64
234 0.5415411591529846 0.11471114307641983 1.1346567869186401 124 124 125 2.06 18 195 19 199 20 200 21 201 22 211 23 207 24 174 26 157 35 144 36 165 37 150 38 213 39 201 40 199 42 176 43 180 
235 0.40201857686042786 0.21101652085781097 0.6262385249137878 44 50 55 5.71 22 212 23 208 24 175 26 158 36 166 38 214 39 202 40 200 43 181 6 20 8 25 9 26 11 27 12 25 14 20 18 196 19 200 20 201 21 202 41 21 42 177 47 21 5 21 
236 -0.700248738147947 0.19549476172093155 1.0703837242511631 44 46 45 0.96 0 0 1 0 2 0 3 1 4 5 5 22 9 27 10 26 11 28 12 26 13 21 14 21 15 21 16 20 17 24 98 0 99 0 
237 -0.4947244705968507 -0.02369967626848223 0.829155409473211 126 121 117 1.35 0 1 1 1 2 1 3 2 4 6 7 25 8 26 9 28 10 27 11 29 12 27 13 22 14 22 15 22 16 21 17 25 98 1 99 1 
238 -0.4300680938992178 -0.17008153996090425 0.7858814428339048 19 15 15 3.87 0 2 1 2 2 2 3 3 4 7 5 23 6 21 7 26 8 27 9 29 10 28 11 30 12 28 13 23 14 23 15 23 16 22 17 26 18 197 19 201 98 2 99 2 
239 -0.3277138885868854 0.20859377103827914 0.40824769909863023 69 77 54 8.5 0 3 1 3 2 3 3 4 4 8 5 24 6 22 7 27 8 28 9 30 11 31 
240 -0.4230751346907024 -0.20704649074516204 0.7792395641271758 161 152 141 2.73 0 4 1 4 2 4 3 5 4 9 5 25 6 23 7 28 8 29 9 31 10 29 11 32 12 29 13 24 14 24 15 24 16 23 17 27 19 202 98 3 99 3 
241 -0.4364172312745292 0.2501453669817315 0.7007530436111935 54 46 48 1.99 0 5 1 5 2 5 3 6 4 10 5 26 6 24 7 29 8 30 9 32 10 30 11 33 12 30 13 25 14 25 15 25 16 24 17 28 19 203 
242 -0.40044012555644803 -0.09909889338570317 0.7192557848628628 138 136 133 2.6 0 6 1 6 2 6 3 7 5 27 6 25 7 30 8 31 9 33 10 31 11 34 12 31 13 26 14 26 15 26 16 25 17 29 98 4 99 4 
243 -0.3259655742925268 0.20243180964460147 0.5493438982762461 143 132 124 3.06 0 7 1 7 2 7 3 8 4 11 5 28 6 26 7 31 8 32 9 34 10 32 11 35 12 32 13 27 14 27 15 27 16 26 17 30 20 202 98 5 99 5 
244 -0.4736013507597133 0.09797833847483728 0.7739440249396776 57 49 49 1.41 0 8 1 8 2 8 3 9 7 32 8 33 9 35 10 33 11 36 12 33 13 28 14 28 15 28 16 27 17 31 98 6 99 6 
245 -0.6243096402919293 0.15760710467091416 0.9665416339550321 103 104 105 0.78 0 9 1 9 2 9 3 10 4 12 5 29 8 34 9 36 10 34 11 37 12 34 13 29 14 29 15 29 16 28 17 32 98 7 99 7 
246 -0.6836761274037482 0.2996416474262946 0.7034192967748611 35 45 25 3.58 0 10 1 10 2 10 3 11 4 13 5 30 6 27 7 33 8 35 9 37 10 35 11 38 12 35 13 30 15 30 98 8 99 8 
247 -0.7220114046885489 0.2710213081469206 0.7716281061776591 35 37 43 1.52 0 11 1 11 2 11 3 12 4 14 5 31 6 28 7 34 8 36 9 38 10 36 11 39 12 36 13 31 15 31 98 9 99 9 
248 -0.630850828264739 0.13539413435647568 0.9818503869334672 141 126 108 0.72 0 12 1 12 2 12 3 13 4 15 5 32 9 39 10 37 11 40 12 37 13 32 14 30 15 32 16 29 17 33 98 10 99 10 
249 -0.48660723815177725 0.22147249828219479 0.7612695687985508 154 151 148 1.28 0 13 1 13 2 13 3 14 4 16 5 33 6 29 7 35 8 37 9 40 10 38 11 41 12 38 13 33 14 31 15 33 16 30 17 34 98 11 99 11 
250 -0.28773461991120086 -0.23914194022014149 0.597132208037233 140 129 114 2.83 0 14 1 14 3 15 4 17 5 34 6 30 7 36 8 38 9 41 10 39 11 42 12 39 13 34 14 32 15 34 16 31 17 35 22 213 26 159 38 215 98 12 99 12 
251 -0.4119943887891183 -0.1745750302661997 0.7527181754128386 150 145 142 2.63 0 15 1 15 2 14 3 16 4 18 6 31 7 37 8 39 9 42 10 40 11 43 12 40 13 35 14 33 15 35 16 32 17 36 19 204 98 13 99 13 
252 -0.4330149101607326 0.18117247734507747 0.7167047199903852 72 67 75 2.45 0 16 1 16 2 15 3 17 4 19 6 32 7 38 8 40 9 43 10 41 11 44 12 41 13 36 14 34 15 36 16 33 17 37 19 205 98 14 99 14 
253 -0.5873822826862811 0.2829017652853847 0.6450621502789936 61 56 52 2.65 0 17 1 17 2 16 3 18 4 20 5 35 6 33 7 39 8 41 9 44 10 42 11 45 12 42 13 37 14 35 15 37 98 15 99 15 
254 -0.4710766981131109 0.16086206515079218 0.7591147358076169 97 81 80 1.91 0 18 1 18 2 17 3 19 4 21 6 34 7 40 8 42 9 45 10 43 11 46 12 43 13 38 14 36 15 38 16 34 17 38 98 16 99 16 
255 -0.3963957622608517 0.19506837193761617 0.42967450188654727 145 158 177 3.74 0 19 1 19 2 18 3 20 4 22 5 36 6 35 7 41 8 43 9 46 10 44 11 47 12 44 13 39 14 37 99 17 
256 -0.4752071953374816 -0.15516842280061507 0.8374857791549917 61 55 56 2.19 0 20 1 20 2 19 3 21 4 23 5 37 6 36 7 42 8 44 9 47 10 45 11 48 12 45 13 40 14 38 15 39 16 35 17 39 19 206 98 17 99 18 
257 -0.6418910117791007 0.052996844656863044 1.0157010909751711 149 155 159 1.67 0 21 1 21 2 20 3 22 4 24 5 38 9 48 10 46 11 49 12 46 13 41 14 39 15 40 16 36 17 40 18 198 98 18 99 19 
258 -0.6640967872130987 0.12224170244020942 1.0410665685962859 129 123 114 0.89 0 22 1 22 2 21 3 23 4 25 5 39 9 49 10 47 11 50 12 47 13 42 14 40 15 41 16 37 17 41 98 19 99 20 
259 -0.4408031433054091 0.046825346667014794 0.7387537919456829 122 94 90 1.75 0 23 1 23 2 22 3 24 4 26 7 43 8 45 9 50 10 48 11 51 12 48 13 43 14 41 15 42 16 38 17 42 98 20 99 21 
260 -0.4030282355190131 0.01841726057314373 0.6935230681209829 115 105 101 2.29 0 24 1 24 2 23 3 25 6 37 7 44 8 46 9 51 10 49 11 52 12 49 13 44 14 42 15 43 16 39 17 43 98 21 99 22 
261 -0.41807701557955307 0.2507799154620983 0.6403561217283009 80 78 60 4.17 0 25 1 25 2 24 3 26 4 27 5 40 6 38 7 45 8 47 9 52 10 50 11 53 12 50 13 45 14 43 15 44 16 40 17 44 98 22 99 23 
262 -0.47165220509218336 0.16770690887214867 0.7572233685877495 115 104 102 1.84 0 26 1 26 2 25 3 27 4 28 6 39 7 46 8 48 9 53 10 51 11 54 12 51 13 46 14 44 15 45 16 41 17 45 98 23 99 24 
263 -0.41325354917135304 0.10679296662482943 0.7013613239626423 34 24 26 3.6 0 27 1 27 2 26 3 28 6 40 7 47 8 49 9 54 10 52 11 55 12 52 13 47 14 45 15 46 16 42 17 46 19 207 98 24 99 25 
264 -0.46569965324719187 -0.12555498471146684 0.8313934416195775 179 195 208 3.8 0 28 1 28 2 27 3 29 4 29 5 41 6 41 7 48 8 50 9 55 10 53 11 56 12 53 13 48 14 46 15 47 16 43 17 47 18 199 19 208 98 25 99 26 
265 -0.42755089570785393 -0.031065247380770735 0.7335211983089276 98 97 99 1.82 0 29 1 29 2 28 3 30 6 42 7 49 8 51 9 56 10 54 11 57 12 54 13 49 14 47 15 48 16 44 17 48 98 26 99 27 
266 -0.4129341180084792 0.1750301202911952 0.6831681675806032 30 20 21 2.96 0 30 1 30 2 29 3 31 5 42 6 43 7 50 8 52 9 57 10 55 11 58 12 55 13 50 14 48 15 49 16 45 17 49 19 209 98 27 99 28 
267 -0.3172994109799747 0.20620985699530062 0.523206472447842 84 85 82 4.0 0 31 1 31 2 30 3 32 4 30 5 43 6 44 7 51 8 53 9 58 10 56 11 59 12 56 13 51 14 49 15 50 16 46 17 50 98 28 99 29 
268 -0.6551773893703191 0.26184095792646855 0.7245220236851712 103 97 109 1.58 0 32 1 32 2 31 3 33 4 31 5 44 6 45 7 52 8 54 9 59 10 57 11 60 12 57 13 52 14 50 15 51 98 29 99 30 
269 -0.4663337213274351 0.06694413772390172 0.7706723424089988 83 68 75 2.04 0 33 1 33 2 32 3 34 4 32 7 53 8 55 9 60 10 58 11 61 12 58 13 53 14 51 15 52 16 47 17 51 98 30 99 31 
270 -0.6058711097577902 0.05784147067931096 0.9674041366864847 93 85 82 1.24 0 34 1 34 2 33 3 35 4 33 8 56 9 61 10 59 11 62 12 59 13 54 14 52 15 53 16 48 17 52 98 31 99 32 
271 -0.6688631970518588 0.2694504897160804 0.751203719116972 91 66 74 1.79 0 35 1 35 2 34 3 36 4 34 5 45 6 46 7 54 8 57 9 62 10 60 11 63 12 60 13 55 14 53 15 54 98 32 99 33 
272 -0.6852775567449819 0.2941325520454194 0.7303706844739993 43 61 34 1.34 0 36 1 36 2 35 3 37 4 35 5 46 6 47 7 55 8 58 9 63 10 61 11 64 12 61 13 56 15 55 98 33 99 34 
273 -0.6646565425726417 0.15172840708713495 1.0296389185667647 123 111 99 0.63 0 37 1 37 2 36 3 38 4 36 5 47 9 64 10 62 11 65 12 62 13 57 14 54 15 56 16 49 17 53 98 34 99 35 
274 -0.6390168945824186 0.27307356584510784 0.696302418032765 119 123 133 1.66 0 38 1 38 2 37 3 39 4 37 5 48 6 48 7 56 8 59 9 65 10 63 11 66 12 63 13 58 14 55 15 57 98 35 99 36 
275 -0.4632160241195884 -0.05230077286821596 0.8108469938502836 197 212 225 3.47 0 39 1 39 2 38 3 40 4 38 6 49 7 57 8 60 9 66 10 64 11 67 12 64 13 59 14 56 15 58 16 50 17 54 18 200 19 210 98 36 99 37 
276 -0.45829770037778084 0.15443696849601027 0.754628972614728 71 55 58 2.46 0 40 1 40 2 39 3 41 4 39 6 50 7 58 8 61 9 67 10 65 11 68 12 65 13 60 14 57 15 59 16 51 17 55 19 211 98 37 99 38 
277 -0.4872827170259814 -0.08516366865768132 0.8357821577227856 152 148 139 1.81 0 41 1 41 2 40 3 42 4 40 6 51 7 59 8 62 9 68 10 66 11 69 12 66 13 61 14 58 15 60 16 52 17 56 98 38 99 39 
278 -0.6400814395548302 0.09088573505057541 1.0055374135931683 74 68 68 0.61 0 42 1 42 2 41 3 43 4 41 5 49 9 69 10 67 11 70 12 67 13 62 14 59 15 61 16 53 17 57 98 39 99 40 
279 -0.4915359151936162 0.27480652720034154 0.7226872098464383 98 91 78 2.44 0 43 1 43 2 42 3 44 4 42 5 50 6 52 7 60 8 63 9 70 10 68 11 71 12 68 13 63 14 60 15 62 16 54 17 58 
280 -0.5542522408591868 0.09015966380460914 0.8745202639296835 186 199 217 1.15 0 44 1 44 2 43 3 45 4 43 8 64 9 71 10 69 11 72 12 69 13 64 14 61 15 63 16 55 17 59 98 40 99 41 
281 -0.40900604160011295 0.04190574420555855 0.6968090039424161 150 143 135 2.0 0 45 1 45 2 44 3 46 6 53 7 61 8 65 9 72 10 70 11 73 12 70 13 65 14 62 15 64 16 56 17 60 98 41 99 42 
282 -0.45570156143103235 0.24367046152890678 0.7287994972478353 70 53 60 1.64 0 46 1 46 2 45 3 47 4 44 5 51 6 54 7 62 8 66 9 73 10 71 11 74 12 71 13 66 14 63 15 65 16 57 17 61 
283 -0.4084664592784445 0.19137901943361071 0.6640817680635372 145 136 128 2.05 0 47 1 47 2 46 3 48 4 45 5 52 6 55 7 63 8 67 9 74 10 72 11 75 12 72 13 67 14 64 15 66 16 58 17 62 98 42 99 43 
284 0.8448968489741675 0.31838373506435136 1.1397913304020968 76 73 77 6.66 35 145 39 203 40 201 41 22 42 178 43 182 46 19 47 22 48 25 49 24 
285 0.5969676076478709 0.1745373615659655 1.6210613590883192 128 122 117 5.39 41 23 42 179 43 183 46 20 47 23 48 26 49 25 
286 0.7682812050050762 0.34562746259788485 1.3620619485496108 58 52 50 6.68 41 24 42 180 43 184 46 21 47 24 48 27 49 26 
287 0.9297309116620034 0.3734559431122458 1.3781199468285164 31 34 40 4.76 46 22 47 25 48 28 49 27 
288 0.1629887123632768 -0.02436333131005228 0.6500101138464637 115 116 119 3.03 4 46 5 53 6 56 7 64 8 68 9 75 10 73 11 76 12 73 13 68 14 65 15 67 16 59 17 63 18 201 19 212 20 203 21 203 22 214 23 209 26 160 36 167 38 216 39 204 40 202 41 25 42 181 43 185 46 23 47 26 48 29 49 28 
289 0.6915312022070272 0.06849640691069045 1.2865581212552228 114 118 127 4.24 6 57 7 65 8 69 9 76 19 213 20 204 22 215 23 210 35 146 36 168 37 151 38 217 39 205 40 203 41 26 42 182 43 186 46 24 47 27 48 30 49 29 
290 0.7999524595708527 0.2956679759539615 1.336065505127529 86 72 68 7.29 21 204 35 147 37 152 41 27 42 183 43 187 46 25 47 28 48 31 49 30 
291 0.8015019796560464 0.1795710521250881 1.333316600507577 62 39 39 5.2 6 58 7 66 8 70 20 205 35 148 41 28 42 184 43 188 46 26 47 29 48 32 49 31 
292 0.9114370143590965 0.3744238769217685 1.358587607997465 29 29 34 7.66 43 189 46 27 47 30 48 33 
293 0.47448443649381433 0.5172624671416783 1.7242365216492646 84 98 112 1.67 46 28 47 31 48 34 49 32 
294 0.6924261155250019 0.2853257609970889 1.222898104193317 36 25 28 6.65 6 59 7 67 8 71 22 216 35 149 37 153 38 218 39 206 40 204 41 29 42 185 43 190 46 29 47 32 48 35 49 33 
295 0.2848521728747873 -0.16124897567556415 0.7798253932647953 60 56 54 3.58 4 47 5 54 6 60 7 68 8 72 9 77 10 74 11 77 12 74 13 69 14 66 15 68 16 60 17 64 18 202 19 214 20 206 21 205 22 217 23 211 26 161 36 169 37 154 38 219 39 207 40 205 41 30 42 186 43 191 46 30 47 33 48 36 49 34 
296 0.5170979260535041 -0.1377601070157196 0.9600631677923612 207 219 226 3.65 7 69 8 73 9 78 10 75 11 78 12 75 13 70 14 67 15 69 16 61 17 65 18 203 19 215 20 207 21 206 22 218 23 212 35 150 36 170 37 155 38 220 39 208 40 206 41 31 42 187 43 192 46 31 47 34 48 37 49 35 
297 0.6382018989733794 -0.17210698458064738 1.0539248091641913 51 47 44 5.14 7 70 8 74 9 79 10 76 11 79 12 76 13 71 14 68 15 70 16 62 17 66 18 204 19 216 20 208 21 207 35 151 37 156 38 221 39 209 40 207 41 32 42 188 43 193 46 32 47 35 48 38 49 36 
298 0.7280627847715915 0.1042107960560368 1.4719731563812335 135 130 126 5.51 41 33 42 189 43 194 46 33 47 36 48 39 49 37 
299 0.8412888437592358 0.31988145965885384 1.1845748030486771 25 23 28 5.45 35 152 39 210 40 208 41 34 42 190 43 195 46 34 47 37 48 40 49 38 
300 0.8028927688412162 0.38904167404374446 1.4932935931590532 45 45 41 3.53 46 35 47 38 48 41 49 39 
301 0.7878190835643024 0.29061171585553575 1.2890534000801848 95 82 81 6.82 35 153 41 35 42 191 43 196 46 36 47 39 48 42 49 40 
302 0.6741983805293671 0.03836535279066673 1.2687263025021938 122 120 116 5.54 6 61 7 71 8 75 9 80 10 77 19 217 20 209 22 219 35 154 37 157 38 222 39 211 40 209 41 36 42 192 43 197 46 37 47 40 48 43 49 41 
303 0.26255955768128975 0.2160323337691175 0.8858207034603166 65 46 41 3.91 5 55 6 62 7 72 8 76 9 81 10 78 11 80 12 77 13 72 14 69 15 71 18 205 19 218 20 210 21 208 26 162 39 212 40 210 41 37 42 193 43 198 46 38 47 41 48 44 49 42 
304 0.6571345461730096 -0.006087028732981687 1.2682250779578603 137 134 126 6.02 6 63 7 73 8 77 9 82 10 79 17 67 20 211 23 213 35 155 36 171 37 158 38 223 39 213 40 211 41 38 42 194 43 199 46 39 47 42 48 45 49 43 18 206 19 219 
305 0.8338102198524782 -0.09241372495531588 1.4141105068615905 138 155 166 5.79 20 212 41 39 42 195 43 200 46 40 47 43 48 46 49 44 
306 0.7609278623514486 0.29903021224869036 1.2628438258486128 119 119 118 5.86 6 64 8 78 35 156 41 40 42 196 43 201 46 41 47 44 48 47 49 45 
307 0.8037282860987678 0.22631857496107477 1.3492204940760417 121 118 116 6.13 20 213 21 209 35 157 41 41 42 197 43 202 46 42 47 45 48 48 49 46 
308 0.8085523030493824 0.0094788833770684 1.3935879212543452 134 132 127 5.36 20 214 41 42 42 198 43 203 46 43 47 46 48 49 49 47 
309 0.4336385034097378 0.11671253349730887 1.8351606139910293 135 129 124 5.61 40 212 41 43 42 199 43 204 46 44 47 47 48 50 49 48 
310 0.6134687007649156 -0.03160175527287073 1.2399756797554158 122 121 119 5.75 5 56 6 65 7 74 8 79 9 83 10 80 17 68 20 215 21 210 35 158 36 172 37 159 38 224 39 214 40 213 41 44 42 200 43 205 46 45 47 48 48 51 49 49 
311 0.579014636086768 0.24622246266161038 1.6252781462251897 105 90 82 5.66 40 214 41 45 42 201 46 46 47 49 48 52 49 50 
312 0.2473820442160049 0.4023366097104894 1.989299508374693 94 91 88 4.06 40 215 46 47 47 50 48 53 49 51 
313 0.7958640911855229 0.13026221827111306 1.3417230506871116 137 137 134 4.91 6 66 7 75 8 80 9 84 20 216 35 159 41 46 42 202 43 206 46 48 47 51 48 54 49 52 
314 0.7853495050303391 0.2173704676649773 1.373692617533095 124 122 118 6.15 41 47 42 203 43 207 46 49 47 52 48 55 49 53 
315 0.7294140938419323 0.2651794855965047 1.2674145261646939 93 102 111 3.87 6 67 7 76 8 81 21 211 22 220 23 214 35 160 37 160 38 225 39 215 40 216 41 48 42 204 43 208 46 50 47 53 48 56 49 54 
316 0.9099992658683516 0.3732344004826709 1.3729116265121282 15 19 23 5.23 46 51 47 54 48 57 49 55 
317 0.24807748740995664 -0.18608680468781644 0.7636745084560776 220 230 232 4.75 5 57 6 68 7 77 8 82 9 85 10 81 11 81 12 78 13 73 14 70 15 72 16 63 17 69 18 207 19 220 20 217 21 212 22 221 23 215 26 163 36 173 37 161 38 226 39 216 40 217 41 49 42 205 43 209 46 52 47 55 48 58 49 56 
318 0.764907393548728 0.17032306506815434 1.4100324163609186 107 99 96 5.96 41 50 42 206 43 210 46 53 47 56 48 59 49 57 
319 0.5782064861791599 0.166723064548463 1.646127994530381 123 120 116 6.18 40 218 41 51 42 207 43 211 46 54 47 57 48 60 49 58 
320 0.5274964883768622 -0.16784434416326596 1.8102006156122163 21 19 30 5.53 41 52 42 208 43 212 46 55 47 58 48 61 49 59 
321 0.7833836472122528 0.24787218617682877 1.368682798416608 103 92 88 5.93 21 213 41 53 42 209 43 213 46 56 47 59 48 62 49 60 
322 0.14525151218048513 -0.23916349606227819 0.6944885451223854 164 172 178 3.34 4 48 5 58 6 69 7 78 8 83 9 86 10 82 11 82 12 79 13 74 14 71 15 73 16 64 17 70 18 208 19 221 20 218 21 214 22 222 23 216 26 164 36 174 38 227 39 217 40 219 41 54 42 210 43 214 46 57 47 60 48 63 49 61 
323 0.5148943330991389 -0.14057284366243358 1.7900452579218764 37 32 30 5.48 40 220 41 55 42 211 43 215 46 58 47 61 48 64 49 62 
324 0.7038906936844052 -0.031091042874292082 1.3382463518340542 110 123 136 5.28 6 70 7 79 8 84 9 87 10 83 19 222 21 215 22 223 35 161 37 162 38 228 39 218 40 221 41 56 42 212 43 216 46 59 47 62 48 65 49 63 
325 0.4443127845697829 0.19097067105554186 1.0468617842656982 72 75 82 4.5 5 59 6 71 7 80 8 85 9 88 10 84 11 83 12 80 13 75 17 71 18 209 19 223 20 219 21 216 22 224 35 162 38 229 39 219 40 222 41 57 42 213 43 217 46 60 47 63 48 66 49 64 
326 1.0123537071316249 0.3506149397957341 1.2754525943409394 82 78 85 6.61 46 61 47 64 48 67 49 65 
327 0.7091932786715466 0.006173874462118317 1.516053079241418 122 115 109 6.3 40 223 41 58 42 214 43 218 46 62 47 65 48 68 49 66 
328 0.12158002548881265 -0.27300055697991893 0.6650056417452707 18 14 18 5.22 4 49 5 60 6 72 7 81 8 86 9 89 10 85 11 84 12 81 13 76 14 72 15 74 16 65 17 72 36 175 38 230 39 220 40 224 41 59 42 215 43 219 46 63 47 66 48 69 49 67 
329 0.5799079092740327 -0.0248542070250929 0.9762726762298279 68 52 45 3.69 4 50 7 82 8 87 9 90 10 86 11 85 12 82 13 77 14 73 15 75 16 66 17 73 18 210 19 224 20 220 21 217 22 225 23 217 26 165 35 163 36 176 37 163 38 231 39 221 40 225 41 60 42 216 43 220 46 64 47 67 48 70 49 68 
330 0.4825422054528942 0.07232431842464729 1.783374653065359 122 120 118 5.16 40 226 41 61 42 217 43 221 46 65 47 68 48 71 49 69 
331 0.837421429451664 0.3176538683635815 1.0928631711326475 48 47 49 6.17 41 62 42 218 43 222 46 66 47 69 48 72 49 70 
332 0.5080922514508939 0.22174195601629612 1.7191770440295149 123 118 114 6.24 40 227 41 63 42 219 43 223 46 67 47 70 48 73 49 71 
333 0.8677070190364287 0.3119857335464394 1.1983043200901349 39 42 41 6.91 35 164 39 222 40 228 41 64 42 220 43 224 46 68 47 71 48 74 49 72 
334 0.2240955260015818 0.15205918267129193 0.6644541606045714 70 62 64 4.71 4 51 5 61 6 73 7 83 8 88 9 91 10 87 11 86 12 83 13 78 14 74 15 76 16 67 17 74 18 211 36 177 39 223 40 229 41 65 42 221 43 225 46 69 47 72 48 75 49 73 3 49 
335 0.47695768084204987 0.19538944179722983 0.8680075053205986 101 88 80 4.53 4 52 5 62 8 89 9 92 10 88 11 87 12 84 13 79 14 75 15 77 16 68 17 75 18 212 19 225 20 221 21 218 22 226 23 218 40 230 41 66 42 222 43 226 46 70 47 73 48 76 49 74 
336 0.32185649245363873 -0.23216460729482813 0.8149124674766568 186 195 195 4.37 6 74 7 84 8 90 9 93 10 89 11 88 12 85 13 80 14 76 15 78 16 69 17 76 18 213 19 226 20 222 21 219 22 227 23 219 26 166 35 165 36 178 37 164 38 232 39 224 40 231 41 67 42 223 43 227 46 71 47 74 48 77 49 75 
337 0.806868680652404 0.3782447983120523 1.4116009005870456 28 22 19 7.34 42 224 43 228 46 72 47 75 48 78 49 76 
338 0.6931187796273368 0.24194210079608025 1.2488809255032445 31 39 42 6.49 6 75 7 85 8 91 19 227 20 223 22 228 35 166 37 165 38 233 39 225 40 232 41 68 42 225 43 229 46 73 47 76 48 79 49 77 
339 0.7844723041172684 -0.05925146535860839 1.3840887685327377 100 106 110 5.0 20 224 41 69 42 226 43 230 46 74 47 77 48 80 49 78 
340 0.7262067994948157 0.3037404347075379 1.067688153618191 41 39 40 4.17 36 179 37 166 38 234 39 226 40 233 41 70 42 227 43 231 46 75 47 78 48 81 49 79 
341 0.5919493357822841 0.13502667738758636 0.9824006547407667 84 88 90 3.78 4 53 5 63 6 76 8 92 9 94 10 90 11 89 12 86 13 81 14 77 16 70 17 77 18 214 19 228 20 225 21 220 22 229 23 220 26 167 35 167 36 180 37 167 38 235 39 227 40 234 41 71 42 228 43 232 46 76 47 79 48 82 49 80 
342 0.6880134564211876 0.23219187943769456 1.242401529156723 116 136 158 6.31 6 77 7 86 8 93 19 229 20 226 22 230 35 168 37 168 38 236 39 228 40 235 41 72 42 229 43 233 46 77 47 80 48 83 49 81 
343 0.25295697497733444 0.14550183943710043 2.0431968542119234 94 88 83 4.57 40 236 41 73 42 230 43 234 46 78 47 81 48 84 49 82 
344 0.6840580239165744 0.1617218840503063 1.2613088703935327 32 28 27 4.81 6 78 7 87 8 94 9 95 19 230 20 227 22 231 23 221 35 169 36 181 37 169 38 237 39 229 40 237 41 74 42 231 43 235 46 79 47 82 48 85 49 83 
345 0.4440884398600884 -0.02898761544740741 0.9158114746213377 87 75 65 5.81 4 54 5 64 9 96 10 91 11 90 12 87 13 82 14 78 15 79 16 71 17 78 18 215 19 231 20 228 21 221 22 232 23 222 26 168 36 182 37 170 38 238 39 230 40 238 41 75 42 232 43 236 46 80 47 83 48 86 49 84 
346 0.24730708412114377 0.10161227699885658 2.0637041306931625 107 98 95 4.69 40 239 41 76 42 233 43 237 46 81 47 84 48 87 49 85 
347 0.3865926980594717 -0.13320231412994799 0.8599626113347986 129 129 130 5.64 4 55 5 65 7 88 8 95 9 97 10 92 11 91 12 88 13 83 14 79 15 80 16 72 17 79 36 183 37 171 38 239 39 231 40 240 41 77 42 234 43 238 46 82 47 85 48 88 49 86 
348 0.8132258697488248 0.19693060842926133 1.338960921035764 122 112 109 5.56 6 79 20 229 41 78 42 235 43 239 46 83 47 86 48 89 49 87 
349 0.7608938364508825 0.09196509940074732 1.3239672048825992 112 113 119 5.46 6 80 7 89 8 96 9 98 18 216 20 230 35 170 37 172 39 232 40 241 41 79 42 236 43 240 46 84 47 87 48 90 49 88 
350 0.5681430617720193 0.27963214086963295 0.7839857431797906 32 30 32 3.96 12 89 19 232 20 231 21 222 22 233 23 223 26 169 35 171 36 184 38 240 39 233 40 242 41 80 42 237 43 241 46 85 47 88 48 91 
351 0.8130644244938943 0.05418601700564271 1.3762607834231204 107 100 101 5.15 6 81 7 90 8 97 9 99 18 217 20 232 41 81 42 238 43 242 46 86 47 89 48 92 49 89 
352 0.9899224415617837 0.3318419159781542 1.2036216531941444 66 53 54 4.41 46 87 47 90 48 93 49 90 
353 0.7977547138293477 -0.0652788787057995 1.4391530027578898 78 76 75 4.92 41 82 43 243 46 88 47 91 48 94 49 91 
354 0.3360709714835502 -0.17306806712987377 0.8281852373368214 216 226 228 3.89 7 91 8 98 9 100 10 93 11 92 12 90 13 84 14 80 15 81 16 73 17 80 18 218 19 233 20 233 21 223 22 234 23 224 36 185 37 173 38 241 39 234 40 243 41 83 42 239 43 244 46 89 47 92 48 95 49 92 
355 0.7502309090035231 0.14621327088768618 1.3007014796863936 117 106 105 6.12 6 82 7 92 8 99 9 101 21 224 35 172 37 174 38 242 39 235 40 244 41 84 42 240 43 245 46 90 47 93 48 96 49 93 
356 0.7905847808925095 0.19855565547174805 1.318554030501975 118 119 119 4.98 6 83 7 93 8 100 20 234 35 173 41 85 42 241 43 246 46 91 47 94 48 97 49 94 
357 0.8043145293702808 0.020333311018335416 1.3780779547005826 138 138 136 4.54 6 84 7 94 8 101 9 102 20 235 41 86 42 242 43 247 46 92 47 95 48 98 49 95 
358 1.0098295067002203 0.3853339238631515 1.4225145445791798 17 20 24 5.25 46 93 47 96 48 99 49 96 
359 0.6857984814570836 0.19405391528035745 1.5030209556094745 116 108 104 6.46 40 245 41 87 42 243 43 248 46 94 47 97 48 100 49 97 
360 0.7032894607658794 0.30280002287398744 1.2121174162329629 76 71 70 6.62 6 85 22 235 23 225 35 174 37 175 38 243 39 236 40 246 41 88 42 244 43 249 46 95 47 98 48 101 49 98 
361 0.7169721371479719 0.047476764986185305 1.4983975554341376 139 133 127 6.22 40 247 41 89 42 245 43 250 46 96 47 99 48 102 49 99 
362 0.7814374980779762 0.16128696994523026 1.3214266644192205 119 117 115 4.55 6 86 7 95 8 102 20 236 35 175 41 90 42 246 43 251 46 97 47 100 48 103 49 100 
363 0.5949203148615281 0.18582033876131254 0.971119336916377 70 72 73 4.28 4 56 5 66 6 87 8 103 9 103 10 94 11 93 12 91 13 85 14 81 16 74 17 81 18 219 19 234 20 237 21 225 22 236 23 226 26 170 35 176 36 186 37 176 38 244 39 237 40 248 41 91 42 247 43 252 46 98 47 101 48 104 49 101 
364 0.8007995006068527 0.15871676739032184 1.3385812760587452 124 120 115 5.12 6 88 7 96 8 104 20 238 35 177 41 92 42 248 43 253 46 99 47 102 48 105 49 102 
365 0.5529402830500841 -0.013885682644331716 1.711325722349345 135 129 122 5.65 40 249 41 93 42 249 43 254 46 100 47 103 48 106 49 103 
366 0.7430753169943718 0.15364564436827705 1.2934463595936856 121 108 100 5.78 6 89 7 97 8 105 9 104 18 220 21 226 35 178 37 177 38 245 39 238 40 250 41 94 42 250 43 255 46 101 47 104 48 107 49 104 
367 0.6838380228518888 0.10589207627812772 1.2576777960873777 82 70 68 5.36 6 90 7 98 8 106 9 105 10 95 19 235 20 239 22 237 23 227 35 179 36 187 37 178 38 246 39 239 40 251 41 95 42 251 43 256 46 102 47 105 48 108 49 105 
368 0.8227031365311812 0.336188992556821 1.437905104161052 23 30 22 3.91 46 103 47 106 48 109 49 106 
369 0.509396861051645 0.2638749277801781 1.0428468511273379 66 62 55 4.29 5 67 6 91 7 99 8 107 9 106 10 96 18 221 22 238 23 228 26 171 35 180 36 188 38 247 41 96 42 252 43 257 46 104 47 107 48 110 49 107 
370 0.7938739940457717 0.23805707064440437 1.3102638789633714 120 117 113 6.09 7 100 20 240 35 181 41 97 42 253 43 258 46 105 47 108 48 111 49 108 
371 0.6410564527891529 0.2826109503807263 1.147587116627596 35 32 33 4.53 6 92 7 101 8 108 20 241 35 182 41 98 42 254 43 259 46 106 47 109 48 112 49 109 
372 0.16373833014325526 -0.22975854698750706 0.7085336078180824 196 211 215 3.71 4 57 5 68 6 93 7 102 8 109 9 107 10 97 11 94 12 92 13 86 14 82 15 82 16 75 17 82 18 222 19 236 20 242 21 227 22 239 23 229 26 172 36 189 38 248 39 240 40 252 41 99 42 255 43 260 46 107 47 110 48 113 49 110 
373 0.5503631514390667 -0.14476187891682243 1.1818752240931194 11 11 14 5.37 35 183 36 190 37 179 38 249 39 241 40 253 41 100 42 256 43 261 46 108 47 111 48 114 49 111 
374 0.8231922394314629 0.3249109545360683 1.0500677387976607 59 63 30 6.86 35 184 39 242 41 101 42 257 43 262 46 109 47 112 48 115 49 112 
375 0.8122668567267122 0.15290069703694006 1.3555835159773468 117 112 111 5.51 8 110 20 243 41 102 42 258 43 263 46 110 47 113 48 116 49 113 
376 0.9633789434274034 0.3405763479795706 1.2338101800311483 82 84 89 6.66 43 264 46 111 47 114 48 117 49 114 
377 0.4095707390050161 0.23541663985834443 0.7392796316688873 18 19 22 6.82 4 58 8 111 9 108 10 98 11 95 12 93 13 87 14 83 17 83 18 223 19 237 36 191 38 250 39 243 40 254 41 103 42 259 43 265 46 112 
378 0.5934564471096796 -0.078027049391731 1.237011951559729 41 37 35 5.63 6 94 8 112 9 109 10 99 17 84 18 224 20 244 21 228 22 240 26 173 35 185 36 192 37 180 38 251 39 244 40 255 41 104 42 260 43 266 46 113 47 115 48 118 49 115 
379 0.8109179027930954 0.29939505301467334 1.3082243615095086 120 117 117 7.16 35 186 41 105 42 261 43 267 46 114 47 116 48 119 49 116 
380 0.8208815070898805 0.3146851791889626 1.4475057878567095 13 17 10 7.42 35 187 43 268 46 115 47 117 48 120 49 117 
381 0.4830659399856899 -0.07321432884826921 1.8083482138759892 147 149 146 4.78 40 256 41 106 42 262 43 269 46 116 47 118 48 121 49 118 
382 0.7432327562014518 -0.05472116730734335 1.351330695261691 104 105 108 6.62 6 95 7 103 9 110 10 100 35 188 37 181 39 245 40 257 41 107 42 263 43 270 46 117 47 119 48 122 49 119 
383 0.6950660781362092 0.05535511688496554 1.3105977978337644 122 181 215 5.03 6 96 7 104 8 113 9 111 19 238 20 245 22 241 23 230 35 189 36 193 37 182 38 252 39 246 40 258 41 108 42 264 43 271 46 118 47 120 48 123 49 120 
384 0.3916293655357785 -0.34726175810298204 0.9001023106820227 157 165 174 2.38 7 105 8 114 9 112 10 101 11 96 12 94 13 88 14 84 15 83 16 76 17 85 18 225 19 239 20 246 21 229 22 242 23 231 37 183 38 253 39 247 40 259 41 109 42 265 43 272 46 119 47 121 48 124 49 121 
385 0.4511024100356572 0.15563414932792283 0.8671364490834965 94 84 79 8.08 4 59 5 69 8 115 9 113 10 102 12 95 14 85 15 84 19 240 20 247 21 230 22 243 23 232 26 174 36 194 38 254 39 248 40 260 41 110 42 266 43 273 46 120 47 122 48 125 49 122 
386 0.45592960876658745 0.09922070917066397 0.8819064188776439 67 66 64 5.93 4 60 5 70 8 116 9 114 10 103 11 97 12 96 13 89 14 86 15 85 16 77 17 86 18 226 19 241 20 248 21 231 22 244 23 233 26 175 35 190 36 195 37 184 38 255 39 249 40 261 41 111 42 267 43 274 46 121 47 123 48 126 49 123 
387 0.29924433682139023 -0.01746478221323283 0.7956638808931641 65 57 56 6.49 4 61 5 71 6 97 7 106 8 117 13 90 14 87 15 86 16 78 20 249 21 232 22 245 23 234 26 176 35 191 36 196 37 185 38 256 39 250 40 262 41 112 42 268 43 275 46 122 47 124 48 127 49 124 
388 0.7611530788520908 -0.026245056068881743 1.3569175784541998 143 145 142 4.88 6 98 7 107 9 115 35 192 41 113 42 269 43 276 46 123 47 125 48 128 49 125 
389 0.3089334484864206 0.5563971877366908 1.9224999503284823 25 23 18 4.26 43 277 46 124 47 126 48 129 49 126 
390 0.44143020495329244 0.2760550146270494 1.7903884861013526 94 82 79 4.78 40 263 41 114 43 278 46 125 47 127 48 130 49 127 
391 0.7612605109551802 0.19556066436705408 1.2951960622268062 116 113 113 5.79 6 99 7 108 8 118 20 250 21 233 35 193 37 186 40 264 41 115 42 270 43 279 46 126 47 128 48 131 49 128 
392 0.7993418936519782 -0.03804194168857388 1.3904389086329823 73 79 86 5.14 20 251 41 116 42 271 43 280 46 127 47 129 48 132 49 129 
393 0.8084378586732616 0.13680813856612295 1.3514139368253657 129 124 120 5.56 7 109 8 119 20 252 35 194 41 117 42 272 43 281 46 128 47 130 48 133 49 130 
394 0.7654937522362248 0.25682944432106314 1.2807581492529376 116 117 116 5.76 6 100 7 110 21 234 35 195 41 118 42 273 43 282 46 129 47 131 48 134 49 131 
395 0.3047975916682888 0.013344767538261259 0.7871984556308018 65 65 66 6.92 4 62 5 72 6 101 7 111 8 120 9 116 10 104 11 98 12 97 13 91 14 88 15 87 16 79 17 87 18 227 19 242 20 253 21 235 22 246 23 235 26 177 35 196 36 197 37 187 38 257 39 251 40 265 41 119 42 274 43 283 46 130 47 132 48 135 49 132 
396 0.8205819586876425 0.29565472482245103 1.1571327187638105 14 15 17 5.79 35 197 37 188 38 258 39 252 40 266 41 120 42 275 43 284 46 131 47 133 48 136 49 133 
397 0.6554557327941151 0.21799001070982252 1.5344169743997753 92 78 70 6.24 40 267 41 121 42 276 43 285 46 132 47 134 48 137 49 134 
398 0.41234359619258454 0.15757266793061592 1.8522429168090717 104 103 100 5.63 40 268 41 122 42 277 43 286 46 133 47 135 48 138 49 135 
399 0.3880438798731378 -0.04512228251113009 1.9577830226647468 18 14 16 5.18 40 269 41 123 42 278 43 287 46 134 47 136 48 139 49 136 
400 0.46002246667595836 -0.07536864176831866 1.8368805071901875 131 140 138 4.7 40 270 41 124 42 279 43 288 46 135 47 137 48 140 49 137 
401 0.7648854430364581 0.006600480816440744 1.4486986885979205 128 121 112 5.43 41 125 42 280 43 289 46 136 47 138 48 141 49 138 
402 0.8155279504440532 0.31792901092986064 1.3058146669700001 112 108 105 6.66 41 126 42 281 43 290 46 137 47 139 48 142 49 139 
403 0.13425161889193787 0.04481592537196577 0.6522985969096617 124 124 127 3.57 4 63 5 73 6 102 7 112 8 121 9 117 10 105 11 99 12 98 13 92 14 89 15 88 16 80 17 88 18 228 19 243 20 254 21 236 26 178 36 198 38 259 39 253 40 271 41 127 42 282 43 291 46 138 47 140 48 143 49 140 
404 -0.6840818294900525 0.25315413535553427 0.4958750722755637 79 63 71 2.54 0 48 1 48 2 47 3 50 4 64 5 74 6 103 7 113 8 122 9 118 10 106 11 100 
405 -0.03282642982204688 -0.1353718209009563 0.7620618080283057 140 124 116 5.91 5 75 6 104 7 114 8 123 9 119 10 107 11 101 12 99 13 93 14 90 15 89 16 81 17 89 26 179 36 199 37 189 38 260 40 272 41 128 47 141 48 144 49 141 
406 -0.4329473987179446 0.25300516061933426 0.6447545959508157 92 81 63 2.02 0 49 1 49 2 48 3 51 4 65 5 76 6 105 7 115 8 124 9 120 10 108 11 102 12 100 13 94 14 91 15 90 16 82 17 90 98 43 99 44 
407 -0.19343331259890853 0.15523012137437533 0.3696281513177315 77 67 69 2.06 1 50 2 49 5 77 6 106 7 116 8 125 9 121 10 109 11 103 12 101 13 95 14 92 15 91 17 91 
408 -0.5613907997868129 0.2334303494844835 0.865049211602518 63 69 58 3.58 0 50 1 51 2 50 3 52 4 66 5 78 7 117 8 126 9 122 10 110 11 104 12 102 13 96 14 93 15 92 16 83 17 92 18 229 98 44 99 45 
409 -0.689359179458799 0.1805477330428974 1.0637788293524673 78 76 77 2.12 0 51 1 52 2 51 3 53 4 67 5 79 6 107 8 127 9 123 10 111 11 105 12 103 13 97 14 94 15 93 16 84 17 93 18 230 98 45 99 46 
410 0.10708767421511374 -0.17593789857618666 0.7033899015887733 142 150 158 2.19 4 68 5 80 6 108 7 118 8 128 9 124 10 112 11 106 12 104 13 98 14 95 15 94 16 85 17 94 18 231 19 244 20 255 21 237 22 247 23 236 26 180 38 261 39 254 40 273 41 129 42 283 43 292 46 139 
411 -0.6468499119490584 0.27998241207502783 0.9730642333023627 42 40 43 1.14 0 52 1 53 2 52 3 54 4 69 5 81 6 109 7 119 8 129 9 125 10 113 11 107 12 105 13 99 14 96 15 95 16 86 17 95 98 46 99 47 
412 -0.23545553602257677 0.1949369886748569 0.33114786425895365 125 90 98 1.85 2 53 5 82 6 110 7 120 8 130 9 126 10 114 11 108 12 106 
413 -0.6854370582397612 0.033915639558860636 0.23614209559120652 59 78 47 4.35 2 54 3 55 4 70 5 83 6 111 7 121 8 131 40 274 
414 -0.8587169740957362 0.30491768822929877 0.8973714278195999 16 22 27 2.93 0 53 1 54 2 55 3 56 4 71 5 84 6 112 7 122 8 132 9 127 10 115 11 109 98 47 99 48 
415 -0.5131509658372211 0.25847933990006505 0.5512415817394908 72 60 59 1.53 0 54 1 55 2 56 3 57 4 72 5 85 6 113 7 123 8 133 9 128 10 116 11 110 12 107 13 100 98 48 99 49 
416 -0.42978643922841886 0.21346796371959798 0.43440591533719153 59 81 47 0.94 0 55 1 56 2 57 3 58 4 73 5 86 6 114 7 124 8 134 9 129 10 117 11 111 12 108 13 101 14 97 
417 -0.3302428846659926 -0.264012661275245 0.6417135296426718 105 95 96 2.17 0 56 1 57 2 58 3 59 4 74 5 87 6 115 7 125 8 135 9 130 10 118 11 112 12 109 13 102 14 98 15 96 16 87 17 96 21 238 22 248 98 49 99 50 
418 -0.6736019691032297 0.23849873975904212 0.772403773705698 50 48 51 2.7 0 57 1 58 2 59 3 60 4 75 5 88 6 116 7 126 8 136 9 131 10 119 11 113 12 110 13 103 14 99 15 97 98 50 99 51 
419 -0.2894711361023807 0.16447565841236156 0.5040804063851144 167 164 156 1.6 0 58 1 59 2 60 3 61 4 76 5 89 6 117 7 127 8 137 9 132 10 120 11 114 12 111 13 104 14 100 15 98 16 88 17 97 26 181 38 262 98 51 99 52 
420 0.028986337578636116 0.16950945450133972 0.46394795794034743 12 18 14 4.82 1 60 2 61 5 90 6 118 7 128 8 138 9 133 10 121 11 115 12 112 13 105 14 101 15 99 16 89 17 98 18 232 19 245 20 256 21 239 22 249 23 237 26 182 36 200 40 275 41 130 46 140 47 142 48 145 
421 -0.3310268962265889 -0.12427156064936747 0.623251260104341 153 149 143 1.04 0 59 1 61 2 62 3 62 4 77 5 91 6 119 7 129 8 139 9 134 10 122 11 116 12 113 13 106 14 102 15 100 16 90 17 99 98 52 99 53 
422 -0.6966751774095986 0.16715381527454412 0.28497636174173624 44 44 45 2.92 1 62 2 63 3 63 4 78 5 92 6 120 7 130 8 140 
423 -0.22572429690178342 0.21581143662357782 0.4151073182595895 103 90 94 2.15 0 60 1 63 2 64 3 64 4 79 5 93 6 121 7 131 8 141 9 135 10 123 11 117 12 114 13 107 
424 0.1294034238780204 0.17013132160353522 0.5872573325842839 149 144 149 5.34 2 65 3 65 4 80 5 94 6 122 7 132 8 142 9 136 10 124 18 233 19 246 20 257 21 240 22 250 23 238 26 183 36 201 38 263 39 255 40 276 41 131 42 284 43 293 46 141 47 143 48 146 
425 -0.6814286672600888 0.2940363180707573 0.6949001632935857 57 79 43 2.65 0 61 1 64 2 66 3 66 4 81 5 95 6 123 7 133 8 143 9 137 10 125 11 118 12 115 13 108 15 101 98 53 99 54 
426 -0.7020841936311293 0.06391111707107967 0.24255883038493345 28 39 23 7.08 3 67 4 82 5 96 6 124 7 134 
427 -0.21713801896979962 -0.20964511188451523 0.6417171456713082 78 66 66 4.61 0 62 4 83 5 97 6 125 7 135 8 144 9 138 10 126 11 119 12 116 13 109 14 103 15 102 16 91 17 100 18 234 19 247 20 258 21 241 22 251 23 239 26 184 38 264 40 277 41 132 48 147 49 142 
428 -0.6801750541699054 0.24234805266804843 1.042544589956888 55 39 42 0.94 0 63 1 65 2 67 3 68 4 84 5 98 6 126 8 145 9 139 10 127 11 120 12 117 13 110 14 104 15 103 16 92 17 101 98 54 99 55 
429 -0.3352191606622438 0.11012236931288151 0.574512736872356 106 99 94 1.04 0 64 1 66 4 85 5 99 6 127 7 136 8 146 9 140 10 128 11 121 12 118 13 111 14 105 15 104 16 93 17 102 40 278 98 55 99 56 
430 -0.29557900625146366 -0.12106984864562559 0.5757567504533978 183 175 165 1.28 0 65 3 69 4 86 5 100 6 128 7 137 8 147 9 141 10 129 11 122 12 119 13 112 14 106 15 105 16 94 17 103 26 185 98 56 99 57 
431 -0.6428343988690977 -0.24699279682537756 1.0750304604171346 112 96 87 3.72 0 66 1 67 2 68 3 70 4 87 5 101 7 138 8 148 9 142 10 130 11 123 12 120 13 113 14 107 15 106 16 95 17 104 18 235 19 248 
432 0.15127602366241763 -0.020654749178441293 0.6818319409895844 137 141 146 4.04 4 88 5 102 6 129 7 139 8 149 9 143 10 131 11 124 12 121 13 114 14 108 15 107 16 96 17 105 18 236 19 249 20 259 21 242 22 252 23 240 26 186 36 202 38 265 39 256 40 279 41 133 42 285 43 294 46 142 47 144 48 148 
433 0.014636285754013526 0.23709231537498032 0.635986332895233 106 102 110 3.76 3 71 4 89 5 103 6 130 7 140 8 150 9 144 10 132 11 125 12 122 13 115 14 109 
434 -0.2940602114987369 -0.25710691765991955 0.5984895812614255 77 66 61 1.7 0 67 1 68 2 69 3 72 4 90 5 104 6 131 7 141 8 151 9 145 10 133 11 126 12 123 13 116 14 110 15 108 16 97 17 106 26 187 38 266 98 57 99 58 
435 -0.8159030900752471 0.28570427534826537 0.8433749067914655 19 25 33 4.16 0 68 1 69 2 70 3 73 4 91 5 105 6 132 7 142 8 152 9 146 10 134 11 127 
436 -0.28612453573540486 0.13292251945959382 0.504864642141077 170 160 150 2.3 0 69 3 74 4 92 5 106 6 133 7 143 8 153 9 147 10 135 11 128 12 124 13 117 14 111 15 109 16 98 17 107 26 188 36 203 38 267 49 143 98 58 99 59 
437 -0.667075189951099 -0.20991308155276495 1.0064102955981475 111 104 86 3.17 0 70 1 70 2 71 3 75 4 93 5 107 6 134 7 144 8 154 9 148 10 136 11 129 12 125 13 118 14 112 15 110 16 99 17 108 99 60 
438 -0.2942238618475438 -0.27313454181236246 0.5890373916696865 155 171 187 1.75 0 71 1 71 2 72 3 76 4 94 5 108 6 135 7 145 8 155 9 149 10 137 11 130 12 126 13 119 14 113 15 111 16 100 17 109 26 189 38 268 98 59 99 61 
439 -0.0014086725931081801 -0.17266873813865144 0.793201344518957 55 58 67 4.01 5 109 6 136 7 146 8 156 9 150 10 138 11 131 12 127 13 120 14 114 15 112 16 101 17 110 18 237 19 250 20 260 21 243 22 253 23 241 39 257 40 280 41 134 47 145 48 149 49 144 
440 -0.786278914016795 -0.01963436412426155 0.896552645013748 82 89 62 3.5 0 72 1 72 2 73 3 77 4 95 5 110 6 137 7 147 8 157 9 151 10 139 11 132 12 128 13 121 15 113 98 60 99 62 
441 -0.6738875759727536 0.20552800823023634 1.0471304843468565 60 44 45 1.06 0 73 1 73 2 74 3 78 4 96 5 111 6 138 8 158 9 152 10 140 11 133 12 129 13 122 14 115 15 114 16 102 17 111 98 61 99 63 
442 -0.8278018154044964 0.3342393957312041 0.88995799883312 61 59 61 2.74 0 74 1 74 2 75 3 79 4 97 5 112 6 139 7 148 8 159 9 153 10 141 11 134 98 62 99 64 
443 -0.7397956313392681 0.21803997173586115 1.1230307244822344 45 53 45 1.46 0 75 1 75 2 76 3 80 4 98 5 113 6 140 9 154 10 142 11 135 12 130 13 123 14 116 15 115 16 103 17 112 99 65 
444 0.11467115601849373 -0.26260603609214883 0.6787046206796999 68 66 68 3.18 0 76 3 81 4 99 5 114 6 141 7 149 8 160 9 155 10 143 11 136 12 131 13 124 14 117 15 116 16 104 17 113 18 238 19 251 20 261 21 244 22 254 23 242 26 190 38 269 39 258 40 281 41 135 42 286 43 295 46 143 47 146 48 150 49 145 
445 -0.3306217736990179 -0.2720558538067719 0.6463321417490655 95 99 100 2.88 0 77 1 76 2 77 3 82 4 100 5 115 6 142 7 150 8 161 9 156 10 144 11 137 12 132 13 125 14 118 15 117 16 105 17 114 18 239 19 252 21 245 98 63 99 66 
446 -0.6765387176580069 -0.18717647609378002 0.3661072202748283 255 241 237 5.08 1 77 4 101 5 116 6 143 7 151 40 282 41 136 
447 -0.779305465897911 0.3182219891749221 0.8294294185177015 69 68 69 1.92 0 78 1 78 2 78 3 83 4 102 5 117 6 144 7 152 8 162 9 157 10 145 11 138 12 133 13 126 98 64 99 67 
448 -0.1668694668927953 -0.05938215591783577 0.6323379266850999 89 85 81 3.74 4 103 5 118 6 145 7 153 8 163 9 158 10 146 11 139 12 134 13 127 14 119 15 118 16 106 17 115 18 240 19 253 20 262 21 246 22 255 23 243 26 191 39 259 40 283 49 146 
449 -0.28485754750135417 -0.28388842498667216 0.5852832677253531 35 35 38 4.37 0 79 1 79 2 79 3 84 4 104 5 119 6 146 7 154 8 164 9 159 10 147 11 140 12 135 13 128 14 120 15 119 16 107 17 116 18 241 19 254 20 263 22 256 26 192 38 270 99 68 
450 -0.5797695104248106 0.22391316485724755 0.7360756638309489 201 209 227 3.14 0 80 1 80 2 80 3 85 4 105 5 120 6 147 7 155 8 165 9 160 10 148 11 141 12 136 13 129 14 121 15 120 16 108 98 65 99 69 
451 -0.8770118093144382 0.30906110266347653 0.9102502021623979 18 21 23 3.44 0 81 1 81 2 81 3 86 4 106 5 121 6 148 7 156 8 166 9 161 10 149 98 66 99 70 
452 -0.27477994885015905 0.18367735584513287 0.48428911113265627 140 111 101 1.66 0 82 1 82 2 82 3 87 4 107 5 122 6 149 7 157 8 167 9 162 10 150 11 142 12 137 13 130 14 122 15 121 16 109 17 117 26 193 98 67 99 71 
453 -0.09495905025603381 -0.03887730368894657 0.6821527240834951 107 88 83 6.41 4 108 5 123 6 150 7 158 8 168 9 163 10 151 11 143 12 138 13 131 14 123 36 204 38 271 39 260 40 284 48 151 49 147 
454 -0.6829262273033433 0.24915076669885905 0.4798535890754652 81 66 73 3.01 0 83 1 83 2 83 3 88 4 109 5 124 6 151 7 159 8 169 9 164 10 152 11 144 
455 -0.6723832539746588 0.21913902864874146 1.0434826463108586 45 34 35 1.05 0 84 1 84 2 84 3 89 4 110 5 125 6 152 8 170 9 165 10 153 11 145 12 139 13 132 14 124 15 122 16 110 17 118 98 68 99 72 
456 -0.21966587848888278 -0.07361736052125799 0.597433221396475 121 111 108 3.68 4 111 5 126 6 153 7 160 8 171 9 166 10 154 11 146 12 140 13 133 14 125 15 123 16 111 17 119 18 242 19 255 20 264 21 247 22 257 23 244 26 194 36 205 38 272 49 148 
457 -0.3644172056351389 0.16073043546066212 0.6041964648447741 160 149 134 1.13 0 85 1 85 2 85 3 90 4 112 5 127 6 154 7 161 8 172 9 167 10 155 11 147 12 141 13 134 14 126 15 124 16 112 17 120 98 69 99 73 
458 -0.6822307115303622 -0.2143083104973816 1.0043037549708937 58 78 46 6.34 0 86 1 86 2 86 3 91 4 113 5 128 6 155 7 162 8 173 9 168 10 156 11 148 12 142 13 135 14 127 15 125 16 113 17 121 99 74 
459 -0.6172796023769108 0.2304569881857751 0.6965103691360275 164 172 191 1.29 0 87 1 87 2 87 3 92 4 114 5 129 6 156 7 163 8 174 9 169 10 157 11 149 12 143 13 136 14 128 15 126 98 70 99 75 
460 0.14006050635771733 -0.15972769686566116 0.6733750277928306 65 60 63 2.83 3 93 4 115 5 130 6 157 7 164 8 175 9 170 10 158 11 150 12 144 13 137 14 129 15 127 16 114 17 122 18 243 19 256 20 265 21 248 22 258 23 245 26 195 38 273 39 261 40 285 41 137 42 287 43 296 46 144 47 147 48 152 49 149 
461 -0.17278291813472912 -0.20350234977541973 0.6771802873806827 34 25 27 2.64 3 94 4 116 5 131 6 158 7 165 8 176 9 171 10 159 11 151 12 145 13 138 14 130 15 128 16 115 17 123 18 244 22 259 26 196 39 262 40 286 48 153 49 150 
462 -0.5873017421900452 0.23514269008505487 0.714020988429048 167 176 193 1.2 0 88 1 88 2 88 3 95 4 117 5 132 6 159 7 166 8 177 9 172 10 160 11 152 12 146 13 139 14 131 15 129 98 71 99 76 
463 0.3227827217833175 0.1282795713824585 0.7178935884066305 129 130 130 2.75 4 118 5 133 6 160 7 167 8 178 9 173 10 161 11 153 12 147 13 140 14 132 15 130 16 116 17 124 18 245 19 257 20 266 21 249 22 260 23 246 26 197 35 198 36 206 37 190 38 274 39 263 40 287 41 138 42 288 43 297 46 145 47 148 48 154 49 151 
464 0.606598902592982 0.1493175950975275 1.180279841046388 128 124 124 3.45 6 161 7 168 8 179 9 174 10 162 11 154 17 125 18 246 19 258 20 267 21 250 22 261 26 198 35 199 36 207 37 191 38 275 39 264 40 288 41 139 42 289 43 298 46 146 47 149 48 155 49 152 
465 0.4515236932804702 -0.11050866093805 0.8859236229071055 73 64 59 4.58 5 134 7 169 8 180 9 175 10 163 11 155 12 148 13 141 14 133 15 131 16 117 17 126 18 247 19 259 20 268 21 251 22 262 23 247 26 199 35 200 36 208 37 192 38 276 39 265 40 289 41 140 42 290 43 299 46 147 47 150 48 156 49 153 
466 0.4740249671961672 0.2005785190512274 0.8648299631536784 75 70 64 5.21 4 119 8 181 9 176 10 164 11 156 12 149 13 142 14 134 15 132 16 118 17 127 18 248 19 260 20 269 21 252 22 263 23 248 26 200 35 201 36 209 37 193 38 277 39 266 40 290 41 141 42 291 43 300 46 148 47 151 48 157 49 154 
467 -0.05223581624388933 0.13061854818439744 0.6864736763557907 90 89 90 2.4 5 135 6 162 7 170 8 182 9 177 10 165 11 157 12 150 13 143 14 135 15 133 16 119 17 128 18 249 19 261 20 270 21 253 22 264 23 249 26 201 36 210 38 278 41 142 42 292 43 301 48 158 49 155 
468 0.6681068302168969 0.1963501958709929 1.2143075897653872 125 115 106 3.03 6 163 7 171 8 183 9 178 10 166 19 262 20 271 22 265 23 250 35 202 36 211 37 194 38 279 39 267 40 291 41 143 42 293 43 302 46 149 47 152 48 159 49 156 
469 0.5923862931481076 0.1356113538106456 1.1736697792691673 81 86 85 3.8 6 164 7 172 8 184 9 179 10 167 11 158 15 134 17 129 18 250 20 272 21 254 22 266 23 251 26 202 35 203 36 212 37 195 38 280 39 268 40 292 41 144 42 294 43 303 46 150 47 153 48 160 49 157 
470 0.5381671979025686 0.1616010579745595 1.148222445249661 63 75 83 2.73 6 165 7 173 8 185 9 180 10 168 11 159 12 151 15 135 18 251 19 263 21 255 22 267 23 252 26 203 35 204 36 213 37 196 38 281 39 269 40 293 41 145 42 295 43 304 46 151 47 154 48 161 49 158 20 273 
471 0.6375587207851388 0.26554570495902274 1.1659494719282715 133 127 123 3.91 6 166 8 186 10 169 11 160 19 264 20 274 35 205 36 214 37 197 38 282 39 270 40 294 41 146 42 296 43 305 46 152 47 155 48 162 49 159 
472 0.4789248003230727 0.23141401316635005 0.8328252926986142 28 24 25 2.62 11 161 12 152 13 144 14 136 16 120 17 130 18 252 19 265 20 275 21 256 22 268 23 253 26 204 35 206 36 215 37 198 38 283 39 271 40 295 41 147 42 297 43 306 
473 0.6378522689149313 0.29947484553862336 0.9251093313330615 60 62 68 4.72 11 162 12 153 13 145 18 253 19 266 20 276 21 257 22 269 23 254 35 207 36 216 38 284 39 272 40 296 46 153 47 156 48 163 49 160 
474 0.7721052345312047 0.30405850580289445 1.037406102691276 37 34 34 6.38 35 208 36 217 38 285 39 273 40 297 41 148 42 298 43 307 46 154 47 157 48 164 49 161 
475 0.5370263500607056 0.12388474375301542 1.1313885445592937 117 113 112 3.27 5 136 6 167 7 174 8 187 9 181 10 170 11 163 12 154 15 136 17 131 18 254 19 267 21 258 22 270 23 255 26 205 35 209 36 218 37 199 38 286 39 274 40 298 41 149 42 299 43 308 46 155 47 158 48 165 49 162 20 277 
476 0.15517074893936228 -0.02270008642769401 0.8716139169631751 60 49 44 2.37 5 137 6 168 7 175 8 188 9 182 10 171 11 164 12 155 13 146 14 137 15 137 16 121 17 132 18 255 19 268 20 278 21 259 22 271 23 256 26 206 36 219 37 200 38 287 39 275 41 150 42 300 43 309 46 156 47 159 48 166 49 163 
477 0.6016796197792516 0.03914995598424122 1.2130110607509021 65 71 74 3.41 6 169 7 176 8 189 9 183 10 172 11 165 17 133 18 256 20 279 21 260 22 272 26 207 35 210 36 220 37 201 38 288 39 276 40 299 41 151 42 301 43 310 46 157 47 160 48 167 49 164 
478 0.7081180784015959 0.31160071248099486 0.8903765308151628 57 50 48 6.21 8 190 9 184 10 173 12 156 35 211 36 221 40 300 41 152 47 161 48 168 
479 0.5688777567948814 -0.008059888336775204 0.9843232207655952 95 99 96 4.06 4 120 5 138 7 177 8 191 9 185 10 174 11 166 12 157 13 147 14 138 15 138 16 122 17 134 18 257 19 269 20 280 21 261 22 273 23 257 26 208 35 212 36 222 37 202 38 289 39 277 40 301 41 153 42 302 43 311 46 158 47 162 48 169 49 165 
480 0.032250936219656925 0.11802352161432045 0.725726927670902 27 26 29 4.87 5 139 6 170 7 178 8 192 9 186 10 175 11 167 12 158 13 148 14 139 15 139 16 123 17 135 18 258 19 270 20 281 26 209 36 223 37 203 38 290 39 278 40 302 41 154 42 303 43 312 47 163 48 170 49 166 
481 0.6040906070014621 -0.07609365835404222 1.0255975813327018 89 80 78 3.04 4 121 7 179 8 193 9 187 10 176 11 168 12 159 13 149 14 140 15 140 16 124 17 136 18 259 19 271 20 282 21 262 22 274 23 258 26 210 35 213 36 224 37 204 38 291 39 279 40 303 41 155 42 304 43 313 46 159 47 164 48 171 49 167 
482 0.39237478875507226 0.13383579915003863 1.0209138626929182 95 104 118 2.62 5 140 6 171 7 180 8 194 9 188 10 177 11 169 12 160 13 150 14 141 17 137 18 260 19 272 20 283 21 263 22 275 23 259 35 214 36 225 37 205 38 292 40 304 41 156 42 305 43 314 46 160 47 165 48 172 49 168 26 211 39 280 
483 0.6143560207544575 -0.080512517342825 1.25829327645554 117 109 102 3.29 6 172 10 178 11 170 17 138 19 273 20 284 21 264 35 215 36 226 37 206 38 293 39 281 40 305 41 157 42 306 43 315 46 161 47 166 48 173 49 169 
484 0.32507711950563234 0.0640751820816245 0.7381252669951023 135 137 138 3.56 4 122 5 141 7 181 8 195 9 189 10 179 11 171 12 161 13 151 14 142 15 141 16 125 17 139 18 261 19 274 20 285 21 265 22 276 23 260 26 212 35 216 36 227 37 207 38 294 39 282 40 306 41 158 42 307 43 316 46 162 47 167 48 174 49 170 
485 0.7587161328648488 0.2705636073272139 0.9137787180982702 28 36 24 6.05 7 182 8 196 9 190 12 162 35 217 36 228 38 295 39 283 40 307 41 159 42 308 43 317 46 163 47 168 48 175 
486 0.5607672854016612 0.26451658306611775 0.7280075406680702 22 24 28 5.78 8 197 9 191 12 163 20 286 21 266 22 277 23 261 26 213 35 218 36 229 38 296 39 284 40 308 41 160 42 309 43 318 47 169 
487 0.4969294392298308 0.2526562573709002 0.6799440144417986 24 25 30 6.12 8 198 9 192 12 164 21 267 22 278 23 262 26 214 35 219 36 230 38 297 39 285 40 309 41 161 42 310 43 319 47 170 20 287 
488 0.6545944840816149 0.3058855708960653 0.9501653024398078 42 41 42 4.33 4 123 10 180 11 172 12 165 13 152 14 143 18 262 19 275 20 288 21 268 22 279 23 263 35 220 36 231 38 298 40 310 43 320 46 164 47 171 48 176 49 171 
