# 3D point list with one line of data per point:
#   POINT3D_ID, X, Y, Z, R, G, B, ERROR, TRACK[] as (IMAGE_ID, POINT2D_IDX)
# Number of points: 436, mean track length: 6.12
255 -0.24260226454955222 0.10479101806529742 1.0308391369958527 0 0 0 0.48 19 63 224 85 229 255 
256 -0.353660402045488 -0.1790081648418591 0.8886605633512373 0 0 0 0.22 142 39 224 86 229 256 
257 -0.1269674454679374 -0.1362711176653908 1.056477714426086 0 0 0 0.35 19 64 40 60 85 106 142 40 196 114 229 257 
258 -0.35126437881801953 -0.015764276681551517 0.8931664348370782 0 0 0 0.02 142 41 159 72 229 258 
259 -0.15747435048889039 -0.1267793209964865 1.0611567243125752 0 0 0 0.23 19 65 148 140 229 259 
260 -0.3583811823774105 -0.13577348781719584 1.1017259197062514 0 0 0 0.35 19 66 27 62 42 32 126 24 142 42 148 141 198 11 199 5 229 260 
261 -0.14188637316009212 -0.10861947915269754 1.0560588095818502 0 0 0 0.31 19 67 27 63 142 43 196 115 220 27 224 87 229 261 
262 -0.3524020627609849 -0.10414286480455455 0.928690001394482 0 0 0 0.39 159 73 196 116 229 262 
263 -0.41022937160121636 -0.04131388358567265 1.0895632684842897 0 0 0 0.39 40 61 52 61 109 71 142 44 196 117 229 263 
264 -0.35099944116677395 -0.02828484255087582 0.8770667831250917 0 0 0 0.41 40 62 142 45 224 88 229 264 
265 0.010128552244652662 0.10556946915515954 1.000251316132794 0 0 0 0.48 19 68 33 97 42 33 142 46 162 23 196 118 220 28 229 265 
266 -0.351717157729121 -0.18435166431992403 0.8925757786470468 0 0 0 0.31 142 47 224 89 229 266 
267 -0.1335608984106043 -0.14618507654695914 1.0612318223690616 0 0 0 0.46 19 69 142 48 229 267 
268 -0.35044107091383137 -0.1301999138921657 0.9132251450767009 0 0 0 0.38 19 70 26 20 229 268 
269 -0.030766529282236697 -0.11250151625834191 1.035583080010718 0 0 0 0.46 19 71 26 21 27 64 33 98 38 50 40 63 71 23 77 108 127 29 142 49 148 142 164 96 196 119 199 6 229 269 
270 -0.35413739501075436 -0.10090441017356809 0.8883542155566426 0 0 0 0.31 40 64 142 50 159 74 229 270 
271 -0.369211995528551 -0.13065768451948304 1.0971905611543922 0 0 0 0.52 19 72 21 5 40 65 73 3 85 107 109 72 142 51 148 143 159 75 199 7 229 271 
272 -0.35772918281959204 -0.10268481389402549 0.8774935687904668 0 0 0 0.38 142 52 196 120 229 272 
273 -0.34835299231909433 -0.011037853264001557 0.9096450173464831 0 0 0 0.38 21 6 40 66 126 25 142 53 148 144 159 76 196 121 229 273 
274 -0.28714016300513046 -0.008100879180828639 1.0634202102911423 0 0 0 0.41 19 73 40 67 52 62 85 108 126 26 142 54 148 145 196 122 229 274 
275 -0.32613721857983946 0.09321847316940723 1.0462273021749924 0 0 0 0.7 19 74 77 109 196 123 229 275 
276 -0.3513872234422791 -0.09700052304045143 0.8984048930370255 0 0 0 0.37 21 7 224 90 229 276 
277 -0.352989244403729 -0.09498279977585691 0.8653786889337198 0 0 0 0.12 21 8 148 146 229 277 
278 -0.2990827646169524 -0.05503288322759184 1.07449512983158 0 0 0 0.13 21 9 40 68 44 71 162 24 229 278 
279 -0.34696729287051314 -0.06313705271885911 0.9382728440041558 0 0 0 0.15 21 10 148 147 229 279 
280 -0.34807852050532095 -0.04651282651264186 0.9271619253914115 0 0 0 0.18 21 11 196 124 229 280 
281 -0.38193675492839047 -0.18621820128340374 0.4873882294695961 0 0 0 0.98 21 12 224 91 229 281 
282 -0.3821014615180455 -0.18352574423039547 0.48527298780559774 0 0 0 0.6 21 13 224 92 229 282 
283 -0.37401027761135225 -0.12636551963430911 0.5432659627789975 0 0 0 0.26 21 14 224 93 229 283 
284 -0.37467512705960265 -0.1014692565112105 0.538930229083747 0 0 0 0.21 21 15 224 94 229 284 
285 -0.3492708463673574 -0.08977378914630116 0.8932101174896357 0 0 0 0.68 21 16 42 34 229 285 
286 -0.3491338214562807 -0.08974877781019161 0.8931515473415688 0 0 0 0.55 21 17 42 35 159 77 229 286 
287 -0.34963084925436444 -0.08870800494795365 0.9020224232035218 0 0 0 0.63 21 18 77 110 229 287 
288 -0.34966439979501923 -0.0870706248111137 0.9120986631831703 0 0 0 0.65 21 19 77 111 159 78 196 125 229 288 
289 -0.29669648124856524 -0.07895568376244153 1.0734356896615567 0 0 0 0.69 21 20 27 65 40 69 52 63 77 112 85 109 109 73 164 97 223 44 229 289 
290 -0.3675608169436423 -0.0735605434311608 0.6430955460545026 0 0 0 0.38 21 21 63 11 185 45 229 290 
291 -0.3680091239362632 -0.06558810474097983 0.644202957313979 0 0 0 0.1 21 22 63 12 229 291 
292 -0.34900056304763694 -0.047635221447924384 0.9195067335980261 0 0 0 0.2 21 23 224 95 229 292 
293 -0.3655823045630185 -0.04629453783653228 0.6421954686528086 0 0 0 0.25 21 24 142 55 229 293 
294 -0.34774616435463546 -0.028578008796121407 0.9111114808099315 0 0 0 0.31 21 25 42 36 77 113 142 56 148 148 159 79 196 126 229 294 
295 -0.3667052554179181 -0.0023641660570256125 0.5912697690912064 0 0 0 0.17 21 26 63 13 229 295 
296 -0.3631574875241994 0.028858223113114922 0.7360257896439073 0 0 0 0.7 21 27 27 66 229 296 
297 -0.3574408731985119 0.023095856504420056 0.6504446364277419 0 0 0 0.15 21 28 224 96 229 297 
298 -0.3559250307612293 0.025269803702720976 0.6523399388327655 0 0 0 0.13 21 29 224 97 229 298 
299 -0.3663924759231663 0.02250443441808641 0.5909701238277694 0 0 0 0.3 21 30 224 98 229 299 
300 -0.3757860895942836 -0.19947410182515513 0.5572672631625036 0 0 0 0.56 21 31 224 99 229 300 
301 -0.36421165552834917 -0.20243318516709785 0.6975495308133304 0 0 0 0.34 21 32 142 57 229 301 
302 -0.3574671441126017 -0.0892460848896227 0.8122024807481706 0 0 0 0.35 21 33 27 67 126 27 229 302 
303 -0.3643724927893733 -0.009933720649976061 0.6366149467689746 0 0 0 0.28 21 34 142 58 229 303 
304 -0.3665220254184488 0.009846990763929774 0.5940042075066025 0 0 0 0.2 21 35 142 59 229 304 
305 -0.36796074666373496 0.01370401030499889 0.5884281891100748 0 0 0 0.08 21 36 224 100 229 305 
306 -0.367814890858439 0.020081205547649285 0.5897107799362854 0 0 0 0.31 21 37 142 60 224 101 229 306 
307 -0.3576654315978011 0.029415933813321214 0.6513033170335047 0 0 0 0.39 21 38 224 102 229 307 
308 -0.229695938077286 0.07993239559671414 1.0327924627727338 0 0 0 0.25 148 149 196 127 229 308 
309 -0.3679380246169463 0.02424952114100418 0.5892653347140032 0 0 0 0.3 21 39 142 61 229 309 
310 -0.36793802461695013 0.024249521141012347 0.5892653347140057 0 0 0 0.3 21 40 142 62 229 310 
311 -0.3676345622060148 0.030386966335359214 0.5878020514384311 0 0 0 0.35 21 41 224 103 229 311 
312 -0.3676345622060148 0.030386966335359214 0.5878020514384311 0 0 0 0.35 21 42 224 104 229 312 
313 -0.35489145886631207 0.07719154630265634 0.8234747541528586 0 0 0 0.29 21 43 142 63 229 313 
314 -0.3557204383749066 0.08113676786752613 0.8239127718926427 0 0 0 0.51 21 44 142 64 159 80 196 128 229 314 
315 -0.3770697122760843 -0.20795326680678494 0.5489916703688407 0 0 0 0.51 21 45 63 14 73 4 224 105 229 315 
316 -0.3749435929782275 -0.2053995709134435 0.5591644255893967 0 0 0 0.9 21 46 26 22 224 106 229 316 
317 -0.34793011221479336 -0.04963886787696033 0.9371025214220544 0 0 0 0.46 21 47 42 37 52 64 109 74 142 65 159 81 196 129 229 317 
318 -0.3731430029546516 -0.0011070409040833137 0.5094203896647281 0 0 0 0.46 21 48 25 20 229 318 
319 -0.365755177575129 0.02735701194837755 0.5908340744219281 0 0 0 0.17 21 49 142 66 229 319 
320 -0.36294431771373004 -0.2103387898867422 0.7050538496846463 0 0 0 0.76 21 50 26 23 63 15 142 67 229 320 
321 -0.3677403515326728 -0.12022737589999645 0.6370553213676525 0 0 0 0.29 21 51 142 68 229 321 
322 -0.3720614679885682 -0.11667600508551483 0.5708709907476441 0 0 0 0.48 21 52 63 16 224 107 229 322 
323 -0.37294638622239656 -0.09802582215334527 0.5642508215096307 0 0 0 0.38 21 53 199 8 224 108 229 323 
324 -0.36281575867526034 -0.08945297599424704 0.736640477239311 0 0 0 0.4 21 54 142 69 229 324 
325 -0.36834560776442354 -0.07367711322473071 0.6326133154552468 0 0 0 0.29 21 55 63 17 142 70 229 325 
326 -0.36430162345420775 -0.06384310909584572 0.7128512106662387 0 0 0 0.29 21 56 63 18 73 5 229 326 
327 -0.365931462459599 0.0032656516080771525 0.6167337331087271 0 0 0 0.21 21 57 142 71 229 327 
328 -0.36944814442365315 0.0009965435254960112 0.5834201625168909 0 0 0 0.31 21 58 73 6 224 109 229 328 
329 -0.36211703627800346 0.012957757920176989 0.717769917263955 0 0 0 0.46 21 59 142 72 229 329 
330 -0.18739630148361994 0.0771859978068492 1.027187505648268 0 0 0 0.55 21 60 42 38 52 65 77 114 85 110 126 28 148 150 223 45 229 330 
331 -0.3731780108884889 -0.13354562798653716 0.545671605835297 0 0 0 0.26 21 61 199 9 229 331 
332 -0.36834153167164985 -0.13456550506545117 0.5774211777503672 0 0 0 0.38 21 62 26 24 73 7 229 332 
333 -0.35477998248157894 -0.09533639059472555 0.8240425752429551 0 0 0 0.3 21 63 42 39 73 8 126 29 142 73 229 333 
334 -0.3623748172543254 -0.07838337908439381 0.6762870003369342 0 0 0 0.49 21 64 142 74 229 334 
335 -0.3621751621246681 -0.0641465676233227 0.6520689302099045 0 0 0 0.26 21 65 142 75 229 335 
336 -0.3587256209992724 0.009937206358743634 0.7682040711794065 0 0 0 0.25 21 66 142 76 229 336 
337 -0.3684693476494428 -0.11169749485147931 0.6474954248756475 0 0 0 0.32 21 67 26 25 63 19 73 9 142 77 199 10 229 337 
338 -0.36087842522071395 -0.11174886854630045 0.7592914692858541 0 0 0 0.36 21 68 142 78 229 338 
339 -0.3681933577476086 -0.06705401935753111 0.6126994003213792 0 0 0 0.43 21 69 63 20 229 339 
340 -0.3616245756691615 -0.15152923885137967 0.6594651924101612 0 0 0 0.46 21 70 142 79 229 340 
341 -0.36439963140414444 -0.11452703718324436 0.6648140268711514 0 0 0 0.21 21 71 142 80 229 341 
342 -0.36217939599115334 -0.1039468442138051 0.7501851200255253 0 0 0 0.09 21 72 142 81 229 342 
343 -0.3625708030658641 -0.10047231430522131 0.7747894969491864 0 0 0 0.37 21 73 142 82 229 343 
344 -0.36113764850812824 -0.09559005405994357 0.8019282388983829 0 0 0 0.47 21 74 142 83 229 344 
345 -0.3561552511682143 -0.0826618477197456 0.8286034753041132 0 0 0 0.34 21 75 142 84 229 345 
346 -0.3631031248189014 -0.07907896242316664 0.7459530524923587 0 0 0 0.25 21 76 142 85 229 346 
347 -0.36444510473377933 -0.05817620318857468 0.7425010157485178 0 0 0 0.81 21 77 142 86 224 110 229 347 
348 -0.3620952821773783 -0.13107164029896323 0.6565800923733923 0 0 0 0.33 21 78 142 87 229 348 
349 -0.36248853964731986 -0.09403072183440339 0.6550838256826663 0 0 0 0.5 21 79 142 88 229 349 
350 -0.08253532362689824 -0.1003371543446157 1.0360105089038933 0 0 0 0.4 25 21 26 26 33 99 71 24 77 115 110 35 128 21 146 56 148 151 159 82 164 98 213 92 223 46 229 350 232 30 
351 -0.3454725353838419 -0.062801114307487 1.0826283971885435 0 0 0 0.32 25 22 40 70 42 40 126 30 224 111 229 351 
352 -0.32061675426223846 0.01895552231899251 1.0621655690515928 0 0 0 0.25 25 23 118 54 126 31 159 83 220 29 229 352 
353 -0.0008901549796613592 0.061656267810905316 1.003042459341829 0 0 0 0.33 25 24 26 27 85 111 109 75 148 152 194 10 223 47 229 353 
354 -0.3746948688733179 0.014228084098839 0.5030703414166758 0 0 0 0.59 25 25 26 28 73 10 229 354 
355 0.009207970120297006 0.08857612069799295 1.0030547821597133 0 0 0 0.48 25 26 26 29 27 68 33 100 77 116 118 55 142 89 194 11 196 130 223 48 229 355 
356 0.008706301191704225 0.09736330720061478 1.0019090002108229 0 0 0 0.28 25 27 33 101 42 41 52 66 142 90 148 153 162 25 194 12 196 131 220 30 229 356 
357 -0.11194063270737617 0.11384765476644489 1.0068626472702504 0 0 0 0.25 25 28 126 32 148 154 229 357 
358 -0.27722235173117926 -0.08545873023537916 1.06873938214117 0 0 0 0.81 25 29 27 69 71 25 148 155 159 84 164 99 196 132 223 49 224 112 229 358 
359 -0.37353269081655266 -0.09134496829740613 0.5355993544139954 0 0 0 0.58 25 30 73 11 229 359 
360 -0.09728743284690716 0.10025347008371842 1.0103506582231983 0 0 0 0.25 25 31 142 91 229 360 
361 -0.004738094536232097 0.10467559655975171 0.9974012801186234 0 0 0 0.69 25 32 42 42 52 67 93 26 110 36 142 92 164 100 196 133 214 35 223 50 229 361 
362 -0.2692129581223503 0.11455477915814406 1.0336297002692674 0 0 0 0.6 25 33 26 30 52 68 71 26 126 33 148 156 196 134 220 31 223 51 224 113 229 362 
363 -0.3162556152392594 0.008521403903008885 1.0631604390243943 0 0 0 0.26 25 34 40 71 127 30 148 157 164 101 196 135 198 12 199 11 220 32 224 114 229 363 
364 -0.1580250696533946 0.10618946570560633 1.0151946064701338 0 0 0 0.38 25 35 26 31 33 102 77 117 126 34 142 93 148 158 196 136 229 364 
365 -0.3408489012172055 0.08202241879523132 1.0565964444018565 0 0 0 0.47 25 36 27 70 40 72 42 43 142 94 229 365 
366 -0.3674467853601712 -0.23882616121416794 0.7022199748011335 0 0 0 0.61 25 37 73 12 229 366 
367 -0.03317600970095635 0.07522526249222074 1.0044043182256184 0 0 0 0.22 25 38 38 51 77 118 85 112 146 57 148 159 164 102 198 13 223 52 229 367 
368 -0.03330641385876477 0.07523693416687051 1.0046983117134185 0 0 0 0.22 25 39 77 119 85 113 148 160 164 103 196 137 198 14 229 368 
369 -0.03064158706165001 0.05168592440750445 1.0063633851318567 0 0 0 0.43 25 40 142 95 198 15 213 93 229 369 
370 -0.30481076209889324 0.09474824674511859 1.0455043638361112 0 0 0 1.05 25 41 27 71 196 138 199 12 220 33 223 53 224 115 229 370 
371 -0.37413985649300496 -0.21196390449404626 0.5862131575119355 0 0 0 0.34 26 32 63 21 224 116 229 371 
372 -0.057100722901156066 -0.14705451989208998 1.0453652963540276 0 0 0 0.33 26 33 71 27 142 96 196 139 229 372 
373 -0.3619764286424471 -0.138604927607194 0.7719088638876911 0 0 0 0.37 26 34 142 97 229 373 
374 0.030782625937543013 -0.07522684019414087 1.0262739485086174 0 0 0 0.31 26 35 40 73 52 69 127 31 142 98 148 161 159 85 196 140 229 374 
375 -0.11425661185104537 -0.08840600303063073 1.0447477936812464 0 0 0 0.48 26 36 42 44 71 28 85 114 110 37 148 162 185 46 220 34 229 375 
376 -0.005743641506439985 -0.019370814326011832 1.0200151904326602 0 0 0 0.42 26 37 42 45 142 99 229 376 
377 -0.09298999470405249 -0.019222126156526204 1.0288369920214309 0 0 0 0.39 26 38 63 22 93 27 109 76 142 100 148 163 223 54 224 117 229 377 
378 -0.25732103422118185 -0.023266004785420524 1.0620678904595362 0 0 0 0.31 26 39 40 74 220 35 224 118 229 378 
379 -0.15594391004679423 0.06142135980723576 1.022504453811452 0 0 0 0.65 26 40 109 77 223 55 229 379 
380 -0.35200453202776993 0.01453070534765493 0.6379393981142858 0 0 0 0.33 26 41 142 101 229 380 
381 -0.2753364549704269 0.08085645889227844 1.0392340133388345 0 0 0 0.65 26 42 33 103 92 32 200 33 223 56 229 381 
382 -0.06519017409269943 0.09864355249555458 0.9996403883994573 0 0 0 0.22 26 43 42 46 52 70 142 102 229 382 
383 -0.3539352402326575 0.1167629525203718 1.0502563803522136 0 0 0 0.61 26 44 109 78 142 103 159 86 229 383 
384 -0.375978447015627 -0.06383096233161181 0.5172076675753053 0 0 0 0.28 26 45 73 13 198 16 229 384 
385 -0.03326636380820554 0.04159333622541509 1.0080398055285498 0 0 0 0.2 26 46 142 104 229 385 
386 -0.37669426121698923 0.018940379662969714 0.501864397139425 0 0 0 0.25 26 47 199 13 229 386 
387 0.027448013609005402 -0.12169422617924053 1.0348712307198797 0 0 0 0.26 26 48 40 75 42 47 71 29 85 115 128 22 142 105 148 164 159 87 196 141 220 36 229 387 
388 -0.3777422043724437 -0.16005842978250218 0.49060525615730277 0 0 0 0.76 26 49 224 119 229 388 
389 -0.34891706802148226 -0.1372791641930577 0.916205538243516 0 0 0 0.35 26 50 142 106 159 88 198 17 199 14 224 120 229 389 
390 -0.020100773096066754 -0.07435475849547095 1.0293032852398685 0 0 0 0.39 26 51 63 23 71 30 162 26 176 40 198 18 229 390 
391 -0.3789769061442417 -0.10922582950779446 1.1006304344433737 0 0 0 0.22 26 52 40 76 52 71 85 116 109 79 142 107 148 165 164 104 196 142 224 121 229 391 
392 -0.3457231964196219 0.00046876127167991375 1.0731045169375124 0 0 0 0.38 26 53 40 77 142 108 148 166 159 89 196 143 220 37 224 122 229 392 
393 0.015990296419932375 0.06102148903078382 1.0055251123129165 0 0 0 0.26 26 54 126 35 127 32 142 109 148 167 229 393 
394 -0.1381905276992012 -0.07243951501475132 1.0486074593600834 0 0 0 0.42 26 55 33 104 127 33 142 110 229 394 
395 -0.38008821717038876 -0.09050394564674469 0.47133039454938785 0 0 0 0.23 26 56 199 15 229 395 
396 -0.3628085961135044 -0.1437068623867824 0.6795980383123341 0 0 0 0.56 26 57 142 111 198 19 199 16 229 396 
397 -0.05105225345584748 0.0748405130869847 1.00565149516893 0 0 0 0.22 26 58 85 117 126 36 142 112 148 168 196 144 223 57 229 397 
398 -0.03729967708337027 -0.1202671568967615 1.0324957439931486 0 0 0 1.19 27 72 44 72 85 118 229 398 
399 0.029759657800081763 -0.10769510817017723 1.0319018538170126 0 0 0 0.17 27 73 33 105 148 169 229 399 
400 -0.29340297180844355 -0.08159992613506885 1.0738989678078872 0 0 0 0.41 27 74 44 73 52 72 77 120 85 119 109 80 126 37 128 23 159 90 164 105 196 145 223 58 229 400 
401 0.018353749172236342 -0.019982171038885645 1.0199207458561061 0 0 0 0.5 27 75 42 48 85 120 127 34 148 170 196 146 223 59 229 401 
402 -0.031819803840962994 -0.1183316911174817 1.0362274964200917 0 0 0 0.83 27 76 128 24 148 171 185 47 200 34 229 402 
403 -0.35113284959938523 0.016043493416289665 1.0684880434192618 0 0 0 0.27 27 77 40 78 142 113 196 147 224 123 229 403 
404 0.04191510488060972 0.1560915773013362 0.9571645794675449 0 0 0 1.17 27 78 77 121 229 404 
405 -0.21835529835441095 -0.0863959172157667 1.0620355576815448 0 0 0 0.48 27 79 33 106 110 38 127 35 128 25 148 172 157 33 159 91 162 27 200 35 213 94 220 38 223 60 224 124 229 405 
406 -0.29218589910797715 -0.08543356905264063 1.075603254199166 0 0 0 0.4 27 80 33 107 73 14 77 122 85 121 92 33 142 114 159 92 162 28 196 148 213 95 220 39 223 61 224 125 229 406 
407 -0.3622383591747846 0.06685579655482653 0.7502399437127991 0 0 0 0.57 27 81 224 126 229 407 
408 -0.36522019595490296 -0.11469768732743899 0.7418300962542187 0 0 0 0.45 27 82 142 115 229 408 
409 -0.013441694938010557 -0.11987261644404308 1.0342885209814483 0 0 0 0.2 27 83 164 106 224 127 229 409 
410 -0.35994236131895746 -0.004428083057445538 0.7844146835319226 0 0 0 0.41 27 84 126 38 142 116 229 410 
411 -0.3600502994249273 -0.012787555636912392 0.7994598324179993 0 0 0 0.42 27 85 40 79 73 15 126 39 142 117 229 411 
412 0.03650839491426937 0.06947056723759115 1.0007900158176737 0 0 0 0.13 28 18 213 96 229 412 
413 -0.017257406907179317 -0.07853364667526351 1.0301186709031709 0 0 0 0.56 28 19 40 80 52 73 63 24 85 122 109 81 148 173 159 93 223 62 229 413 
414 -0.3493194026092531 -0.12576690403530524 0.9160046050304469 0 0 0 0.09 148 174 224 128 229 414 
415 -0.14944189305821184 0.048234000452045796 1.0237664179734167 0 0 0 0.29 40 81 42 49 52 74 148 175 159 94 229 415 
416 0.002891812988360137 0.07200544617087647 1.0015685439627278 0 0 0 0.23 38 52 164 107 194 13 214 36 223 63 229 416 
417 0.032501449227736075 -0.10107208610992932 1.0318028006762194 0 0 0 0.25 33 108 85 123 229 417 
418 0.011110290764897017 -0.09177237344453992 1.030362129884374 0 0 0 0.5 33 109 146 58 157 34 213 97 229 418 
419 -0.048430579632947744 -0.08895228394568976 1.0341386377815305 0 0 0 0.36 33 110 38 53 109 82 213 98 229 419 
420 -0.060639439152924836 -0.08575566013850278 1.0335420890820173 0 0 0 0.12 33 111 109 83 213 99 229 420 
421 -0.1831290632675086 -0.0687150825950181 1.0558850509557465 0 0 0 0.13 33 112 85 124 196 149 229 421 
422 0.0062943436610007585 -0.006223963666566328 1.017292991810569 0 0 0 0.23 33 113 38 54 52 75 229 422 
423 0.02722277382823351 -0.10275544884280566 1.031859392623364 0 0 0 0.31 33 114 164 108 229 423 
424 0.0414875465242805 -0.09707467426888315 1.030826510733647 0 0 0 0.22 33 115 148 176 229 424 
425 0.039415084495072986 -0.09222265931352976 1.0302813254778513 0 0 0 0.45 33 116 148 177 229 425 
426 0.0165176166910697 -0.08971433534705661 1.0310294659350112 0 0 0 0.23 33 117 146 59 213 100 229 426 
427 0.016575754760039516 -0.08971333107694636 1.030975182902955 0 0 0 0.24 33 118 38 55 146 60 213 101 229 427 
428 -0.07030766506570309 -0.08297498332417141 1.0344623363036534 0 0 0 0.25 33 119 38 56 127 36 148 178 185 48 196 150 224 129 229 428 
429 -0.22303454929879843 0.029874840364499236 1.045263355785939 0 0 0 0.33 33 120 224 130 229 429 
430 0.03876013975870457 0.04728218429213679 1.003775772773369 0 0 0 0.19 33 121 148 179 159 95 229 430 
431 -0.06389776588224881 0.047124329468258105 1.005973287379317 0 0 0 0.11 33 122 148 180 196 151 229 431 
432 -0.3039210263855988 0.05030769483407181 1.0502976629555865 0 0 0 0.21 33 123 52 76 229 432 
433 0.00643760679638725 0.09107417475907566 1.0004049866015252 0 0 0 0.27 33 124 196 152 223 64 229 433 
434 -0.13060346910992535 -0.15217987075782163 1.0590976138077695 0 0 0 0.24 33 125 40 82 85 125 127 37 148 181 159 96 229 434 
435 0.023926830589299092 -0.10807368137381682 1.0337988068641628 0 0 0 0.31 33 126 40 83 50 37 52 77 77 123 196 153 213 102 229 435 
436 -0.09559870500993996 -0.07845755652237642 1.0405873669890142 0 0 0 0.6 33 127 77 124 148 182 223 65 229 436 
437 -0.2251239764408374 -0.08069906083394472 1.0631239802868409 0 0 0 0.36 33 128 44 74 52 78 92 34 109 84 148 183 159 97 162 29 164 109 196 154 223 66 224 131 229 437 
438 -0.1012090821792755 -0.03505402669974391 1.0358787146607658 0 0 0 0.25 33 129 77 125 196 155 229 438 
439 -0.1711548478415444 -0.024536861674319267 1.045671940285879 0 0 0 0.15 148 184 159 98 229 439 
440 -0.20438036949464333 -0.022237148067723055 1.0502613933489153 0 0 0 0.42 33 130 85 126 109 85 148 185 229 440 
441 -0.006036059556312976 -0.012999090336962437 1.02035595451346 0 0 0 0.32 33 131 52 79 142 118 148 186 196 156 229 441 
442 -0.0026639229529124638 -0.011873881441424983 1.0189787293996135 0 0 0 0.43 33 132 40 84 109 86 224 132 229 442 
443 0.0192267892182501 -0.1125520716222047 1.034274412907451 0 0 0 0.45 33 133 38 57 42 50 52 80 77 126 85 127 142 119 148 187 196 157 229 443 232 31 
444 -0.16667323031661388 -0.021189591378924733 1.0436475269382879 0 0 0 0.41 33 134 52 81 85 128 159 99 196 158 223 67 224 133 229 444 
445 -7.690060410703413e-05 0.1085462388399346 0.996125992162671 0 0 0 0.61 33 135 85 129 142 120 223 68 229 445 
446 0.0012389341418430264 -0.13450368213083616 1.0357094819402666 0 0 0 0.37 85 130 92 35 159 100 229 446 
447 -0.10208526221345221 0.010281688797611292 1.0273263644270427 0 0 0 0.21 52 82 148 188 229 447 
448 -0.03158970015616471 0.05339967529569244 1.0036485223415876 0 0 0 0.37 38 58 214 37 229 448 
449 -0.03652270543834107 -0.12108173526360018 1.0332017443773691 0 0 0 0.7 44 75 85 131 224 134 229 449 
450 0.013199473050288195 0.05997502494740157 1.0051853082683597 0 0 0 0.1 38 59 77 127 229 450 
451 0.033484039500158276 0.06179444425779774 1.001259258816377 0 0 0 0.55 38 60 42 51 159 101 223 69 229 451 
452 -0.1841277262237366 0.06347595406206209 1.0294599486370926 0 0 0 0.17 42 52 77 128 85 132 148 189 196 159 229 452 
453 -0.07108622261873292 0.0701128545982399 1.003526521032267 0 0 0 0.3 109 87 148 190 164 110 229 453 
454 -0.03658487049654468 -0.05877153334766723 1.0259264192890456 0 0 0 0.92 85 133 223 70 229 454 
455 -0.0004185134466786216 0.06167753274070286 1.0022248388850523 0 0 0 0.34 38 61 85 134 109 88 148 191 164 111 214 38 223 71 229 455 
456 0.00250894405087034 0.08415312557887251 0.9994592480493859 0 0 0 0.32 38 62 52 83 85 135 148 192 164 112 214 39 223 72 229 456 
457 0.03326905221900532 -0.10952815881564847 1.0335328532215544 0 0 0 0.32 38 63 77 129 85 136 142 121 148 193 196 160 229 457 
458 -0.14578808197444493 -0.11309794193230548 1.0560938529845993 0 0 0 0.43 128 26 196 161 229 458 
459 -0.34947452528704737 -0.13401215557016719 0.9181230067611396 0 0 0 0.35 40 85 148 194 229 459 
460 -0.052971936978512144 -0.10988762194391782 1.0323686095673297 0 0 0 0.36 40 86 85 137 146 61 148 195 224 135 229 460 
461 -0.251927370001886 -0.12572925027997628 1.0734631830851902 0 0 0 0.58 40 87 52 84 77 130 109 89 196 162 200 36 229 461 
462 -0.3474317580167571 -0.11364827136537689 0.870759530345253 0 0 0 0.34 40 88 42 53 229 462 
463 -0.1847504573833526 -0.10097534964630259 1.0531360536820165 0 0 0 0.15 40 89 85 138 229 463 
464 -0.37651129236187103 -0.12081075856063628 1.0999178094605537 0 0 0 0.33 40 90 85 139 142 122 196 163 229 464 
465 -0.05286016991303019 -0.07893467956992688 1.0320234272444069 0 0 0 0.52 40 91 77 131 109 90 146 62 164 113 185 49 223 73 229 465 
466 -0.16321145737418696 -0.08175015298302024 1.0523318710498233 0 0 0 0.19 40 92 85 140 142 123 148 196 159 102 196 164 224 136 229 466 
467 -0.45800842294950855 -0.10737427728693676 1.1179110764091775 0 0 0 1.06 40 93 42 54 142 124 196 165 229 467 
468 -0.45800842294950855 -0.10737427728693676 1.1179110764091775 0 0 0 1.06 40 94 42 55 142 125 196 166 229 468 
469 -0.4397270322965213 -0.1061596807635258 1.1080487681825497 0 0 0 0.3 40 95 52 85 159 103 229 469 
470 -0.44837987536420426 -0.10380375599649186 1.1114104941241503 0 0 0 0.14 40 96 52 86 229 470 
471 -0.4511807064859508 -0.08400828366112545 1.1047409245467177 0 0 0 0.4 40 97 52 87 229 471 
472 -0.14752345879059095 -0.05521233614540095 1.0440280943097489 0 0 0 0.21 40 98 224 137 229 472 
473 -0.37684766112102913 -0.07611877107098922 1.0928635664793134 0 0 0 0.13 40 99 52 88 85 141 109 91 224 138 229 473 
474 0.031310353639108356 -0.030828167479329514 1.0208351160984315 0 0 0 0.26 40 100 52 89 229 474 
475 -0.3982147825598466 -0.06398337278857406 1.096318581626575 0 0 0 0.32 40 101 196 167 229 475 
476 -0.3466568007635699 -0.050338113917737966 0.9217431420197859 0 0 0 0.29 40 102 126 40 142 126 196 168 229 476 
477 -0.4064467662968484 -0.056356718659642695 1.0905354096017073 0 0 0 0.38 40 103 52 90 109 92 229 477 
478 -0.18423708309300205 -0.029769086019570096 1.0494044810850447 0 0 0 0.22 40 104 42 56 229 478 
479 -0.37797975258663746 -0.04336816907552961 1.0864959097977376 0 0 0 0.29 40 105 52 91 229 479 
480 -0.03935667381228104 -0.01316890960197245 1.0206243256863352 0 0 0 0.54 40 106 85 142 109 93 148 197 196 169 223 74 229 480 
481 -0.34694190244215983 0.0023770459245374036 1.0687887709870376 0 0 0 0.31 40 107 224 139 229 481 
482 -0.39462715633346235 0.004292095978175113 1.0817049200153879 0 0 0 0.23 40 108 196 170 224 140 229 482 
483 -0.3113515512994784 0.01077270866936994 1.062877107795196 0 0 0 0.42 40 109 224 141 229 483 
484 -0.3481303953837172 0.011977642358704637 1.0654180376695974 0 0 0 0.16 40 110 196 171 229 484 
485 -0.319915074125859 0.01355182406501664 1.0633441511617903 0 0 0 0.05 40 111 196 172 229 485 
486 -0.4059974631631709 0.015739558658593316 1.0798820256530746 0 0 0 0.43 40 112 196 173 229 486 
487 -0.12667905224152368 0.04626337070761238 1.0231607960985338 0 0 0 0.11 40 113 196 174 229 487 
488 -0.2561471645204363 0.04501813310444739 1.0479692220922883 0 0 0 0.22 40 114 109 94 196 175 229 488 
489 -0.22685979230977707 0.04835752576337407 1.036031517217693 0 0 0 0.43 40 115 52 92 159 104 196 176 223 75 229 489 
490 -0.2565530482264576 -0.14945434512091837 1.0819296915700094 0 0 0 0.55 40 116 126 41 159 105 196 177 229 490 
491 -0.3016823368455808 -0.12404977249048482 1.0896161051700644 0 0 0 0.3 40 117 42 57 196 178 229 491 
492 -0.37335044996987243 -0.1158553860004154 1.097402632526542 0 0 0 0.21 40 118 142 127 148 198 196 179 229 492 
493 -0.3521227276668817 -0.08122068536242086 1.0871381821904003 0 0 0 0.3 40 119 42 58 142 128 148 199 196 180 229 493 
494 -0.34112190161959915 -0.07083626437283586 1.0856909029483501 0 0 0 0.16 40 120 85 143 159 106 196 181 224 142 229 494 
495 -0.3713311839169692 -0.07330206241339127 1.0909321718616458 0 0 0 0.34 40 121 142 129 196 182 224 143 229 495 
496 -0.41732620913307616 -0.0724627438410633 1.0990664542842319 0 0 0 0.3 40 122 85 144 109 95 142 130 229 496 
497 -0.3964211845319218 -0.05801361107527205 1.0933620316317405 0 0 0 0.44 40 123 44 76 77 132 148 200 196 183 229 497 
498 -0.3705857657740119 -0.05554421478382747 1.0851549963263762 0 0 0 0.24 40 124 42 59 109 96 196 184 229 498 
499 -0.08310389300372507 -0.022696756860277743 1.0289184426220537 0 0 0 0.17 40 125 196 185 229 499 
500 -0.41680383617602346 -0.04651540086395526 1.0923110409832009 0 0 0 0.39 40 126 196 186 229 500 
501 -0.08086553147443637 -0.01905266351755556 1.0274133406608814 0 0 0 0.43 40 127 52 93 85 145 109 97 196 187 229 501 
502 -0.02219507591168235 -0.012451381617380021 1.022140276305083 0 0 0 0.17 40 128 196 188 229 502 
503 -0.41826042308075195 -0.02960016753781141 1.0887087714254577 0 0 0 0.23 40 129 159 107 229 503 
504 -0.2377675484064389 -0.01052138237543875 1.0521692384863721 0 0 0 0.3 40 130 44 77 85 146 148 201 196 189 223 76 224 144 229 504 
505 -0.22003931013966066 0.0071744003014461545 1.0512253013699207 0 0 0 0.18 40 131 196 190 229 505 
506 -0.3679147221120773 0.0001267429722172197 1.0793688630652627 0 0 0 0.48 40 132 196 191 229 506 
507 -0.375220813860424 0.0031807515155450024 1.073460195145598 0 0 0 0.46 40 133 196 192 229 507 
508 -0.4111515364189402 0.011757967692713782 1.081668705685337 0 0 0 0.24 40 134 85 147 142 131 159 108 196 193 224 145 229 508 
509 -0.31652797938929955 0.021750813198198223 1.0622739027682269 0 0 0 0.26 40 135 126 42 196 194 220 40 224 146 229 509 
510 -0.3924785720434201 0.018400844746969302 1.0786118815346424 0 0 0 0.18 40 136 142 132 229 510 
511 -0.40334788066488714 0.07248252975038347 1.0679559481991903 0 0 0 0.4 40 137 52 94 142 133 159 109 196 195 224 147 229 511 
512 -0.4153570199116146 0.07199843509988456 1.0700848813620882 0 0 0 0.4 40 138 52 95 229 512 
513 -0.40636416527492575 0.07284901343222382 1.0653020942412041 0 0 0 0.42 40 139 52 96 85 148 109 98 196 196 223 77 229 513 
514 -0.259378270698182 -0.15484363201182358 1.0797453177757117 0 0 0 0.45 40 140 42 60 126 43 229 514 
515 -0.02597266115674063 -0.11703045771985535 1.0359031307267796 0 0 0 0.27 40 141 127 38 229 515 
516 -0.36889437757362814 -0.12043191014111809 1.0980158220558518 0 0 0 0.32 40 142 42 61 85 149 109 99 142 134 159 110 229 516 
517 -0.4635223526252568 -0.12829846990325303 1.1202147275138439 0 0 0 1.29 40 143 109 100 229 517 
518 -0.35308804780117675 -0.09791213383057307 0.8781142355148278 0 0 0 0.44 40 144 142 135 159 111 196 197 229 518 
519 -0.4550273762458458 -0.11243943583548599 1.112819434137363 0 0 0 0.38 40 145 42 62 52 97 109 101 142 136 196 198 229 519 
520 -0.4568592747160611 -0.11235584210926113 1.1142985506276184 0 0 0 0.3 40 146 142 137 229 520 
521 -0.34944238025318836 -0.06939720917933362 0.9121288780011274 0 0 0 0.38 40 147 77 133 142 138 196 199 229 521 
522 -0.3708352142529433 -0.07909056132575945 1.0911676971120794 0 0 0 0.27 40 148 85 150 142 139 196 200 229 522 
523 -0.32105417322913726 -0.059275324837129315 1.0779868204069907 0 0 0 0.17 40 149 85 151 142 140 196 201 224 148 229 523 
524 -0.3429051343836647 -0.058835973958095415 1.0818453186130945 0 0 0 0.37 40 150 42 63 224 149 229 524 
525 -0.29520717014143105 -0.00980023404592908 1.0661530232017988 0 0 0 0.19 40 151 52 98 85 152 142 141 229 525 
526 -0.31883351443923147 0.0016224754186627277 1.0636429325160712 0 0 0 0.05 40 152 142 142 229 526 
527 -0.3490597845883995 0.022881599937118333 1.0646856532906557 0 0 0 0.35 40 153 77 134 85 153 109 102 142 143 148 202 196 202 229 527 
528 -0.4127567045149621 0.03549505639546426 1.0796443999569545 0 0 0 0.43 40 154 142 144 224 150 229 528 
529 -0.12776898257454472 -0.13628348077968908 1.0575217619562896 0 0 0 0.36 40 155 142 145 229 529 
530 -0.352432250826211 -0.12537117135627013 0.8632116288323627 0 0 0 0.57 40 156 142 146 229 530 
531 -0.036064718776763566 -0.10321105588064446 1.035840425202547 0 0 0 0.27 40 157 127 39 229 531 
532 -0.3063243132137272 -0.12037992479519313 1.0884275266787007 0 0 0 0.26 40 158 142 147 229 532 
533 -0.4296205585216353 -0.1080172416760144 1.1081879176156617 0 0 0 0.2 40 159 85 154 109 103 142 148 159 112 229 533 
534 -0.35862760150537454 -0.07927325792409594 0.8254003990734815 0 0 0 0.39 40 160 142 149 229 534 
535 -0.38611792313815224 -0.09879841374564063 1.1022736818559382 0 0 0 0.19 40 161 85 155 142 150 196 203 229 535 
536 -0.35679615265687775 -0.07745976138632453 0.8345501266124686 0 0 0 0.29 40 162 142 151 229 536 
537 -0.43493366132756545 -0.10266298551627935 1.1219323775719812 0 0 0 0.93 40 163 85 156 109 104 142 152 196 204 223 78 229 537 
538 -0.3494416395868037 -0.06774897794099294 0.9187348202534675 0 0 0 0.2 40 164 126 44 142 153 196 205 229 538 
539 -0.3560356895982952 -0.052637636047388185 0.8185584720816061 0 0 0 0.21 40 165 142 154 229 539 
540 -0.4143868709594397 -0.06660361816284872 1.0993218074784725 0 0 0 0.3 40 166 85 157 196 206 229 540 
541 -0.428349470664779 -0.0631153893241574 1.1018967492258471 0 0 0 0.44 40 167 52 99 85 158 109 105 142 155 159 113 196 207 229 541 
542 -0.3155630285019871 -0.05227689477372225 1.0732331719620034 0 0 0 0.36 40 168 85 159 109 106 142 156 148 203 159 114 164 114 196 208 220 41 224 151 229 542 
543 -0.3436003525822373 -0.052050875373692934 1.0813954514926123 0 0 0 0.37 40 169 42 64 52 100 85 160 142 157 196 209 229 543 
544 -0.08561739228065805 -0.02290987438544896 1.0290876200711387 0 0 0 0.2 40 170 142 158 196 210 229 544 
545 -0.3588205001190389 0.0021244069146058317 0.8103886462108136 0 0 0 0.27 40 171 142 159 229 545 
546 -0.3576684523866042 0.018708615103689197 0.8065418210010793 0 0 0 0.01 40 172 142 160 229 546 
547 -0.43088858878589187 0.07068694631479412 1.0680477591679387 0 0 0 0.88 40 173 52 101 223 79 229 547 
548 -0.43088858878589187 0.07068694631479412 1.0680477591679387 0 0 0 0.88 40 174 52 102 223 80 229 548 
549 -0.33359690447432166 0.07599070336346905 1.054970005888435 0 0 0 0.21 40 175 85 161 142 161 229 549 
550 -0.36328122767281956 -0.19388884867864642 0.7988110750543184 0 0 0 0.48 40 176 142 162 229 550 
551 -0.35467358302179114 -0.1208691190382435 0.8926219439686749 0 0 0 0.25 40 177 142 163 196 211 229 551 
552 -0.3544055580465165 -0.1207783449803742 0.8923531592266823 0 0 0 0.25 40 178 196 212 229 552 
553 -0.362426182788156 -0.053766143743403466 0.7740412406867485 0 0 0 0.11 40 179 142 164 229 553 
554 -0.3891844386188156 -0.06746113226642306 1.0948015862481115 0 0 0 0.22 40 180 42 65 85 162 142 165 196 213 229 554 
555 -0.40264577788851924 -0.05127926697636274 1.093141349429721 0 0 0 0.23 40 181 52 103 142 166 229 555 
556 -0.3451413372975846 0.008398512131603806 1.0691490278198417 0 0 0 0.23 40 182 196 214 224 152 229 556 
557 -0.30137398060559173 -0.1281538341572889 1.0973528158301453 0 0 0 0.22 40 183 196 215 229 557 
558 -0.2818756281676253 -0.1162361568527575 1.0828323613037703 0 0 0 0.95 40 184 85 163 109 107 229 558 
559 -0.34831526488706277 -0.07070543427961537 1.0859656791016747 0 0 0 0.39 40 185 42 66 85 164 142 167 196 216 229 559 
560 -0.34732951965030096 -0.07041009086684169 1.0846434391129451 0 0 0 0.39 40 186 142 168 196 217 224 153 229 560 
561 -0.36309354680094114 -0.032835446741999834 1.0841728241854078 0 0 0 0.11 40 187 142 169 229 561 
562 -0.3599365998511715 0.029232378789172987 1.0661492982057532 0 0 0 0.4 40 188 42 67 196 218 229 562 
563 -0.4246854097288214 0.03293546384007787 1.0813594731334086 0 0 0 0.47 40 189 109 108 142 170 196 219 229 563 
564 -0.42558049184168734 0.05115353036785159 1.07854033000567 0 0 0 0.21 40 190 52 104 142 171 229 564 
565 -0.42558049184168734 0.05115353036785159 1.07854033000567 0 0 0 0.21 40 191 52 105 142 172 229 565 
566 -0.35065367269599074 -0.1585138473425787 0.9091986479554217 0 0 0 0.4 40 192 159 115 229 566 
567 -0.24987872530372626 -0.15540975945089966 1.0805938312279735 0 0 0 0.7 40 193 52 106 85 165 109 109 142 173 196 220 229 567 
568 -0.35478935331678213 -0.12263298048958059 0.8790565199212478 0 0 0 0.25 40 194 196 221 229 568 
569 -0.35478935331678213 -0.12263298048958059 0.8790565199212478 0 0 0 0.25 40 195 196 222 229 569 
570 -0.35677623380495754 -0.10272591051574344 0.8767220539308864 0 0 0 0.42 40 196 142 174 196 223 229 570 
571 -0.09325701037006652 -0.08362353458599836 1.0370825113027933 0 0 0 0.49 40 197 42 68 85 166 109 110 142 175 196 224 224 154 229 571 
572 -0.29515253421839566 -0.08146197000920437 1.0769961972628037 0 0 0 1.61 40 198 223 81 229 572 
573 -0.35100561989942225 -0.06882796132030013 0.9075093422516991 0 0 0 0.3 40 199 126 45 142 176 196 225 229 573 
574 -0.3527204034540622 -0.01894435732557399 0.8720471451468047 0 0 0 0.65 40 200 148 204 159 116 229 574 
575 -0.3479923702082854 -0.013139530908964973 0.9258593275863066 0 0 0 0.37 40 201 142 177 196 226 229 575 
576 -0.24785551850295226 0.02520720283620981 1.0499634440620076 0 0 0 0.44 40 202 52 107 142 178 229 576 
577 -0.35349307390794954 0.022899099771418973 0.9243881589633919 0 0 0 0.38 40 203 142 179 196 227 229 577 
578 -0.35544759659211644 -0.07357422003747278 0.8836632944958566 0 0 0 0.18 40 204 142 180 229 578 
579 -0.210962515765932 -0.00892967067466549 1.0503592826557213 0 0 0 0.29 40 205 200 37 229 579 
580 -0.0677818673627952 -0.09804307129520608 1.031350561973374 0 0 0 0.59 42 69 44 78 148 205 164 115 196 228 224 155 229 580 
581 -0.35176825847801996 -0.08422741893779588 0.9395711725214364 0 0 0 0.2 42 70 159 117 229 581 
582 -0.3487845671460938 -0.0767141046049755 0.8979448707754529 0 0 0 0.42 42 71 159 118 229 582 
583 -0.22276304154931717 -0.05383157782640963 1.061587130446351 0 0 0 0.26 42 72 148 206 196 229 229 583 
584 -0.057884389833421694 -0.0047231964713892695 1.0230664303098218 0 0 0 0.15 42 73 196 230 229 584 
585 -0.3541746715567424 -0.02968312190239108 0.8623721866763809 0 0 0 0.44 42 74 126 46 159 119 229 585 
586 -0.02264440007773952 0.04684964262603209 1.0097404546824031 0 0 0 0.21 42 75 196 231 229 586 
587 -0.02236950666567271 0.06471845135188171 1.0092959490910616 0 0 0 0.21 42 76 85 167 229 587 
588 -0.06772872943344412 0.06111532392556826 1.0052393242303441 0 0 0 0.34 42 77 148 207 229 588 
589 -0.19218918771539026 0.06263729477266887 1.0275300554540647 0 0 0 0.5 42 78 85 168 109 111 148 208 223 82 229 589 
590 -0.06320422463709631 0.09406755951086741 0.998405569384545 0 0 0 0.42 42 79 52 108 229 590 
591 -0.2165418188250522 0.08852912883305095 1.0326676851391723 0 0 0 0.17 42 80 148 209 229 591 
592 -0.362156215064348 -0.18577179955374665 0.8082688268265281 0 0 0 0.22 126 47 142 181 229 592 
593 -0.31113994210759993 -0.06716997412816587 1.0769585386554619 0 0 0 0.2 42 81 196 232 229 593 
594 -0.3988453324644697 -0.07032546537204293 1.0970448521957767 0 0 0 0.19 42 82 142 182 229 594 
595 -0.34708577523479395 -0.04250479906064276 0.9277254808116926 0 0 0 0.3 42 83 142 183 159 120 196 233 229 595 
596 -0.3520541613350194 -0.0353458817035503 0.8593886441950214 0 0 0 0.23 42 84 148 210 229 596 
597 -0.35293846042397353 -0.027305858575626046 0.922614521114167 0 0 0 1.04 42 85 223 83 229 597 
598 -0.05722481442776387 0.04077772733831319 1.0153028971936606 0 0 0 0.19 42 86 142 184 229 598 
599 -0.05722481442776387 0.04077772733831319 1.0153028971936606 0 0 0 0.19 42 87 142 185 229 599 
600 0.00160434213719952 0.09893067430031274 0.9977821890184798 0 0 0 0.31 42 88 52 109 77 135 229 600 
601 -0.19516604770602264 0.10576353963920607 1.0201399001698526 0 0 0 0.79 42 89 52 110 148 211 223 84 229 601 
602 -0.061309697358212796 0.11348018681941284 0.99730834142444 0 0 0 0.63 42 90 52 111 148 212 229 602 
603 -0.06593988978810432 0.11242177020757463 0.997681922687527 0 0 0 0.45 42 91 52 112 85 169 148 213 196 234 223 85 229 603 
604 -0.10278519896375045 -0.13030604654022154 1.0508744610582272 0 0 0 0.23 42 92 142 186 229 604 
605 -0.33433769871943153 -0.08003029708195865 1.0856903611368016 0 0 0 0.15 42 93 85 170 142 187 159 121 196 235 229 605 
606 -0.09916296424014674 0.04565872327598513 1.0195555542529373 0 0 0 0.31 42 94 63 25 229 606 
607 -0.06091431825126155 0.06988559762271258 1.0053084218000332 0 0 0 0.26 42 95 52 113 63 26 229 607 
608 -0.11722391755850463 -0.12769332483014786 1.051757687600839 0 0 0 0.35 42 96 52 114 142 188 229 608 
609 -0.4374709962984158 -0.11851023921655983 1.1136184150063926 0 0 0 0.46 42 97 142 189 229 609 
610 -0.25328648337580234 -0.07758916049954832 1.0676397156310145 0 0 0 0.29 42 98 109 112 196 236 223 86 229 610 
611 -0.35650822462613563 -0.03597784810871128 0.8067486973620924 0 0 0 0.11 73 16 126 48 142 190 229 611 
612 -0.3548532665081813 -0.030389108313054053 0.8342724195808371 0 0 0 0.15 126 49 142 191 159 122 229 612 
613 -0.3460078411746666 -0.026146535998879835 0.9332438245525658 0 0 0 0.28 42 99 109 113 142 192 196 237 229 613 
614 -0.345796605885722 -0.02339129004223738 0.9465148115984865 0 0 0 0.73 42 100 52 115 109 114 142 193 159 123 196 238 223 87 229 614 
615 -0.34912309706855993 -0.01713689455746044 0.9227154556600157 0 0 0 1.03 42 101 159 124 223 88 229 615 
616 -0.4095450290602095 -0.00023560669526681913 1.0838916701790366 0 0 0 0.25 42 102 196 239 229 616 
617 0.007039303488545723 0.052577273758199594 1.005420963493662 0 0 0 0.33 42 103 223 89 229 617 
618 -0.016601323789123924 0.09875522371742511 1.0003424635410747 0 0 0 0.67 42 104 52 116 142 194 229 618 
619 0.02325886208614256 0.1048524410126797 0.9956773967737601 0 0 0 0.42 42 105 196 240 229 619 
620 0.021558215859124097 0.1052402100114395 0.998079076565006 0 0 0 0.48 42 106 52 117 229 620 
621 -0.0478252423935359 0.11619858601660647 1.000845783638837 0 0 0 0.35 42 107 142 195 229 621 
622 -0.22854312324851345 -0.11251486878577831 1.0677304651541633 0 0 0 0.54 42 108 85 171 109 115 229 622 
623 -0.36319996705401547 -0.13566087976152102 1.106327427736166 0 0 0 0.7 42 109 52 118 142 196 229 623 
624 -0.3489525103395325 -0.027129150750885823 0.9247249127759691 0 0 0 0.96 42 110 142 197 159 125 196 241 223 90 229 624 
625 -0.4261841137236971 -0.023285225318492035 1.0927230647213377 0 0 0 0.4 42 111 109 116 142 198 229 625 
626 -0.09075583557465211 0.05979976698883025 1.0129979354357754 0 0 0 0.61 42 112 142 199 229 626 
627 -0.3540366016716822 -0.13755896000395965 0.8735859461051004 0 0 0 0.49 42 113 148 214 229 627 
628 -0.020330482566285297 -0.08196963843844307 1.0329204554532496 0 0 0 0.59 42 114 52 119 127 40 229 628 
629 -0.211107682657743 -0.07049862350688496 1.0592395734143545 0 0 0 0.47 42 115 85 172 109 117 223 91 229 629 
630 -0.2921447957576608 -0.06999030649156086 1.0765249221655606 0 0 0 0.47 42 116 142 200 196 242 229 630 
631 -0.3448370313844468 -0.03786274899830763 0.9261792094877863 0 0 0 0.29 42 117 142 201 196 243 229 631 
632 -0.3314117192743273 0.025878014905232435 1.0650228260372543 0 0 0 0.5 42 118 109 118 229 632 
633 -0.4533036158897907 -0.11148853313582478 1.1117500372374651 0 0 0 0.93 42 119 52 120 109 119 142 202 229 633 
634 -0.3562929854342934 -0.07817918765244453 0.856501787308496 0 0 0 0.19 42 120 142 203 229 634 
635 -0.19228757370109056 0.09221226617535325 1.02565926783363 0 0 0 0.49 42 121 142 204 148 215 229 635 
636 -0.005150035075701496 -0.08224863868514574 1.0289931694681174 0 0 0 0.29 44 79 52 121 110 39 146 63 196 244 229 636 
637 -0.052119764032548636 -0.08308646909861728 1.0315932858629988 0 0 0 1.01 44 80 85 173 118 56 127 41 196 245 223 92 229 637 
638 -0.31095201287681407 -0.07898599067164852 1.0781409341360642 0 0 0 0.23 44 81 127 42 148 216 164 116 196 246 229 638 
639 -0.10096926856086513 -0.06312698801833422 1.0414885716922377 0 0 0 0.15 44 82 224 156 229 639 
640 -0.30028080849969496 0.03613340427722361 1.0557945722776914 0 0 0 0.17 44 83 148 217 196 247 229 640 
641 -0.29953328642860555 -0.008675237543321883 1.0658021107698286 0 0 0 0.28 44 84 77 136 220 42 224 157 229 641 
642 -0.29969146475244707 0.024702684343162615 1.0600426973398296 0 0 0 0.2 44 85 196 248 229 642 
643 -0.31614562365160914 0.03050278745468105 1.0606516649408302 0 0 0 0.41 44 86 73 17 229 643 
644 -0.36154497319258105 -0.1632100633366218 1.1063853288915455 0 0 0 0.35 77 137 196 249 229 644 
645 -0.12629998437525997 -0.17107997284365128 1.0645389941557848 0 0 0 0.41 50 38 185 50 229 645 
646 -0.06614987228179589 -0.16886588423676233 1.0518284341231854 0 0 0 0.56 50 39 159 126 164 117 176 41 224 158 229 646 
647 -0.1932373637737475 -0.08106667828671463 1.0570106087674285 0 0 0 0.22 52 122 85 174 92 36 109 120 148 218 196 250 223 93 224 159 229 647 
648 0.006726728297077006 -0.05232237448905319 1.0255496193190075 0 0 0 0.29 52 123 93 28 148 219 224 160 229 648 
649 -0.2451009858241996 -0.08051280369951805 1.0676232447014933 0 0 0 0.24 52 124 85 175 109 121 229 649 
650 -0.24488303437520953 -0.08048521070349307 1.0673976254571367 0 0 0 0.24 52 125 85 176 109 122 196 251 229 650 
651 -0.06524026279975005 -0.05715846215690658 1.0280388499876758 0 0 0 0.14 52 126 93 29 229 651 
652 -0.06996649430150884 -0.0557899926899706 1.02840837048083 0 0 0 0.13 52 127 148 220 229 652 
653 -0.026232556803755545 -0.04526722635983416 1.0301103453865612 0 0 0 0.39 52 128 196 252 229 653 
654 -0.058711103198635005 -0.04689964608475676 1.0294818106896637 0 0 0 0.38 52 129 196 253 229 654 
655 -0.18480496704426227 -0.04947091145084303 1.0536940930288612 0 0 0 0.22 52 130 196 254 229 655 
656 -0.2999047994521875 -0.060486637712255466 1.077012470155715 0 0 0 0.09 52 131 224 161 229 656 
657 -0.3452270659169732 -0.03362871974790832 0.9614924925291275 0 0 0 0.46 52 132 85 177 109 123 229 657 
658 -0.3452270659169732 -0.03362871974790832 0.9614924925291275 0 0 0 0.46 52 133 85 178 109 124 229 658 
659 -0.06586978225357845 -0.01343238620994878 1.0212370098150805 0 0 0 0.3 52 134 185 51 229 659 
660 -0.22252358286264426 -0.004798517762428341 1.051027145714768 0 0 0 0.31 52 135 148 221 164 118 196 255 229 660 
661 -0.2209429323794186 -0.001998854042069185 1.052567877699271 0 0 0 0.25 52 136 148 222 196 256 224 162 229 661 
662 -0.10816625528884534 0.0398251654520479 1.019029674633814 0 0 0 0.16 52 137 159 127 229 662 
663 -0.14330549998912726 0.04071754444672438 1.0320752411740481 0 0 0 0.08 52 138 109 125 229 663 
664 -0.34321405001734623 0.049874740517336875 1.0645822679181307 0 0 0 0.3 52 139 148 223 229 664 
665 0.006622753397903185 0.08732944917266039 1.000802119029981 0 0 0 0.47 52 140 85 179 223 94 229 665 
666 0.0045465334266714084 0.08883474474363795 1.0003696019937938 0 0 0 0.55 52 141 223 95 229 666 
667 0.0009702515675093031 0.10520091197603572 0.9963692102682117 0 0 0 0.49 52 142 85 180 148 224 214 40 223 96 229 667 
668 -0.2982622129625094 0.10755118641274253 1.0418549529566412 0 0 0 0.76 52 143 196 257 223 97 229 668 
669 -0.02987540523905396 0.1223672698392785 0.9997972012188255 0 0 0 0.49 52 144 223 98 229 669 
670 -0.4789810079085044 -0.1015570058394445 1.1181434901267946 0 0 0 0.87 52 145 109 126 229 670 
671 -0.47430963475226723 -0.09823148779168914 1.1166776315533022 0 0 0 0.45 52 146 109 127 229 671 
672 -0.3454650807952684 -0.06304974363240852 0.936283718277369 0 0 0 0.5 52 147 109 128 159 128 229 672 
673 -0.05862630295350369 -0.043268696385852415 1.0288160150321433 0 0 0 0.21 52 148 196 258 229 673 
674 -0.3495468798957808 -0.04491750141011268 0.9360595199677747 0 0 0 1.09 52 149 159 129 196 259 223 99 229 674 
675 -0.34954687990341515 -0.04491750141177119 0.9360595199766274 0 0 0 1.09 52 150 159 130 196 260 223 100 229 675 
676 -0.22118036399572846 -0.006852455916561038 1.0537379579407637 0 0 0 0.07 52 151 162 30 229 676 
677 -0.04579504422574104 0.0437776219741754 1.0112814571311644 0 0 0 0.24 52 152 196 261 229 677 
678 -0.05364876847169988 0.043592557783559825 1.0124400183462567 0 0 0 0.16 52 153 196 262 229 678 
679 -0.3951421744046907 0.06919687375773716 1.0679211542741613 0 0 0 0.67 52 154 142 205 229 679 
680 -0.34459478298213714 0.07190722995134574 1.0542028887116306 0 0 0 0.08 52 155 85 181 229 680 
681 -0.02743278600322926 0.10160506101700906 0.9990937624745887 0 0 0 0.1 52 156 224 163 229 681 
682 0.006293487627981017 0.10426960959039241 0.997928085096044 0 0 0 0.44 52 157 142 206 194 14 196 263 229 682 
683 -0.193232916961289 0.10894990414104953 1.0211266002449875 0 0 0 0.1 52 158 126 50 148 225 164 119 229 683 
684 0.03448671579367981 0.11190108937701497 0.9917694441500787 0 0 0 0.23 52 159 93 30 229 684 
685 -0.36116063928739617 -0.10769178669724071 1.0950187886383496 0 0 0 0.3 52 160 142 207 229 685 
686 -0.4414228716440188 -0.11359338734752254 1.1087194864243914 0 0 0 0.18 52 161 142 208 229 686 
687 0.02672441803087768 -0.012979791849939158 1.0204992201237026 0 0 0 0.17 52 162 85 182 229 687 
688 -0.38187257194923613 -0.03596949137816484 1.0862397481871602 0 0 0 0.34 52 163 196 264 229 688 
689 -0.17079832769062236 -0.011700376499863871 1.0431060112693387 0 0 0 0.36 52 164 109 129 196 265 224 164 229 689 
690 -0.4011351427926074 -0.0038494889878875225 1.0836307202788578 0 0 0 0.4 52 165 196 266 229 690 
