# 3D point list with one line of data per point:
#   POINT3D_ID, X, Y, Z, R, G, B, ERROR, TRACK[] as (IMAGE_ID, POINT2D_IDX)
# Number of points: 424, mean track length: 6.66
557 -0.035262087198491554 0.11512907283423117 0.9708940731447012 0 0 0 0.29 13 181 28 211 33 146 38 58 92 97 93 83 98 556 110 26 124 270 213 158 214 104 
558 -0.03528789195737305 0.11512480855225897 0.970761681116375 0 0 0 0.27 13 182 33 147 93 84 98 557 200 209 
559 0.10031938146770025 0.11594911261207697 0.964306396922451 0 0 0 0.29 13 183 28 212 33 148 50 222 92 98 98 558 124 271 175 78 196 29 200 210 213 159 214 105 
560 -0.1482489372397856 0.12807675241955996 0.9855906008678712 0 0 0 0.46 13 184 98 559 124 272 157 220 
561 -0.034076688332774635 0.13081543687396802 0.9687422674676944 0 0 0 0.24 13 185 44 206 98 560 124 273 200 211 
562 -0.03203228529748143 0.13190750478027535 0.9679138090856625 0 0 0 0.33 13 186 93 85 98 561 124 274 200 212 
563 -0.035806607950680726 0.13192229762663552 0.9678991372131641 0 0 0 0.14 13 187 98 562 124 275 
564 -0.035764897605637766 0.13194187770085974 0.9680753764609394 0 0 0 0.12 13 188 44 207 98 563 124 276 200 213 
565 -0.034105449854371125 0.13249475792778867 0.9672946088680726 0 0 0 0.32 13 189 98 564 124 277 
566 -0.19938369997326902 -0.08134142482181755 1.0334844725153745 0 0 0 0.38 13 190 28 213 41 29 44 208 61 149 98 565 124 278 
567 -0.18245891315735605 -0.08191525793120093 1.0309503306796894 0 0 0 0.36 13 191 98 566 124 279 146 191 176 116 
568 -0.18537775955498387 -0.08152506885836178 1.031065406263166 0 0 0 0.29 13 192 44 209 50 223 61 150 92 99 98 567 124 280 157 221 164 78 200 214 224 51 
569 0.08001400756117903 -0.08940692097036411 1.0017499977504019 0 0 0 0.4 13 193 28 214 98 568 112 99 124 281 135 124 200 215 
570 0.11108753691493406 -0.0815081116570741 0.9981748678902906 0 0 0 0.21 13 194 44 210 98 569 175 79 
571 0.14568036391512196 -0.08334675424928244 0.9963744650063912 0 0 0 0.4 13 195 28 215 93 86 98 570 124 282 135 125 157 222 158 114 175 80 200 216 214 106 
572 0.12487984057992874 -0.08137714915448802 0.9976962494266782 0 0 0 0.22 13 196 28 216 41 30 44 211 50 224 98 571 112 100 124 283 146 192 175 81 200 217 
573 0.13978236390701418 -0.08129263733528608 0.9974471177925923 0 0 0 0.31 13 197 44 212 61 151 98 572 200 218 
574 0.22829960748957148 -0.08222745251875369 0.9962146157936529 0 0 0 0.3 13 198 17 73 28 217 32 64 33 149 44 213 61 152 92 100 98 573 112 101 124 284 128 40 157 223 175 82 200 219 
575 0.28727019425517236 -0.08191233702916255 0.995082169342029 0 0 0 0.28 13 199 33 150 44 214 50 225 61 153 92 101 98 574 111 49 112 102 124 285 146 193 158 115 164 79 196 30 200 220 221 26 
576 0.30594866586090624 -0.0817905060159209 0.9943319852751783 0 0 0 0.38 13 200 98 575 124 286 
577 0.337264636192623 -0.07919096534018416 0.9942542106091506 0 0 0 0.48 13 201 98 576 200 221 
578 -0.202729486867609 0.03739307067055965 1.018358716338509 0 0 0 0.27 13 202 98 577 146 194 200 222 
579 0.23972351351345908 0.026762578395727786 0.9813947195735804 0 0 0 0.37 13 203 28 218 98 578 112 103 
580 0.13821995219455369 0.04362187668573917 0.9706022260732557 0 0 0 0.25 13 204 28 219 50 226 61 154 98 579 112 104 146 195 175 83 
581 -0.035184439806808944 0.059217587435688696 0.9799680234257165 0 0 0 0.2 13 205 61 155 98 580 158 116 
582 0.004917122728480602 0.059835476561521744 0.9781548371340132 0 0 0 0.37 13 206 98 581 124 287 
583 0.2780755762508937 0.05995108736660384 0.96839413646608 0 0 0 0.33 13 207 19 44 28 220 40 20 61 156 98 582 111 50 124 288 135 126 200 223 
584 0.32075153399913336 0.06081402401589836 0.9679713492791274 0 0 0 0.41 13 208 32 65 98 583 124 289 
585 0.1699864858467668 0.06475515975492958 0.9706321100272148 0 0 0 0.18 13 209 98 584 175 84 
586 0.13372623877304904 0.06696433020030301 0.9701077559685481 0 0 0 0.17 13 210 98 585 175 85 
587 0.23911583784876125 0.06842202340147578 0.9695906377586742 0 0 0 0.47 13 211 28 221 98 586 
588 -0.029038242859254968 0.08182146809480409 0.9765494230428332 0 0 0 0.24 13 212 50 227 98 587 
589 -0.13379278995049057 0.08797170393857268 0.9946855396150408 0 0 0 0.19 13 213 98 588 124 290 
590 0.13355908288686766 0.0875582176693977 0.9666041364453941 0 0 0 0.26 13 214 98 589 135 127 175 86 
591 0.07176939502962047 0.09515092215935389 0.9698835396887073 0 0 0 0.25 13 215 17 74 61 157 98 590 124 291 146 196 213 160 
592 0.10401749134348488 0.10512192961831905 0.9658548519181469 0 0 0 0.24 13 216 33 151 36 31 98 591 110 27 124 292 135 128 175 87 196 31 200 224 
593 0.09789553170397529 0.11536870054735414 0.9644378904433565 0 0 0 0.17 13 217 98 592 175 88 
594 -0.033713937740372964 0.1164213708898441 0.9707690906562312 0 0 0 0.18 13 218 33 152 41 31 98 593 124 293 200 225 
595 0.10041742843911818 0.12120401819176803 0.9637810251344052 0 0 0 0.34 13 219 28 222 36 32 50 228 98 594 124 294 196 32 200 226 
596 0.10466368965507403 0.12140073115222871 0.9630921759643208 0 0 0 0.42 13 220 33 153 98 595 
597 -0.0360623951856687 0.12700144552562898 0.9682825250421563 0 0 0 0.29 13 221 50 229 98 596 124 295 200 227 
598 -0.04131334802143081 -0.07844918122108709 1.0040726247992635 0 0 0 0.52 13 222 16 135 41 32 50 230 85 33 98 597 
599 -0.021172951156515046 -0.015086405890915514 0.9980865618009904 0 0 0 0.32 13 223 28 223 98 598 112 105 158 117 
600 0.17409188926776795 0.0489897053910784 0.9696211314744428 0 0 0 0.53 13 224 28 224 98 599 112 106 152 43 175 89 
601 0.19186536896415954 0.08519227730658754 0.9711586014035551 0 0 0 0.31 13 225 98 600 124 296 158 118 175 90 
602 -0.1386930663497526 0.0986861759784108 0.9936327968473619 0 0 0 0.34 13 226 98 601 157 224 
603 -0.13869218723524743 0.09868414551978527 0.9936199435242669 0 0 0 0.26 13 227 61 158 98 602 157 225 
604 0.002055594113299691 0.10868050852223245 0.9691479991598062 0 0 0 0.31 13 228 50 231 61 159 98 603 124 297 152 44 200 228 
605 0.03717489191397858 0.1133239244197463 0.9666159731028077 0 0 0 0.23 13 229 28 225 77 87 98 604 152 45 
606 -0.14635173457521225 0.1175334430661423 0.9871578022497001 0 0 0 0.47 13 230 41 33 93 87 98 605 124 298 157 226 
607 0.11329626708088009 0.1364651278753493 0.9600814782044194 0 0 0 0.35 13 231 98 606 124 299 
608 -0.05724625398420005 -0.03709736514122998 1.0020844895003027 0 0 0 0.52 13 232 28 226 98 607 219 29 
609 0.05675106243737489 0.09552016624204972 0.9746278331664859 0 0 0 0.18 13 233 50 232 61 160 98 608 152 46 158 119 200 229 
610 0.0268486451650705 0.1083600019882754 0.9665167560599309 0 0 0 0.37 13 234 28 227 50 233 61 161 98 609 124 300 152 47 158 120 175 91 
611 0.09555434768877359 0.04956422506783056 0.9763598291490971 0 0 0 0.34 13 235 28 228 53 43 98 610 111 51 112 107 124 301 152 48 158 121 204 46 
612 0.012867488368428479 0.09456943539199913 0.9711694669727997 0 0 0 1.36 13 236 32 66 50 234 98 611 
613 0.10290413370877285 0.1227030827356919 0.9630472298993136 0 0 0 0.46 13 237 36 33 50 235 92 102 98 612 111 52 158 122 196 33 200 230 
614 0.06195876493718579 -0.0970953712822997 1.0047362594681162 0 0 0 0.56 13 238 98 613 124 302 
615 0.058884616175869126 -0.07887171707291787 0.9987633557985257 0 0 0 0.98 13 239 50 236 98 614 124 303 146 197 157 227 
616 0.236167963267059 0.08948628470583944 0.970492424845106 0 0 0 0.45 13 240 98 615 124 304 
617 0.11528141574372283 0.10004621285197841 0.9663895544731377 0 0 0 0.3 13 241 61 162 98 616 124 305 146 198 
618 -0.010590875675853437 -0.08109452557030321 1.0036957486324263 0 0 0 0.63 13 242 32 67 50 237 98 617 124 306 152 49 
619 0.043634029243226756 -0.09386819811991887 1.0032381176094614 0 0 0 0.4 13 243 98 618 124 307 
620 0.19706894495707053 -0.17037961194379403 1.0146436599115687 0 0 0 0.36 15 23 98 619 157 228 
621 0.008689843760159655 -0.0793537634822524 1.0031057737946016 0 0 0 0.22 15 24 17 75 44 215 50 238 61 163 98 620 112 108 118 69 124 308 146 199 157 229 196 34 200 231 224 52 
622 0.23189563763124715 -0.07501595801032848 0.9946874027875289 0 0 0 0.41 15 25 28 229 98 621 112 109 124 309 
623 0.09674893288503907 0.04491574469808045 0.9788004946988879 0 0 0 0.24 15 26 16 136 28 230 50 239 61 164 98 622 112 110 124 310 146 200 152 50 158 123 175 92 176 117 200 232 204 47 213 161 
624 0.26762143482670164 -0.08575206457674335 0.9968169450790846 0 0 0 0.26 15 27 38 59 98 623 146 201 158 124 
625 0.07831529197541895 -0.1110406615485994 1.005978408750827 0 0 0 0.61 15 28 19 45 44 216 61 165 92 103 93 88 98 624 146 202 176 118 222 22 
626 0.017586424548977263 0.07089758703328507 0.976736781355731 0 0 0 0.41 15 29 19 46 36 34 61 166 98 625 152 51 220 34 
627 0.0527783715575344 0.07094591373831925 0.9737560866318496 0 0 0 0.52 15 30 16 137 98 626 152 52 
628 0.052547452034831355 0.07100961039409168 0.9732015574099135 0 0 0 0.36 15 31 98 627 221 27 
629 -0.14394066573869826 -0.12480070471335185 1.0302711420291515 0 0 0 0.42 28 231 98 628 146 203 213 162 
630 -0.14411543475516564 -0.12503469301562928 1.0312148424128174 0 0 0 0.24 98 629 124 311 146 204 
631 0.0837163067540741 -0.12789677323690737 1.006480119491795 0 0 0 0.21 16 138 98 630 200 233 
632 -0.10578656459947484 -0.12225883127626412 1.025730149344951 0 0 0 0.28 16 139 98 631 124 312 146 205 157 230 176 119 213 163 
633 -0.10741227211218982 -0.1199208729926813 1.0266272413717015 0 0 0 0.2 16 140 28 232 50 240 98 632 157 231 
634 0.013824356785657271 -0.11509808640005202 1.0087720599918466 0 0 0 0.17 16 141 98 633 112 111 146 206 157 232 200 234 213 164 
635 0.09507782041766788 -0.1150559109621929 1.0054389430405668 0 0 0 0.33 16 142 28 233 98 634 109 43 112 112 146 207 213 165 214 107 
636 0.09334750049845751 -0.11356322254507965 1.0059322810526101 0 0 0 0.24 16 143 28 234 38 60 50 241 77 88 98 635 112 113 113 42 158 125 176 120 200 235 213 166 214 108 
637 -0.06252225669188487 -0.10380114027020743 1.0052550627399177 0 0 0 0.33 16 144 28 235 33 154 38 61 98 636 146 208 176 121 
638 -0.023085159786715114 -0.10437229744703436 1.0093425397904627 0 0 0 0.26 16 145 98 637 112 114 124 313 146 209 157 233 200 236 213 167 
639 0.027652035346129526 -0.10198199321914986 1.0061989474748503 0 0 0 0.12 16 146 28 236 50 242 98 638 112 115 118 70 124 314 136 16 146 210 157 234 200 237 213 168 
640 0.03327785455194723 -0.0970199165097454 1.005275279549797 0 0 0 0.53 16 147 28 237 98 639 
641 0.03572911570419636 -0.09546865474875782 1.0049293340247618 0 0 0 0.28 16 148 28 238 98 640 124 315 135 129 146 211 157 235 176 122 200 238 
642 -0.045672126993657546 -0.08873248715975247 1.0079622929367187 0 0 0 0.23 16 149 28 239 33 155 38 62 98 641 112 116 146 212 157 236 176 123 200 239 213 169 
643 0.14356348773231503 -0.09161658432340951 0.9971468193161966 0 0 0 0.34 16 150 33 156 93 89 98 642 109 44 112 117 124 316 146 213 175 93 
644 -0.0279083936860541 -0.08695573021918639 1.0061430077895754 0 0 0 0.83 16 151 33 157 98 643 124 317 146 214 213 170 
645 0.08666838540581724 -0.08879040963387742 1.000367844451407 0 0 0 0.3 16 152 32 68 98 644 
646 -0.05735043916888621 -0.08577180569581581 1.007914649372011 0 0 0 0.24 16 153 98 645 124 318 157 237 213 171 
647 0.09495580172780406 -0.08864776763342198 1.0006668687666471 0 0 0 0.21 16 154 28 240 98 646 146 215 
648 0.09478044958485812 -0.08854893104757036 1.0003971364840143 0 0 0 0.26 16 155 28 241 93 90 98 647 124 319 146 216 200 240 213 172 
649 -0.04226044538292024 -0.08555973955984905 1.0072092455068458 0 0 0 0.3 16 156 28 242 98 648 176 124 213 173 
650 -0.02364612011092092 -0.08542443811896556 1.0057949834616362 0 0 0 0.24 16 157 28 243 98 649 112 118 124 320 146 217 200 241 213 174 
651 0.12959243260706635 -0.08775076415217 0.9985068400511637 0 0 0 0.45 16 158 93 91 98 650 112 119 124 321 176 125 200 242 
652 0.09429835140533076 -0.08683306815799618 1.0011160727449606 0 0 0 0.34 16 159 33 158 50 243 77 89 98 651 109 45 112 120 124 322 157 238 176 126 194 20 200 243 214 109 
653 -0.14765006851842416 -0.07203561055881094 1.0220161573359483 0 0 0 0.26 16 160 98 652 157 239 176 127 
654 -0.2163013780819499 -0.06631695077574891 1.035856512455434 0 0 0 0.23 98 653 146 218 164 80 
655 -0.1820245726962458 -0.05885105668388855 1.0269722337099676 0 0 0 0.17 50 244 98 654 157 240 
656 0.0381827364428136 -0.059130014062667255 0.9978506770359293 0 0 0 0.16 16 161 98 655 176 128 
657 0.038387560266132284 -0.0591900343594085 0.9984890514673761 0 0 0 0.27 16 162 28 244 98 656 
658 -0.060450848273929755 -0.055255936883641395 1.0032851348178953 0 0 0 0.16 16 163 98 657 146 219 157 241 213 175 214 110 
659 0.13586904557371077 -0.028878355725062806 0.9894990579986402 0 0 0 0.35 16 164 98 658 112 121 
660 -0.004427534172581978 -0.025576901273349696 0.9986658384242314 0 0 0 0.18 16 165 28 245 98 659 112 122 124 323 157 242 213 176 214 111 
661 0.06533688232662496 -0.025963729212022515 0.9931795965277735 0 0 0 0.4 16 166 28 246 98 660 112 123 157 243 213 177 
662 -0.18239888947719046 -0.02392958618714106 1.0241702856711772 0 0 0 0.27 28 247 98 661 176 129 
663 -0.17751331002326487 -0.018566689438795456 1.0213782812988264 0 0 0 0.28 44 217 98 662 148 32 158 126 176 130 
664 -0.004472833582098625 -0.019493488831515353 0.997201713980964 0 0 0 0.12 16 167 93 92 98 663 124 324 
665 0.15616256974950316 -0.021325288751002237 0.9882940725135331 0 0 0 0.11 16 168 98 664 175 94 
666 -0.07960164609043763 -0.01753793085974196 1.0036448298643006 0 0 0 0.23 16 169 33 159 38 63 44 218 98 665 112 124 113 43 124 325 157 244 164 81 176 131 200 244 
667 0.10667723670187909 -0.017239985550651007 0.9888483098181665 0 0 0 0.2 16 170 41 34 93 93 98 666 112 125 136 17 146 220 196 35 213 178 
668 -0.018497719491901623 0.04302123638540202 0.9853561529366733 0 0 0 0.3 16 171 28 248 98 667 124 326 157 245 
669 -0.035143178175251776 0.04282010201091936 0.9812020256353925 0 0 0 0.21 16 172 98 668 124 327 
670 -0.10647613770068885 0.044267911960390295 0.9885561363771663 0 0 0 0.08 16 173 28 249 38 64 50 245 98 669 
671 -0.14774481362967282 0.04499817522809115 0.99619718587936 0 0 0 0.02 16 174 98 670 146 221 
672 -0.04553412647779026 0.044520225935942015 0.9872478457936994 0 0 0 0.16 16 175 98 671 157 246 
673 -0.04553412647779026 0.044520225935942015 0.9872478457936994 0 0 0 0.16 16 176 98 672 157 247 
674 -0.10345699182668622 0.05058502182898225 0.9888584119530366 0 0 0 0.16 16 177 28 250 98 673 200 245 
675 -0.012975171771566612 0.05001360756441031 0.9835352811392377 0 0 0 0.45 16 178 28 251 98 674 
676 0.17402245964638216 0.053390194800744445 0.9687428467469601 0 0 0 0.17 28 252 33 160 98 675 124 328 175 95 
677 -0.216031277171868 0.06066622141099033 1.0083610403100332 0 0 0 0.35 33 161 93 94 98 676 157 248 213 179 
678 -0.11261872154112583 0.05967780703464958 0.9899106562071055 0 0 0 0.13 16 179 98 677 157 249 213 180 
679 -0.06639473909747019 0.060655717590002274 0.9789771290949828 0 0 0 0.2 16 180 33 162 98 678 124 329 200 246 
680 0.03626361413142047 0.06500967425874339 0.9764817224981486 0 0 0 0.19 16 181 28 253 98 679 146 222 157 250 175 96 213 181 214 112 
681 -0.1294178521508374 0.0831533821445117 0.9948426665710515 0 0 0 0.19 16 182 98 680 146 223 213 182 
682 -0.12166538072348049 0.08594333849673914 0.9922176437943423 0 0 0 0.22 16 183 98 681 124 330 146 224 157 251 200 247 213 183 
683 -0.15540896557367428 0.08891814483748783 0.9958034982964726 0 0 0 0.09 50 246 98 682 213 184 
684 -0.1411040936650774 0.09221561436997866 0.9915219972096225 0 0 0 0.41 98 683 157 252 213 185 
685 -0.11819447829899102 0.09253028405246932 0.9899362870921058 0 0 0 0.35 98 684 124 331 157 253 176 132 213 186 
686 -0.04149776307528166 0.09521253763538047 0.9778013644689352 0 0 0 0.31 16 184 28 254 98 685 124 332 
687 -0.18103916352421967 0.10359294455943222 0.9933421342535245 0 0 0 0.12 98 686 124 333 157 254 
688 -0.18103916352421967 0.10359294455943222 0.9933421342535245 0 0 0 0.12 98 687 124 334 157 255 
689 0.042714521156688626 -0.12031846897546217 1.0087358541867821 0 0 0 0.22 16 185 19 47 96 36 98 688 157 256 159 29 213 187 
690 -0.028894885310199243 -0.10014602951969576 1.008965039251184 0 0 0 0.21 16 186 28 255 44 219 61 167 98 689 112 126 113 44 124 335 135 130 164 82 176 133 200 248 213 188 
691 -0.023573249080357832 -0.08958417836342053 1.0064434245439482 0 0 0 0.29 16 187 33 163 44 220 98 690 146 225 224 53 
692 -0.02338838794830166 -0.08964356168313958 1.0065567193809655 0 0 0 0.32 16 188 33 164 44 221 93 95 98 691 200 249 224 54 
693 0.11195881672164348 -0.08843714530549315 1.0003754075860558 0 0 0 0.36 16 189 92 104 98 692 
694 -0.029253148779561186 -0.0827007311131001 1.005194428615817 0 0 0 0.33 16 190 32 69 33 165 92 105 98 693 112 127 146 226 157 257 158 127 200 250 214 113 
695 -0.029272601543625373 -0.08286473469033076 1.0056324456105628 0 0 0 0.26 16 191 32 70 33 166 50 247 92 106 98 694 124 336 146 227 157 258 158 128 200 251 214 114 
696 -0.06819860982766064 -0.08058593401351917 1.0075528937412392 0 0 0 0.24 16 192 28 256 50 248 98 695 
697 0.22450190171463982 -0.08253354775883583 0.9967162960946498 0 0 0 0.41 36 35 61 168 77 90 98 696 112 128 124 337 146 228 157 259 175 97 176 134 204 48 
698 -0.14459364029469127 -0.06688512440217341 1.0212959731630438 0 0 0 0.3 16 193 50 249 98 697 136 18 
699 0.10314612910111483 -0.0576943839368174 0.9960834112323859 0 0 0 0.23 16 194 28 257 98 698 112 129 146 229 164 83 213 189 
700 -0.07393323954692282 -0.027131849182952927 1.00367740786768 0 0 0 0.23 16 195 50 250 98 699 124 338 128 41 146 230 176 135 200 252 214 115 
701 0.026682054793676142 -0.024770841001365222 0.9949482153495812 0 0 0 0.19 16 196 28 258 50 251 98 700 112 130 146 231 157 260 200 253 213 190 
702 0.032172013294910824 -0.012028492332529532 0.9912806918313459 0 0 0 0.21 16 197 28 259 98 701 
703 -0.10240049090808404 0.04326091745566038 0.990425548951711 0 0 0 0.09 16 198 50 252 98 702 146 232 213 191 
704 -0.006148002282642087 0.042793841813843055 0.9835304616892032 0 0 0 0.19 16 199 17 76 44 222 61 169 92 107 98 703 124 339 152 53 157 261 158 129 176 136 213 192 
705 0.01807442886108467 0.05805687884441391 0.9812578111649402 0 0 0 0.56 16 200 19 48 33 167 77 91 98 704 124 340 194 21 200 254 213 193 214 116 
706 -0.10332105312842525 0.05916022667228493 0.9887676631992364 0 0 0 0.2 16 201 33 168 44 223 50 253 61 170 92 108 93 96 98 705 124 341 135 131 157 262 159 30 196 36 200 255 224 55 
707 -0.15465600363211726 0.09569621486869932 0.9921145761576502 0 0 0 0.33 98 706 157 263 158 130 172 37 
708 -0.10001671470312566 0.10056121231156542 0.982231689555278 0 0 0 0.21 16 202 98 707 146 233 213 194 
709 0.08432273899188304 -0.11173591484682212 1.0060717527246663 0 0 0 0.28 16 203 28 260 40 21 44 224 50 254 53 44 60 42 61 171 77 92 93 97 98 708 112 131 124 342 135 132 146 234 147 23 157 264 158 131 176 137 214 117 221 28 222 23 
710 0.12752363388995253 -0.10967832392599365 0.9989488238642968 0 0 0 0.35 16 204 28 261 44 225 93 98 98 709 124 343 146 235 157 265 
711 0.1695580757736496 -0.09049282776235354 0.9993458761229018 0 0 0 0.49 17 77 28 262 32 71 44 226 50 255 77 93 96 37 98 710 111 53 146 236 152 54 162 22 175 98 200 256 219 30 220 35 
712 0.18395523337338687 -0.09023715290364775 0.9984436661820747 0 0 0 0.43 19 49 32 72 33 169 40 22 85 34 98 711 118 71 164 84 196 37 200 257 220 36 
713 -0.1762648078389484 0.09185801807975848 0.998316818837311 0 0 0 0.21 50 256 98 712 172 38 
714 -0.10842625022051165 0.1252011523212929 0.9795690017112701 0 0 0 0.34 33 170 41 35 44 227 50 257 53 45 98 713 
715 -0.018800245434729 0.04050558979773162 0.9852780743336316 0 0 0 0.36 16 205 50 258 98 714 172 39 204 49 
716 0.04961491326665715 0.09543701798829225 0.9725759026022005 0 0 0 0.19 16 206 17 78 96 38 98 715 152 55 
717 -0.08375307306724873 -0.025216770728089984 1.005235606406678 0 0 0 0.36 16 207 61 172 77 94 98 716 112 132 172 40 213 195 219 31 
718 -0.1627756049437181 0.08393891360701665 0.9996194205039494 0 0 0 0.45 17 79 50 259 61 173 98 717 157 266 158 132 217 24 
719 0.06928754671844321 -0.09971837290844873 1.0045813536410988 0 0 0 0.35 17 80 98 718 146 237 
720 -0.05738530587258172 -0.09394848121137539 1.009317496243103 0 0 0 0.41 17 81 33 171 50 260 61 174 98 719 158 133 159 31 
721 0.15909713510740423 -0.08351220831114829 0.9989146343354857 0 0 0 0.39 17 82 28 263 38 65 44 228 98 720 112 133 118 72 124 344 200 258 213 196 
722 -0.16057074290809076 -0.023414244058206152 1.0194098686330513 0 0 0 0.3 17 83 28 264 32 73 98 721 124 345 
723 0.23351176594430328 0.06255531009348612 0.9747185890990819 0 0 0 0.17 17 84 98 722 135 133 176 138 
724 -0.1516016620097512 0.13473002167175027 0.9797126282604526 0 0 0 0.1 17 85 50 261 98 723 
725 0.2890695680168221 -0.0894831038494867 0.9956652912286145 0 0 0 0.32 17 86 98 724 146 238 157 267 
726 0.12399944569919566 -0.02363137086772045 0.9894826650140055 0 0 0 0.47 17 87 28 265 38 66 98 725 112 134 124 346 152 56 157 268 158 134 
727 -0.15061549185352954 0.13188774245670906 0.9837635496390091 0 0 0 0.23 17 88 50 262 98 726 
728 0.042128781881999845 -0.017450225428962192 0.9926392109546192 0 0 0 0.45 17 89 98 727 112 135 146 239 152 57 204 50 
729 -0.11617098318527763 0.06392498625039851 0.9953497475837835 0 0 0 0.4 17 90 98 728 147 24 158 135 
730 -0.06190044172952136 -0.052869713735031965 1.0050161135209839 0 0 0 0.67 17 91 36 36 44 229 98 729 124 347 146 240 157 269 172 41 213 197 
731 -0.01259648532151317 -0.04406985400709511 1.0015839985423338 0 0 0 0.61 17 92 27 12 53 46 61 175 98 730 158 136 204 51 213 198 219 32 
732 0.07269998027478641 -0.17109374386475884 1.0180750259339928 0 0 0 0.45 19 50 98 731 164 85 
733 -0.07681990911422427 -0.09267240729027347 1.0141385083126164 0 0 0 0.18 19 51 32 74 44 230 61 176 98 732 124 348 158 137 200 259 224 56 
734 -0.12519579074353643 -0.0968775216082107 1.019479982421099 0 0 0 0.56 19 52 98 733 200 260 
735 -0.21382185166774217 -0.06155187170409859 1.0381084000656233 0 0 0 0.4 19 53 98 734 146 241 164 86 
736 -0.0333221391363856 0.03261198477825806 0.9842718905932144 0 0 0 0.33 19 54 28 266 50 263 98 735 158 138 159 32 164 87 176 139 200 261 214 118 224 57 
737 -0.06293025216746358 0.05645338618334794 0.9781676936632884 0 0 0 0.35 19 55 98 736 224 58 
738 -0.12377369950339939 0.08614571851997835 0.9931349751874495 0 0 0 0.21 19 56 32 75 44 231 50 264 98 737 135 134 158 139 200 262 224 59 
739 0.06647476773417091 0.09477581499947745 0.9693114164367195 0 0 0 0.19 19 57 33 172 98 738 175 99 200 263 
740 -0.029868623924632232 0.11301259469046754 0.9710138145664204 0 0 0 0.21 19 58 41 36 44 232 50 265 98 739 124 349 200 264 224 60 
741 0.08087466439234411 -0.1120901544508429 1.0069681564270767 0 0 0 0.34 19 59 28 267 60 43 61 177 77 95 85 35 98 740 124 350 135 135 146 242 158 140 176 140 200 265 
742 0.06934273465398212 -0.10895717548145746 1.0061530805939123 0 0 0 0.28 19 60 28 268 44 233 98 741 135 136 146 243 
743 0.19489757221426066 -0.08992742357103488 0.9980406099458266 0 0 0 0.63 19 61 98 742 200 266 
744 0.19407151326268893 -0.08255166130613496 0.9969576512329045 0 0 0 0.37 19 62 98 743 124 351 158 141 200 267 
745 -0.08225524833490382 -0.09763384735942435 1.0133184309284515 0 0 0 0.35 19 63 44 234 93 99 98 744 124 352 200 268 
746 0.20933766655736782 0.07656352672296231 0.968484630206902 0 0 0 0.26 19 64 40 23 98 745 124 353 200 269 
747 0.20941494840091043 0.07661824179996404 0.9685475331144997 0 0 0 0.31 19 65 40 24 44 235 98 746 124 354 
748 0.24413444878270402 0.08867601318033753 0.9658820411190189 0 0 0 0.27 19 66 98 747 124 355 
749 -0.020392199554316284 -0.08984118286303833 1.0058161916673531 0 0 0 0.34 19 67 93 100 98 748 111 54 112 136 200 270 224 61 
750 0.04610070914040237 0.10063929485018562 0.970313939760642 0 0 0 0.57 19 68 96 39 98 749 152 58 158 142 220 37 221 29 
751 -0.12834330979701478 0.08889329751176266 0.9883884508016122 0 0 0 0.46 19 69 98 750 157 270 172 42 204 52 219 33 
752 -0.004739217056590998 -0.08693243834818672 1.0042905487377207 0 0 0 0.42 27 13 50 266 98 751 135 137 146 244 157 271 158 143 176 141 200 271 224 62 
753 -0.020146834850570262 -0.03015470912324603 0.9991151979235424 0 0 0 0.15 27 14 77 96 98 752 159 33 
754 0.2328169930211655 -0.08984541461768566 0.9980308424075072 0 0 0 0.53 33 173 40 25 50 267 98 753 111 55 146 245 157 272 158 144 213 199 220 38 
755 -0.03160606260779453 0.04982563202825429 0.9737678478670005 0 0 0 0.26 27 15 98 754 158 145 
756 -0.012536861746300183 -0.04412874479576026 1.0017516335534 0 0 0 0.63 27 16 53 47 61 178 98 755 158 146 204 53 213 200 219 34 
757 0.08898307925483914 -0.013717002343488506 0.990973378194019 0 0 0 0.23 27 17 98 756 219 35 
758 -0.05534063560474484 -0.1457664228999133 1.0196942935371063 0 0 0 0.16 28 269 98 757 124 356 
759 -0.05532156550167365 -0.14581132669942176 1.0197755953311693 0 0 0 0.13 28 270 98 758 124 357 213 201 
760 -0.109934907522289 -0.12551502273982446 1.0262076276393128 0 0 0 0.41 28 271 98 759 146 246 
761 -0.10555031659427029 -0.12407268766166132 1.025188208311959 0 0 0 0.21 28 272 98 760 124 358 
762 -0.0055674255585263085 -0.13018756022816524 1.0102636351694063 0 0 0 0.36 28 273 98 761 124 359 200 272 
763 -0.0055674255585263085 -0.13018756022816524 1.0102636351694063 0 0 0 0.36 28 274 98 762 124 360 200 273 
764 -0.06650362844230784 -0.1219525227341145 1.021830354283639 0 0 0 0.19 28 275 98 763 112 137 
765 -0.0810713542883869 -0.10125561425303488 1.0089106780684698 0 0 0 0.12 28 276 98 764 124 361 
766 -0.01018652837000746 -0.11498301914579907 1.0102446397878784 0 0 0 0.19 28 277 93 101 98 765 124 362 
767 -0.010272012287126075 -0.11490323607081487 1.0101391279127374 0 0 0 0.21 28 278 98 766 136 19 200 274 
768 -0.08259689556992442 -0.10013533435420943 1.0103793775665404 0 0 0 0.33 28 279 98 767 124 363 
769 -0.20222751285757937 -0.08512867877648674 1.0336767205724096 0 0 0 0.56 28 280 98 768 124 364 200 275 
770 0.082071905312131 -0.13136618660864827 1.0054257427043922 0 0 0 0.11 28 281 93 102 98 769 112 138 124 365 
771 -0.0810956314286111 -0.09915782136920889 1.0108858240236154 0 0 0 0.3 28 282 98 770 112 139 124 366 200 276 
772 -0.053499207674435556 -0.10384944160620231 1.0092463399870502 0 0 0 0.42 28 283 98 771 214 119 
773 -0.053499207674435556 -0.10384944160620231 1.0092463399870502 0 0 0 0.42 28 284 98 772 214 120 
774 0.08316305094153004 -0.1296633727295912 1.0061458456926773 0 0 0 0.2 28 285 98 773 176 142 200 277 214 121 
775 -0.01108514700871864 -0.11093981558453826 1.010283118169198 0 0 0 0.29 28 286 93 103 98 774 124 367 136 20 176 143 
776 0.02647198256409236 -0.1169508626515507 1.0097867194257202 0 0 0 0.24 28 287 60 44 98 775 146 247 157 273 176 144 214 122 
777 -0.07576952104589599 -0.09650567903413995 1.0130035436518559 0 0 0 0.55 28 288 98 776 124 368 
778 -0.03903208301135664 -0.1023738397002718 1.0102983543242396 0 0 0 0.1 28 289 98 777 213 202 
779 -0.0457429155143206 -0.10063643081899477 1.0103180172413218 0 0 0 0.1 28 290 98 778 112 140 157 274 
780 -0.14246040976372557 -0.08679339665237126 1.024680155325821 0 0 0 0.27 28 291 98 779 124 369 157 275 
781 0.05500775776287421 -0.11786084610574725 1.0077565328993427 0 0 0 0.28 28 292 93 104 98 780 112 141 146 248 157 276 176 145 200 278 
782 0.059340606758706935 -0.11690311553325416 1.0079154530639234 0 0 0 0.24 28 293 98 781 200 279 
783 -0.026631681128444034 -0.09955232323610361 1.008755667307798 0 0 0 0.1 28 294 98 782 112 142 
784 -0.009926719289233877 -0.09573873498384856 1.0075021887073172 0 0 0 0.2 28 295 33 174 93 105 98 783 200 280 
785 -0.023697083455651576 -0.09175140897607462 1.00706681816792 0 0 0 0.12 28 296 98 784 157 277 
786 0.3033948151008274 -0.1508299934760422 1.0063170458816324 0 0 0 0.18 28 297 98 785 124 370 
787 -0.21821082792923974 -0.06301003133732871 1.0335149631684966 0 0 0 0.51 28 298 98 786 124 371 
788 0.04178091751314216 -0.10040931382480472 1.0057506057092525 0 0 0 0.12 28 299 98 787 124 372 
789 0.06556231486837182 -0.10291555951658032 1.0057767573275826 0 0 0 0.13 28 300 98 788 124 373 
790 0.05420353695950019 -0.09429071504519088 1.0041988898867362 0 0 0 0.21 28 301 98 789 109 46 176 146 200 281 213 203 
791 0.20976683381664768 -0.11943550065174105 1.0037575434893498 0 0 0 0.16 28 302 98 790 157 278 
792 0.0711195114547459 -0.09478973371990677 1.0041647721026803 0 0 0 0.31 28 303 98 791 175 100 
793 0.1153530085896954 -0.09945314448655122 1.0024242709284503 0 0 0 0.45 28 304 44 236 98 792 
794 0.11894857088135974 -0.08836352439017665 0.9999831025806711 0 0 0 0.53 28 305 98 793 112 143 124 374 176 147 200 282 
795 -0.20472700357793105 -0.04189675026405859 1.0309633813474153 0 0 0 0.55 28 306 98 794 124 375 
796 -0.02815942340032122 -0.058404644134639236 1.002369145588929 0 0 0 0.34 28 307 98 795 124 376 157 279 
797 0.037305384405307424 -0.06147177261042921 1.0003677429870768 0 0 0 0.36 28 308 98 796 175 101 
798 -0.10580899883985835 -0.03555709350132688 1.0102604749434032 0 0 0 0.37 28 309 98 797 124 377 157 280 200 283 
799 -0.03465374792814394 -0.042311032037878955 1.0009199380500533 0 0 0 0.17 28 310 98 798 112 144 
800 0.10233653621979096 -0.057020539891514455 0.998094832827362 0 0 0 0.27 28 311 98 799 112 145 
801 0.17424460823321275 -0.06538106945909433 0.9964249837893435 0 0 0 0.08 28 312 98 800 175 102 
802 0.4423919137490857 -0.1029448985295319 1.0269342045015863 0 0 0 0.54 38 67 44 237 50 268 92 109 
803 0.20900001514344263 -0.05843021491954715 0.9941210756204705 0 0 0 0.26 28 313 98 801 146 249 175 103 176 148 200 284 213 204 
804 -0.07051457665690478 -0.024829864380858758 1.0032566276839738 0 0 0 0.11 28 314 98 802 112 146 
805 0.31006145662747736 -0.0678224931477959 0.9921305077980748 0 0 0 0.28 28 315 98 803 112 147 
806 0.17273152650332307 -0.05084189044896572 0.9936674448020384 0 0 0 0.09 28 316 98 804 157 281 
807 -0.001764932788811995 -0.03050317100806361 0.9984656557353697 0 0 0 0.22 28 317 98 805 112 148 
808 -0.04925236492521853 -0.02383648077876061 0.9987508617257946 0 0 0 0.31 28 318 98 806 124 378 157 282 176 149 200 285 213 205 
809 -0.0351246876658892 -0.02064067657535956 0.9983185401903348 0 0 0 0.22 28 319 98 807 112 149 
810 -0.04702767038860672 -0.018641334360742015 0.9970779914417242 0 0 0 0.12 28 320 98 808 124 379 
811 -0.020535391531484933 -0.018955381194084787 0.9976354661507941 0 0 0 0.29 28 321 98 809 112 150 
812 -0.013203844860798748 -0.019202439907913205 0.9981581009352986 0 0 0 0.25 28 322 98 810 146 250 
813 0.05621246840747494 -0.023460098321339096 0.9918530293396863 0 0 0 0.28 28 323 98 811 175 104 
814 0.06065362302898315 -0.024075020977796395 0.9925928849029325 0 0 0 0.27 28 324 98 812 175 105 176 150 
815 0.04518531380417895 -0.020922941685228562 0.9938738355539679 0 0 0 0.29 28 325 98 813 112 151 157 283 175 106 
816 0.09986793198869795 -0.02525271225179876 0.992146791108032 0 0 0 0.25 28 326 98 814 175 107 
817 0.1367220947223383 -0.024521025393484035 0.9897967419820466 0 0 0 0.35 28 327 98 815 112 152 
818 0.22599074462835564 -0.02058568428352975 0.9879023311964223 0 0 0 0.26 28 328 98 816 112 153 146 251 175 108 200 286 
819 0.24029842285890146 -0.012364335418708886 0.9868991725071965 0 0 0 0.21 28 329 98 817 112 154 146 252 213 206 
820 -0.09602288499993217 0.03782239374677842 0.9966499724375 0 0 0 0.08 28 330 98 818 124 380 
821 -0.130392102221875 0.04387311420868895 0.9999775335694652 0 0 0 0.19 28 331 98 819 136 21 200 287 
822 0.13299188296607664 0.03286603620549449 0.9826009393651399 0 0 0 0.21 28 332 98 820 112 155 175 109 
823 0.06359815169543592 0.03805984279590912 0.9846561370012232 0 0 0 0.2 28 333 98 821 112 156 
824 -0.01891435456688574 0.04471095089131345 0.986186308274403 0 0 0 0.26 28 334 98 822 124 381 
825 -0.018119300035348205 0.046347655651169224 0.9849294169417049 0 0 0 0.38 28 335 98 823 124 382 
826 0.13690131145205997 0.04119270590361325 0.9733688219598989 0 0 0 0.24 28 336 98 824 112 157 175 110 
827 0.07853945258822984 0.04696223145586727 0.97766269645938 0 0 0 0.27 28 337 98 825 112 158 175 111 176 151 
828 0.20621046116115707 0.04548450777482915 0.9743673812926811 0 0 0 0.08 28 338 98 826 112 159 
829 -0.10980253271440396 0.06547361636875508 0.9890186121280247 0 0 0 0.25 28 339 98 827 124 383 
830 0.02992923563100807 0.06191706769845142 0.9758995194865816 0 0 0 0.14 28 340 98 828 124 384 175 112 
831 0.03513434874495038 0.06340234467588493 0.9760244941530537 0 0 0 0.24 28 341 98 829 124 385 175 113 
832 0.09460451074685161 0.08343917321160223 0.9730639019138144 0 0 0 0.16 28 342 98 830 124 386 
833 0.26438502920309487 0.08858406954704695 0.9689672921836844 0 0 0 0.35 28 343 98 831 124 387 200 288 
834 0.2721476856167089 0.10496416992068558 0.9610903707865871 0 0 0 0.48 28 344 98 832 124 388 
835 0.04299383075686999 0.10415039042157877 0.9654955298942505 0 0 0 0.43 28 345 98 833 175 114 
836 0.02979809979064268 0.12196484082317596 0.9647674709796983 0 0 0 0.34 28 346 98 834 124 389 
837 -0.1313234104800329 -0.15576890049861275 1.0334741611190947 0 0 0 0.42 28 347 93 106 98 835 109 47 124 390 200 289 
838 -0.05575631970334359 -0.15455669898390037 1.0251388753607409 0 0 0 0.06 28 348 98 836 200 290 
839 -0.1803059653055112 -0.12867479172594187 1.042581445142044 0 0 0 0.47 28 349 98 837 200 291 
840 -0.18015708392005836 -0.11732385670409469 1.0376959670569297 0 0 0 0.52 28 350 38 68 98 838 
841 -0.1385258910962447 -0.12331036760496379 1.032478281229339 0 0 0 0.27 28 351 33 175 98 839 213 207 
842 0.08071651764356577 -0.1594355208929784 1.0149426512253752 0 0 0 0.15 28 352 98 840 124 391 
843 -0.07038437489068612 -0.11679033056829388 1.0223547098497028 0 0 0 0.28 28 353 41 37 98 841 
844 -0.07460987844777497 -0.10054233397300483 1.0090360477801996 0 0 0 0.22 28 354 98 842 124 392 146 253 
845 0.000962724841816222 -0.11485813068962918 1.0095471844898696 0 0 0 0.23 28 355 50 269 98 843 
846 0.021300404635310282 -0.11525617594750856 1.009663314269572 0 0 0 0.23 28 356 50 270 98 844 
847 -0.1014114886443634 -0.09078684612752709 1.0183759694300165 0 0 0 0.29 28 357 33 176 98 845 124 393 
848 -0.0870065753413148 -0.09081981458825132 1.0165969581471292 0 0 0 0.24 28 358 32 76 98 846 124 394 200 292 
849 -0.013132396791241011 -0.09677910527450645 1.0078767665564594 0 0 0 0.35 28 359 98 847 112 160 213 208 
850 0.051429537581558424 -0.10625930494099513 1.0055551647127474 0 0 0 0.19 28 360 98 848 124 395 
851 0.030084395589559266 -0.1019570338276539 1.0058622651344207 0 0 0 0.16 28 361 98 849 146 254 176 152 213 209 
852 -0.21497458950549322 -0.0647402647902417 1.0365748925908438 0 0 0 0.47 28 362 98 850 146 255 
853 0.29050422006060045 -0.14416182920772153 1.0069205423012417 0 0 0 0.28 28 363 98 851 124 396 
854 -0.009512194744127274 -0.08958147149341888 1.0059107851466758 0 0 0 0.32 28 364 44 238 93 107 98 852 124 397 135 138 146 256 
855 0.05815211253971758 -0.10122747135807926 1.0051041836343895 0 0 0 0.22 28 365 98 853 112 161 176 153 
856 -0.00803462563604357 -0.08254668357539709 1.0039856122704283 0 0 0 0.44 28 366 61 179 98 854 157 284 200 293 213 210 224 63 
857 0.03593104127081634 -0.08946363041364953 1.003386911176062 0 0 0 0.35 28 367 44 239 98 855 112 162 124 398 135 139 214 123 
858 -0.037117805427893044 -0.07655316757984154 1.0055340980746983 0 0 0 0.16 28 368 98 856 112 163 
859 -0.106199832130323 -0.06476248719217682 1.0151622778429048 0 0 0 0.2 28 369 98 857 200 294 
860 0.04606336938059884 -0.0822422354103855 1.0021943464197096 0 0 0 0.2 28 370 98 858 124 399 
861 0.10485334978878944 -0.09092063754612373 1.0006464420711534 0 0 0 0.3 28 371 50 271 61 180 98 859 112 164 175 115 
862 -0.10545615309912598 -0.05977071459178653 1.014862220632177 0 0 0 0.09 28 372 50 272 98 860 157 285 
863 0.12313969549898579 -0.09039120810638218 1.00048483761753 0 0 0 0.15 28 373 98 861 124 400 
864 -0.06046782560686807 -0.06047858739925679 1.0042114489252234 0 0 0 0.25 28 374 98 862 112 165 157 286 
865 0.34880154691835785 -0.12350198865565076 1.0010809750471088 0 0 0 0.35 28 375 98 863 124 401 
866 0.3508975385662405 -0.11992628872748876 0.9994554601437804 0 0 0 0.29 28 376 98 864 124 402 
867 0.3803492070896996 -0.12617395829339542 1.0033117489934533 0 0 0 0.44 28 377 98 865 124 403 146 257 158 147 
868 0.150101791727281 -0.08715984170781713 0.9994506733283003 0 0 0 0.39 28 378 98 866 112 166 124 404 146 258 
869 0.13826679592938768 -0.08380718074011238 0.9976492752544521 0 0 0 0.33 28 379 98 867 112 167 124 405 157 287 158 148 175 116 
870 0.3822446128414056 -0.11961866206939399 0.9990810221499304 0 0 0 0.4 28 380 98 868 124 406 128 42 158 149 
871 0.15028441090954997 -0.07971559928760656 0.9958384543861063 0 0 0 0.29 28 381 98 869 124 407 
872 0.15587869551913675 -0.08073089485713875 0.9983462311957679 0 0 0 0.19 28 382 98 870 112 168 124 408 175 117 
873 0.03244696343651482 -0.057787295977045273 0.9989249270951217 0 0 0 0.31 28 383 98 871 112 169 157 288 200 295 
874 -0.02724639949208479 -0.048474414657264944 1.0000992609559882 0 0 0 0.43 28 384 92 110 98 872 176 154 
875 0.2190101998843644 -0.08260042402659482 0.9975799453965978 0 0 0 0.31 28 385 98 873 112 170 
876 0.006287886717980536 -0.0516522207459784 0.9998209363897197 0 0 0 0.26 28 386 98 874 112 171 157 289 
877 -0.2076422326467876 -0.02749266838032152 1.027865059682918 0 0 0 0.52 28 387 98 875 124 409 
878 0.22786274943605686 -0.07982433510889342 0.9964685522568115 0 0 0 0.26 28 388 98 876 112 172 124 410 
879 -0.19564693572442676 -0.025550893758121036 1.0245463961482812 0 0 0 0.38 28 389 98 877 124 411 
880 0.1421193722204265 -0.06313058351224524 0.9947010700536892 0 0 0 0.24 28 390 98 878 175 118 176 155 
881 0.13709348129670715 -0.060922714998196105 0.9961387454818289 0 0 0 0.16 28 391 98 879 112 173 175 119 
882 -0.1565582126444911 -0.024480684545221596 1.0191295952784667 0 0 0 0.2 28 392 98 880 146 259 200 296 
883 0.3501021574809905 -0.0846252514934866 0.994544122887742 0 0 0 0.42 28 393 32 77 50 273 61 181 98 881 146 260 158 150 176 156 
884 0.439979561141156 -0.10092889567105723 1.0279353090469336 0 0 0 0.49 28 394 53 48 98 882 158 151 
885 -0.09134576464973185 -0.026519877148305417 1.0069967038534569 0 0 0 0.14 28 395 98 883 200 297 
886 -0.16903521080615075 -0.01833093010745888 1.0202376589557622 0 0 0 0.51 28 396 98 884 146 261 
887 -0.05533405393311249 -0.02649812764738643 0.9995576872744653 0 0 0 0.25 28 397 98 885 112 174 200 298 
888 -0.13522303326444585 -0.018749621428816716 1.0148307852419065 0 0 0 0.11 28 398 98 886 124 412 
889 0.029424612660924818 -0.03246974226170685 0.9968348503333453 0 0 0 0.25 28 399 98 887 112 175 
890 0.03183042437453307 -0.031730605856442044 0.9932334186850876 0 0 0 0.23 28 400 98 888 175 120 
891 -0.06972736704215848 -0.01593317748015981 1.001809869240376 0 0 0 0.05 28 401 98 889 112 176 
892 0.026430309350009732 -0.024697340362562742 0.9944392500810387 0 0 0 0.19 28 402 98 890 112 177 124 413 157 290 
893 -0.01687758419325316 -0.018924834528326367 0.9978496436348712 0 0 0 0.21 28 403 98 891 112 178 
894 0.052971686225940916 -0.025436687257206665 0.9916093987458784 0 0 0 0.26 28 404 98 892 124 414 
895 0.09840766790134044 -0.026906531962391293 0.9931354941857411 0 0 0 0.3 28 405 98 893 124 415 175 121 
896 0.0318236971706585 -0.01492743543268381 0.9950365349290915 0 0 0 0.25 28 406 98 894 112 179 
897 0.09740123025897363 -0.019287752664563437 0.9908444102226202 0 0 0 0.17 28 407 98 895 112 180 
898 0.16175741726837783 -0.019961573327497005 0.9884840585396434 0 0 0 0.19 28 408 98 896 112 181 157 291 175 122 
899 -0.03519371910683787 0.001320529725176822 0.9915793904554951 0 0 0 0.21 28 409 98 897 112 182 
900 0.1748436640338995 -0.015656243126752283 0.9877659373229178 0 0 0 0.3 28 410 61 182 98 898 175 123 
901 0.22207790641398784 -0.016538004796895177 0.9875015769085166 0 0 0 0.44 28 411 98 899 124 416 175 124 
902 0.03530873610147017 0.016197244224898637 0.985947206300377 0 0 0 0.12 28 412 98 900 175 125 
903 0.040084225972731695 0.02309257105149166 0.9842084885441897 0 0 0 0.56 28 413 98 901 175 126 
904 -0.06434156732372075 0.04054646368468103 0.9800189966340034 0 0 0 0.22 28 414 98 902 112 183 
905 -0.1277011955877837 0.04265800867769447 1.000618123796028 0 0 0 0.18 28 415 98 903 124 417 146 262 
906 -0.1276969195857418 0.04262789254165229 1.000776466595458 0 0 0 0.19 28 416 98 904 124 418 146 263 200 299 
907 -0.06427326859275234 0.044050409714012154 0.9785040218594717 0 0 0 0.13 28 417 98 905 112 184 146 264 
908 -0.03293811637358154 0.042908862040422185 0.9806601892211257 0 0 0 0.17 28 418 98 906 213 211 
909 -0.02513356944088484 0.04299863638794665 0.9826071292405215 0 0 0 0.17 28 419 98 907 146 265 176 157 
910 0.12069081205105947 0.03665671981639523 0.983021095590358 0 0 0 0.19 28 420 98 908 112 185 
911 0.12292903042369863 0.038845391919517684 0.9822813373489598 0 0 0 0.5 28 421 98 909 112 186 
912 -0.14890345846489697 0.05189371370487444 0.9960659831738529 0 0 0 0.32 28 422 98 910 124 419 146 266 157 292 200 300 
913 0.05396096841833317 0.043315301740184456 0.9820440688893158 0 0 0 0.07 28 423 98 911 112 187 
914 0.05876120941884176 0.04328567308803261 0.9836012963820104 0 0 0 0.1 28 424 98 912 112 188 
915 -0.1330966369955788 0.05142343020831487 1.0010028903916566 0 0 0 0.12 28 425 98 913 124 420 
916 0.0327808139027721 0.046039330731039815 0.975283557143654 0 0 0 0.08 28 426 98 914 112 189 175 127 
917 0.07300742448787208 0.044814256456754284 0.9744090270310017 0 0 0 0.39 28 427 98 915 112 190 175 128 
918 0.10308546919180135 0.04371470873147492 0.9732217945231745 0 0 0 0.29 28 428 98 916 175 129 
919 -0.03300140803831561 0.05160836852450351 0.9781639884407798 0 0 0 0.16 28 429 98 917 109 48 
920 0.2379799722621725 0.0420195390746369 0.9746159724060648 0 0 0 0.2 28 430 98 918 112 191 
921 0.2763259345272459 0.043407727661897696 0.9716045058301964 0 0 0 0.45 28 431 98 919 112 192 124 421 
922 -0.19093414231848033 0.06223250980816065 1.00271113926229 0 0 0 0.14 28 432 98 920 124 422 
923 -0.18127650122710964 0.06210321246221668 1.0009434329308005 0 0 0 0.18 28 433 98 921 124 423 
924 -0.18127650122710964 0.06210321246221668 1.0009434329308005 0 0 0 0.18 28 434 98 922 124 424 
925 0.22107249066665377 0.0564649460050758 0.9665359419653377 0 0 0 0.59 28 435 98 923 175 130 
926 0.23638267755526216 0.055865707705995166 0.9708322748568301 0 0 0 0.29 28 436 98 924 112 193 
927 0.03185195054093805 0.06335957483482059 0.9757102705920326 0 0 0 0.16 28 437 98 925 124 425 
928 0.07095335232546474 0.06355461421276443 0.973986832005206 0 0 0 0.08 28 438 98 926 124 426 175 131 
929 0.2712230555981718 0.06748696710412945 0.9716965432796029 0 0 0 0.32 28 439 98 927 175 132 
930 0.3046725332753045 0.06675287423670863 0.9726983954110824 0 0 0 0.52 28 440 98 928 124 427 200 301 
931 0.03592514272608034 0.07607869894574594 0.9746985521306241 0 0 0 0.38 28 441 93 108 98 929 124 428 175 133 
932 0.3398518270470855 0.07097758714354942 0.9750299277114132 0 0 0 0.2 28 442 98 930 200 302 
933 0.231788972174929 0.0884010273256639 0.9711214558273694 0 0 0 0.47 28 443 98 931 175 134 
934 -0.18586449244328188 0.09972657398052152 0.9958997020648414 0 0 0 0.48 28 444 98 932 157 293 
935 -0.14688015931507878 0.10068248333709708 0.9896828759146414 0 0 0 0.23 28 445 98 933 124 429 157 294 
936 0.0438367479309075 0.1057526710834104 0.9687548778001133 0 0 0 0.37 28 446 38 69 98 934 175 135 
937 -0.1874006419617905 0.10676585107777666 0.9963878302680728 0 0 0 0.32 28 447 98 935 124 430 
938 -0.06002651304889661 -0.18025673647309937 1.0268880400867042 0 0 0 0.33 28 448 98 936 146 267 
939 -0.06407863415997189 -0.16347877762733293 1.0248445223884015 0 0 0 0.33 28 449 98 937 124 431 
940 -0.22218180753765185 -0.08395167888457349 1.0381498198001244 0 0 0 0.48 28 450 93 109 98 938 157 295 200 303 
941 -0.18373309031406881 -0.0843054955835148 1.030985926860076 0 0 0 0.45 28 451 32 78 98 939 124 432 
942 0.05633468301124894 -0.11614617265608149 1.0069036604957704 0 0 0 0.35 28 452 98 940 124 433 
943 -0.10309488664695045 -0.08823533421589558 1.01899410337898 0 0 0 0.39 28 453 53 49 92 111 93 110 98 941 124 434 159 34 
944 0.016341203198475727 -0.10209102913560922 1.0070192291285809 0 0 0 0.33 28 454 98 942 112 194 124 435 
945 0.08870093320720121 -0.11281643890434899 1.0056543631976376 0 0 0 0.08 28 455 98 943 112 195 
946 0.0689631273217396 -0.10875653804041317 1.005584506292722 0 0 0 0.46 28 456 98 944 176 158 
947 -0.06380023982790184 -0.08339791523040695 1.0081467840517973 0 0 0 0.11 28 457 50 274 98 945 
948 0.2918021794102495 -0.14733571031513826 1.0056679818211358 0 0 0 0.32 28 458 98 946 124 436 157 296 200 304 
949 -0.026413386107805754 -0.08928343891207681 1.0063738413285432 0 0 0 0.24 28 459 33 177 44 240 50 275 61 183 77 97 98 947 109 49 112 196 113 45 124 437 128 43 135 140 146 268 148 33 157 297 158 152 159 35 164 88 176 159 185 28 196 38 204 54 213 212 220 39 224 64 
950 -0.07007451118399574 -0.08264766864957589 1.0113204397282594 0 0 0 0.3 28 460 61 184 98 948 112 197 157 298 
951 -0.21539230499901402 -0.06160618226305947 1.0352057152702094 0 0 0 0.33 28 461 93 111 98 949 
952 -0.0015963456398290676 -0.0848368114216589 1.0044414074896968 0 0 0 0.23 28 462 32 79 44 241 50 276 61 185 98 950 124 438 135 141 146 269 152 59 157 299 158 153 176 160 224 65 
953 0.08446954311927647 -0.09445048072259543 1.0034268447679764 0 0 0 0.36 28 463 98 951 135 142 
954 -0.06637707216698095 -0.061808679102099195 1.0045362937418287 0 0 0 0.12 28 464 61 186 98 952 112 198 
955 0.38257383559618874 -0.1236728694647842 1.0012890842631947 0 0 0 0.47 28 465 60 45 98 953 128 44 136 22 146 270 164 89 172 43 
956 -0.033171351739766264 -0.058130369558640885 1.0018786921541072 0 0 0 0.14 28 466 98 954 112 199 
957 0.10085562714226186 -0.07378492963886124 0.996285122124316 0 0 0 0.33 28 467 98 955 112 200 157 300 175 136 
958 -0.024313214742748113 -0.04960790187306447 1.001557799014471 0 0 0 0.25 28 468 98 956 157 301 
959 0.25149547005974093 -0.08254145173038738 0.9968322976689011 0 0 0 0.49 28 469 98 957 112 201 128 45 
960 -0.1944457341848894 -0.027494759526484804 1.025054695946363 0 0 0 0.4 28 470 98 958 146 271 176 161 
961 0.14270884327479527 -0.06580577738174906 0.9951914991890268 0 0 0 0.23 28 471 98 959 175 137 
962 0.3551537183818543 -0.09366213705282433 0.9917520748457106 0 0 0 0.12 28 472 44 242 98 960 
963 -0.0006408771542479342 -0.0460700598848313 0.9980605446885245 0 0 0 0.4 28 473 98 961 112 202 
964 -0.17219475576231477 -0.02354777179954146 1.021039560965454 0 0 0 0.28 28 474 98 962 124 439 157 302 
965 -0.2027580638790079 -0.017382926722897627 1.0244066010378552 0 0 0 0.28 28 475 98 963 124 440 157 303 200 305 
966 -0.000463711072957801 -0.0326118461301273 0.9969095186392734 0 0 0 0.19 28 476 98 964 112 203 157 304 
967 -0.05330223604147765 -0.025366264462507032 0.9983225228317991 0 0 0 0.19 28 477 41 38 61 187 98 965 112 204 157 305 176 162 
968 -0.00952322408780703 -0.030290086584753382 0.9987373175712424 0 0 0 0.2 28 478 98 966 157 306 224 66 
969 -0.03886456442219769 -0.02510599483983073 0.9974902068428227 0 0 0 0.21 28 479 98 967 112 205 
970 0.01170736902049208 -0.0248083770412171 0.995689434190222 0 0 0 0.3 28 480 98 968 112 206 157 307 158 154 
971 -0.024748970354487015 -0.009705140647654901 0.9964386954843039 0 0 0 0.34 28 481 98 969 204 55 
972 0.25050556367611376 -0.013730503452113902 0.98461560457653 0 0 0 0.55 28 482 98 970 112 207 200 306 
973 0.3705673109617558 -0.017151478708954022 0.9858864164138716 0 0 0 0.5 28 483 50 277 98 971 158 155 
974 -0.036718039740061346 0.03027794267830342 0.9840242572197716 0 0 0 0.23 28 484 50 278 61 188 98 972 157 308 
975 -0.11317525570374629 0.03996134208123562 0.9991443753679785 0 0 0 0.26 28 485 98 973 157 309 
976 -0.10735453279759516 0.04165071897391098 0.9897427505674737 0 0 0 0.18 28 486 98 974 146 272 
977 -0.13167858698023158 0.0462792740516458 1.000426844004023 0 0 0 0.11 28 487 98 975 124 441 
978 -0.1255851424711071 0.04605280859306757 0.9986481933107141 0 0 0 0.15 28 488 98 976 124 442 136 23 200 307 
979 -0.1244479724013364 0.04822427669869059 0.998743268393336 0 0 0 0.2 28 489 38 70 98 977 124 443 157 310 176 163 200 308 213 213 
980 -0.15739745301816205 0.049212759735822474 1.0081410237695665 0 0 0 0.19 28 490 98 978 213 214 
