# 3D point list with one line of data per point:
#   POINT3D_ID, X, Y, Z, R, G, B, ERROR, TRACK[] as (IMAGE_ID, POINT2D_IDX)
# Number of points: 278, mean track length: 14.02
19 0.4837917077438564 -0.024873136250768944 0.9238827803166035 101 99 108 0.83 19 17 20 19 21 17 22 17 23 15 24 16 25 12 26 12 27 8 28 11 35 3 36 8 37 8 38 13 39 7 40 10 41 11 42 11 43 6 46 6 47 9 
20 -0.25003809469409266 -0.13901470466911728 0.6416593099702 63 70 78 0.63 19 18 20 20 21 18 22 18 23 16 24 17 26 13 28 12 40 11 48 10 18 3 
21 -0.2876227283878107 0.015298549657879823 0.5556464724878865 67 56 54 0.68 19 19 20 21 21 19 22 19 23 17 24 18 26 14 28 13 36 9 38 14 48 11 
22 0.3515238085022943 0.22159217115405946 0.678816293549571 28 28 35 0.67 19 20 20 22 21 20 22 20 23 18 24 19 25 13 
23 -0.11154118034276522 0.17339516148933756 0.4166829289973437 48 60 44 0.86 19 21 20 23 21 21 22 21 24 20 26 15 36 10 
24 0.2267303291027978 0.1976867405891604 0.6316877335622771 46 43 48 1.01 19 22 20 24 21 22 22 22 23 19 24 21 25 14 26 16 27 9 28 14 36 11 38 15 39 8 40 12 41 12 42 12 43 7 46 7 
25 -0.32675148953613403 -0.15107620354951776 0.579982074149909 119 125 124 1.02 19 23 20 25 21 23 22 23 23 20 24 22 26 17 28 15 42 13 99 0 38 16 
26 0.005247588595163564 0.15970186174393206 0.7012931527647697 68 70 47 1.18 19 24 20 26 21 24 26 18 27 10 28 16 35 4 40 13 48 12 38 17 39 9 41 13 42 14 
27 0.34848020457203743 -0.09665526734981635 0.8410950262970623 83 83 90 0.89 19 25 20 27 21 25 22 24 23 21 24 23 25 15 26 19 27 11 35 5 36 12 37 9 38 18 39 10 40 14 41 14 42 15 43 8 46 8 47 10 48 13 49 5 28 17 29 0 30 1 31 0 32 1 34 1 44 0 45 0 
28 0.06179273168880375 -0.20441052102740745 0.655072761807508 140 149 156 0.84 19 26 20 28 21 26 22 25 23 22 24 24 25 16 26 20 27 12 28 18 38 19 39 11 40 15 41 15 42 16 43 9 46 9 47 11 48 14 
29 -0.09685812431059666 0.1707487279439956 0.391192235482411 41 52 40 1.29 19 27 20 29 21 27 22 26 24 25 41 16 47 12 46 10 
30 0.23593517371180434 0.1799910083249898 0.6667653928503458 71 68 71 0.89 19 28 20 30 21 28 22 27 23 23 24 26 25 17 26 21 27 13 28 19 36 13 38 20 39 12 40 16 41 17 42 17 43 10 46 11 47 13 
31 -0.10579684663806878 0.12744120381930926 0.6741517786529164 86 91 95 0.84 19 29 20 31 21 29 22 28 23 24 24 27 25 18 26 22 36 14 37 10 38 21 41 18 42 18 47 14 32 2 34 2 
32 -0.21427369849540712 -0.10079629953720684 0.6531790138122706 194 207 217 0.86 19 30 20 32 21 30 22 29 23 25 24 28 25 19 26 23 28 20 38 22 39 13 40 17 48 15 
33 -0.216689591772386 -0.17515283885228183 0.6666248894307624 42 44 46 0.47 19 31 20 33 21 31 22 30 23 26 24 29 25 20 26 24 28 21 39 14 40 18 48 16 
34 -0.268283137439156 -0.22190114794542476 0.6336332105867488 57 59 63 0.47 19 32 20 34 21 32 22 31 23 27 24 30 26 25 28 22 
35 0.3425179097170637 -0.1076418459905168 1.0395137477077854 37 29 26 0.95 20 35 23 28 24 31 25 21 27 14 28 23 
36 0.20294758888271638 -0.04743281315624609 0.939204109967305 24 20 18 0.57 19 33 20 36 22 32 23 29 24 32 25 22 26 26 27 15 28 24 37 11 38 23 39 15 40 19 46 12 47 15 48 17 49 6 
37 -0.29684197189753336 0.12512203130075328 0.510948542481329 92 73 68 0.45 19 34 20 37 21 33 22 33 24 33 26 27 28 25 36 15 38 24 
38 -0.06835092452946118 -0.012401553765952067 0.7184733809649013 62 62 63 1.03 19 35 20 38 21 34 22 34 23 30 24 34 25 23 28 26 36 16 37 12 41 19 42 19 47 16 48 18 18 4 38 25 30 2 32 3 34 3 
39 -0.15255662175470244 0.024886798735926564 0.6473066480371784 111 104 98 0.68 19 36 20 39 21 35 22 35 23 31 24 35 25 24 26 28 28 27 36 17 38 26 43 11 48 19 
40 -0.021779326347873874 0.18723470810661352 0.4074684114330673 65 59 60 1.27 19 37 20 40 21 36 22 36 23 32 24 36 26 29 36 18 41 20 47 17 
41 -0.011662081892175637 0.1691984808847149 0.439668393044689 17 24 18 0.53 19 38 20 41 21 37 22 37 23 33 24 37 26 30 28 28 36 19 
42 -0.2196576656901429 0.09430364728845793 0.597274937530987 58 66 76 0.67 19 39 20 42 21 38 22 38 23 34 24 38 26 31 28 29 39 16 43 12 
43 -0.11031136099201705 -0.13789008755918386 0.7376660075895021 68 75 80 0.76 19 40 20 43 21 39 22 39 23 35 24 39 25 25 26 32 27 16 36 20 38 27 42 20 48 20 32 4 34 4 40 20 41 21 
44 0.00127385676973041 -0.16860789689313813 0.734755712031368 206 216 221 0.83 19 41 20 44 21 40 22 40 37 13 38 28 43 13 
45 0.456991163759507 -0.18106987998320206 0.930091457000119 77 84 91 1.05 19 42 20 45 21 41 22 41 23 36 24 40 25 26 35 6 37 14 38 29 39 17 40 21 41 22 42 21 43 14 46 13 47 18 48 21 49 7 
46 0.22884058814415262 -0.14118814505750546 0.7572709535459974 50 45 41 1.1 19 43 20 46 21 42 22 42 23 37 24 41 25 27 26 33 36 21 37 15 38 30 39 18 40 22 41 23 42 22 43 15 46 14 47 19 48 22 49 8 18 5 7 0 8 0 9 0 10 0 15 0 16 0 17 0 11 0 12 0 13 0 14 0 
47 0.05281510804472588 -0.06851848581365001 0.6542654012772025 97 99 96 0.26 19 44 20 47 21 43 
48 -0.10287368452168615 0.10482749082024984 0.6784179677239007 118 124 132 0.71 19 45 20 48 21 44 22 43 23 38 24 42 25 28 26 34 36 22 37 16 38 31 41 24 42 23 47 20 18 6 
49 -0.221685867388633 0.08569358364620143 0.5911042247471802 59 60 68 0.49 19 46 20 49 21 45 22 44 23 39 24 43 26 35 28 30 39 19 40 23 
50 0.03129856210387801 -0.049735730717226596 0.817832114941364 42 43 43 1.15 19 47 20 50 22 45 23 40 24 44 25 29 26 36 27 17 28 31 36 23 37 17 38 32 43 16 47 21 49 9 
51 -0.03710583839914519 0.1338036376759838 0.47188620672225573 49 50 35 1.19 19 48 20 51 21 46 22 46 23 41 24 45 40 24 41 25 43 17 46 15 
52 -0.20820624321019515 0.11008855576186544 0.5972698745271132 40 31 29 0.99 19 49 20 52 21 47 22 47 23 42 24 46 25 30 26 37 28 32 39 20 30 3 32 5 34 5 40 25 48 23 
53 -0.2516093282204183 -0.07849907313084893 0.6258509014752155 39 51 58 0.48 19 50 20 53 21 48 22 48 23 43 24 47 26 38 28 33 48 24 30 4 32 6 34 6 
54 -0.20757567916810996 0.15753064926425944 0.44032273903145763 111 100 106 0.68 19 51 20 54 21 49 
55 -0.30403332174117154 0.17208549219583646 0.49357603975157965 110 86 73 0.5 19 52 20 55 21 50 22 49 24 48 26 39 28 34 
56 -0.2524405275307696 -0.03979090822965883 0.5940635443546157 91 84 85 0.54 19 53 20 56 21 51 22 50 23 44 24 49 26 40 28 35 36 24 48 25 
57 -0.30006714046028676 -0.02561182519159496 0.5606601796786137 138 127 117 0.66 19 54 20 57 21 52 22 51 23 45 24 50 26 41 28 36 36 25 38 33 48 26 
58 -0.2397095137743817 0.12639256662540146 0.5722005262276774 146 158 170 0.78 19 55 20 58 21 53 22 52 23 46 24 51 26 42 28 37 40 26 48 27 
59 -0.07857699408974422 -0.11333255859403842 0.758093776927874 118 125 130 0.69 19 56 20 59 21 54 22 53 23 47 24 52 25 31 28 38 36 26 37 18 48 28 29 1 30 5 32 7 34 7 
60 0.35830257937344495 0.03461629705788307 0.8086789627220116 97 94 96 0.86 20 60 21 55 22 54 23 48 24 53 25 32 26 43 27 18 36 27 38 34 39 21 40 27 41 26 42 24 43 18 48 29 49 10 
61 -0.07073919555541543 0.0648455337221914 0.7089174979396827 121 127 130 0.96 19 57 20 61 21 56 22 55 23 49 24 54 28 39 36 28 37 19 40 28 41 27 42 25 47 22 48 30 
62 -0.22436011388433283 0.1063166099307915 0.590182414616667 123 139 151 0.62 19 58 20 62 21 57 22 56 23 50 24 55 26 44 28 40 39 22 30 6 32 8 34 8 40 29 
63 0.1772440468524875 0.18484272659883497 0.5011599327690878 33 34 39 0.87 19 59 20 63 21 58 22 57 23 51 24 56 25 33 26 45 27 19 28 41 36 29 
64 0.09765976768335527 -0.16405027232189678 0.6578513193920413 57 54 55 0.85 19 60 20 64 21 59 22 58 23 52 24 57 25 34 26 46 27 20 38 35 39 23 40 30 41 28 42 26 43 19 46 16 47 23 48 31 49 11 18 7 
65 -0.14974338036545756 -0.1156160904842694 0.6904040873560461 124 116 104 0.54 19 61 20 65 21 60 22 59 23 53 24 58 25 35 26 47 28 42 36 30 38 36 48 32 
66 -0.22042344586055476 -0.09717728499786715 0.6511209703717852 13 13 13 0.82 19 62 20 66 21 61 22 60 23 54 24 59 25 36 26 48 28 43 39 24 40 31 48 33 18 8 
67 -0.2467791485013077 -0.11741024771360317 0.6379295286409254 164 179 195 0.78 19 63 20 67 21 62 22 61 23 55 24 60 26 49 28 44 39 25 48 34 30 7 32 9 34 9 44 1 
68 0.40881989535472624 0.11082546661155532 1.0370763549181607 79 77 79 0.82 20 68 21 63 22 62 23 56 25 37 27 21 38 37 41 29 42 27 43 20 46 17 47 24 48 35 49 12 
69 0.03050677731703078 -0.09558719736776797 0.829957707033211 33 29 26 0.93 19 64 20 69 22 63 23 57 24 61 25 38 26 50 27 22 28 45 36 31 37 20 38 38 43 21 47 25 48 36 
70 -0.1113707404353249 0.17318221786301777 0.4039316283354496 48 58 43 0.74 19 65 20 70 21 64 22 64 24 62 36 32 
71 -0.08691226295031615 0.1290795559695773 0.6854640755963551 114 122 128 0.88 19 66 20 71 21 65 22 65 23 58 24 63 25 39 26 51 36 33 37 21 41 30 47 26 
72 -0.04252960714125101 0.14573102563071566 0.46648849450370755 35 44 31 1.08 19 67 20 72 21 66 22 66 23 59 46 18 
73 0.10409324234817059 0.15868389113099907 0.5667816505700067 74 71 74 1.06 19 68 20 73 21 67 22 67 23 60 24 64 25 40 26 52 27 23 28 46 36 34 38 39 39 26 40 32 41 31 42 28 43 22 46 19 47 27 48 37 
74 -0.11371235583025173 0.16070944492038244 0.6306116250163544 82 78 68 0.45 19 69 20 74 21 68 24 65 25 41 26 53 28 47 36 35 38 40 18 9 
75 0.34978066917979395 0.0338381684002943 1.017457160092841 51 46 43 1.01 19 70 20 75 21 69 23 61 24 66 25 42 26 54 27 24 28 48 38 41 39 27 40 33 41 32 42 29 43 23 46 20 47 28 48 38 49 13 5 0 6 0 7 1 8 1 9 1 10 1 11 1 12 1 
76 -0.24826512192481257 -0.07324705405641645 0.6280011601371128 170 187 199 0.67 19 71 20 76 21 70 22 68 23 62 24 67 26 55 28 49 40 34 48 39 44 2 
77 -0.17533063434494653 0.13194141050518673 0.5985509863039068 117 109 102 0.66 19 72 20 77 21 71 22 69 23 63 24 68 25 43 26 56 28 50 40 35 
78 0.10473239819499328 -0.14126410203681433 0.6607395755399009 67 56 53 0.86 19 73 20 78 21 72 22 70 23 64 24 69 25 44 26 57 27 25 28 51 38 42 39 28 40 36 41 33 42 30 43 24 46 21 47 29 48 40 49 14 44 3 45 1 
79 -0.11573946136136498 0.0291244984785232 0.6708269101076436 25 23 23 0.76 19 74 20 79 21 73 22 71 23 65 24 70 25 45 26 58 27 26 28 52 36 36 38 43 43 25 48 41 30 8 32 10 34 10 39 29 
80 -0.286873967311368 0.12662633660617018 0.5180666430420322 103 84 83 0.48 19 75 20 80 21 74 22 72 24 71 26 59 28 53 36 37 38 44 
81 -0.29751069420073467 0.14185913197916294 0.5065229620108087 111 93 90 0.6 19 76 20 81 21 75 22 73 24 72 26 60 28 54 36 38 38 45 
82 0.12466687607339076 0.18325713298469232 0.562985845237819 60 54 54 0.92 19 77 20 82 21 76 22 74 23 66 24 73 25 46 26 61 27 27 28 55 36 39 38 46 40 37 41 34 42 31 46 22 16 1 17 1 18 10 
83 -0.29917313834331427 0.14531295880424083 0.5024477927450818 111 100 93 0.34 19 78 20 83 21 77 22 75 24 74 26 62 28 56 38 47 
84 0.024197722179470235 0.04945210577846194 0.7640362331560063 28 22 19 0.92 19 79 20 84 23 67 24 75 25 47 26 63 27 28 28 57 36 40 38 48 39 30 47 30 48 42 49 15 
85 0.22643764835081648 0.18429199118706463 0.8827993801363964 86 80 77 1.21 19 80 22 76 23 68 24 76 25 48 26 64 27 29 28 58 35 7 36 41 37 22 38 49 39 31 40 38 46 23 48 43 18 11 5 1 6 1 7 2 8 2 9 2 10 2 11 2 12 2 13 1 14 1 15 1 47 31 49 16 
86 -0.16578622486858954 -0.01753610650794398 0.6503531885556473 142 134 122 0.47 19 81 20 85 21 78 22 77 23 69 24 77 25 49 26 65 28 59 38 50 48 44 18 12 39 32 
87 0.17775101698755655 0.20511113675089931 0.49503803129649765 80 53 50 0.81 19 82 20 86 21 79 22 78 23 70 24 78 25 50 26 66 27 30 28 60 36 42 
88 -0.03897194235495323 0.1628765534760169 0.6722001556682482 38 39 37 1.02 19 83 20 87 21 80 22 79 23 71 37 23 48 45 18 13 24 79 36 43 42 32 
89 0.4614109618052951 -0.10282244424685492 0.9270521880897864 79 78 77 0.87 19 84 20 88 21 81 22 80 23 72 24 80 25 51 27 31 28 61 35 8 36 44 37 24 38 51 39 33 40 39 41 35 42 33 43 26 46 24 47 32 48 46 29 2 30 9 34 11 44 4 45 2 
90 -0.06026232481677392 0.1722141703829007 0.3959623331002572 62 49 38 0.86 19 85 20 89 21 82 22 81 23 73 24 81 26 67 47 33 
91 -0.17388450320639648 0.013555136294161586 0.6359913928113432 100 75 68 0.47 19 86 20 90 21 83 22 82 23 74 24 82 25 52 26 68 28 62 38 52 48 47 
92 -0.0941183426136035 0.17381041410293685 0.6107589378068111 42 32 35 0.74 19 87 20 91 25 53 38 53 
93 -0.16943984045444135 0.003391524975542085 0.6435125947343342 140 133 125 0.65 19 88 20 92 21 84 22 83 23 75 24 83 25 54 26 69 28 63 36 45 38 54 48 48 
94 -0.20284871403872426 0.1329142099858456 0.5898572856433612 179 186 189 0.9 19 89 20 93 21 85 22 84 23 76 24 84 25 55 26 70 28 64 48 49 
95 0.33938741607886624 -0.10251214109351436 0.8353235023437094 107 110 120 1.13 19 90 20 94 21 86 22 85 23 77 24 85 25 56 26 71 27 32 28 65 35 9 36 46 37 25 38 55 39 34 40 40 41 36 42 34 43 27 46 25 47 34 48 50 49 17 18 14 29 3 30 10 31 1 32 11 33 0 44 5 45 3 
96 0.021860165088089457 0.12388918262976414 0.4588336241236831 8 10 8 0.64 19 91 20 95 21 87 22 86 23 78 24 86 26 72 28 66 36 47 41 37 47 35 48 51 
97 -0.26192829714399735 -0.16016303162937812 0.6306837778235086 134 147 166 0.73 19 92 20 96 21 88 22 87 23 79 24 87 26 73 28 67 40 41 48 52 
98 0.3891643300297476 0.24130146907353542 0.678625631050178 24 22 26 1.39 22 88 23 80 41 38 
99 0.0313970822156192 -0.07261990142724467 0.8227391583761331 34 31 28 1.07 19 93 20 97 22 89 23 81 24 88 25 57 26 74 27 33 28 68 36 48 37 26 38 56 39 35 43 28 47 36 48 53 49 18 
100 -0.2901393784999436 0.061145017809056804 0.5415443089891104 99 84 80 0.61 19 94 20 98 21 89 22 90 23 82 24 89 26 75 28 69 36 49 38 57 
101 0.4837501162587793 0.24310254798257105 0.779884277585533 49 53 61 1.3 19 95 20 99 21 90 22 91 23 83 
102 -0.25915732224062354 0.07783686938734305 0.567100608834165 22 20 24 1.28 19 96 20 100 21 91 22 92 23 84 24 90 26 76 28 70 36 50 40 42 41 39 48 54 30 11 32 12 34 12 44 6 46 26 
103 0.14113555947981168 -0.27049437825118433 0.7271218206379738 86 94 97 1.07 19 97 20 101 21 92 22 93 23 85 24 91 25 58 26 77 36 51 38 58 39 36 40 43 41 40 42 35 43 29 46 27 47 37 48 55 
104 -0.2510867283001687 -0.09400392148112145 0.6314855162955824 33 39 42 0.49 19 98 20 102 21 93 22 94 23 86 24 92 26 78 28 71 48 56 18 15 
105 0.2141113592555439 0.19478726120499237 0.6174036826547542 29 28 34 0.85 19 99 20 103 21 94 22 95 24 93 
106 0.02582685491729742 0.17003014241446165 0.7428607180435759 68 75 84 1.11 19 100 20 104 24 94 25 59 26 79 38 59 29 4 30 12 31 2 36 52 37 27 39 37 40 44 43 30 44 7 48 57 32 13 46 28 
107 -0.04105142864776737 -0.16090970688836798 0.7847765305550598 107 100 90 1.23 19 101 20 105 21 95 22 96 23 87 26 80 27 34 28 72 40 45 41 41 47 38 48 58 
108 -0.18191172515985993 -0.16435966084659556 0.6831765756761466 138 128 112 1.01 19 102 20 106 21 96 22 97 23 88 24 95 25 60 26 81 28 73 38 60 39 38 40 46 18 16 
109 0.1477075739605831 0.1798557936612522 0.572743403582987 72 62 63 0.46 19 103 20 107 21 97 22 98 
110 -0.07336196046106465 -0.08959215500852263 0.7510315853205052 156 165 175 0.79 19 104 20 108 21 98 22 99 23 89 24 96 25 61 28 74 35 10 36 53 37 28 47 39 48 59 
111 0.09830228255353855 -0.1557059258760446 0.6572432565637198 121 130 135 0.84 19 105 20 109 21 99 22 100 23 90 24 97 25 62 26 82 27 35 38 61 39 39 40 47 41 42 42 36 43 31 46 29 47 40 48 60 49 19 
112 0.22815024376649526 0.06836805864358178 0.7034295489954092 57 50 52 1.15 19 106 20 110 21 100 22 101 23 91 24 98 25 63 26 83 27 36 28 75 35 11 36 54 38 62 39 40 41 43 42 37 43 32 47 41 
113 0.3815069071469349 0.2183602726418999 0.98803827666387 71 64 62 1.25 20 111 22 102 23 92 24 99 25 64 26 84 27 37 28 76 35 12 39 41 40 48 41 44 42 38 43 33 46 30 47 42 48 61 49 20 
114 -0.27572031908922534 0.1336754706728108 0.5286645712143055 113 93 83 0.72 19 107 20 112 21 101 22 103 23 93 24 100 26 85 28 77 36 55 48 62 18 17 
115 -0.3075534671194929 0.0002133191011820948 0.539741787606378 82 74 72 0.57 19 108 20 113 21 102 22 104 24 101 26 86 28 78 36 56 38 63 
116 -0.09851176690999759 -0.05416465994295562 0.7302014920701835 11 12 13 0.97 19 109 20 114 21 103 22 105 23 94 24 102 25 65 26 87 36 57 37 29 38 64 41 45 47 43 
117 0.16388173593953123 -0.22927572903887405 0.7166207299277598 63 76 87 1.03 19 110 20 115 21 104 22 106 23 95 24 103 25 66 26 88 28 79 37 30 38 65 39 42 40 49 41 46 42 39 43 34 46 31 47 44 48 63 
118 -0.040201792930797536 0.18000904100984258 0.3910837634472106 37 45 24 0.77 19 111 20 116 21 105 22 107 23 96 24 104 26 89 
119 0.49766948979382136 -0.16432913310601005 0.9611749025301628 59 55 58 0.96 19 112 20 117 21 106 22 108 23 97 24 105 27 38 35 13 37 31 38 66 39 43 40 50 41 47 42 40 43 35 46 32 47 45 48 64 49 21 
120 0.0991745940398028 -0.16852540463187968 0.6603613790765549 169 187 197 0.71 19 113 20 118 21 107 22 109 23 98 24 106 25 67 26 90 27 39 28 80 38 67 39 44 40 51 41 48 42 41 43 36 46 33 47 46 48 65 
121 0.06465458767811669 -0.17540966089636995 0.6425846977012724 144 160 169 0.86 19 114 20 119 21 108 22 110 23 99 24 107 25 68 26 91 27 40 28 81 38 68 39 45 40 52 41 49 42 42 43 37 46 34 47 47 48 66 49 22 30 13 32 14 34 13 44 8 45 4 
122 0.18342843304480982 -0.07021267143360385 0.9338067605661995 27 25 24 0.97 19 115 20 120 21 109 23 100 24 108 25 69 26 92 27 41 28 82 37 32 38 69 39 46 40 53 46 35 47 48 48 67 49 23 
123 -0.3012963615578654 0.16095768503530822 0.495353107639246 109 78 72 0.44 19 116 20 121 21 110 22 111 24 109 26 93 28 83 
124 -0.20078910795301788 0.13441228551447673 0.5884539397281124 138 139 144 1.01 19 117 20 122 21 111 22 112 23 101 24 110 25 70 26 94 28 84 39 47 48 68 30 14 32 15 34 14 40 54 
125 -0.13375660110394363 -0.08206451325653799 0.689918909383147 126 97 80 0.67 19 118 20 123 21 112 22 113 23 102 24 111 25 71 26 95 27 42 28 85 36 58 37 33 38 70 43 38 48 69 
126 -0.1361800312335529 0.15698946047824816 0.6161626752845603 105 96 83 0.8 19 119 20 124 21 113 22 114 25 72 26 96 28 86 36 59 38 71 18 18 24 112 
127 -0.0922743417908331 -0.06985890615359497 0.7333820577086264 128 135 145 0.77 19 120 20 125 21 114 22 115 23 103 24 113 25 73 26 97 36 60 37 34 38 72 48 70 18 19 30 15 32 16 34 15 
128 0.23817648524369786 0.19107617657923162 0.6530311960538113 85 83 86 0.95 19 121 20 126 21 115 22 116 23 104 24 114 25 74 26 98 27 43 28 87 36 61 38 73 39 48 40 55 41 50 42 43 43 39 46 36 
129 0.07585258477281595 0.192499762418092 0.4754421027726202 81 71 76 0.73 19 122 20 127 21 116 22 117 23 105 24 115 25 75 26 99 28 88 36 62 41 51 47 49 
130 -0.15004585140405344 -0.07735781264174427 0.6799085578666654 144 134 121 0.58 19 123 20 128 21 117 22 118 23 106 24 116 25 76 26 100 28 89 36 63 38 74 48 71 39 49 
131 -0.06598955324292105 0.15766066821105384 0.6861895838059138 119 117 119 1.24 19 124 20 129 21 118 22 119 23 107 24 117 28 90 36 64 37 35 41 52 47 50 18 20 
132 -0.2023700813396565 -0.0036056070512234563 0.6186149895752349 122 107 99 0.51 19 125 20 130 21 119 22 120 23 108 24 118 25 77 26 101 28 91 39 50 40 56 48 72 18 21 
133 -0.21776303249464096 -0.13369160560887722 0.6583805065096435 68 74 84 0.72 19 126 20 131 21 120 22 121 23 109 24 119 25 78 26 102 28 92 39 51 40 57 48 73 
134 -0.1980830700850066 -0.20792388129565914 0.6839427328611707 63 50 43 0.65 19 127 20 132 21 121 22 122 23 110 24 120 25 79 26 103 28 93 38 75 39 52 40 58 48 74 
135 -0.32890996208437995 -0.2314931454745788 0.5957917780165423 45 40 37 0.99 19 128 20 133 21 122 22 123 23 111 24 121 26 104 28 94 42 44 0 0 3 0 4 0 5 2 6 2 7 3 8 3 9 3 10 3 11 3 12 3 
136 0.07080796714940214 0.05813023818485425 0.8094273450221372 46 36 34 1.32 19 129 21 123 22 124 23 112 24 122 25 80 26 105 35 14 36 65 37 36 38 76 41 53 42 45 47 51 49 24 18 22 43 40 34 16 
137 0.3592371720972366 0.057657625105303825 0.7998080476433044 96 98 107 1.02 19 130 20 134 21 124 22 125 23 113 24 123 25 81 26 106 27 44 28 95 35 15 36 66 38 77 39 53 40 59 41 54 42 46 43 41 46 37 48 75 49 25 
138 -0.31014953164542697 -0.01244316001656047 0.5389884267348434 89 82 79 0.45 19 131 20 135 21 125 22 126 24 124 26 107 28 96 36 67 38 78 
139 0.48826090410061124 -0.15583271391414502 0.9636920173000639 138 153 170 0.96 19 132 20 136 21 126 22 127 23 114 24 125 25 82 27 45 28 97 35 16 37 37 38 79 39 54 40 60 41 55 42 47 43 42 46 38 47 52 48 76 49 26 
140 -0.20929968313191927 0.08192361815965672 0.6036626926775529 4 2 2 1.17 19 133 20 137 21 127 22 128 23 115 24 126 25 83 26 108 28 98 39 55 48 77 30 16 32 17 34 17 
141 -0.17596425712759373 0.15315443445721597 0.40124033879805127 35 32 32 0.36 19 134 20 138 21 128 22 129 36 68 
142 -0.2587061063495784 -0.06872735081073689 0.5973135536050443 103 103 105 0.61 19 135 20 139 21 129 22 130 23 116 24 127 26 109 28 99 36 69 38 80 48 78 30 17 32 18 34 18 
143 -0.27143478963565615 -0.1125436956432309 0.6049261777594738 103 91 85 0.63 19 136 20 140 21 130 22 131 23 117 24 128 26 110 28 100 38 81 48 79 
144 0.06092469622582067 -0.2429883521831614 0.6451886862259809 131 142 151 0.97 19 137 20 141 21 131 22 132 23 118 24 129 25 84 26 111 28 101 38 82 39 56 40 61 41 56 42 48 43 43 46 39 47 53 48 80 30 18 32 19 44 9 45 5 
145 0.2510570236660046 0.2058582400057195 0.552078158462418 20 19 23 0.79 20 142 21 132 22 133 23 119 24 130 25 85 26 112 27 46 28 102 
146 -0.29929917788407945 -0.211897670377994 0.6041547362767246 101 93 88 0.26 19 138 20 143 21 133 22 134 23 120 24 131 26 113 28 103 
147 0.025571250342479077 0.12338702974739273 0.747465493972807 53 51 49 1.0 19 139 20 144 23 121 24 132 25 86 26 114 27 47 28 104 36 70 38 83 47 54 18 23 37 38 39 57 40 62 5 3 6 3 7 4 8 4 10 4 11 4 12 4 13 2 14 2 49 27 
148 -0.2945161455174402 -0.014902815299534581 0.5591073223479024 132 126 120 0.7 19 140 20 145 21 134 22 135 23 122 24 133 26 115 28 105 36 71 38 84 48 81 
149 0.059340521013345 -0.13894353862137443 0.8572251450202165 9 7 7 1.32 19 141 21 135 22 136 23 123 24 134 25 87 26 116 36 72 37 39 38 85 42 49 47 55 48 82 49 28 
150 -0.27443503351401144 0.17790051835783735 0.5120925574789201 116 98 84 0.56 19 142 20 146 21 136 22 137 24 135 26 117 
151 0.17577712533764445 0.17523857917062083 0.5051510312519035 53 46 51 0.97 19 143 20 147 21 137 22 138 23 124 24 136 25 88 26 118 27 48 28 106 36 73 
152 -0.048480899061777605 0.011566603776436271 0.72262155061107 40 35 35 1.05 19 144 20 148 21 138 22 139 23 125 24 137 27 49 28 107 35 17 36 74 37 40 40 63 41 57 42 50 47 56 48 83 
153 0.00216635816620902 -0.0944742488848145 0.7865918262071935 31 23 20 1.01 19 145 20 149 21 139 23 126 24 138 25 89 26 119 27 50 28 108 38 86 39 58 40 64 41 58 47 57 48 84 49 29 
154 0.20089181187768193 -0.1469083978723632 0.7354240348847462 57 54 52 1.11 19 146 20 150 21 140 22 140 23 127 24 139 25 90 26 120 27 51 36 75 37 41 38 87 39 59 40 65 41 59 42 51 43 44 46 40 47 58 48 85 49 30 7 5 8 5 9 4 10 5 11 5 12 5 13 3 14 3 15 2 16 2 17 2 18 24 
155 -0.11934488301184784 -0.05515133549598097 0.694955443422484 65 65 63 0.65 19 147 20 151 21 141 22 141 23 128 24 140 25 91 26 121 27 52 28 109 36 76 37 42 38 88 42 52 43 45 48 86 
156 -0.24564580391649085 0.1062521533169398 0.5812284459935426 5 2 2 0.63 19 148 20 152 21 142 22 142 23 129 24 141 26 122 28 110 39 60 40 66 18 25 
157 0.15981033311730922 0.13189351114542305 0.8365369205969053 42 30 31 1.12 19 149 20 153 21 143 22 143 25 92 26 123 27 53 28 111 35 18 39 61 40 67 41 60 42 53 46 41 47 59 48 87 
158 0.033978318931349866 0.14680583890829885 0.76275882446646 79 85 90 0.7 19 150 20 154 22 144 23 130 24 142 25 93 26 124 27 54 28 112 36 77 37 43 38 89 43 46 18 26 39 62 
159 -0.13530823911997691 -0.06560666985571686 0.6882852063395326 143 133 121 0.82 19 151 20 155 21 144 22 145 23 131 24 143 25 94 26 125 27 55 28 113 36 78 37 44 38 90 43 47 48 88 
160 -0.2922076285822564 0.15977197607216254 0.5194190204038952 90 73 67 1.57 19 152 20 156 21 145 22 146 24 144 26 126 36 79 41 61 48 89 
161 -0.24136707080526096 0.014304223622534298 0.5961175158196297 35 28 25 0.91 19 153 20 157 21 146 22 147 23 132 24 145 26 127 28 114 39 63 40 68 41 62 48 90 36 80 
162 0.4904583537543153 0.05158293966222725 0.9053692054120409 95 100 89 1.45 19 154 20 158 21 147 22 148 23 133 24 146 25 95 26 128 27 56 28 115 35 19 36 81 37 45 38 91 39 64 40 69 41 63 42 54 43 48 46 42 47 60 48 91 
163 0.14259722496991134 0.19663525276983146 0.5497386598308948 63 62 69 1.28 19 155 20 159 21 148 22 149 23 134 24 147 25 96 26 129 27 57 28 116 36 82 39 65 40 70 41 64 42 55 43 49 47 61 44 10 45 6 
164 -0.19903007480096552 0.013347287557726639 0.6157283888603686 71 59 59 0.41 19 156 20 160 21 149 22 150 23 135 24 148 25 97 26 130 28 117 48 92 30 19 32 20 34 19 44 11 
165 0.3439039476955767 0.10007632978752028 0.995890677480351 46 33 32 0.99 19 157 20 161 21 150 24 149 25 98 26 131 27 58 28 118 39 66 40 71 41 65 42 56 43 50 46 43 47 62 48 93 49 31 35 20 29 5 30 20 31 3 32 21 33 1 34 20 44 12 45 7 
166 0.2046737772665002 -0.12568749591666042 0.7362732947682329 105 109 117 0.85 19 158 20 162 21 151 22 151 23 136 24 150 25 99 26 132 27 59 28 119 36 83 37 46 39 67 40 72 41 66 42 57 43 51 46 44 47 63 48 94 30 21 31 4 32 22 33 2 34 21 44 13 45 8 
167 -0.1344289614480886 0.16881087902581418 0.42306992213306427 54 45 48 0.49 19 159 20 163 21 152 22 152 24 151 26 133 
168 -0.22430330811092195 0.06192263886284255 0.5988662023835789 124 137 147 0.52 19 160 20 164 21 153 22 153 23 137 24 152 26 134 28 120 39 68 30 22 32 23 34 22 
169 -0.09149458347447006 -0.045538795567646145 0.7252295015960014 159 172 185 1.05 19 161 20 165 21 154 22 154 23 138 24 153 25 100 26 135 36 84 37 47 38 92 41 67 42 58 47 64 48 95 18 27 
170 -0.25096473044178813 -0.14281821920639293 0.6432710243817571 17 18 17 0.66 19 162 20 166 21 155 22 155 23 139 24 154 26 136 28 121 40 73 48 96 
171 -0.15919404476428956 0.15316920706966106 0.5997767290109495 123 104 91 0.69 19 163 20 167 21 156 22 156 23 140 26 137 28 122 39 69 48 97 
172 -0.2984297545094394 0.11098822060330966 0.517550274290239 107 84 76 0.58 19 164 20 168 21 157 22 157 24 155 26 138 28 123 36 85 38 93 
173 -0.2713101725514067 0.06224078332154117 0.5518350433630703 107 86 79 0.58 19 165 20 169 21 158 22 158 23 141 24 156 26 139 28 124 36 86 38 94 48 98 18 28 
174 -0.057538338453050286 -0.18932576234051965 0.7744359858792638 24 21 20 0.77 19 166 20 170 21 159 22 159 23 142 24 157 37 48 41 68 
175 -0.2973463912147405 0.10308638959755069 0.520668714837495 109 95 89 0.58 19 167 20 171 21 160 22 160 24 158 26 140 28 125 36 87 38 95 
176 -0.20340972788885525 0.0869695010672653 0.6030438449094903 93 91 97 0.87 19 168 20 172 21 161 22 161 23 143 24 159 25 101 26 141 28 126 40 74 48 99 38 96 39 70 
177 0.24114870522279253 0.19263445797514345 0.6532961999840379 60 65 69 1.02 19 169 20 173 21 162 22 162 23 144 24 160 25 102 26 142 27 60 28 127 35 21 36 88 38 97 39 71 40 75 41 69 42 59 43 52 46 45 
178 -0.12040472244067868 -0.09608150416123688 0.7094850965460171 117 125 135 0.76 19 170 20 174 21 163 22 163 23 145 24 161 25 103 26 143 27 61 28 128 36 89 37 49 38 98 42 60 48 100 18 29 30 23 32 24 34 23 41 70 
179 -0.12805476004791963 -0.14932373324274265 0.7159903768900492 118 108 99 0.47 19 171 20 175 21 164 22 164 23 146 24 162 25 104 26 144 27 62 28 129 36 90 38 99 48 101 
180 0.45825154092614395 -0.01631845748545074 0.9427499190046881 76 77 77 1.16 19 172 20 176 21 165 22 165 23 147 24 163 25 105 26 145 27 63 28 130 37 50 41 71 42 61 43 53 46 46 47 65 48 102 
181 -0.23127643318796237 -0.07106423813414782 0.6354468225563986 176 193 205 0.54 19 173 20 177 21 166 22 166 23 148 24 164 25 106 26 146 28 131 39 72 48 103 18 30 30 24 32 25 34 24 
182 -0.10424582164822266 -0.11540910953225242 0.7292527608472308 92 96 103 1.27 19 174 20 178 21 167 22 167 23 149 24 165 25 107 26 147 27 64 36 91 38 100 48 104 18 31 5 4 6 4 7 6 8 6 9 5 10 6 11 6 12 6 13 4 14 4 15 3 16 3 17 3 32 26 34 25 40 76 
183 0.10208251259757414 0.1977013289829896 0.5046645488017346 88 80 82 0.76 19 175 20 179 21 168 22 168 23 150 24 166 25 108 26 148 28 132 36 92 40 77 41 72 47 66 
184 0.530480599314646 0.25763702143313183 0.831885182868645 17 21 23 1.06 20 180 21 169 22 169 23 151 25 109 27 65 
185 0.032580741312022835 0.12206972440490765 0.4880926975050725 35 45 32 1.1 19 176 20 181 21 170 22 170 23 152 24 167 25 110 26 149 28 133 36 93 40 78 41 73 43 54 46 47 48 105 
186 -0.2717530907217813 0.02323053551862048 0.5621203776608992 125 115 107 0.49 19 177 20 182 21 171 22 171 23 153 24 168 26 150 28 134 36 94 38 101 30 25 32 27 34 26 
187 0.16863334127006432 0.16561538496217004 0.5202803869558922 22 24 29 0.72 19 178 20 183 21 172 22 172 
188 -0.23253176325412486 0.03862572014126626 0.5968878022907673 94 98 102 0.97 19 179 20 184 21 173 22 173 23 154 24 169 26 151 28 135 40 79 48 106 30 26 32 28 34 27 44 14 46 48 
189 0.16190953691601018 -0.09705546472964457 0.9209432669961626 25 22 20 0.8 19 180 20 185 21 174 24 170 25 111 26 152 27 66 28 136 38 102 39 73 40 80 41 74 46 49 47 67 48 107 
190 -0.08910697635630019 0.005275653384305197 0.6919837472664541 130 122 111 0.7 19 181 20 186 21 175 22 174 23 155 24 171 25 112 26 153 27 67 36 95 37 51 38 103 48 108 
191 0.07181399664146654 -0.017837760265119913 0.8223111915416943 71 72 73 1.05 36 96 37 52 38 104 42 62 43 55 47 68 48 109 49 32 18 32 39 74 5 5 6 5 7 7 8 7 9 6 10 7 11 7 12 7 13 5 14 5 15 4 16 4 17 4 
192 -0.15310772661065578 -0.03234223187511029 0.6639867259019487 120 110 100 0.45 19 182 20 187 21 176 22 175 23 156 24 172 25 113 26 154 28 137 36 97 38 105 39 75 48 110 18 33 
193 0.4795318311485648 -0.08167048091039564 0.9364867898396596 68 68 73 0.82 19 183 20 188 21 177 22 176 23 157 24 173 25 114 26 155 27 68 28 138 35 22 36 98 37 53 38 106 39 76 40 81 41 75 42 63 43 56 46 50 47 69 48 111 18 34 
194 -0.009774312936389177 0.04293230289146872 0.7249848778660324 102 88 79 0.98 19 184 20 189 21 178 22 177 25 115 26 156 27 69 28 139 35 23 36 99 39 77 40 82 41 76 42 64 47 70 48 112 49 33 29 6 30 27 32 29 34 28 45 9 
195 -0.22061756763666054 0.08528327328567532 0.5988440532233555 159 172 182 0.5 19 185 20 190 21 179 22 178 23 158 24 174 26 157 28 140 39 78 
196 0.5460327585767916 0.06974984639500287 1.1706627806666496 96 90 93 1.3 20 191 21 180 22 179 23 159 25 116 27 70 35 24 36 100 37 54 38 107 40 83 42 65 43 57 46 51 47 71 48 113 49 34 
197 0.08261782367271847 -0.14333238786652677 0.6501325426777239 54 48 46 0.79 19 186 20 192 21 181 22 180 23 160 24 175 25 117 26 158 27 71 28 141 38 108 39 79 40 84 41 77 42 66 43 58 46 52 47 72 48 114 49 35 18 35 
198 -0.05020709121131408 0.17115237363990657 0.44894999472012026 68 80 46 0.65 19 187 20 193 21 182 22 181 23 161 24 176 26 159 
199 -0.11986155301191702 -0.05279657169008752 0.6918302526492288 124 111 101 0.57 19 188 20 194 21 183 22 182 23 162 24 177 25 118 26 160 27 72 28 142 36 101 37 55 38 109 43 59 48 115 18 36 39 80 
200 -0.31237459823631386 -0.004894856278203505 0.5356553347502411 100 95 90 0.34 19 189 20 195 21 184 22 183 24 178 26 161 28 143 36 102 38 110 
201 0.357129321557611 -0.04080042254281556 0.8312772960888221 129 130 133 0.91 19 190 20 196 21 185 22 184 23 163 24 179 25 119 26 162 27 73 28 144 36 103 38 111 39 81 40 85 41 78 42 67 43 60 46 53 47 73 48 116 49 36 
202 0.3700733638146114 -0.12085577634928028 0.8602159049206894 138 156 166 0.83 19 191 20 197 21 186 22 185 23 164 24 180 25 120 26 163 35 25 36 104 37 56 38 112 39 82 40 86 41 79 42 68 43 61 46 54 47 74 48 117 
203 -0.06686413220754688 0.10958316857693945 0.6956251329137938 144 150 157 0.97 19 192 20 198 21 187 22 186 23 165 24 181 28 145 36 105 37 57 40 87 41 80 47 75 48 118 18 37 29 7 30 28 32 30 34 29 42 69 45 10 
204 -0.04351570459476623 0.14402056567567037 0.6859952510493964 105 95 86 1.04 19 193 20 199 21 188 22 187 23 166 28 146 36 106 37 58 41 81 48 119 49 37 18 38 24 182 42 70 
205 -0.11306758609402971 0.1764709168783632 0.6202434203867098 72 57 49 0.87 19 194 20 200 25 121 26 164 36 107 38 113 48 120 
206 -0.027392278577802173 -0.030335671492103918 0.7381832643604236 69 53 49 1.02 19 195 20 201 21 189 22 188 23 167 26 165 27 74 28 147 35 26 36 108 37 59 40 88 41 82 42 71 47 76 48 121 49 38 18 39 29 8 30 29 32 31 34 30 45 11 
207 -0.23053658175244357 -0.15765158823226466 0.6555300276814517 150 165 176 0.73 19 196 20 202 21 190 22 189 23 168 24 183 25 122 26 166 28 148 39 83 40 89 48 122 
208 0.008647449527307144 0.16076115587743786 0.6917586011480089 74 76 58 1.15 19 197 20 203 24 184 26 167 28 149 48 123 
209 -0.3047329391471841 0.01349381879821781 0.5399420924056639 109 94 86 0.51 19 198 20 204 21 191 22 190 24 185 26 168 28 150 36 109 38 114 
210 -0.06746107468210695 0.11810396550872332 0.6958607277832771 173 183 186 0.97 19 199 20 205 21 192 22 191 23 169 24 186 28 151 36 110 37 60 39 84 40 90 41 83 47 77 48 124 
211 -0.30244894518593246 0.03539798568760217 0.5365694065441522 122 111 105 0.73 19 200 20 206 21 193 22 192 24 187 26 169 28 152 36 111 38 115 
212 -0.09583743523405369 -0.157221688534002 0.7596069895478156 43 44 44 1.17 19 201 20 207 21 194 22 193 23 170 24 188 25 123 26 170 37 61 42 72 48 125 30 30 32 32 34 31 45 12 
213 -0.2878856244496077 -0.19014166215181938 0.611262625710716 135 125 113 0.68 19 202 20 208 21 195 22 194 23 171 24 189 26 171 28 153 48 126 
214 -0.29724637385638714 0.07206943387026223 0.5344899518873685 100 86 79 0.68 19 203 20 209 21 196 22 195 24 190 26 172 28 154 36 112 38 116 
215 -0.27046667558946863 0.11920444794759441 0.5360735438075086 116 103 96 0.28 19 204 20 210 21 197 22 196 23 172 24 191 26 173 28 155 36 113 
216 0.21371901931184012 0.07983216652734978 0.8985991790476132 41 30 27 1.01 19 205 20 211 22 197 23 173 24 192 25 124 26 174 27 75 28 156 36 114 37 62 38 117 39 85 40 91 46 55 47 78 48 127 29 9 30 31 31 5 34 32 35 27 41 84 44 15 45 13 
217 -0.30778344685459785 -0.055322646854002934 0.5582733671653928 131 120 113 0.91 19 206 20 212 21 198 22 198 23 174 24 193 26 175 28 157 36 115 38 118 48 128 
218 -0.1452161842382704 0.099422668462455 0.6291029320746907 127 117 106 0.52 19 207 20 213 21 199 22 199 23 175 24 194 25 125 26 176 28 158 36 116 38 119 48 129 43 62 
219 0.05251028373729512 0.16023232802696513 0.47895947424350277 61 54 57 0.62 19 208 20 214 21 200 22 200 23 176 24 195 25 126 26 177 28 159 36 117 40 92 
220 0.33536860345291597 -0.12258888513446954 0.8317416393248065 53 49 49 1.04 19 209 20 215 21 201 22 201 23 177 24 196 25 127 26 178 27 76 28 160 36 118 37 63 38 120 39 86 40 93 41 85 42 73 43 63 46 56 47 79 48 130 18 40 35 28 7 8 8 8 9 7 10 8 11 8 12 8 13 6 14 6 15 5 16 5 17 5 49 39 44 16 45 14 
221 -0.049219566174644576 -0.02844536506530101 0.734370687425095 44 41 43 1.0 19 210 20 216 21 202 22 202 23 178 24 197 27 77 28 161 35 29 36 119 37 64 40 94 41 86 42 74 47 80 48 131 49 40 29 10 30 32 32 33 34 33 45 15 
222 0.02970540492138385 0.14188004777683175 0.7382695893416192 60 66 68 1.08 19 211 20 217 22 203 23 179 24 198 25 128 26 179 27 78 28 162 38 121 47 81 48 132 49 41 
223 -0.2902703280542899 0.10842731411704656 0.525727360029982 119 105 96 0.75 19 212 20 218 21 203 22 204 24 199 26 180 28 163 36 120 38 122 
224 -0.10632078980915415 -0.09532372356049268 0.730046643916948 142 154 166 0.8 19 213 20 219 21 204 22 205 23 180 24 200 25 129 26 181 36 121 37 65 38 123 42 75 48 133 18 41 32 34 34 34 
225 -0.09267176075361953 -0.058118493311717756 0.7325503248791092 138 150 158 0.81 19 214 20 220 21 205 22 206 23 181 24 201 25 130 26 182 36 122 37 66 38 124 47 82 18 42 
226 0.48687836418851277 0.014102730248766068 0.9131800971418934 117 110 110 0.85 19 215 20 221 21 206 22 207 23 182 24 202 25 131 26 183 27 79 28 164 35 30 36 123 37 67 38 125 39 87 40 95 41 87 42 76 43 64 46 57 47 83 48 134 
227 0.14039498205884063 0.053179065241662736 0.8526134603305351 72 60 53 0.95 19 216 20 222 21 207 22 208 23 183 26 184 27 80 28 165 35 31 36 124 37 68 40 96 41 88 42 77 46 58 47 84 48 135 
228 0.4880235811224804 -0.16298263911989697 0.9573506255201112 76 75 79 0.97 19 217 20 223 21 208 22 209 23 184 24 203 25 132 27 81 35 32 37 69 38 126 39 88 40 97 41 89 42 78 43 65 46 59 47 85 48 136 49 42 
229 0.34286765440562683 0.12166002651053312 0.7778191864840578 119 120 124 1.03 19 218 20 224 21 209 22 210 23 185 24 204 25 133 26 185 27 82 28 166 35 33 36 125 37 70 38 127 39 89 40 98 41 90 42 79 43 66 46 60 47 86 48 137 49 43 
230 -0.18715592418631988 0.12283206610554333 0.5918873979344944 127 117 108 0.61 19 219 20 225 21 210 22 211 23 186 24 205 25 134 26 186 28 167 30 33 32 35 34 35 40 99 
231 -0.29534234902905815 0.10767566896259104 0.5217909855859135 100 82 77 0.73 19 220 20 226 21 211 22 212 24 206 26 187 28 168 36 126 38 128 
232 0.0497392017841176 0.12832817862566082 0.7804521386257804 73 74 78 0.83 19 221 22 213 23 187 24 207 25 135 26 188 27 83 28 169 35 34 36 127 37 71 38 129 42 80 46 61 
233 -0.00373949898618098 0.07420571530969183 0.7204211704384711 118 105 94 0.97 19 222 20 227 21 212 22 214 24 208 25 136 26 189 27 84 28 170 35 35 39 90 40 100 41 91 47 87 48 138 
234 0.07308391715281198 0.16807289906412282 0.5402640518944358 75 69 63 0.58 19 223 20 228 21 213 22 215 23 188 24 209 25 137 26 190 28 171 36 128 40 101 41 92 42 81 46 62 
235 -0.1341168999172723 -0.0859903781291349 0.6912997297553299 142 128 111 0.81 19 224 20 229 21 214 22 216 23 189 24 210 25 138 26 191 27 85 28 172 36 129 37 72 38 130 43 67 48 139 30 34 34 36 39 91 
236 -0.22006992956691226 -0.14254969333346076 0.6570062005452268 18 19 18 0.85 19 225 20 230 21 215 22 217 23 190 24 211 25 139 26 192 28 173 39 92 40 102 34 37 
237 -0.08176542922388326 -0.08314869988914461 0.7495891898405627 52 63 64 0.95 19 226 20 231 21 216 22 218 23 191 24 212 25 140 28 174 35 36 36 130 37 73 41 93 47 88 48 140 30 35 32 36 34 38 
238 0.06682242453180114 -0.014510015303062907 0.8418348111480539 65 57 54 0.23 19 227 21 217 22 219 
239 -0.04848594720085406 -0.21398025220301461 0.761682477042701 9 7 17 1.23 19 228 20 232 21 218 22 220 23 192 48 141 49 44 18 43 4 1 5 6 7 9 9 8 10 9 11 9 12 9 13 7 14 7 15 6 16 6 17 6 
240 0.22147459560226945 -0.25155435981149366 0.7782286170773408 181 200 215 0.79 19 229 20 233 21 219 22 221 23 193 24 213 25 141 36 131 37 74 38 131 39 93 40 103 41 94 42 82 43 68 46 63 47 89 48 142 49 45 
241 0.050518508858915505 0.14858630933319394 0.7763755152023202 90 97 99 0.86 19 230 22 222 23 194 24 214 25 142 26 193 27 86 28 175 35 37 36 132 37 75 38 132 49 46 
242 0.01162586162222452 0.06251574612495216 0.7454079312371752 69 61 57 1.01 19 231 20 234 21 220 23 195 24 215 25 143 26 194 27 87 28 176 38 133 39 94 40 104 47 90 48 143 
243 -0.26217196681477895 0.0949417065506376 0.5463474442467103 109 96 88 0.74 19 232 20 235 21 221 22 223 23 196 24 216 26 195 28 177 36 133 34 39 38 134 48 144 
244 0.40060252653730644 0.06309941642247506 1.0465532938996607 65 62 64 1.35 22 224 23 197 24 217 25 144 27 88 28 178 6 6 7 10 8 9 9 9 10 10 11 10 15 7 
245 -0.21578101755837947 0.12088061611981724 0.5926080821524604 13 13 13 0.58 19 233 20 236 21 222 22 225 23 198 24 218 26 196 28 179 39 95 
246 0.37477498212703353 0.2380517045275288 0.6944304861300922 46 47 55 1.45 20 237 21 223 22 226 23 199 24 219 26 197 42 83 46 64 47 91 
247 0.580690233301997 0.06783878002120215 1.1958453775182862 92 83 86 1.07 20 238 21 224 22 227 23 200 25 145 27 89 46 65 47 92 48 145 49 47 
248 -0.23030579502420695 -0.11514654491127546 0.6451973257728545 173 192 204 0.69 19 234 20 239 21 225 22 228 23 201 24 220 25 146 26 198 28 180 39 96 40 105 48 146 18 44 30 36 32 37 34 40 
249 -0.17722974508438288 0.18912150935208086 0.5610928601513973 118 102 86 0.49 19 235 20 240 21 226 22 229 23 202 40 106 
250 0.3640164375052809 -0.11970879040398379 0.8545638255962958 50 48 47 0.84 19 236 20 241 21 227 22 230 23 203 24 221 25 147 26 199 35 38 36 134 37 76 38 135 39 97 40 107 41 95 42 84 43 69 46 66 47 93 48 147 31 6 34 41 44 17 45 16 
251 -0.2990691893654977 -0.0502274914762468 0.5646882435117262 135 124 116 0.62 19 237 20 242 21 228 22 231 23 204 24 222 26 200 28 181 36 135 38 136 48 148 
252 -0.011848000441620002 0.1888700114734689 0.43547777298392254 76 87 79 0.79 19 238 20 243 21 229 22 232 23 205 24 223 26 201 28 182 36 136 
253 0.3468751626331429 0.23188397503051106 0.6391795505750807 27 26 28 0.39 35 39 36 137 38 137 39 98 40 108 41 96 42 85 43 70 
254 0.5836492515031183 0.193565040513536 1.187322951034924 122 131 142 0.5 22 233 23 206 25 148 27 90 35 40 37 77 38 138 39 99 40 109 41 97 42 86 43 71 46 67 47 94 48 149 49 48 
255 0.32709722430543126 0.21867660645894293 0.6962177600764998 47 42 44 0.68 35 41 36 138 38 139 39 100 40 110 41 98 42 87 43 72 46 68 
256 0.16304115183154386 -0.02968299211706336 0.913715707854431 33 30 27 0.85 19 239 20 244 21 230 24 224 25 149 26 202 27 91 28 183 38 140 39 101 40 111 41 99 46 69 47 95 48 150 29 11 30 37 31 7 32 38 33 3 44 18 45 17 
257 0.6645920091706066 0.12255212397358467 1.2541550802315458 133 127 123 0.85 20 245 21 231 22 234 23 207 25 150 27 92 35 42 37 78 38 141 39 102 40 112 41 100 42 88 43 73 46 70 47 96 48 151 49 49 29 12 31 8 33 4 44 19 45 18 
258 0.49993603597357367 -0.076598387854034 1.1804156921734525 99 93 87 0.5 20 246 21 232 27 93 28 184 35 43 36 139 37 79 38 142 39 103 40 113 41 101 42 89 43 74 46 71 47 97 48 152 49 50 10 11 
259 0.5318410287572403 -0.0028005151361292315 1.181959510002637 108 110 108 0.62 19 240 20 247 23 208 24 225 25 151 26 203 27 94 28 185 35 44 36 140 37 80 38 143 39 104 40 114 41 102 42 90 43 75 46 72 47 98 48 153 49 51 
260 0.6596116467338795 0.19761059563276123 1.226602399140256 146 146 150 0.38 20 248 21 233 22 235 23 209 25 152 27 95 35 45 37 81 38 144 39 105 40 115 41 103 42 91 43 76 46 73 47 99 48 154 49 52 
261 0.4816701213742107 0.19030189013935955 0.8588939592893426 85 87 81 0.17 39 106 40 116 41 104 
262 0.24042400969991543 -0.13359628931395132 0.7687480615602554 43 35 32 0.65 19 241 20 249 21 234 22 236 23 210 24 226 25 153 26 204 27 96 36 141 37 82 38 145 39 107 40 117 41 105 42 92 43 77 46 74 47 100 48 155 
263 0.5892158022190547 0.10985708442108442 1.1965520854399438 147 140 132 0.5 19 242 21 235 22 237 23 211 25 154 27 97 35 46 36 142 37 83 38 146 39 108 40 118 41 106 42 93 43 78 46 75 47 101 48 156 49 53 
264 0.6634849308925275 0.25282954617409403 1.2128742956706893 97 72 67 0.37 21 236 22 238 23 212 25 155 27 98 35 47 37 84 38 147 39 109 40 119 41 107 42 94 43 79 46 76 47 102 48 157 49 54 
265 0.6648923546341444 -0.07218724313066255 1.3074095207905168 60 65 71 0.72 20 250 21 237 22 239 23 213 25 156 27 99 35 48 37 85 38 148 39 110 40 120 41 108 42 95 43 80 46 77 47 103 48 158 29 13 31 9 33 5 44 20 45 19 
266 0.6699936881550835 0.10950809702591395 1.263313926303901 120 112 108 0.6 20 251 21 238 22 240 23 214 25 157 27 100 35 49 37 86 38 149 39 111 40 121 41 109 42 96 43 81 46 78 47 104 48 159 49 55 29 14 31 10 33 6 44 21 45 20 
267 0.4484186340567004 -0.06799777496333649 1.1440414805664236 48 52 55 0.6 21 239 22 241 23 215 24 227 28 186 35 50 36 143 37 87 38 150 39 112 40 122 41 110 42 97 43 82 46 79 47 105 48 160 49 56 
268 0.6566917691328495 0.03980489363744706 1.272370915351679 139 135 130 0.52 20 252 21 240 22 242 23 216 25 158 27 101 35 51 37 88 38 151 39 113 40 123 41 111 42 98 43 83 46 80 47 106 48 161 49 57 
269 0.67116987835571 0.27057517747552345 1.2138765633233728 84 83 84 0.42 21 241 22 243 25 159 27 102 35 52 37 89 38 152 39 114 40 124 41 112 42 99 43 84 46 81 47 107 48 162 49 58 
270 0.47085995631056826 0.021667449108360687 1.1307924628024653 72 76 83 0.42 20 253 21 242 22 244 23 217 27 103 28 187 35 53 36 144 37 90 38 153 39 115 40 125 41 113 42 100 43 85 46 82 47 108 48 163 49 59 
271 -0.23247914777146805 -0.18985342875460315 0.6539459501921493 79 55 49 1.11 24 228 26 205 28 188 36 145 39 116 40 126 41 114 43 86 
272 0.5606667193518613 -0.05126037731674702 1.2362755998645372 46 52 55 0.86 22 245 23 218 24 229 25 160 27 104 28 189 35 54 36 146 37 91 38 154 39 117 40 127 41 115 42 101 43 87 46 83 47 109 48 164 49 60 29 15 31 11 33 7 44 22 45 21 
273 0.6488812934182897 -0.05424339001039319 1.2928812460669776 107 104 106 0.45 20 254 21 243 22 246 23 219 25 161 27 105 35 55 37 92 38 155 39 118 40 128 41 116 42 102 43 88 46 84 47 110 48 165 
274 0.6191663517086099 0.009444708842853849 1.2509618213526288 152 152 149 0.39 21 244 22 247 23 220 25 162 27 106 35 56 37 93 38 156 39 119 40 129 41 117 42 103 43 89 46 85 47 111 48 166 49 61 29 16 33 8 44 23 45 22 
275 0.286181108857719 0.2217169347086775 0.6193583893824666 59 52 52 1.0 19 243 20 255 21 245 22 248 25 163 36 147 38 157 39 120 40 130 41 118 42 104 43 90 46 86 9 10 14 8 17 7 18 45 23 221 47 112 
276 0.411118859524894 0.23386468690755455 1.002452714237227 68 63 62 0.95 22 249 23 222 24 230 25 164 26 206 27 107 28 190 35 57 36 148 37 94 38 158 39 121 40 131 41 119 42 105 43 91 46 87 47 113 48 167 18 46 20 256 29 17 33 9 34 42 44 24 45 23 49 62 50 0 51 0 
277 0.34243079673517457 0.21898909675661637 0.9681971728752286 79 86 93 0.98 19 244 20 257 21 246 24 231 25 165 26 207 27 108 28 191 38 159 39 122 40 132 41 120 42 106 43 92 46 88 47 114 48 168 49 63 6 7 
278 0.23083183546756103 0.21120370240950906 0.5766454073453908 34 28 30 1.06 36 149 38 160 39 123 40 133 41 121 42 107 43 93 46 89 44 25 45 24 
279 0.6614442333238524 0.2782234937573153 1.0484045116663143 36 34 35 0.83 20 258 35 58 37 95 38 161 39 124 40 134 41 122 42 108 43 94 46 90 47 115 48 169 
280 0.4755615918711411 0.15562467430768728 1.095302209985609 77 83 83 0.51 20 259 21 247 22 250 23 223 27 109 28 192 35 59 36 150 37 96 38 162 39 125 40 135 41 123 42 109 43 95 46 91 47 116 48 170 49 64 18 47 
281 0.29592987330028564 -0.09581285592500259 1.0324427487942667 38 29 27 0.88 20 260 21 248 22 251 27 110 28 193 35 60 36 151 37 97 39 126 40 136 41 124 42 110 43 96 46 92 47 117 48 171 49 65 
282 0.39032415822035377 0.22968867695285938 0.7650108657551321 50 48 49 0.58 19 245 20 261 21 249 22 252 24 232 25 166 26 208 27 111 28 194 35 61 36 152 38 163 39 127 40 137 41 125 42 111 43 97 
283 0.3489078974946532 0.17565152122177702 0.980717782829767 59 55 52 0.63 19 246 20 262 21 250 24 233 25 167 26 209 27 112 28 195 38 164 39 128 40 138 41 126 42 112 43 98 46 93 47 118 48 172 49 66 
284 0.5635422583471658 -0.008430828334271822 1.2283829837984939 104 116 130 0.68 20 263 22 253 23 224 24 234 25 168 27 113 28 196 35 62 36 153 37 98 38 165 39 129 40 139 41 127 42 113 43 99 46 94 47 119 48 173 49 67 10 12 6 8 8 10 
285 0.42287212978372396 0.14552429164563044 1.062391425516428 103 118 136 0.6 21 251 22 254 23 225 24 235 25 169 26 210 27 114 35 63 36 154 37 99 38 166 39 130 40 140 41 128 42 114 43 100 46 95 47 120 48 174 49 68 30 38 31 12 32 39 33 10 34 43 44 26 45 25 
286 0.17832167091741702 0.20078471567288095 0.5660214589911248 69 67 69 0.67 36 155 38 167 39 131 40 141 41 129 42 115 43 101 47 121 44 27 
287 0.3585522726159388 -0.10945262313874886 0.8463383636035526 105 108 114 0.84 19 247 20 264 21 252 22 255 23 226 24 236 25 170 26 211 27 115 28 197 35 64 36 156 37 100 38 168 39 132 40 142 41 130 42 116 43 102 46 96 47 122 48 175 
288 0.3784070956928764 0.21678466597418683 0.7693023093351213 39 38 40 0.53 35 65 36 157 37 101 38 169 39 133 40 143 41 131 42 117 43 103 
289 0.4236173556421135 0.030979342100402155 1.1004410437995964 15 15 15 0.53 19 248 22 256 23 227 24 237 25 171 26 212 27 116 35 66 36 158 37 102 38 170 39 134 40 144 41 132 42 118 43 104 46 97 47 123 48 176 49 69 21 253 30 39 34 44 44 28 45 26 
290 0.3983729631065661 0.014354883204705465 1.0564641302896234 86 76 71 0.46 19 249 22 257 23 228 24 238 25 172 26 213 27 117 28 198 35 67 36 159 37 103 38 171 39 135 40 145 41 133 42 119 43 105 46 98 47 124 48 177 49 70 29 18 34 45 44 29 45 27 
291 0.553179350824625 0.03355512586806545 1.20147418636816 165 183 202 0.59 19 250 20 265 22 258 23 229 24 239 25 173 27 118 28 199 35 68 36 160 37 104 38 172 39 136 40 146 41 134 42 120 43 106 46 99 47 125 48 178 49 71 
292 0.6681653406736133 0.10043332564269236 1.2646790759285425 129 111 107 0.7 20 266 21 254 22 259 23 230 25 174 27 119 35 69 37 105 38 173 39 137 40 147 41 135 42 121 43 107 46 100 47 126 48 179 49 72 8 11 50 1 51 1 52 0 53 0 54 0 57 0 58 0 60 0 62 0 63 0 64 0 65 0 66 0 67 0 68 0 69 0 70 0 71 0 
293 0.7776929266522307 0.3134051280170737 1.0698535944765206 54 51 50 0.4 35 70 39 138 40 148 41 136 42 122 
294 0.5125962956958064 0.2447448058709119 1.091906923784617 88 76 74 0.63 20 267 21 255 24 240 25 175 27 120 28 200 35 71 36 161 37 106 38 174 39 139 40 149 41 137 42 123 43 108 46 101 47 127 48 180 49 73 
295 0.5739192559210524 -0.08402463073396957 1.24008429148601 56 47 46 0.39 22 260 23 231 24 241 25 176 27 121 35 72 36 162 37 107 38 175 39 140 40 150 41 138 42 124 43 109 46 102 47 128 48 181 49 74 
296 0.5649627404724346 -0.052686231558920035 1.2374802093515185 62 58 56 0.55 22 261 23 232 24 242 25 177 27 122 28 201 35 73 36 163 37 108 38 176 39 141 40 151 41 139 42 125 43 110 46 103 47 129 48 182 49 75 
