# 3D point list with one line of data per point:
#   POINT3D_ID, X, Y, Z, R, G, B, ERROR, TRACK[] as (IMAGE_ID, POINT2D_IDX)
# Number of points: 431, mean track length: 4.79
124 0.0030803822050043715 -0.06946168137182988 1.07822247299682 0 0 0 0.16 0 124 204 54 219 31 222 19 
125 0.0808705721179188 -0.07152833998833956 1.1085292705204937 0 0 0 0.11 0 125 217 30 232 70 
126 -0.442898613387831 -0.056736585714670024 0.9220036701689149 0 0 0 0.33 0 126 220 23 221 38 232 71 
127 0.09068114098219401 -0.06995571463562014 1.114192408229967 0 0 0 0.39 0 127 213 58 234 6 
128 -0.03851015149634586 -0.06499016429696865 1.0562223587590194 0 0 0 0.27 0 128 190 45 213 59 217 31 232 72 
129 -0.011065792903713212 -0.06399963061585784 1.0720395655290624 0 0 0 0.35 0 129 190 46 213 60 232 73 
130 0.12358191569988067 -0.06737269605073028 1.1273346530487023 0 0 0 0.28 0 130 190 47 204 55 213 61 221 39 222 20 232 74 
131 0.06011117582420907 -0.06217182877179534 1.1009397075568403 0 0 0 0.19 0 131 204 56 232 75 
132 -0.03516020191450719 -0.05633478298811226 1.0574569151721245 0 0 0 0.24 0 132 190 48 213 62 217 32 232 76 
133 0.04733718927264861 -0.05692475310995355 1.0937861372895097 0 0 0 0.33 0 133 222 21 227 45 
134 -0.21778766535587354 -0.04530401109815923 0.9881025850326028 0 0 0 2.35 0 134 219 32 
135 0.13649512827306115 -0.05331846025615547 1.14071892061813 0 0 0 0.19 0 135 190 49 204 57 217 33 222 22 232 77 
136 0.19690344849901784 -0.05679347844382746 1.2101717246619397 0 0 0 0.43 0 136 190 50 232 78 
137 0.13928229567295844 -0.04964126416497704 1.1477026081926232 0 0 0 0.15 0 137 204 58 222 23 
138 0.12404958109379614 -0.04505177080081076 1.1309848404642349 0 0 0 0.25 0 138 204 59 213 63 222 24 232 79 
139 0.1792749180602441 -0.04452349620425356 1.1860451375082939 0 0 0 0.87 0 139 190 51 217 34 221 40 
140 0.15343573783141085 -0.042471074149045045 1.1603280718954636 0 0 0 0.27 0 140 190 52 204 60 217 35 
141 -0.37631637793864925 -0.03180318528524355 0.9349159129634836 0 0 0 0.57 0 141 204 61 213 64 221 41 227 46 232 80 
142 -0.3149241888785583 -0.03207801824543319 0.9511728909325609 0 0 0 0.39 0 142 204 62 213 65 
143 0.19289907221566674 -0.0426863924636453 1.1982954256706941 0 0 0 0.15 0 143 190 53 227 47 
144 -0.3436235440600449 -0.030721190877499735 0.9418091190560894 0 0 0 0.28 0 144 190 54 204 63 213 66 221 42 227 48 232 81 
145 -0.36794448170791894 -0.027829553301789982 0.9305958382096008 0 0 0 0.28 0 145 213 67 221 43 232 82 
146 0.005602496583263361 -0.032347069007962984 1.0767442979465736 0 0 0 0.65 0 146 217 36 221 44 
147 -0.2182990100874127 -0.027390481462740215 0.9849644780887904 0 0 0 0.18 0 147 213 68 219 33 
148 -0.43885207686885674 -0.024266743095107984 0.911529267740346 0 0 0 0.09 0 148 213 69 232 83 
149 -0.29264510389455434 -0.025489822932180873 0.9615909804776794 0 0 0 0.06 0 149 190 55 213 70 
150 -0.18795462376464278 -0.026333402547485094 0.9954216181455887 0 0 0 0.15 0 150 221 45 232 84 
151 -0.1829927411801542 -0.024494444440975323 0.9928155955581687 0 0 0 0.16 0 151 190 56 213 71 232 85 
152 -0.127736587281785 -0.024210368342742823 1.0156219256570742 0 0 0 0.18 0 152 190 57 204 64 232 86 
153 -0.12766048839724978 -0.024426782007796063 1.0157130609725655 0 0 0 0.33 0 153 190 58 204 65 213 72 219 34 221 46 232 87 234 7 
154 0.12899141040980472 -0.02802568968937991 1.130544874320565 0 0 0 0.18 0 154 204 66 222 25 232 88 
155 -0.36630528845355975 -0.020323691416045307 0.9365811451182818 0 0 0 0.29 0 155 213 73 219 35 232 89 
156 -0.06953958562446011 -0.018954597315606628 1.0378983319828008 0 0 0 0.11 0 156 204 67 232 90 
157 0.1289817820266285 -0.02052913850916057 1.12900355427652 0 0 0 0.11 0 157 190 59 204 68 232 91 
158 -0.013095037319670568 -0.018275564346493314 1.061138215120995 0 0 0 0.25 0 158 190 60 213 74 217 37 220 24 222 26 227 49 232 92 
159 0.005130057810886317 -0.01857623683420854 1.0815426231116805 0 0 0 0.38 0 159 190 61 232 93 
160 -0.23531752446390902 -0.01451882613735182 0.9641805253024283 0 0 0 0.09 0 160 204 69 227 50 
161 -0.33966578108502515 -0.012882735745721964 0.9431386469493017 0 0 0 0.15 0 161 190 62 194 10 204 70 213 75 219 36 232 94 
162 0.12510985039389852 -0.01606750866331014 1.1276828895383926 0 0 0 0.33 0 162 213 76 232 95 
163 -0.43367720022387257 -0.010453174553102646 0.9161217587483018 0 0 0 0.3 0 163 213 77 232 96 
164 -0.28023142236495746 -0.010816422405992735 0.9596937845157056 0 0 0 0.24 0 164 190 63 204 71 213 78 219 37 227 51 232 97 
165 0.18982516449252043 -0.014696537612545016 1.1964555371751073 0 0 0 0.16 0 165 222 27 232 98 
166 -0.4405428235647462 -0.009592945351306588 0.9135247112915181 0 0 0 0.56 0 166 190 64 217 38 221 47 224 16 227 52 232 99 
167 -0.42880220146804965 -0.008667651388997494 0.919001596110924 0 0 0 0.3 0 167 190 65 204 72 213 79 220 25 232 100 
168 0.05948995921986839 -0.010387683550456196 1.093247434202389 0 0 0 0.22 0 168 196 11 213 80 222 28 
169 0.08666846417743528 -0.009444007050867873 1.10840699866176 0 0 0 0.25 0 169 222 29 232 101 234 8 
170 -0.10902767550297648 -0.007706955913189338 1.0202430032551424 0 0 0 0.12 0 170 204 73 219 38 
171 0.11331849399337426 -0.008829789473381144 1.122988113689353 0 0 0 0.48 0 171 204 74 221 48 
172 0.12515471031812417 -0.008224734702779216 1.128747583427703 0 0 0 0.33 0 172 190 66 232 102 
173 -0.43458453773475736 0.0012289704911071409 0.9073400550973639 0 0 0 0.37 0 173 213 81 219 39 227 53 232 103 
174 -0.006551929586209823 0.004323954569315757 1.0622280767852357 0 0 0 0.17 0 174 222 30 234 9 
175 -0.41276483128883784 0.00543250881227474 0.9213876989963541 0 0 0 0.23 0 175 204 75 219 40 
176 0.09927480037196916 0.006426489341356895 1.1060621172897727 0 0 0 0.53 0 176 204 76 222 31 227 54 234 10 
177 -0.409153370440797 0.007776447936828061 0.9198403220220982 0 0 0 0.75 0 177 217 39 220 26 221 49 
178 -0.43453114340340315 0.007555516976390457 0.9060181671415523 0 0 0 0.34 0 178 213 82 232 104 
179 0.12214935877711239 0.01312739537350228 1.116264815223703 0 0 0 0.37 0 179 190 67 198 1 213 83 217 40 221 50 222 32 
180 -0.34747278330272224 0.017205937518987798 0.9258639521455916 0 0 0 0.22 0 180 219 41 227 55 
181 0.12198582165052353 0.01936072966652788 1.1166609562125052 0 0 0 0.56 0 181 190 68 198 2 217 41 
182 -0.4072902326999818 0.01966682878119655 0.9207703538513644 0 0 0 0.39 0 182 204 77 219 42 227 56 232 105 
183 0.11230849609761508 0.02241495320973626 1.1154495837535487 0 0 0 0.39 0 183 222 33 227 57 
184 0.09885744804429002 0.02920376595949533 1.1031689243523084 0 0 0 0.13 0 184 190 69 213 84 220 27 222 34 
185 -0.27690970830364686 0.02655033910621176 0.956307355034465 0 0 0 0.36 0 185 219 43 232 106 
186 -0.35580183567376233 0.027214776852875485 0.9363631920012845 0 0 0 0.26 0 186 227 58 232 107 
187 0.11198167314713284 0.04181711426340641 1.1115672576859497 0 0 0 0.23 0 187 213 85 222 35 
188 0.12170224937866297 0.04435346498450629 1.1144671718484305 0 0 0 0.47 0 188 198 3 213 86 217 42 
189 -0.4066006359522277 -0.2282816984286254 0.7734716994573755 0 0 0 0.57 0 189 227 59 232 108 
190 -0.0977832603538001 -0.2201458753035593 1.0939159350367555 0 0 0 0.36 0 190 204 78 227 60 232 109 
191 -0.06927170363184348 -0.2103808084028347 1.0602458498032092 0 0 0 0.2 0 191 204 79 227 61 232 110 
192 -0.06927170363184348 -0.2103808084028347 1.0602458498032092 0 0 0 0.2 0 192 204 80 227 62 232 111 
193 -0.43402711343662115 -0.1900188176462994 0.9620677496335139 0 0 0 0.28 0 193 213 87 232 112 
194 -0.36932752458066803 -0.1887732279462455 0.9563691844762787 0 0 0 0.63 0 194 213 88 224 17 
195 -0.3874040155566995 -0.18447260926643103 0.9452792934823171 0 0 0 0.52 0 195 204 81 213 89 219 44 221 51 227 63 232 113 
196 -0.06623324519549423 -0.2061640897241992 1.0606726769322623 0 0 0 0.54 0 196 213 90 219 45 221 52 232 114 
197 -0.465176275055391 -0.17308162021802154 0.9264508800578006 0 0 0 0.43 0 197 190 70 204 82 227 64 
198 -0.29437231874263137 -0.18153071035664742 0.9767481857201376 0 0 0 0.54 0 198 213 91 217 43 
199 -0.2892004338921409 -0.18144247592948412 0.9780960636492613 0 0 0 0.45 0 199 190 71 213 92 217 44 221 53 227 65 232 115 
200 -0.389655154889897 -0.17521408536548494 0.9526725554901464 0 0 0 0.46 0 200 204 83 227 66 232 116 
201 -0.30977393196067604 -0.17797829506080298 0.9721927660845763 0 0 0 0.24 0 201 190 72 213 93 217 45 
202 -0.291369064138382 -0.17724866793113295 0.9761211418000757 0 0 0 0.15 0 202 185 9 227 67 
203 -0.3906207754885702 -0.17039996269797886 0.9458869828950319 0 0 0 0.37 0 203 204 84 219 46 227 68 
204 -0.4676705138317861 -0.16609963831842037 0.9308182610907889 0 0 0 0.43 0 204 221 54 227 69 232 117 
205 -0.39004077371811813 -0.16696528984980524 0.951144075134113 0 0 0 0.14 0 205 213 94 232 118 
206 -0.3900407737181184 -0.1669652898498053 0.9511440751341137 0 0 0 0.14 0 206 213 95 232 119 
207 -0.11022112436700263 -0.17949614243733913 1.0326807334572667 0 0 0 0.82 0 207 198 4 199 3 204 85 217 46 227 70 
208 -0.4624458715968408 -0.16091589085763708 0.9324128842882552 0 0 0 0.27 0 208 190 73 221 55 227 71 232 120 
209 -0.06285404888904987 -0.18019761391733977 1.0557607044816775 0 0 0 0.69 0 209 190 74 221 56 222 36 
210 0.08549361601929978 -0.20141659445651097 1.1934699754899512 0 0 0 0.28 0 210 204 86 227 72 
211 0.08549361601929978 -0.20141659445651097 1.1934699754899512 0 0 0 0.28 0 211 204 87 227 73 
212 -0.008809918167287083 -0.17800259798648163 1.081465499059011 0 0 0 0.72 0 212 190 75 221 57 
213 -0.0052129239943878285 -0.17111211769204004 1.0674241170171688 0 0 0 0.27 0 213 204 88 221 58 
214 -0.10618145885861197 -0.1599648426168605 1.0367867042683854 0 0 0 0.47 0 214 185 10 204 89 213 96 217 47 219 47 220 28 221 59 222 37 227 74 232 121 234 11 
215 -0.437705286611948 -0.14344018704604466 0.9320504708753613 0 0 0 0.36 0 215 190 76 204 90 220 29 224 18 227 75 
216 -0.18403194557930475 -0.15223983966132332 1.0040580514653588 0 0 0 0.19 0 216 213 97 232 122 
217 -0.22733198335520724 -0.14737743072185291 0.9887555653573938 0 0 0 0.34 0 217 185 11 190 77 194 11 196 12 198 5 204 91 213 98 219 48 222 38 224 19 232 123 
218 -0.010635066236710435 -0.16118332510897396 1.0734269783007837 0 0 0 0.25 0 218 213 99 232 124 
219 0.03959020051307197 -0.16514291965527675 1.100496041282033 0 0 0 0.41 0 219 185 12 190 78 204 92 213 100 232 125 
220 0.06959968837415162 -0.16337530180593318 1.1085195259341973 0 0 0 0.05 0 220 222 39 232 126 
221 -0.20157757257640832 -0.14439671627548878 0.9965511892964345 0 0 0 0.34 0 221 198 6 213 101 220 30 222 40 224 20 232 127 
222 -0.44060423590580483 -0.13198967653887275 0.9301613522482914 0 0 0 0.35 0 222 204 93 213 102 227 76 232 128 
223 0.11719376756936824 -0.15899751943085372 1.1350364055166389 0 0 0 0.43 0 223 190 79 213 103 234 12 
224 -0.4408447404106949 -0.12735972354199737 0.9286447049028288 0 0 0 0.2 0 224 213 104 227 77 232 129 
225 -0.43020411823639276 -0.12348711127465023 0.9317267974084753 0 0 0 0.18 0 225 221 60 227 78 
226 0.06009987658858802 -0.14362000502146202 1.105025256080755 0 0 0 0.68 0 226 190 80 204 94 227 79 
227 -0.0696583963247175 -0.1263790339591 1.0405228690160597 0 0 0 0.19 0 227 219 49 227 80 
228 -0.14742821687517765 -0.12320210818415286 1.0169365627255484 0 0 0 0.14 0 228 204 95 217 48 232 130 
229 -0.1473342442519104 -0.12316052877307868 1.0170020065354308 0 0 0 0.22 0 229 204 96 217 49 219 50 232 131 
230 -0.13223473801107682 -0.12384706637471957 1.023870097945958 0 0 0 0.2 0 230 190 81 213 105 221 61 232 132 
231 -0.11488239895404835 -0.12220436079660803 1.036058115119443 0 0 0 0.26 0 231 221 62 232 133 
232 -0.10768637811438397 -0.1217657626718068 1.0345853948038424 0 0 0 0.13 0 232 190 82 213 106 221 63 232 134 
233 0.16460697660010554 -0.14021605071367774 1.1737972880103078 0 0 0 0.15 0 233 190 83 221 64 232 135 
234 -0.1288172135561016 -0.12040085107358788 1.0292373767551752 0 0 0 0.36 0 234 213 107 221 65 232 136 
235 -0.07877179024002598 -0.12054562397186541 1.0449103069372527 0 0 0 0.27 0 235 213 108 217 50 219 51 
236 -0.0649525188466545 -0.1201881044722732 1.0486200455671173 0 0 0 0.24 0 236 213 109 217 51 
237 -0.036369150437181565 -0.11958032357771003 1.0618236995826253 0 0 0 0.39 0 237 199 4 204 97 217 52 219 52 220 31 221 66 
238 -0.12456024153069772 -0.10686381980710208 1.0258139240959778 0 0 0 0.27 0 238 213 110 221 67 232 137 
239 -0.012747659724236079 -0.11114929159843027 1.0752494247522788 0 0 0 0.48 0 239 190 84 199 5 213 111 222 41 
240 -0.4279802062514771 -0.09525774552634567 0.9327741520374415 0 0 0 0.19 0 240 190 85 204 98 213 112 232 138 
241 -0.42108705110904426 -0.09535991962032973 0.9337573564837712 0 0 0 0.27 0 241 213 113 217 53 232 139 
242 0.12143479887750618 -0.11615800005041328 1.1329855957692703 0 0 0 0.62 0 242 190 86 198 7 204 99 213 114 217 54 221 68 222 42 232 140 
243 0.12632833527498724 -0.11446298274991767 1.1296311252097924 0 0 0 0.33 0 243 213 115 227 81 232 141 
244 0.11338718623640366 -0.11127499532389296 1.1250698012377376 0 0 0 0.26 0 244 190 87 217 55 232 142 
245 -0.42751643292543656 -0.07875929408588678 0.9304189488496379 0 0 0 0.3 0 245 220 32 221 69 224 21 232 143 
246 -0.32838124668875185 -0.08047495729868685 0.9579040569984314 0 0 0 0.49 0 246 204 100 217 56 219 53 221 70 232 144 
247 -0.243829833047051 -0.08186758821049678 0.9780120715556088 0 0 0 0.25 0 247 190 88 213 116 219 54 232 145 
248 -0.43458971532937835 -0.0767268012552436 0.9365249918549824 0 0 0 0.26 0 248 204 101 227 82 
249 -0.3220909769944092 -0.0798302792828376 0.9582040837412099 0 0 0 0.46 0 249 190 89 213 117 217 57 219 55 232 146 
250 0.15115037971779918 -0.09748996912808608 1.157310425184606 0 0 0 0.29 0 250 227 83 232 147 
251 0.16462499943974512 -0.08949418254404655 1.1712125294228342 0 0 0 0.1 0 251 190 90 232 148 
252 0.16476986579049002 -0.08928674997308401 1.1702702618717007 0 0 0 0.33 0 252 190 91 217 58 221 71 222 43 232 149 
253 -0.36923801964593683 -0.06796975851153009 0.946875934066169 0 0 0 0.41 0 253 190 92 232 150 
254 -0.18731452032409562 -0.07034192370499637 1.0007328934635644 0 0 0 0.34 0 254 213 118 221 72 222 44 
255 -0.1325174442234961 -0.06738013694915962 1.0215000902220925 0 0 0 0.26 0 255 190 93 213 119 219 56 221 73 222 45 232 151 
256 -0.12842791127635658 -0.06639030264284483 1.0221742978317176 0 0 0 0.29 0 256 185 13 190 94 204 102 213 120 214 2 219 57 222 46 232 152 
257 -0.12806559510504129 -0.06627925241147908 1.0203743288118325 0 0 0 0.16 0 257 204 103 213 121 222 47 232 153 
258 -0.0347342704075288 -0.06523769372075379 1.061064578421396 0 0 0 0.24 0 258 198 8 199 6 213 122 217 59 222 48 
259 -0.02248248913477711 -0.06485508967495994 1.068049197484301 0 0 0 0.32 0 259 198 9 199 7 213 123 221 74 222 49 227 84 232 154 234 13 
260 -0.02570326919232868 -0.06033664915974882 1.0725022043132035 0 0 0 0.33 0 260 219 58 227 85 232 155 
261 0.13055888880778171 -0.06492048894662737 1.134401209314722 0 0 0 0.28 0 261 190 95 204 104 213 124 222 50 232 156 
262 0.12591430775324705 -0.06073334295878328 1.1317287829501477 0 0 0 0.12 0 262 198 10 204 105 
263 -0.44508476611087494 -0.046295071855840635 0.919050408594033 0 0 0 0.34 0 263 190 96 213 125 217 60 220 33 224 22 227 86 232 157 
264 -0.037999646200450404 -0.053389269886797514 1.055617197450188 0 0 0 0.37 0 264 217 61 221 75 222 51 232 158 
265 -0.3433011660404119 -0.04614273203200179 0.946128679049359 0 0 0 0.18 0 265 190 97 213 126 
266 -0.4422199035490501 -0.04459551751581855 0.9207700861079161 0 0 0 0.34 0 266 213 127 220 34 224 23 
267 0.18554926105160766 -0.05951549356995945 1.1958280010609497 0 0 0 0.35 0 267 190 98 227 87 
268 0.18554926105160766 -0.05951549356995945 1.1958280010609497 0 0 0 0.35 0 268 190 99 227 88 
269 -0.03572686112386976 -0.0504861121952129 1.0615061575407134 0 0 0 0.31 0 269 198 11 199 8 234 14 
270 0.005369864595962975 -0.048637343695876814 1.0798281865620858 0 0 0 0.47 0 270 198 12 199 9 221 76 234 15 
271 -0.03894929056356793 -0.04512343082024424 1.055732796728202 0 0 0 0.21 0 271 204 106 222 52 227 89 
272 -0.18769925167170382 -0.04054029397142548 0.9963397808024527 0 0 0 1.35 0 272 219 59 
273 0.13222383465749443 -0.046013649754031945 1.1374095687171795 0 0 0 0.07 0 273 190 100 227 90 
274 0.19422561485409742 -0.04750261860819741 1.199420225569373 0 0 0 0.24 0 274 227 91 232 159 
275 -0.4375038260290429 -0.03307710223143636 0.915976276447442 0 0 0 0.53 0 275 213 128 217 62 221 77 232 160 
276 -0.40581546505164734 -0.031037540415454586 0.9230408875297897 0 0 0 0.17 0 276 217 63 227 92 
277 -0.3665593558021764 -0.031017757318224627 0.9375348725469831 0 0 0 0.31 0 277 190 101 204 107 213 129 232 161 
278 0.18711516921857263 -0.039746556979892364 1.1945703981468057 0 0 0 0.44 0 278 221 78 222 53 232 162 
279 -0.27380968382941145 -0.028408444356331938 0.9632468166310093 0 0 0 0.23 0 279 190 102 204 108 213 130 227 93 
280 -0.23680666234400247 -0.027419033940644866 0.9714285677595449 0 0 0 0.33 0 280 190 103 213 131 222 54 232 163 
281 -0.2324083415244831 -0.026447397912649297 0.9734212240646798 0 0 0 0.31 0 281 185 14 213 132 221 79 232 164 
282 -0.06494214842043969 -0.02672425293116562 1.040985370637693 0 0 0 0.25 0 282 204 109 213 133 219 60 221 80 232 165 
283 0.19058157911042417 -0.03225151095653207 1.1983074834664407 0 0 0 0.41 0 283 221 81 232 166 
284 -0.39767803967629023 -0.02150588945583986 0.9284825437040407 0 0 0 0.33 0 284 217 64 220 35 
285 -0.16088511488278887 -0.02351625709324423 1.003926281326851 0 0 0 0.08 0 285 190 104 204 110 219 61 
286 0.11209552301630948 -0.026647283343580127 1.1176010080981045 0 0 0 0.4 0 286 213 134 217 65 221 82 
287 -0.1033496691092466 -0.022622347673782454 1.0266063690719023 0 0 0 0.14 0 287 204 111 213 135 232 167 
288 -0.07497145112023743 -0.02099667199061389 1.0379257914378663 0 0 0 0.03 0 288 204 112 213 136 
289 -0.023385383067607377 -0.020464863970998143 1.0665903846752578 0 0 0 0.14 0 289 213 137 232 168 
290 -0.0650886741552748 -0.019410521700544345 1.0405336232403322 0 0 0 0.46 0 290 213 138 219 62 221 83 222 55 
291 -0.4406524774930289 -0.014732751687512157 0.9132799537430689 0 0 0 0.31 0 291 190 105 213 139 217 66 219 63 232 169 
292 0.009534224513105077 -0.017402251418014606 1.0742697699933945 0 0 0 0.33 0 292 190 106 213 140 
293 -0.11603037706699164 -0.015394334925772342 1.023303836832383 0 0 0 0.39 0 293 190 107 194 12 204 113 213 141 214 3 217 67 219 64 220 36 221 84 222 56 232 170 234 16 
294 -0.1157575320368605 -0.015420038253072182 1.0228930230621767 0 0 0 0.41 0 294 194 13 204 114 217 68 219 65 221 85 
295 -0.11127917490565913 -0.015388418115897473 1.0233578668587135 0 0 0 0.57 0 295 190 108 204 115 213 142 214 4 217 69 221 86 234 17 
296 -0.10732976353919856 -0.0124886404841093 1.0266662964867648 0 0 0 0.32 0 296 204 116 219 66 222 57 227 94 
297 -0.40441507820560063 -0.009700795670580315 0.9254018278774114 0 0 0 0.46 0 297 190 109 204 117 232 171 
298 -0.14113881893189476 -0.00735173640258242 1.0123083508105395 0 0 0 2.47 0 298 204 118 
299 -0.459151109605021 -0.006595320730966501 0.9129371497286927 0 0 0 0.77 0 299 220 37 221 87 232 172 
300 -0.4167425127152056 -0.007567320444056988 0.9453603914631529 0 0 0 0.46 0 300 190 110 204 119 
301 -0.27971567411303816 -0.006704134604162231 0.956610153785078 0 0 0 0.22 0 301 221 88 232 173 
302 -0.44486710248646455 -0.004906714339548955 0.9027615792831044 0 0 0 0.36 0 302 190 111 219 67 227 95 
303 -0.41004307068678786 0.0020721496434838813 0.9214354695256398 0 0 0 0.2 0 303 190 112 221 89 
304 -0.42464309835514735 0.0066128326364145226 0.9204793595714268 0 0 0 0.53 0 304 190 113 204 120 217 70 227 96 232 174 
305 -0.3612782101691032 0.008092846230600147 0.938564505818849 0 0 0 0.43 0 305 204 121 217 71 232 175 
306 -0.35208415342048266 0.008724152659534445 0.9395434066999476 0 0 0 0.46 0 306 190 114 217 72 
307 -0.320344271688527 0.008555896281997098 0.936623884158176 0 0 0 0.13 0 307 213 143 232 176 
308 -0.4437249649828012 0.010260722284549871 0.9106522467209717 0 0 0 0.35 0 308 213 144 217 73 
309 0.129328243943309 0.014074718333907067 1.1265303761895558 0 0 0 0.37 0 309 198 13 222 58 
310 -0.2797846128823564 0.01834301784031548 0.9573383744240567 0 0 0 0.47 0 310 204 122 221 90 
311 -0.36599065201379777 0.019824698808789457 0.9363439637754503 0 0 0 0.57 0 311 204 123 217 74 219 68 232 177 
312 -0.23864786300562366 -0.20222294760721746 0.9918604662370147 0 0 0 0.22 0 312 190 115 198 14 213 145 232 178 
313 -0.07342108357526936 -0.20545447080551507 1.0540644722765478 0 0 0 0.21 0 313 190 116 227 97 
314 -0.33734128416349773 -0.1656398526928019 0.9655702292075147 0 0 0 0.13 0 314 198 15 224 24 
315 -0.17730094143701253 -0.1716237139592914 1.0084721609229232 0 0 0 0.4 0 315 185 15 196 13 198 16 199 10 204 124 213 146 217 75 219 69 220 38 221 91 
316 -0.047668609252405535 -0.1808597678034358 1.0703124137698006 0 0 0 0.72 0 316 190 117 213 147 221 92 
317 -0.16401177665550687 -0.1647138354103523 1.0146981796455845 0 0 0 0.25 0 317 190 118 198 17 213 148 217 76 220 39 222 59 224 25 232 179 
318 -0.16427851139463648 -0.16503354560085998 1.0157768578031565 0 0 0 0.1 0 318 204 125 214 5 217 77 
319 -0.13814210765142873 -0.1640592914143974 1.0265481193493575 0 0 0 0.44 0 319 190 119 198 18 199 11 204 126 213 149 217 78 221 93 232 180 
320 -0.24595829366068447 -0.1558628757385043 0.9834720076783582 0 0 0 0.57 0 320 185 16 222 60 
321 0.00228741177577959 -0.17583805206440417 1.1071104031856263 0 0 0 0.5 0 321 190 120 204 127 221 94 232 181 
322 -0.21901005100355783 -0.15273169035711495 0.9900063953967566 0 0 0 0.42 0 322 190 121 199 12 221 95 227 98 232 182 
323 -0.45137907088711066 -0.14206981328720827 0.9317116430483637 0 0 0 0.31 0 323 190 122 213 150 227 99 232 183 
324 -0.10238895341554351 -0.15695132908003026 1.038484877723102 0 0 0 0.45 0 324 185 17 196 14 199 13 204 128 213 151 214 6 217 79 219 70 220 40 221 96 222 61 227 100 234 18 
325 -0.21397119390714067 -0.14967596396637955 0.9935123790191474 0 0 0 0.14 0 325 198 19 232 184 
326 -0.2142797887551123 -0.15032763495363458 0.9950291510228708 0 0 0 0.28 0 326 190 123 217 80 224 26 232 185 
327 -0.1359979526745056 -0.15055575416263098 1.0231522481324036 0 0 0 0.51 0 327 222 62 232 186 234 19 
328 -0.1982521601545483 -0.14646275238361584 1.000175749915215 0 0 0 0.37 0 328 204 129 213 152 217 81 219 71 222 63 232 187 
329 -0.237758188690771 -0.13895308423528374 0.9843403205291549 0 0 0 0.29 0 329 190 124 194 14 204 130 213 153 217 82 220 41 221 97 222 64 227 101 232 188 
330 -0.034671777150949185 -0.14813694976082897 1.0709299975104574 0 0 0 0.27 0 330 227 102 232 189 
331 0.03520773128823945 -0.1525877185943477 1.1000223524914161 0 0 0 0.12 0 331 204 131 227 103 
332 0.1206107288846826 -0.15498073330283085 1.133860453500364 0 0 0 0.31 0 332 190 125 204 132 232 190 234 20 
333 -0.17058917766743903 -0.12907714262497064 1.008532483702222 0 0 0 0.16 0 333 194 15 204 133 217 83 219 72 220 42 
334 -0.09389594404406243 -0.13362467142266068 1.0397496485467848 0 0 0 0.08 0 334 199 14 234 21 
335 -0.08257691597117894 -0.12581003064567137 1.0429821685188982 0 0 0 0.22 0 335 194 16 198 20 204 134 217 84 219 73 220 43 227 104 
336 -0.3880541416850759 -0.08405209118505397 0.7266109817778433 0 0 0 0.48 0 336 190 126 227 105 
337 -0.15578267587611733 -0.12013438469747904 1.0130125562035597 0 0 0 0.1 0 337 190 127 213 154 
338 0.12717370448430762 -0.12790307588841124 1.1300377675344102 0 0 0 0.11 0 338 190 128 227 106 
339 -0.4428319699101665 -0.1029890932652011 0.9262954489886547 0 0 0 0.15 0 339 220 44 221 98 
340 0.028451276718983825 -0.12145506261638217 1.0883280752390336 0 0 0 0.31 0 340 190 129 198 21 217 85 220 45 221 99 222 65 232 191 
341 0.14840881374559253 -0.12894215519349722 1.1570797428805555 0 0 0 0.24 0 341 204 135 232 192 
342 0.14823880982773194 -0.12860085978284103 1.1557479098647137 0 0 0 0.09 0 342 204 136 227 107 
343 -0.06745068194816958 -0.11226147690313214 1.0485260929718938 0 0 0 0.37 0 343 185 18 196 15 198 22 213 155 219 74 220 46 221 100 232 193 
344 0.02437510281549103 -0.1155789946600423 1.0859034756536523 0 0 0 0.32 0 344 196 16 222 66 
345 -0.13197621112774924 -0.10745313546031372 1.0259431954626468 0 0 0 0.08 0 345 213 156 232 194 
346 -0.1806220871057452 -0.09766338012760642 1.0046798325935071 0 0 0 0.16 0 346 214 7 221 101 234 22 
347 -0.3744761812544449 -0.08399629607884343 0.9422027501889425 0 0 0 0.39 0 347 204 137 219 75 221 102 227 108 232 195 
348 -0.3568744640586376 -0.07766940683398382 0.9483351625755158 0 0 0 0.09 0 348 190 130 204 138 232 196 
349 -0.44531732860654927 -0.06985771041342086 0.9208288118237516 0 0 0 0.22 0 349 190 131 213 157 217 86 219 76 220 47 232 197 
350 -0.2398220506894265 -0.07419084657709576 0.9763069122808258 0 0 0 0.17 0 350 213 158 219 77 222 67 232 198 
351 -0.15968099389969556 -0.07721646049644723 1.0118401399551942 0 0 0 0.09 0 351 190 132 198 23 234 23 
352 -0.09491801240955969 -0.07234658349830617 1.036217741727379 0 0 0 0.29 0 352 190 133 204 139 214 8 219 78 220 48 221 103 222 68 232 199 
353 -0.1598002632174715 -0.06909762661623345 1.0102069237224907 0 0 0 0.25 0 353 190 134 204 140 213 159 217 87 219 79 221 104 222 69 232 200 
354 -0.046345032863656904 -0.0699485620133433 1.0561724715085954 0 0 0 0.44 0 354 190 135 199 15 213 160 217 88 220 49 221 105 222 70 
355 -0.005952010671279577 -0.06448377795635761 1.0722936576696958 0 0 0 0.38 0 355 194 17 219 80 221 106 222 71 232 201 
356 0.004696203425201911 -0.06378704108326974 1.078215759243807 0 0 0 0.15 0 356 198 24 222 72 227 109 
357 -0.05649150595852667 -0.06108598058324867 1.0510363461661039 0 0 0 0.46 0 357 190 136 213 161 219 81 220 50 222 73 232 202 
358 -0.029887604645024494 -0.05972252402706771 1.0639706963517939 0 0 0 0.53 0 358 198 25 232 203 
359 -0.40626933135990584 -0.04838526661507136 0.9304412123317939 0 0 0 0.16 0 359 198 26 213 162 232 204 
360 0.13286530778753142 -0.0588401512998619 1.1342755217608793 0 0 0 0.32 0 360 190 137 204 141 217 89 221 107 222 74 232 205 
361 -0.39713478622147813 -0.031105684077994265 0.9269230460868426 0 0 0 0.18 0 361 190 138 217 90 227 110 232 206 
362 0.1601976656608149 -0.04076403106290238 1.169024696237203 0 0 0 0.1 0 362 190 139 232 207 
363 0.17733703389920272 -0.03776586258729789 1.1833964869050075 0 0 0 0.57 0 363 217 91 222 75 
364 -0.3009061392850257 -0.02770635064911311 0.9534750813557703 0 0 0 0.23 0 364 190 140 213 163 232 208 
365 -0.26929813127886804 -0.027801927820562122 0.9687422231753784 0 0 0 0.13 0 365 198 27 199 16 
366 -0.15214654733727584 -0.02236892205718552 1.0066008666761903 0 0 0 0.25 0 366 190 141 213 164 232 209 234 24 
367 -0.04610336494506407 -0.01992037700203477 1.0506545720687788 0 0 0 0.2 0 367 204 142 219 82 232 210 
368 0.15914108282002795 -0.023530672849710915 1.1652844999926215 0 0 0 0.35 0 368 190 142 232 211 
369 -0.01800031093234053 -0.01888990311222914 1.062393826074494 0 0 0 0.12 0 369 204 143 219 83 232 212 
370 0.0049388693605388065 0.004857843469230749 1.0722122609846623 0 0 0 0.31 0 370 198 28 199 17 213 165 221 108 232 213 
371 -0.3744045553131001 0.007794165395775146 0.9086561361261675 0 0 0 0.22 0 371 219 84 227 111 
372 -0.38440154246865077 0.017363251849241215 0.928211573599783 0 0 0 0.68 0 372 213 166 217 92 219 85 221 109 232 214 
373 -0.3107424062887483 0.018363885261019296 0.9478762003895425 0 0 0 0.36 0 373 190 143 227 112 
374 -0.3210906938159024 0.019797172228624458 0.9448189987135281 0 0 0 0.28 0 374 198 29 204 144 219 86 
375 0.10320570546728686 0.04259763225997334 1.1013252370565223 0 0 0 0.21 0 375 217 93 227 113 
376 0.35220391392522266 -0.2083580963292704 0.960404300437684 0 0 0 0.35 0 376 227 114 234 25 
377 0.35220391392522266 -0.2083580963292704 0.960404300437684 0 0 0 0.35 0 377 227 115 234 26 
378 -0.23276333542433966 -0.2105309486244884 0.9884645793126805 0 0 0 0.67 0 378 221 110 227 116 232 215 
379 -0.18835225516798063 -0.21108166146419882 1.0137670011993947 0 0 0 0.44 0 379 204 145 219 87 
380 -0.4388930446715142 -0.1946155625971739 0.9611890298826524 0 0 0 0.37 0 380 227 117 232 216 
381 -0.119445343478076 -0.20569732979970087 1.02262561751356 0 0 0 0.33 0 381 190 144 204 146 
382 -0.30312465314971854 -0.18755606752256523 0.9745291047456606 0 0 0 0.26 0 382 190 145 204 147 219 88 224 27 232 217 
383 -0.2797886914584336 -0.1874968127968695 0.9815128495756918 0 0 0 0.25 0 383 190 146 204 148 213 167 219 89 232 218 
384 -0.4463003127605667 -0.1667821956153553 0.9388201696963496 0 0 0 0.2 0 384 190 147 227 118 
385 -0.24752712802867852 -0.1743579003328837 0.9919314043421692 0 0 0 0.74 0 385 213 168 219 90 221 111 222 76 227 119 232 219 
386 -0.3681878634648939 -0.16588355845617808 0.9557012199228159 0 0 0 0.28 0 386 199 18 204 149 213 169 219 91 224 28 232 220 
387 -0.31174671652640634 -0.16321390519303952 0.961378960691819 0 0 0 0.11 0 387 204 150 219 92 
388 -0.2261249011711226 -0.1671930903467633 0.9857958738923753 0 0 0 0.55 0 388 204 151 222 77 227 120 
389 -0.45793726010464425 -0.15572628055965881 0.9275139757048348 0 0 0 0.29 0 389 204 152 227 121 232 221 
390 -0.18398017271879652 -0.16909694294470132 1.005695305327028 0 0 0 0.39 0 390 190 148 198 30 199 19 217 94 219 93 222 78 227 122 232 222 
391 -0.2641137566270962 -0.16086947077373934 0.9669519594646319 0 0 0 0.21 0 391 204 153 227 123 
392 -0.25723623508714366 -0.1626965992078463 0.9840878271311055 0 0 0 0.51 0 392 213 170 217 95 219 94 221 112 227 124 232 223 
393 -0.28025235706803403 -0.15808394454785776 0.9756521436292419 0 0 0 0.21 0 393 224 29 227 125 
394 -0.26070265335936144 -0.15604287633712866 0.9819413948859192 0 0 0 0.18 0 394 198 31 199 20 204 154 213 171 219 95 227 126 232 224 
395 -0.2527947237006362 -0.15649305720769738 0.9873789541556676 0 0 0 0.43 0 395 190 149 198 32 204 155 213 172 217 96 219 96 227 127 232 225 
396 -0.06128466038983612 -0.16690314012639085 1.0532928579576797 0 0 0 0.45 0 396 190 150 204 156 213 173 219 97 
397 -0.4600178592970539 -0.13954588709719754 0.9276044187055765 0 0 0 0.47 0 397 190 151 204 157 219 98 227 128 232 226 
398 -0.451594332567673 -0.1404457807660901 0.9433269548088118 0 0 0 0.47 0 398 227 129 232 227 
399 -0.31838284617859175 -0.07375931974557723 0.5345866927118312 0 0 0 0.41 0 399 204 158 232 228 
400 -0.42014551359924435 -0.13622903242607842 0.9345565603963372 0 0 0 0.42 0 400 199 21 204 159 219 99 220 51 221 113 227 130 232 229 
401 -0.4660678199278463 -0.13334208188133015 0.9285620305565419 0 0 0 0.22 0 401 190 152 219 100 227 131 232 230 
402 -0.32744959194219586 -0.1342931670334554 0.9604640651888776 0 0 0 0.24 0 402 185 19 190 153 196 17 213 174 217 97 219 101 220 52 221 114 224 30 232 231 
403 -0.24946409615575346 -0.13225419832331634 0.9792974356629699 0 0 0 0.37 0 403 185 20 204 160 213 175 217 98 219 102 220 53 232 232 
404 -0.22180597048949852 -0.13272818035464917 0.9899756919349574 0 0 0 0.3 0 404 185 21 190 154 198 33 204 161 213 176 219 103 221 115 222 79 232 233 
405 0.10478631502615215 -0.15188337827441462 1.1334295941516892 0 0 0 0.56 0 405 190 155 204 162 213 177 221 116 232 234 
406 -0.4647667797084395 -0.12215957724862221 0.9204988367922371 0 0 0 0.24 0 406 190 156 219 104 227 132 
407 -0.46519462151062246 -0.12211651339447549 0.9211638273124625 0 0 0 0.18 0 407 190 157 219 105 
408 -0.4484671166685989 -0.12193656608484196 0.9284240164279488 0 0 0 0.25 0 408 213 178 221 117 232 235 
409 -0.4478499087347452 -0.12195033923397644 0.927326036621246 0 0 0 0.27 0 409 199 22 204 163 213 179 219 106 221 118 227 133 232 236 
410 -0.0770364936155224 -0.13636907105270124 1.0468576305036645 0 0 0 0.44 0 410 185 22 194 18 196 18 199 23 204 164 214 9 217 99 219 107 220 54 221 119 222 80 227 134 232 237 234 27 
411 0.00013864988717532018 -0.13722827023825687 1.0781111868013602 0 0 0 0.37 0 411 199 24 217 100 227 135 
412 -0.4420297971120561 -0.11520519097370766 0.9262225755529094 0 0 0 0.25 0 412 190 158 198 34 199 25 204 165 213 180 219 108 220 55 221 120 224 31 227 136 232 238 
413 -0.05462555499798 -0.12470128046969184 1.0538926573374074 0 0 0 0.55 0 413 185 23 190 159 194 19 204 166 213 181 217 101 219 109 220 56 232 239 
414 0.0037775630719089847 -0.1225246367611071 1.0790640263215654 0 0 0 0.34 0 414 221 121 222 81 
415 -0.050138953362299336 -0.117782631434174 1.0563703149166457 0 0 0 0.49 0 415 220 57 221 122 
416 0.005598360782522736 -0.115597420857059 1.0817053567401131 0 0 0 0.4 0 416 198 35 221 123 
417 0.10987332672643177 -0.1186924389945241 1.121016261462433 0 0 0 0.33 0 417 199 26 204 167 217 102 220 58 221 124 222 82 227 137 232 240 
418 -0.2186321635356444 -0.09057810774480016 0.9881675682005953 0 0 0 0.33 0 418 196 19 217 103 
419 -0.43651256384893455 -0.07872559603863416 0.924018642222444 0 0 0 0.36 0 419 190 160 198 36 221 125 232 241 
420 -0.317555007770056 -0.07543497999426314 0.9595631339251494 0 0 0 0.17 0 420 204 168 232 242 
421 -0.3176703653059686 -0.07573124229265253 0.959801156302291 0 0 0 0.31 0 421 213 182 221 126 
422 -0.45461203575181197 -0.0573073989931333 0.9166452121166263 0 0 0 0.18 0 422 199 27 219 110 232 243 
423 0.15138037550960715 -0.07174942445306542 1.1597212472294227 0 0 0 0.35 0 423 190 161 198 37 204 169 227 138 232 244 
424 0.15103030241524817 -0.07144311406600304 1.1557118337405035 0 0 0 0.36 0 424 190 162 204 170 232 245 
425 0.16901452847202855 -0.06975550193511836 1.1771134204803153 0 0 0 0.41 0 425 204 171 227 139 
426 0.11906497979444246 -0.05572127587004924 1.1221065477068521 0 0 0 0.28 0 426 190 163 204 172 213 183 217 104 221 127 222 83 227 140 232 246 
427 0.14163346562453427 -0.05586429541860729 1.1468522053073549 0 0 0 0.34 0 427 190 164 204 173 217 105 221 128 222 84 227 141 232 247 
428 0.17766497081764063 -0.052651526061280214 1.1886162816243944 0 0 0 0.29 0 428 190 165 227 142 232 248 
429 -0.4285650239845339 -0.03206985102998294 0.9191356069893375 0 0 0 0.18 0 429 213 184 217 106 227 143 
430 -0.06624926649974046 -0.02560701595473103 1.0395587522141634 0 0 0 0.16 0 430 204 174 219 111 
431 -0.17362322279792997 -0.017259385865542366 0.9971673056606731 0 0 0 0.35 0 431 190 166 204 175 213 185 219 112 221 129 222 85 
432 -0.3495326772477623 -0.014028900555661082 0.9333823117337394 0 0 0 0.36 0 432 219 113 227 144 
433 -0.34353986915866863 -0.0025912361065326133 0.9406657977864232 0 0 0 0.25 0 433 204 176 227 145 232 249 
434 -0.454862433254388 -0.0017592706539719149 0.9113197408361983 0 0 0 0.3 0 434 199 28 221 130 
435 0.0003043155675583831 -0.0011656021431407065 1.0689322453495627 0 0 0 0.21 0 435 198 38 204 177 232 250 
436 0.13271096746435582 0.008577598573808498 1.1266350119039361 0 0 0 0.4 0 436 198 39 222 86 
437 -0.32001645408013585 0.0100523116792554 0.9466091459399106 0 0 0 0.5 0 437 213 186 217 107 219 114 221 131 
438 0.11702111559431347 0.011802646085384557 1.1175817776317856 0 0 0 0.61 0 438 190 167 198 40 221 132 222 87 234 28 
439 -0.31048879365719695 0.018927488649190364 0.9480794332152015 0 0 0 0.52 0 439 219 115 220 59 
440 -0.28256324408616523 0.026906818468038506 0.9568008205169585 0 0 0 0.36 0 440 220 60 227 146 
441 -0.3900446102048354 -0.22428643016877833 0.74362696839652 0 0 0 1.15 0 441 190 168 227 147 
442 -0.23877024327501048 -0.22073329715061646 0.9923862093927479 0 0 0 0.36 0 442 198 41 204 178 222 88 
443 -0.1835602079690088 -0.21903646164595078 1.0137892690344286 0 0 0 0.31 0 443 190 169 204 179 213 187 219 116 232 251 
444 -0.18281772769815274 -0.21828935604097058 1.0095960275414837 0 0 0 0.31 0 444 190 170 204 180 219 117 
445 -0.24623736478787436 -0.21446134666467256 0.9958000703115758 0 0 0 0.79 0 445 198 42 217 108 
446 -0.1270640039385616 -0.2171700630485166 1.0363616274756995 0 0 0 0.3 0 446 190 171 213 188 227 148 232 252 
447 -0.1267150161068097 -0.2166946185930512 1.031861478565963 0 0 0 0.26 0 447 204 181 227 149 
448 -0.06924616264504631 -0.21503167726215974 1.0575288621494827 0 0 0 0.29 0 448 190 172 204 182 227 150 
449 -0.0694887433185025 -0.21506156050749073 1.06097522736969 0 0 0 0.54 0 449 190 173 213 189 221 133 227 151 232 253 
450 -0.29510196404333217 -0.18972422425460664 0.976710571115637 0 0 0 0.33 0 450 185 24 224 32 232 254 
451 -0.2815812040590584 -0.17402438546286633 0.9773611399086568 0 0 0 0.15 0 451 198 43 220 61 
452 -0.46660058269577864 -0.16498318068508525 0.9346210408327682 0 0 0 0.16 0 452 227 152 232 255 
453 -0.3028513053891883 -0.15867656544778896 0.9728319062965953 0 0 0 0.19 0 453 220 62 227 153 
454 -0.3028513053891883 -0.15867656544778896 0.9728319062965953 0 0 0 0.19 0 454 220 63 227 154 
455 -0.45343625742686267 -0.15032472204192393 0.9327368538788741 0 0 0 0.2 0 455 190 174 227 155 
456 -0.4548130703293791 -0.1509969332782887 0.9353288369056756 0 0 0 0.39 0 456 190 175 204 183 227 156 
457 -0.211199847824578 -0.15863668465421354 0.9992734237183737 0 0 0 0.61 0 457 190 176 199 29 213 190 217 109 221 134 227 157 232 256 
458 0.05441032720875512 -0.17580427481900976 1.1069714038415153 0 0 0 0.54 0 458 190 177 198 44 217 110 221 135 232 257 
459 -0.03978905706375463 -0.15519096653480807 1.0656890224496547 0 0 0 0.31 0 459 190 178 204 184 213 191 217 111 219 118 227 158 232 258 
460 -0.33740950482886906 -0.13323310142926467 0.95760425451622 0 0 0 0.18 0 460 194 20 220 64 
461 0.042854994991469775 -0.15204758140038124 1.0969307379426956 0 0 0 0.38 0 461 217 112 227 159 
462 0.04275459834273729 -0.15243642945980476 1.1001066195933284 0 0 0 0.41 0 462 185 25 190 179 204 185 227 160 
463 -0.06549492655704968 -0.1376751963123981 1.0521009678237687 0 0 0 0.54 0 463 185 26 190 180 204 186 213 192 217 113 219 119 220 65 221 136 222 89 227 161 232 259 
464 -0.06581167603804915 -0.13759823207972813 1.0520393775585908 0 0 0 0.24 0 464 198 45 199 30 204 187 
465 -0.17977359435769405 -0.12836330555123124 1.0052856147834397 0 0 0 0.21 0 465 217 114 220 66 
466 0.12830944631441984 -0.14576249524948648 1.1321647523915208 0 0 0 0.5 0 466 204 188 227 162 
467 -0.46443902673399107 -0.11019660382237759 0.9330223505902554 0 0 0 0.22 0 467 219 120 232 260 
468 0.1583331800598511 -0.11887552742259164 1.1730916268763014 0 0 0 0.49 0 468 190 181 217 115 221 137 227 163 
469 -0.4167837124373058 -0.0858787250079001 0.9333650864113744 0 0 0 0.51 0 469 204 189 213 193 219 121 232 261 
470 0.14747189146404324 -0.08938713801239788 1.1549270256672692 0 0 0 0.27 0 470 190 182 204 190 217 116 221 138 222 90 232 262 
471 -0.4420165445952663 -0.06357830161057514 0.9214188439580663 0 0 0 0.35 0 471 190 183 198 46 199 31 213 194 217 117 219 122 220 67 221 139 224 33 232 263 
472 0.16076792254961073 -0.07626857994958687 1.1656133561579844 0 0 0 0.44 0 472 227 164 232 264 
473 0.16111290465869552 -0.07602645729691829 1.1689883615265215 0 0 0 0.45 0 473 190 184 221 140 222 91 227 165 232 265 
474 0.1185373856094684 -0.04517966865395442 1.1218955141249207 0 0 0 0.28 0 474 190 185 198 47 199 32 204 191 221 141 222 92 232 266 
475 -0.3282501014165995 -0.013253390220072813 0.955703684784786 0 0 0 0.34 0 475 204 192 213 195 219 123 
476 -0.2882075995875452 -0.013407832046786878 0.9630957644999962 0 0 0 0.65 0 476 213 196 219 124 221 142 227 166 232 267 
477 -0.17610319759093812 -0.19725663612061295 1.022865232777824 0 0 0 0.45 0 477 204 193 220 68 
478 -0.375186351012939 -0.16513525568265186 0.9511445828999028 0 0 0 0.31 0 478 204 194 213 197 232 268 
479 -0.375158000051124 -0.16530986178527718 0.9510854073241648 0 0 0 0.33 0 479 198 48 204 195 213 198 219 125 
480 -0.27682243526881184 -0.16349213981462332 0.978735980617063 0 0 0 0.44 0 480 190 186 204 196 213 199 217 118 
481 -0.27699099756254736 -0.16403426687803677 0.9794204766450963 0 0 0 0.22 0 481 204 197 217 119 
482 -0.02780480355422622 -0.17865066087949505 1.0730251342878123 0 0 0 0.49 0 482 190 187 204 198 213 200 221 143 227 167 232 269 
483 -0.45999349571146286 -0.1582688011671217 0.9641919042582773 0 0 0 1.18 0 483 190 188 213 201 219 126 
484 -0.40994547776206386 -0.14988019941162306 0.9303559297880688 0 0 0 0.23 0 484 198 49 204 199 213 202 219 127 221 144 232 270 
485 -0.2576606259990217 -0.14655545960145117 0.9764110187906536 0 0 0 0.28 0 485 190 189 198 50 204 200 213 203 217 120 219 128 220 69 227 168 
486 -0.2586771503899004 -0.14653491363859897 0.9781337878256348 0 0 0 0.44 0 486 199 33 217 121 220 70 224 34 
487 -0.0689524993868764 -0.15716840905523793 1.0446748526499579 0 0 0 0.58 0 487 190 190 204 201 
488 -0.24229729766343142 -0.14499664864399814 0.9833377281777542 0 0 0 0.54 0 488 185 27 190 191 194 21 198 51 199 34 204 202 213 204 217 122 219 129 220 71 224 35 227 169 232 271 
489 -0.027497406384533837 -0.1563091665373447 1.06975859405091 0 0 0 0.36 0 489 198 52 204 203 213 205 217 123 219 130 221 145 227 170 232 272 
490 0.055146849221634736 -0.15463135231174896 1.1087550314497139 0 0 0 0.22 0 490 204 204 227 171 
491 -0.4591266751947562 -0.12785506716227887 0.9289545067203323 0 0 0 0.4 0 491 190 192 204 205 219 131 227 172 232 273 
492 -0.4581539883619619 -0.1275604476587765 0.9270447147564812 0 0 0 0.4 0 492 190 193 204 206 219 132 221 146 227 173 232 274 
493 -0.01598832525290109 -0.13888050639611735 1.0735670002828808 0 0 0 0.48 0 493 204 207 213 206 220 72 227 174 
494 0.03878111810949451 -0.13787291667973778 1.0969727863723875 0 0 0 0.46 0 494 196 20 198 53 204 208 221 147 222 93 
495 -0.0522518691452239 -0.1272926312648811 1.0566373708726686 0 0 0 0.53 0 495 185 28 194 22 196 21 214 10 221 148 222 94 232 275 234 29 
496 0.12261597221904422 -0.1336659413780877 1.1209863962865274 0 0 0 0.14 0 496 213 207 227 175 
497 0.08085679311092529 -0.1234643072395947 1.1025284764787142 0 0 0 0.37 0 497 198 54 204 209 232 276 
498 0.1639918323720263 -0.10507551095946858 1.1765005126858419 0 0 0 0.33 0 498 190 194 204 210 227 176 232 277 
499 0.09445984823933112 -0.0936786012718882 1.115290711428636 0 0 0 0.44 0 499 190 195 204 211 213 208 217 124 227 177 
500 0.09445351525684174 -0.09359365706995583 1.1155420265020939 0 0 0 0.46 0 500 190 196 198 55 199 35 204 212 213 209 217 125 227 178 
501 0.106969934958937 -0.08347797366416647 1.1189668144871323 0 0 0 0.36 0 501 190 197 198 56 204 213 217 126 221 149 222 95 227 179 232 278 
502 0.1409431016185101 -0.07703393038695747 1.1386032902308443 0 0 0 0.75 0 502 204 214 227 180 
503 -0.05648227834858582 -0.0665973055322149 1.0518219666302673 0 0 0 0.2 0 503 217 127 219 133 232 279 
504 -0.05639857955366412 -0.06663244180134201 1.0515919604764845 0 0 0 0.21 0 504 217 128 232 280 
505 0.1071478742776897 -0.05341053407060037 1.1196379489730321 0 0 0 0.25 0 505 190 198 204 215 232 281 
506 0.10715100752945755 -0.05349033602429783 1.1185981217280356 0 0 0 0.22 0 506 190 199 232 282 
507 0.10726550064881947 -0.02459161294886643 1.112514139200111 0 0 0 0.4 0 507 217 129 221 150 
508 -0.3623798149087875 0.011747946116753893 0.9336240150724995 0 0 0 0.32 0 508 217 130 227 181 
509 0.09443739041387211 0.014676686532432752 1.107359178423927 0 0 0 0.59 0 509 190 200 221 151 
510 -0.3860657720101898 -0.19010892863898873 0.9454812973608001 0 0 0 0.34 0 510 204 216 232 283 
511 -0.38683121564750733 -0.19055847884318486 0.9475586168991031 0 0 0 0.42 0 511 190 201 204 217 213 210 219 134 
512 -0.28866556088488765 -0.18865444381704538 0.9694806631770791 0 0 0 0.55 0 512 204 218 219 135 227 182 232 284 
513 -0.29106759078888866 -0.1901687263738243 0.9779779716134065 0 0 0 0.21 0 513 204 219 219 136 
514 -0.38830977282162155 -0.1677253485266071 0.9472757249331388 0 0 0 0.45 0 514 190 202 204 220 213 211 219 137 232 285 
515 -0.1466895277787905 -0.1825323600579599 1.0227172983565178 0 0 0 0.33 0 515 196 22 199 36 217 131 
516 -0.29092521406525523 -0.16636288954346243 0.9737580792003387 0 0 0 0.65 0 516 198 57 213 212 220 73 232 286 
517 -0.2122263410384306 -0.16617993470466497 0.9902716202261213 0 0 0 0.25 0 517 204 221 219 138 227 183 
518 -0.13744634707124972 -0.1662093869972994 1.024262039671777 0 0 0 0.51 0 518 204 222 222 96 234 30 
519 -0.3349496082627762 -0.15205090100889534 0.9606906154148138 0 0 0 0.29 0 519 198 58 199 37 
520 -0.4185971526984627 -0.1391117177950157 0.9324512605205538 0 0 0 0.32 0 520 190 203 199 38 204 223 219 139 221 152 227 184 232 287 
521 -0.3828124049305857 -0.14015849544923537 0.9516189206567386 0 0 0 0.93 0 521 204 224 219 140 227 185 
522 -0.08019160861764477 -0.1513381743045708 1.0437277513659649 0 0 0 0.54 0 522 190 204 204 225 213 213 217 132 219 141 220 74 221 153 227 186 232 288 
523 -0.09505389850790733 -0.1470399369567912 1.041971042701233 0 0 0 0.49 0 523 213 214 214 11 217 133 219 142 221 154 222 97 234 31 
524 -0.16793718156384407 -0.138313313301674 1.00567964545371 0 0 0 0.87 0 524 185 29 194 23 198 59 204 226 219 143 221 155 222 98 
525 -0.23459432083592602 -0.13559991023287132 0.9870314538662456 0 0 0 0.46 0 525 185 30 190 205 198 60 199 39 204 227 213 215 217 134 232 289 
526 -0.04271272023860177 -0.1389621481580755 1.0630502251558707 0 0 0 0.81 0 526 196 23 198 61 199 40 217 135 219 144 220 75 221 156 227 187 
527 -0.1709402559222959 -0.11970645575610012 1.0104948660419835 0 0 0 2.4 0 527 204 228 
528 -0.43418988307356393 -0.10996866655447843 0.9301307847130152 0 0 0 0.38 0 528 190 206 198 62 199 41 204 229 213 216 219 145 220 76 221 157 227 188 232 290 
529 -0.04057784333931509 -0.12389234604351841 1.061011992406441 0 0 0 0.61 0 529 185 31 190 207 198 63 199 42 204 230 219 146 220 77 221 158 227 189 232 291 
530 -0.04068487495334005 -0.1238269169666419 1.0599742309721467 0 0 0 0.45 0 530 199 43 204 231 219 147 220 78 221 159 222 99 232 292 
531 -0.011282614903371823 -0.12224844958049447 1.068670582446922 0 0 0 0.9 0 531 198 64 213 217 220 79 227 190 
532 -0.01260997926186883 -0.12234586023385678 1.0702103686268938 0 0 0 0.35 0 532 199 44 217 136 220 80 221 160 232 293 234 32 
533 0.015607579497043026 -0.12233902237984831 1.084031639348393 0 0 0 0.5 0 533 190 208 198 65 204 232 213 218 217 137 227 191 
534 0.015490342340315827 -0.12234910424753587 1.0853322809029664 0 0 0 0.51 0 534 204 233 213 219 227 192 232 294 
535 -0.028030217224642964 -0.11173113606163239 1.0665909365556552 0 0 0 0.42 0 535 204 234 220 81 
536 0.13348810397954294 -0.12435329543759474 1.1486530714232264 0 0 0 0.58 0 536 190 209 204 235 227 193 232 295 
537 0.0006251617184438129 -0.11178864358699922 1.0776815788432608 0 0 0 0.27 0 537 217 138 220 82 
538 -0.15553734961804327 -0.10300013628954965 1.0117614790481435 0 0 0 0.73 0 538 204 236 217 139 
539 -0.12770360292289665 -0.10106916018182072 1.0237284363152082 0 0 0 0.29 0 539 196 24 217 140 220 83 221 161 
540 -0.1271896648691621 -0.10069643206790235 1.023076625252335 0 0 0 0.58 0 540 196 25 204 237 217 141 220 84 221 162 
541 -0.09919347424664172 -0.09886029090515264 1.035540835734964 0 0 0 0.67 0 541 190 210 204 238 220 85 221 163 232 296 
542 -0.09917362137186839 -0.09909418550130408 1.0354769334174148 0 0 0 0.58 0 542 190 211 220 86 221 164 232 297 
543 -0.07071326879720449 -0.09775708001373681 1.0477052981877653 0 0 0 0.54 0 543 204 239 217 142 220 87 221 165 
544 -0.11340201441465894 -0.09499513540926226 1.029238469525495 0 0 0 0.23 0 544 220 88 232 298 
545 -0.1129937718388269 -0.09501534046193114 1.0283860267452303 0 0 0 0.43 0 545 190 212 204 240 220 89 221 166 232 299 
546 -0.04242430223792156 -0.09774774621322972 1.0601142473065348 0 0 0 0.35 0 546 217 143 222 100 
547 -0.04223022873214166 -0.09802509318228114 1.0601576222986986 0 0 0 0.44 0 547 217 144 220 90 221 167 
548 -0.08557494422163216 -0.09245560084610491 1.0420275290570618 0 0 0 0.52 0 548 194 24 204 241 217 145 220 91 221 168 232 300 
549 -0.08544271654778084 -0.09224416924406034 1.0418531530950468 0 0 0 0.58 0 549 194 25 204 242 213 220 217 146 220 92 221 169 232 301 
550 -0.056056472538825876 -0.0890806018961281 1.0491458880074735 0 0 0 0.47 0 550 217 147 219 148 
551 -0.0564762188929778 -0.08925238040755351 1.0506548568414327 0 0 0 0.48 0 551 204 243 217 148 219 149 
552 -0.028078874700938932 -0.09039728437376231 1.0696768398411987 0 0 0 0.49 0 552 199 45 219 150 221 170 232 302 
553 -0.028591923130242673 -0.09094248095395732 1.0723978591817542 0 0 0 0.57 0 553 219 151 227 194 232 303 
554 0.026865783674483265 -0.0870240424046899 1.0869082943309671 0 0 0 0.26 0 554 222 101 227 195 
