# 3D point list with one line of data per point:
#   POINT3D_ID, X, Y, Z, R, G, B, ERROR, TRACK[] as (IMAGE_ID, POINT2D_IDX)
# Number of points: 290, mean track length: 11.99
124 0.2438853532075882 -0.21116581559181213 0.8664040565490723 167 167 167 2.59 79 124 80 119 81 107 83 104 84 78 85 78 86 71 87 60 88 81 89 82 90 79 91 77 92 66 93 68 94 69 95 64 96 54 97 15 
125 -0.2705305218696594 0.07801125943660736 0.41934823989868164 97 104 73 28.26 79 125 82 106 83 105 88 82 
126 -0.32844823598861694 -0.020030392333865166 0.6068788170814514 133 131 130 0.67 79 126 80 120 82 107 83 106 
127 -0.34823304414749146 -0.10691901296377182 0.6095883250236511 114 116 130 1.76 79 127 80 121 82 108 83 107 90 80 93 69 94 70 95 65 
128 -0.2021787166595459 -0.010799919255077839 0.30187538266181946 188 192 166 7.69 79 128 82 109 83 108 
129 0.060095056891441345 -0.14631043374538422 0.7855374217033386 133 144 160 2.61 79 129 80 122 81 108 82 110 83 109 84 79 85 79 86 72 87 61 88 83 89 83 90 81 91 78 92 67 93 70 94 71 95 66 96 55 97 16 
130 0.12826400995254517 0.032513462007045746 0.5942391157150269 46 64 40 6.92 79 130 80 123 81 109 82 111 83 110 84 80 85 80 86 73 88 84 89 84 91 79 93 71 
131 0.12382680922746658 -0.2343873828649521 0.8390701413154602 112 129 146 3.08 79 131 80 124 81 110 82 112 83 111 84 81 85 81 86 74 87 62 88 85 89 85 90 82 91 80 92 68 93 72 94 72 95 67 96 56 97 17 
132 -0.2853192687034607 -0.21539543569087982 0.6778554916381836 143 180 210 3.01 79 132 80 125 81 111 82 113 83 112 85 82 87 63 88 86 89 86 90 83 91 81 92 69 93 73 94 73 95 68 96 57 
133 0.2924070656299591 0.07431752234697342 0.5219768285751343 81 95 72 21.34 79 133 80 126 81 112 84 82 85 83 86 75 88 87 89 87 90 84 91 82 92 70 
134 -0.3086714744567871 -0.26834890246391296 0.6803362369537354 93 92 101 3.41 79 134 80 127 81 113 82 114 83 113 87 64 88 88 89 88 90 85 91 83 92 71 93 74 94 74 95 69 96 58 
135 0.15612515807151794 0.050103992223739624 0.5547531843185425 57 68 42 5.44 79 135 80 128 81 114 82 115 83 114 84 83 85 84 86 76 87 65 88 89 89 89 90 86 91 84 92 72 
136 0.08850285410881042 0.12168893963098526 0.7535484433174133 87 98 107 0.9 79 136 80 129 81 115 82 116 83 115 84 84 85 85 
137 -0.07221081852912903 -0.23567916452884674 0.7548109889030457 77 80 100 1.34 79 137 80 130 81 116 82 117 83 116 84 85 85 86 86 77 87 66 88 90 89 90 90 87 91 85 92 73 93 75 94 75 95 70 96 59 
138 0.12583094835281372 -0.1441384106874466 0.8222787380218506 48 63 77 2.67 79 138 80 131 81 117 82 118 83 117 84 86 85 87 86 78 87 67 88 91 89 91 90 88 91 86 92 74 93 76 94 76 95 71 96 60 
139 -0.27664726972579956 -0.18362756073474884 0.6703020334243774 140 162 186 3.0 79 139 80 132 81 118 82 119 83 118 85 88 87 68 88 92 89 92 90 89 91 87 92 75 93 77 94 77 95 72 96 61 
140 0.11406493186950684 0.012899001128971577 0.7877421975135803 78 84 86 2.7 79 140 80 133 81 119 82 120 87 69 88 93 89 93 90 90 
141 -0.30350953340530396 -0.30416491627693176 0.6730212569236755 87 77 74 2.74 79 141 80 134 81 120 82 121 83 119 87 70 88 94 89 94 90 91 91 88 92 76 93 78 94 78 95 73 96 62 
142 -0.21346300840377808 -0.1711539477109909 0.6791070699691772 44 43 58 1.61 79 142 80 135 81 121 82 122 83 120 84 87 85 89 86 79 87 71 88 95 89 95 90 92 91 89 92 77 93 79 94 79 95 74 96 63 
143 -0.33213597536087036 -0.30391234159469604 0.6604458689689636 94 77 71 2.64 79 143 80 136 81 122 82 123 83 121 88 96 89 96 90 93 91 90 92 78 93 80 94 80 95 75 96 64 
144 -0.24881009757518768 -0.14096425473690033 0.6596292853355408 72 70 81 2.01 79 144 80 137 81 123 82 124 83 122 85 90 86 80 87 72 88 97 89 97 90 94 91 91 92 79 93 81 94 81 95 76 96 65 
145 0.13091270625591278 -0.16287703812122345 0.8259661793708801 172 186 203 2.67 79 145 80 138 81 124 82 125 83 123 84 88 85 91 86 81 87 73 88 98 89 98 90 95 91 92 92 80 93 82 94 82 95 77 96 66 
146 -0.20307976007461548 -0.00911327451467514 0.30076533555984497 49 60 17 5.68 79 146 82 126 83 124 
147 -0.0559852309525013 -0.009724101051688194 0.7059109807014465 104 105 110 1.19 79 147 80 139 81 125 82 127 83 125 84 89 85 92 91 93 
148 0.16027776896953583 0.03208736702799797 0.7821381688117981 140 142 142 1.48 79 148 80 140 81 126 87 74 88 99 89 99 
149 -0.08797209709882736 0.1367424577474594 0.6844362020492554 133 145 160 1.35 79 149 80 141 81 127 82 128 83 126 84 90 85 93 86 82 87 75 88 100 
150 -0.13428537547588348 0.12903428077697754 0.6548619270324707 140 164 185 1.65 79 150 80 142 81 128 82 129 83 127 84 91 85 94 86 83 87 76 88 101 89 100 
151 0.4041685163974762 -0.20629765093326569 0.9301090240478516 173 171 176 1.42 79 151 80 143 81 129 84 92 85 95 86 84 87 77 88 102 89 101 90 96 91 94 92 81 93 83 94 83 95 78 96 67 
152 -0.23557958006858826 -0.10635842382907867 0.3561317026615143 104 121 76 62.73 79 152 88 103 92 82 
153 -0.316443532705307 0.11335663497447968 0.6092888712882996 135 151 170 1.85 79 153 80 144 82 130 83 128 88 104 89 102 90 97 
154 -0.14533470571041107 -6.953610864002258e-05 0.6729499697685242 83 69 71 0.54 79 154 80 145 81 130 82 131 83 129 84 93 85 96 86 85 
155 0.11570081859827042 -0.12266987562179565 0.8142715096473694 57 54 50 2.28 79 155 80 146 81 131 82 132 84 94 85 97 86 86 87 78 88 105 89 103 90 98 91 95 92 83 93 84 94 84 95 79 96 68 
156 0.18318893015384674 0.0768129900097847 0.7796029448509216 112 111 104 4.43 79 156 80 147 81 132 83 130 84 95 87 79 88 106 
157 0.29895883798599243 0.01770493946969509 0.5389129519462585 82 92 51 4.34 79 157 80 148 81 133 84 96 88 107 89 104 90 99 91 96 93 85 94 85 
158 -0.07024028897285461 -0.27947235107421875 0.7558655142784119 115 90 92 1.89 79 158 80 149 81 134 82 133 83 131 84 97 85 98 86 87 87 80 88 108 89 105 90 100 91 97 92 84 93 86 94 86 95 80 96 69 97 18 
159 0.34621068835258484 0.07193782180547714 0.5838369727134705 129 135 135 3.58 79 159 80 150 81 135 84 98 91 98 
160 -0.15173359215259552 0.1256932020187378 0.6379194259643555 121 116 118 1.67 79 160 80 151 81 136 82 134 83 132 84 99 85 99 86 88 87 81 89 106 
161 -0.1905723512172699 0.00859004445374012 0.2868814468383789 132 139 52 7.54 79 161 82 135 83 133 
162 0.5090141296386719 -0.28089022636413574 0.9959700107574463 127 110 109 1.38 79 162 80 152 81 137 84 100 85 100 86 89 87 82 88 109 89 107 90 101 91 99 92 85 93 87 94 87 95 81 96 70 
163 0.3373790979385376 -0.2648785412311554 0.9212384819984436 33 26 28 1.87 79 163 80 153 81 138 84 101 85 101 86 90 87 83 88 110 89 108 90 102 91 100 92 86 93 88 94 88 95 82 96 71 97 19 
164 0.15458795428276062 -0.2751200497150421 0.8442220091819763 159 160 163 1.32 79 164 80 154 81 139 82 136 84 102 85 102 86 91 87 84 88 111 89 109 90 103 91 101 92 87 93 89 94 89 95 83 96 72 
165 -0.264385849237442 -0.30065661668777466 0.6860573887825012 117 112 112 2.01 79 165 80 155 81 140 82 137 83 134 85 103 86 92 87 85 88 112 89 110 90 104 91 102 92 88 93 90 94 90 95 84 96 73 
166 -0.31798604130744934 -0.1800696700811386 0.6572899222373962 46 52 53 2.94 79 166 80 156 81 141 82 138 83 135 88 113 89 111 90 105 91 103 92 89 93 91 94 91 95 85 96 74 
167 -0.04592772200703621 0.04782677814364433 0.699533998966217 87 75 77 0.54 79 167 80 157 81 142 82 139 83 136 84 103 85 104 86 93 
168 -0.06572234630584717 0.0579969622194767 0.7067937254905701 141 152 168 1.12 79 168 80 158 81 143 82 140 83 137 84 104 85 105 
169 -0.317358136177063 -0.27988383173942566 0.6635106801986694 55 49 48 2.74 79 169 80 159 81 144 82 141 83 138 88 114 89 112 90 106 91 104 92 90 93 92 94 92 95 86 96 75 
170 -0.18999385833740234 -0.17156286537647247 0.6882221102714539 63 60 70 1.51 79 170 80 160 81 145 82 142 83 139 84 105 85 106 86 94 87 86 88 115 89 113 90 107 91 105 92 91 93 93 94 93 95 87 96 76 
171 -0.3482082188129425 -0.15160918235778809 0.6434179544448853 72 111 140 3.45 79 171 80 161 82 143 83 140 88 116 89 114 91 106 92 92 93 94 94 94 95 88 96 77 
172 -0.08027298748493195 -0.21037279069423676 0.7530012130737305 116 142 169 1.86 79 172 80 162 81 146 82 144 83 141 84 106 85 107 86 95 87 87 88 117 89 115 90 108 91 107 92 93 93 95 94 95 95 89 96 78 
173 -0.21055063605308533 -0.01106097362935543 0.3348831534385681 169 172 120 8.47 79 173 82 145 83 142 
174 0.18511363863945007 0.013778221793472767 0.5598700642585754 118 125 101 3.89 79 174 80 163 81 147 82 146 83 143 84 107 85 108 87 88 88 118 89 116 90 109 91 108 92 94 93 96 94 96 
175 -0.3043527901172638 -0.15163728594779968 0.6588826179504395 149 158 177 3.01 79 175 80 164 81 148 82 147 83 144 88 119 89 117 90 110 91 109 92 95 93 97 94 97 95 90 96 79 
176 -0.035730473697185516 0.11846433579921722 0.6870771050453186 112 98 99 0.66 79 176 80 165 81 149 82 148 83 145 84 108 85 109 86 96 
177 -0.11369596421718597 0.08952706307172775 0.6816852688789368 99 106 116 0.91 79 177 80 166 81 150 82 149 83 146 84 109 85 110 86 97 87 89 
178 -0.15273401141166687 -0.2385319322347641 0.7257222533226013 132 136 159 3.05 79 178 80 167 81 151 82 150 83 147 84 110 85 111 86 98 87 90 88 120 89 118 90 111 91 110 92 96 93 98 94 98 95 91 96 80 97 20 
179 0.25796812772750854 0.08411508053541183 0.558611273765564 38 34 30 4.4 79 179 80 168 81 152 83 148 84 111 85 112 86 99 87 91 88 121 89 119 90 112 91 111 
180 -0.19972281157970428 -0.2578859031200409 0.7026316523551941 154 148 144 1.44 79 180 80 169 81 153 82 151 83 149 84 112 85 113 86 100 87 92 88 122 89 120 90 113 91 112 92 97 93 99 94 99 95 92 96 81 
181 -0.24015334248542786 0.0929497629404068 0.3904493451118469 64 69 36 2.14 79 181 82 152 83 150 89 121 
182 0.002378881676122546 0.11420037597417831 0.4438334107398987 18 22 14 7.46 79 182 80 170 81 154 82 153 83 151 89 122 91 113 
183 -0.15472209453582764 0.07652103155851364 0.6505118012428284 119 115 119 1.47 79 183 80 171 81 155 82 154 83 152 84 113 85 114 86 101 87 93 
184 -0.270216166973114 -0.29134151339530945 0.6818405389785767 82 72 75 2.13 79 184 80 172 81 156 82 155 83 153 85 115 86 102 87 94 88 123 89 123 90 114 91 114 92 98 93 100 94 100 95 93 96 82 
185 -0.06307300925254822 0.09943240135908127 0.6987799406051636 150 159 171 0.66 79 185 80 173 81 157 82 156 83 154 84 114 85 116 86 103 
186 0.3002631366252899 0.07330316305160522 0.5577677488327026 25 31 19 11.0 79 186 80 174 81 158 84 115 85 117 86 104 87 95 88 124 89 124 90 115 91 115 92 99 93 101 
187 -0.10000301897525787 -0.1262778639793396 0.7316442728042603 163 182 206 1.89 79 187 80 175 81 159 82 157 83 155 84 116 85 118 87 96 88 125 89 125 90 116 91 116 92 100 93 102 94 101 95 94 
188 0.2639371156692505 -0.23777642846107483 0.8860107064247131 150 182 204 1.98 79 188 80 176 81 160 84 117 85 119 86 105 87 97 88 126 89 126 90 117 91 117 92 101 93 103 94 102 95 95 96 83 97 21 
189 0.11271678656339645 0.06177261099219322 0.7784811854362488 119 134 150 2.58 79 189 80 177 88 127 89 127 
190 0.2110915333032608 -0.21152658760547638 0.8487957119941711 55 53 65 2.05 79 190 80 178 81 161 83 156 84 118 85 120 86 106 87 98 88 128 89 128 90 118 91 118 92 102 93 104 94 103 95 96 96 84 97 22 
191 -0.07176198065280914 -0.20955704152584076 0.7500851154327393 107 117 136 1.44 79 191 80 179 81 162 82 158 83 157 84 119 85 121 86 107 87 99 88 129 89 129 90 119 91 119 92 103 93 105 94 104 95 97 96 85 
192 0.1427684724330902 0.08965538442134857 0.7799521684646606 128 137 155 2.83 79 192 80 180 81 163 82 159 87 100 88 130 
193 0.1028972715139389 -0.17487309873104095 0.8185819387435913 64 63 66 2.32 79 193 80 181 81 164 82 160 83 158 84 120 85 122 86 108 87 101 88 131 89 130 90 120 91 120 92 104 93 106 94 105 95 98 96 86 
194 -0.06589328497648239 -0.11605042964220047 0.7303476929664612 65 59 73 2.49 79 194 80 182 81 165 82 161 83 159 84 121 85 123 87 102 88 132 89 131 90 121 91 121 92 105 93 107 94 106 95 99 96 87 
195 0.13135214149951935 -0.1793050318956375 0.8287240266799927 185 201 223 3.22 79 195 80 183 81 166 82 162 83 160 84 122 85 124 86 109 87 103 88 133 89 132 90 122 91 122 92 106 93 108 94 107 95 100 96 88 97 23 
196 0.15503859519958496 0.047782979905605316 0.5455940365791321 62 72 41 3.39 79 196 80 184 81 167 82 163 83 161 84 123 85 125 86 110 87 104 88 134 89 133 90 123 91 123 92 107 
197 -0.18991796672344208 -0.26994726061820984 0.7090491652488708 115 88 87 1.47 79 197 80 185 81 168 82 164 83 162 84 124 85 126 86 111 87 105 88 135 89 134 90 124 91 124 92 108 93 109 94 108 95 101 96 89 
198 0.11159864068031311 -0.1454165130853653 0.8168002963066101 84 101 115 2.3 79 198 80 186 81 169 82 165 84 125 85 127 86 112 87 106 88 136 89 135 90 125 91 125 92 109 93 110 94 109 95 102 96 90 
199 -0.27368369698524475 -0.03629345819354057 0.6297197341918945 135 130 132 0.77 79 199 80 187 81 170 82 166 83 163 
200 -0.24237464368343353 0.0016543010715395212 0.6333464980125427 56 59 59 0.63 79 200 80 188 81 171 82 167 83 164 
201 0.08423293381929398 -0.17551974952220917 0.8111995458602905 68 71 76 2.25 79 201 80 189 81 172 82 168 83 165 84 126 85 128 86 113 87 107 88 137 89 136 90 126 91 126 92 110 93 111 94 110 95 103 96 91 
202 -0.23174899816513062 0.08712296187877655 0.3980115056037903 77 93 18 3.14 79 202 82 169 83 166 89 137 91 127 
203 0.06448586285114288 -0.12284054607152939 0.7867595553398132 58 59 59 2.57 79 203 80 190 81 173 82 170 83 167 84 127 85 129 86 114 87 108 88 138 89 138 90 127 91 128 92 111 93 112 94 111 95 104 96 92 
204 0.08932175487279892 0.010612805373966694 0.7784939408302307 81 85 88 2.65 79 204 80 191 81 174 82 171 87 109 88 139 89 139 90 128 
205 -0.19451786577701569 -0.2923971116542816 0.7117077112197876 116 101 96 1.59 79 205 80 192 81 175 82 172 83 168 84 128 85 130 86 115 87 110 88 140 89 140 90 129 91 129 92 112 93 113 94 112 95 105 96 93 
206 -0.15881451964378357 -0.13075247406959534 0.6916753053665161 155 157 161 1.63 79 206 80 193 81 176 82 173 83 169 84 129 85 131 86 116 87 111 88 141 89 141 90 130 91 130 92 113 93 114 94 113 95 106 96 94 
207 0.24633367359638214 -0.2927919924259186 0.883638858795166 105 86 84 1.49 79 207 80 194 81 177 84 130 85 132 86 117 87 112 88 142 89 142 90 131 91 131 92 114 93 115 94 114 95 107 96 95 
208 -0.1938764452934265 0.007513436954468489 0.3070194721221924 108 120 54 4.0 79 208 82 174 83 170 
209 0.23964691162109375 -0.02281174622476101 0.48991233110427856 74 70 23 6.62 79 209 80 195 81 178 83 171 84 131 85 133 86 118 87 113 88 143 89 143 90 132 91 132 96 96 
210 -0.39203447103500366 -0.21262694895267487 0.6209245324134827 155 157 116 3.56 79 210 82 175 83 172 88 144 89 144 90 133 91 133 92 115 93 116 94 115 95 108 96 97 
211 -0.02687639743089676 -0.20088522136211395 0.7561222314834595 171 171 171 2.14 79 211 80 196 81 179 82 176 83 173 84 132 85 134 86 119 87 114 88 145 89 145 90 134 91 134 92 116 93 117 94 116 95 109 96 98 97 24 
212 0.15097220242023468 -0.09650491178035736 0.8007084131240845 100 102 111 2.01 79 212 80 197 81 180 82 177 85 135 86 120 87 115 88 146 89 146 90 135 91 135 92 117 93 118 94 117 95 110 96 99 97 25 
213 -0.0334312878549099 -0.035486478358507156 0.7188414335250854 135 133 136 1.85 79 213 80 198 81 181 82 178 83 174 84 133 91 136 92 118 93 119 
214 0.5411772727966309 -0.25449544191360474 1.0102887153625488 33 28 31 1.83 79 214 80 199 81 182 84 134 85 136 86 121 87 116 88 147 89 147 90 136 91 137 92 119 93 120 94 118 95 111 96 100 
215 -0.15470845997333527 -0.2742932438850403 0.7256996631622314 58 60 64 2.13 79 215 80 200 81 183 82 179 83 175 84 135 85 137 86 122 87 117 88 148 89 148 90 137 91 138 92 120 93 121 94 119 95 112 96 101 97 26 
216 0.30903303623199463 -0.3021388053894043 0.9118719696998596 87 77 78 1.11 79 216 80 201 81 184 84 136 85 138 86 123 87 118 88 149 89 149 90 138 91 139 92 121 93 122 94 120 95 113 96 102 
217 -0.3148574233055115 -0.023575959727168083 0.6127105355262756 125 112 107 0.79 79 217 80 202 82 180 83 176 
218 0.14222371578216553 0.1042066439986229 0.77698814868927 132 140 152 2.7 79 218 80 203 81 185 82 181 83 177 84 137 87 119 88 150 
219 0.12576526403427124 -0.14181320369243622 0.8218515515327454 54 69 80 2.59 79 219 80 204 81 186 82 182 83 178 84 138 85 139 86 124 87 120 88 151 89 150 90 139 91 140 92 122 93 123 94 121 95 114 96 103 
220 -0.19254398345947266 0.007885313592851162 0.2898503243923187 158 164 87 11.22 79 220 82 183 83 179 
221 -0.19911424815654755 -0.023872626945376396 0.3623873293399811 84 92 52 16.25 79 221 80 205 82 184 83 180 89 151 91 141 
222 -0.061138395220041275 0.09174361824989319 0.6985073089599609 60 59 50 1.1 79 222 80 206 81 187 82 185 83 181 84 139 85 140 86 125 87 121 
223 -0.24225221574306488 -0.03709707036614418 0.35591500997543335 81 89 29 2.46 79 223 82 186 83 182 
224 -0.30626094341278076 -0.21321043372154236 0.6709682941436768 160 182 205 3.42 79 224 80 207 81 188 82 187 83 183 88 152 89 152 90 140 91 142 92 123 93 124 94 122 95 115 96 104 
225 -0.2639180123806 -0.029457494616508484 0.6310592889785767 143 144 147 0.74 79 225 80 208 81 189 82 188 83 184 
226 -0.2926361858844757 0.10157732665538788 0.6188125014305115 122 141 158 0.86 79 226 80 209 81 190 82 189 83 185 88 153 89 153 
227 -0.20096564292907715 -0.023625094443559647 0.35862022638320923 82 84 28 3.27 79 227 82 190 83 186 91 143 
228 -0.19274425506591797 -0.1281779706478119 0.6780281662940979 79 84 93 1.58 79 228 80 210 81 191 82 191 83 187 84 140 85 141 86 126 88 154 90 141 91 144 92 124 93 125 94 123 95 116 96 105 
229 -0.16433727741241455 0.1405155062675476 0.6261453628540039 128 131 122 2.47 79 229 80 211 81 192 82 192 83 188 84 141 85 142 86 127 87 122 88 155 89 154 
230 0.11497586965560913 0.06184360757470131 0.7793723344802856 125 140 156 2.49 79 230 80 212 88 156 89 155 
231 -0.0587511882185936 -0.1826891452074051 0.7410802245140076 103 105 117 1.5 79 231 80 213 81 193 82 193 83 189 84 142 85 143 86 128 87 123 88 157 89 156 90 142 91 145 92 125 93 126 94 124 95 117 96 106 
232 0.4012987017631531 0.07126176357269287 0.6196192502975464 33 45 25 6.72 79 232 80 214 81 194 84 143 85 144 86 129 87 124 88 158 89 157 90 143 91 146 92 126 93 127 94 125 
233 0.10407201945781708 -0.12873870134353638 0.8103594183921814 77 107 124 2.27 79 233 80 215 81 195 82 194 84 144 86 130 87 125 88 159 89 158 90 144 91 147 92 127 93 128 94 126 95 118 96 107 
234 -0.11558269709348679 0.05686038359999657 0.6930254101753235 154 172 187 0.43 79 234 80 216 81 196 82 195 83 190 84 145 85 145 
235 -0.3683846890926361 -0.17696940898895264 0.6211037635803223 138 135 129 3.28 79 235 82 196 83 191 88 160 89 159 90 145 91 148 92 128 93 129 94 127 95 119 96 108 
236 -0.18389932811260223 -0.08481311798095703 0.6727690100669861 159 157 151 1.79 79 236 80 217 81 197 82 197 83 192 84 146 85 146 86 131 93 130 94 128 95 120 
237 0.12528137862682343 -0.12781955301761627 0.8187025189399719 72 94 107 2.31 79 237 80 218 81 198 82 198 84 147 85 147 86 132 87 126 88 161 89 160 90 146 91 149 92 129 93 131 94 129 95 121 96 109 
238 -0.28461727499961853 -0.2683476209640503 0.6850987672805786 79 82 84 3.05 79 238 80 219 81 199 82 199 83 193 85 148 86 133 87 127 88 162 89 161 90 147 91 150 92 130 93 132 94 130 95 122 96 110 
239 -0.06739357858896255 0.07126612961292267 0.7040536999702454 77 95 94 1.06 79 239 80 220 81 200 82 200 83 194 84 148 85 149 86 134 
240 0.08279954642057419 -0.11795978248119354 0.7974717020988464 166 186 209 2.1 79 240 80 221 81 201 82 201 85 150 87 128 88 163 89 162 90 148 91 151 92 131 93 133 94 131 95 123 
241 0.195699080824852 0.05832548812031746 0.5919033288955688 139 138 140 13.48 79 241 80 222 81 202 82 202 83 195 84 149 85 151 86 135 88 164 89 163 90 149 91 152 92 132 93 134 
242 0.35760897397994995 0.12496528774499893 0.549857497215271 63 89 55 4.4 79 242 80 223 81 203 84 150 85 152 89 164 90 150 91 153 
243 -0.09006286412477493 0.057500820606946945 0.7007876634597778 153 172 187 1.48 79 243 80 224 81 204 82 203 83 196 84 151 85 153 
244 -0.0684691071510315 -0.10194050520658493 0.7155243158340454 95 94 98 1.56 79 244 80 225 81 205 82 204 83 197 84 152 85 154 87 129 88 165 89 165 90 151 91 154 92 133 93 135 94 132 95 124 
245 -0.328335702419281 -0.130954310297966 0.6458340287208557 198 222 232 2.59 79 245 80 226 81 206 82 205 83 198 89 166 90 152 91 155 92 134 93 136 94 133 95 125 
246 -0.21772059798240662 -0.050132136791944504 0.652869701385498 153 151 147 1.58 79 246 80 227 81 207 82 206 83 199 85 155 86 136 93 137 94 134 
247 -0.3317098617553711 -0.1344285011291504 0.6455308198928833 103 112 116 2.75 79 247 80 228 81 208 82 207 83 200 89 167 90 153 91 156 92 135 93 138 94 135 95 126 
248 -0.250923216342926 0.14185258746147156 0.39564621448516846 30 38 18 3.3 79 248 82 208 83 201 89 168 
249 -0.22248534858226776 0.13528147339820862 0.6028590202331543 123 120 109 2.74 79 249 80 229 81 209 82 209 83 202 88 166 89 169 90 154 
250 -0.27461037039756775 -0.27892324328422546 0.6788790822029114 56 48 48 2.01 79 250 80 230 81 210 82 210 83 203 85 156 86 137 87 130 88 167 89 170 90 155 91 157 92 136 93 139 94 136 95 127 96 111 
251 0.12507179379463196 -0.12313047051429749 0.8173372745513916 44 43 42 2.24 79 251 80 231 81 211 82 211 84 153 85 157 86 138 87 131 88 168 89 171 90 156 91 158 92 137 93 140 94 137 95 128 96 112 
252 0.2782575488090515 -0.01913604512810707 0.4991271495819092 31 41 20 3.15 79 252 80 232 81 212 84 154 88 169 89 172 90 157 91 159 
253 -0.3555150628089905 -0.24518199265003204 0.6439282894134521 48 48 52 2.83 79 253 80 233 82 212 83 204 88 170 89 173 90 158 91 160 92 138 93 141 94 138 95 129 96 113 
254 -0.3472903370857239 0.08176561444997787 0.5748968124389648 101 93 91 2.68 79 254 82 213 83 205 88 171 89 174 90 159 91 161 
255 0.06467191874980927 -0.27040040493011475 0.8159891963005066 46 41 45 2.96 79 255 80 234 81 213 82 214 83 206 84 155 85 158 86 139 87 132 88 172 89 175 90 160 91 162 92 139 93 142 94 139 95 130 96 114 97 27 
256 -0.19299472868442535 0.0033385951537638903 0.3096452057361603 90 104 75 4.8 79 256 82 215 83 207 
257 -0.13114146888256073 -0.18120314180850983 0.7269358038902283 85 99 113 1.64 79 257 80 235 81 214 82 216 83 208 84 156 85 159 86 140 87 133 88 173 89 176 90 161 91 163 92 140 93 143 94 140 95 131 
258 0.20651303231716156 0.02678213268518448 0.5437026023864746 51 61 44 3.93 79 258 80 236 81 215 83 209 84 157 85 160 86 141 88 174 89 177 90 162 91 164 92 141 93 144 94 141 
259 0.13198794424533844 -0.20524898171424866 0.8327123522758484 171 179 198 2.78 79 259 80 237 81 216 82 217 83 210 84 158 85 161 86 142 87 134 88 175 89 178 90 163 91 165 92 142 93 145 94 142 95 132 96 115 97 28 
260 -0.2309020757675171 -0.028616242110729218 0.34761232137680054 40 54 16 4.85 79 260 82 218 83 211 91 166 
261 -0.0946543887257576 0.030886337161064148 0.7064938545227051 77 93 99 0.93 79 261 80 238 81 217 82 219 83 212 84 159 85 162 86 143 
262 -0.3516881465911865 -0.24221280217170715 0.6598635911941528 77 104 122 3.94 79 262 80 239 82 220 83 213 88 176 89 179 90 164 91 167 92 143 93 146 94 143 95 133 96 116 
263 -0.06658683717250824 -0.15365859866142273 0.7380890846252441 62 52 64 1.73 79 263 80 240 81 218 82 221 83 214 84 160 85 163 86 144 88 177 89 180 90 165 91 168 92 144 93 147 94 144 95 134 96 117 
264 0.24348750710487366 -0.20608502626419067 0.8649933338165283 117 71 67 2.45 79 264 80 241 81 219 83 215 84 161 85 164 86 145 87 135 88 178 89 181 90 166 91 169 92 145 93 148 94 145 95 135 96 118 97 29 
265 -0.33731719851493835 0.11090787500143051 0.596146285533905 115 142 168 0.96 79 265 80 242 82 222 83 216 88 179 89 182 90 167 
266 0.0837356448173523 -0.14799340069293976 0.8064470291137695 162 180 202 3.09 79 266 80 243 81 220 82 223 86 146 87 136 88 180 89 183 90 168 91 170 92 146 93 149 94 146 95 136 96 119 
267 0.10214750468730927 -0.14467903971672058 0.812650740146637 62 82 96 2.54 79 267 80 244 81 221 82 224 84 162 86 147 87 137 88 181 89 184 90 169 91 171 92 147 93 150 94 147 95 137 96 120 
268 -0.26899904012680054 -0.11786872148513794 0.6517525315284729 41 37 46 2.4 79 268 80 245 81 222 82 225 83 217 88 182 89 185 90 170 91 172 92 148 93 151 94 148 95 138 96 121 
269 -0.14642244577407837 -0.11436055600643158 0.6956617832183838 94 95 112 2.39 79 269 80 246 81 223 82 226 83 218 84 163 85 165 86 148 89 186 90 171 91 173 92 149 93 152 94 149 95 139 96 122 
270 -0.22162827849388123 0.13540133833885193 0.5961204171180725 61 85 37 2.4 79 270 80 247 81 224 82 227 83 219 88 183 89 187 90 172 
271 0.10532336682081223 -0.17743173241615295 0.8200496435165405 154 177 200 2.21 79 271 80 248 81 225 82 228 83 220 84 164 85 166 86 149 87 138 88 184 89 188 90 173 91 174 92 150 93 153 94 150 95 140 96 123 
272 0.2199150025844574 0.04236569628119469 0.5158900022506714 52 51 44 2.96 79 272 80 249 81 226 83 221 84 165 85 167 86 150 88 185 89 189 90 174 91 175 92 151 93 154 94 151 
273 -0.3007314205169678 -0.17976543307304382 0.6628147959709167 42 47 49 3.07 79 273 80 250 81 227 82 229 83 222 88 186 89 190 90 175 91 176 92 152 93 155 94 152 95 141 96 124 
274 0.18157823383808136 0.06496348232030869 0.5933388471603394 96 93 84 6.48 79 274 80 251 81 228 82 230 83 223 84 166 85 168 86 151 87 139 88 187 89 191 90 176 91 177 92 153 
275 -0.18529796600341797 -0.01448991522192955 0.6581135988235474 143 143 142 0.42 79 275 80 252 81 229 82 231 83 224 84 167 85 169 86 152 
276 -0.24639306962490082 -0.11406250298023224 0.3620099127292633 143 157 124 65.97 79 276 88 188 90 177 92 154 
277 0.0704820528626442 -0.1810312271118164 0.8060612082481384 164 186 204 1.87 79 277 80 253 81 230 82 232 83 225 84 168 85 170 86 153 87 140 88 189 89 192 90 178 91 178 92 155 93 156 94 153 95 142 96 125 
278 -0.2424004077911377 -0.0528501532971859 0.3505037724971771 74 97 56 1.54 79 278 82 233 83 226 
279 0.14117777347564697 0.15586347877979279 0.43792295455932617 20 26 23 5.99 79 279 80 254 81 231 82 234 83 227 
280 0.20542623102664948 -0.3075597584247589 0.8639370203018188 53 54 58 2.56 79 280 80 255 81 232 84 169 85 171 86 154 87 141 88 190 89 193 90 179 91 179 92 156 93 157 94 154 95 143 96 126 97 30 
281 0.1148534044623375 -0.17830753326416016 0.8241034150123596 192 210 231 2.22 79 281 80 256 81 233 82 235 83 228 84 170 85 172 86 155 87 142 88 191 89 194 90 180 91 180 92 157 93 158 94 155 95 144 96 127 
282 0.13344858586788177 -0.17681273818016052 0.8276810050010681 174 187 207 2.91 79 282 80 257 81 234 82 236 83 229 84 171 85 173 86 156 87 143 88 192 89 195 90 181 91 181 92 158 93 159 94 156 95 145 96 128 97 31 
283 -0.3801719546318054 -0.1669345200061798 0.6154502630233765 57 54 62 3.35 79 283 82 237 83 230 88 193 89 196 90 182 91 182 92 159 93 160 94 157 95 146 96 129 
284 -0.3305203318595886 -0.21360453963279724 0.6608064770698547 108 122 135 3.02 79 284 80 258 81 235 82 238 83 231 88 194 89 197 90 183 91 183 92 160 93 161 94 158 95 147 96 130 
285 -0.12012481689453125 -0.17856399714946747 0.7324470281600952 64 78 88 2.12 79 285 80 259 81 236 82 239 83 232 84 172 85 174 86 157 87 144 88 195 89 198 90 184 91 184 92 161 93 162 94 159 95 148 
286 0.25419163703918457 0.10715457051992416 0.567225456237793 36 39 33 3.19 79 286 80 260 81 237 83 233 84 173 85 175 86 158 87 145 88 196 89 199 90 185 91 185 
287 -0.08087600022554398 -0.13169892132282257 0.7396030426025391 108 160 190 3.03 79 287 80 261 81 238 82 240 83 234 84 174 85 176 86 159 87 146 88 197 89 200 90 186 91 186 92 162 93 163 94 160 95 149 
288 0.23960404098033905 -0.18831396102905273 0.8595518469810486 63 69 82 1.98 79 288 80 262 81 239 83 235 84 175 85 177 86 160 87 147 88 198 89 201 90 187 91 187 92 163 93 164 94 161 95 150 96 131 97 32 
289 -0.22638094425201416 -0.31722402572631836 0.7019470930099487 36 30 31 2.0 79 289 80 263 81 240 82 241 83 236 84 176 85 178 86 161 87 148 88 199 89 202 90 188 91 188 92 164 93 165 94 162 95 151 96 132 
290 0.3624856173992157 -0.23456218838691711 0.9210695028305054 156 155 159 1.35 79 290 80 264 81 241 84 177 85 179 86 162 87 149 88 200 89 203 90 189 91 189 92 165 93 166 94 163 95 152 96 133 
291 -0.2738202214241028 -0.18113349378108978 0.6678742170333862 59 56 69 2.84 79 291 80 265 81 242 82 242 83 237 85 180 87 150 88 201 89 204 90 190 91 190 92 166 93 167 94 164 95 153 96 134 
292 0.13543179631233215 0.1509285569190979 0.4273456335067749 43 56 55 3.23 79 292 80 266 81 243 82 243 83 238 
293 0.11673104017972946 0.13576626777648926 0.7630717158317566 114 126 139 1.58 79 293 80 267 81 244 82 244 83 239 84 178 85 181 86 163 
294 0.13777665793895721 0.06252730637788773 0.787952184677124 97 105 118 1.75 79 294 80 268 84 179 88 202 
295 -0.31455937027931213 -0.12649521231651306 0.6501951217651367 165 185 195 2.44 79 295 80 269 81 245 82 245 83 240 89 205 90 191 91 191 92 167 93 168 94 165 
296 -0.19871538877487183 -0.054363228380680084 0.6608781218528748 147 143 139 1.39 79 296 80 270 81 246 82 246 83 241 84 180 85 182 86 164 93 169 94 166 
297 -0.32265177369117737 -0.030233727768063545 0.6116145253181458 126 118 119 0.9 79 297 80 271 82 247 83 242 
298 -0.21742378175258636 -0.1532841920852661 0.6741164922714233 78 84 96 1.68 79 298 80 272 81 247 82 248 83 243 84 181 85 183 86 165 87 151 88 203 89 206 90 192 91 192 92 168 93 170 94 167 95 154 96 135 
299 0.08907047659158707 -4.50081643066369e-05 0.7762913703918457 44 40 34 3.28 79 299 80 273 81 248 82 249 87 152 88 204 89 207 90 193 92 169 
300 0.06425792723894119 -0.20431730151176453 0.8108789920806885 55 69 81 2.89 79 300 80 274 81 249 82 250 83 244 84 182 85 184 86 166 87 153 88 205 89 208 90 194 91 193 92 170 93 171 94 168 95 155 96 136 
301 -0.25238028168678284 0.1395544856786728 0.3862887918949127 31 39 18 3.04 79 301 82 251 83 245 89 209 
302 -0.019613321870565414 0.0038667661137878895 0.7162591218948364 153 147 146 1.12 79 302 80 275 81 250 82 252 83 246 84 183 85 185 91 194 
303 -0.060926806181669235 -0.10241034626960754 0.7188299298286438 114 115 121 1.66 79 303 80 276 81 251 82 253 83 247 84 184 85 186 87 154 88 206 89 210 90 195 91 195 92 171 93 172 94 169 95 156 96 137 
304 -0.08884797990322113 0.10404092073440552 0.6912858486175537 129 149 162 0.36 79 304 80 277 81 252 82 254 83 248 84 185 85 187 86 167 87 155 
305 -0.16175872087478638 -0.0018916702829301357 0.6648592352867126 146 148 150 0.34 79 305 80 278 81 253 82 255 83 249 84 186 85 188 86 168 
306 -0.08975204825401306 -0.03831322863698006 0.6984609365463257 113 100 104 1.39 79 306 80 279 81 254 82 256 83 250 84 187 85 189 92 172 93 173 
307 -0.3454378843307495 0.04504292458295822 0.6105116605758667 138 154 178 1.46 79 307 80 280 82 257 83 251 88 207 
308 -0.30797019600868225 0.11391957104206085 0.612307608127594 123 138 154 0.81 79 308 80 281 82 258 83 252 88 208 
309 0.6138592958450317 -0.02696378156542778 0.9851958751678467 149 144 146 4.59 79 309 80 282 81 255 84 188 85 190 86 169 87 156 88 209 89 211 90 196 91 196 92 173 93 174 94 170 95 157 96 138 97 33 99 0 
310 0.08039987832307816 -0.20816168189048767 0.8172640204429626 158 176 196 2.3 79 310 80 283 81 256 82 259 83 253 84 189 85 191 86 170 87 157 88 210 89 212 90 197 91 197 92 174 93 175 94 171 95 158 96 139 
311 -0.17294640839099884 -0.03107251040637493 0.6659697890281677 156 155 155 0.47 79 311 80 284 81 257 82 260 83 254 84 190 85 192 86 171 
312 -0.34789204597473145 0.08033047616481781 0.575893223285675 147 141 125 2.73 79 312 82 261 83 255 88 211 89 213 90 198 91 198 
313 0.5650473237037659 -0.17776010930538177 0.998816967010498 112 98 101 1.75 79 313 80 285 81 258 84 191 85 193 86 172 87 158 88 212 89 214 90 199 91 199 92 175 93 176 94 172 95 159 96 140 
314 -0.31813085079193115 -0.03718481957912445 0.6158082485198975 116 103 102 0.89 79 314 80 286 82 262 83 256 
315 0.13054904341697693 -0.2685154378414154 0.8380280137062073 40 37 43 2.28 79 315 80 287 81 259 82 263 83 257 84 192 85 194 86 173 87 159 88 213 89 215 90 200 91 200 92 176 93 177 94 173 95 160 96 141 97 34 
316 0.36691537499427795 0.08223862200975418 0.5888998508453369 70 64 60 4.52 79 316 80 288 81 260 84 193 85 195 89 216 90 201 91 201 92 177 93 178 94 174 
317 0.3342505991458893 -0.2870539426803589 0.9195486903190613 105 73 72 0.97 79 317 80 289 81 261 84 194 85 196 86 174 87 160 88 214 89 217 90 202 91 202 92 178 93 179 94 175 95 161 96 142 
318 0.2672944664955139 0.060500405728816986 0.5451088547706604 113 125 117 2.01 79 318 80 290 85 197 86 175 87 161 88 215 89 218 90 203 91 203 92 179 93 180 
319 0.5451055765151978 -0.2640198767185211 1.0113495588302612 87 74 78 1.2 79 319 80 291 81 262 84 195 85 198 86 176 87 162 88 216 89 219 90 204 91 204 92 180 93 181 94 176 95 162 96 143 
320 0.7107820510864258 0.15601836144924164 0.7641342878341675 43 55 39 4.43 88 217 89 220 90 205 91 205 92 181 93 182 94 177 95 163 96 144 
321 -0.546612024307251 -0.03021548129618168 0.519458532333374 96 93 94 8.8 82 264 83 258 88 218 89 221 90 206 93 183 
322 -0.5414520502090454 -0.040477827191352844 0.523070752620697 91 89 89 8.3 82 265 83 259 88 219 89 222 90 207 93 184 
323 0.3147534430027008 -0.16931046545505524 0.9058743119239807 75 84 98 1.68 79 320 80 292 81 263 84 196 85 199 86 177 87 163 88 220 89 223 90 208 91 206 92 182 93 185 94 178 95 164 
324 -0.21934214234352112 -0.2198396623134613 0.688616931438446 157 159 156 1.82 79 321 80 293 81 264 82 266 83 260 84 197 85 200 86 178 87 164 88 221 89 224 90 209 91 207 92 183 93 186 94 179 95 165 96 145 
325 0.5676443576812744 -0.12818288803100586 0.9919502139091492 152 153 154 1.54 79 322 80 294 81 265 84 198 85 201 86 179 87 165 88 222 89 225 90 210 91 208 92 184 93 187 94 180 95 166 96 146 
326 0.6428648233413696 0.0047957561910152435 0.9928781986236572 125 125 131 2.26 80 295 81 266 84 199 85 202 86 180 87 166 88 223 89 226 90 211 91 209 92 185 93 188 94 181 95 167 96 147 97 35 99 1 
327 -0.11601175367832184 -0.2983255088329315 0.7474494576454163 112 103 100 1.93 79 323 80 296 81 267 82 267 83 261 84 200 85 203 86 181 87 167 88 224 89 227 90 212 91 210 92 186 93 189 94 182 95 168 
328 0.4746898114681244 0.1636059731245041 0.5169512629508972 26 36 26 0.5 89 228 90 213 91 211 
329 0.3788011372089386 -0.2627898156642914 0.938416600227356 152 154 155 1.32 79 324 80 297 81 268 84 201 85 204 86 182 87 168 88 225 89 229 90 214 91 212 92 187 93 190 94 183 95 169 96 148 
330 0.6168228983879089 -0.06979496777057648 0.9981533885002136 138 134 133 1.88 79 325 80 298 81 269 84 202 85 205 86 183 87 169 88 226 89 230 90 215 91 213 92 188 93 191 94 184 95 170 96 149 97 36 
331 0.5951705574989319 0.035726215690374374 0.9646560549736023 72 73 79 2.65 87 170 88 227 89 231 90 216 91 214 92 189 93 192 94 185 95 171 96 150 97 37 
332 0.14518070220947266 -0.2862004041671753 0.8453130125999451 128 121 115 1.76 79 326 80 299 81 270 82 268 84 203 85 206 86 184 87 171 88 228 89 232 90 217 91 215 92 190 93 193 94 186 95 172 96 151 
333 0.5143260955810547 0.17987927794456482 0.5670984387397766 24 39 31 3.89 89 233 90 218 91 216 92 191 
334 0.21302716434001923 -0.21822501718997955 0.853025496006012 45 45 58 1.72 79 327 80 300 81 271 83 262 84 204 85 207 86 185 87 172 88 229 89 234 90 219 91 217 92 192 93 194 94 187 95 173 96 152 97 38 
335 0.2960219085216522 0.07467146962881088 0.5580209493637085 80 68 54 3.26 86 186 87 173 88 230 89 235 90 220 91 218 92 193 
336 0.7308229207992554 0.1695808321237564 0.734983503818512 28 31 19 3.47 88 231 89 236 90 221 91 219 92 194 93 195 94 188 95 174 
337 -0.28993716835975647 -0.2072976678609848 0.6679742336273193 126 126 124 3.39 79 328 80 301 81 272 82 269 83 263 85 208 87 174 88 232 89 237 90 222 91 220 92 195 93 196 94 189 95 175 96 153 
338 0.2637186348438263 -0.1723177134990692 0.8795590996742249 49 46 54 1.67 79 329 80 302 81 273 84 205 85 209 86 187 87 175 88 233 89 238 90 223 91 221 92 196 93 197 94 190 95 176 96 154 97 39 
339 0.5464706420898438 -0.06291871517896652 0.9667875170707703 149 148 147 1.99 80 303 81 274 84 206 85 210 86 188 87 176 88 234 89 239 90 224 91 222 92 197 93 198 94 191 95 177 96 155 97 40 
340 0.5759367346763611 -0.26874440908432007 1.319847583770752 104 124 112 1.26 88 235 89 240 90 225 91 223 92 198 93 199 
341 0.30174705386161804 0.010801845230162144 0.5774780511856079 71 64 44 1.31 79 330 86 189 87 177 88 236 89 241 90 226 91 224 92 199 93 200 94 192 
342 0.6680446863174438 -0.1772754192352295 1.3147506713867188 83 93 76 6.73 87 178 88 237 89 242 90 227 91 225 92 200 93 201 
343 0.6207063794136047 -0.03625611588358879 0.9917303323745728 127 123 121 2.13 79 331 80 304 81 275 84 207 85 211 86 190 87 179 88 238 89 243 90 228 91 226 92 201 93 202 94 193 95 178 96 156 97 41 99 2 
344 0.6516310572624207 0.045222584158182144 0.9899731874465942 119 119 121 2.45 86 191 87 180 88 239 89 244 90 229 91 227 92 202 93 203 94 194 95 179 96 157 
345 0.25727635622024536 0.03140021115541458 0.5039695501327515 44 50 30 8.19 79 332 80 305 81 276 84 208 85 212 86 192 87 181 88 240 89 245 90 230 91 228 
346 0.5618156790733337 0.07182489335536957 0.9514750242233276 111 126 149 2.65 88 241 89 246 90 231 91 229 92 203 93 204 94 195 95 180 
347 0.3706211745738983 0.11499637365341187 0.5576653480529785 32 44 29 4.48 85 213 86 193 87 182 88 242 89 247 90 232 91 230 92 204 
348 0.5565021634101868 -0.08395079523324966 0.9741760492324829 42 36 31 1.95 80 306 81 277 84 209 85 214 86 194 87 183 88 243 89 248 90 233 91 231 92 205 93 205 94 196 95 181 96 158 97 42 
349 0.6446006894111633 0.02728329226374626 0.9891719818115234 131 133 140 2.52 86 195 87 184 88 244 89 249 90 234 91 232 92 206 93 206 94 197 95 182 96 159 
350 0.6256310939788818 0.03809485211968422 0.9774669408798218 139 137 136 2.17 87 185 88 245 89 250 90 235 91 233 92 207 93 207 94 198 95 183 96 160 
351 0.31166043877601624 -0.12214291095733643 0.897149920463562 164 205 235 2.24 79 333 81 278 84 210 85 215 86 196 87 186 88 246 89 251 90 236 91 234 92 208 93 208 94 199 95 184 96 161 
352 0.5473999381065369 -0.13004329800605774 0.9941609501838684 164 173 194 2.27 79 334 80 307 81 279 84 211 85 216 86 197 87 187 88 247 89 252 90 237 91 235 92 209 93 209 94 200 95 185 96 162 
353 0.18132705986499786 0.011934525333344936 0.7919155955314636 142 145 142 1.48 79 335 80 308 86 198 87 188 88 248 89 253 90 238 92 210 96 163 
354 0.6478886008262634 -0.0306226946413517 1.0046964883804321 133 130 129 1.86 79 336 80 309 81 280 84 212 85 217 86 199 87 189 88 249 89 254 90 239 91 236 92 211 93 210 94 201 95 186 96 164 97 43 99 3 
355 0.719891369342804 0.14296473562717438 0.7216855883598328 29 36 26 3.13 87 190 88 250 89 255 90 240 91 237 92 212 93 211 94 202 95 187 
356 0.28788405656814575 0.05555489659309387 0.5708699226379395 40 43 42 6.82 79 337 80 310 85 218 86 200 87 191 88 251 89 256 90 241 91 238 92 213 93 212 94 203 
357 0.4590533375740051 -0.18648892641067505 0.9553834795951843 160 160 160 1.18 79 338 80 311 81 281 84 213 85 219 86 201 87 192 88 252 89 257 90 242 91 239 92 214 93 213 94 204 95 188 96 165 
358 -0.3420153558254242 -0.2135605663061142 0.6593763828277588 118 135 149 3.21 79 339 80 312 81 282 82 270 83 264 88 253 89 258 90 243 91 240 92 215 93 214 94 205 95 189 96 166 
359 -0.35487839579582214 -0.18528659641742706 0.6398127675056458 84 75 83 2.64 79 340 80 313 82 271 83 265 88 254 89 259 90 244 91 241 92 216 93 215 94 206 95 190 96 167 
360 0.650546133518219 0.07938360422849655 0.6607531309127808 27 34 33 1.79 87 193 88 255 89 260 90 245 91 242 92 217 93 216 94 207 
361 0.3367463946342468 -0.027147993445396423 0.8661404252052307 137 137 139 1.48 84 214 85 220 86 202 87 194 88 256 89 261 90 246 91 243 92 218 93 217 94 208 95 191 96 168 
362 0.42631804943084717 -0.25347593426704407 0.9552960991859436 151 150 152 1.23 79 341 80 314 81 283 84 215 85 221 86 203 87 195 88 257 89 262 90 247 91 244 92 219 93 218 94 209 95 192 
363 0.6062589883804321 -0.20557548105716705 1.02400803565979 145 141 139 0.93 79 342 80 315 81 284 84 216 85 222 86 204 87 196 88 258 89 263 90 248 91 245 92 220 93 219 94 210 95 193 96 169 
364 0.2874632775783539 0.045341845601797104 0.5440850257873535 75 88 83 5.53 79 343 80 316 81 285 84 217 85 223 86 205 87 197 88 259 89 264 90 249 91 246 92 221 93 220 94 211 
365 0.5889803767204285 -0.12029129266738892 0.9975438117980957 97 95 102 1.59 79 344 80 317 81 286 84 218 85 224 86 206 87 198 88 260 89 265 90 250 91 247 92 222 93 221 94 212 95 194 96 170 
366 -0.3413045108318329 -0.24129243195056915 0.6651489734649658 112 131 146 2.36 79 345 80 318 81 287 82 272 83 266 88 261 89 266 90 251 91 248 92 223 93 222 94 213 95 195 
367 0.21701578795909882 -0.1535615772008896 0.838529109954834 49 52 66 1.48 79 346 80 319 81 288 83 267 84 219 85 225 86 207 87 199 88 262 89 267 90 252 91 249 92 224 93 223 94 214 95 196 96 171 97 44 
368 0.25926703214645386 -0.043789658695459366 0.6568077802658081 109 125 109 2.72 85 226 86 208 87 200 88 263 89 268 90 253 91 250 92 225 93 224 94 215 95 197 
369 0.32373592257499695 0.02631712146103382 0.6037415862083435 95 105 71 7.06 79 347 80 320 81 289 84 220 85 227 86 209 87 201 88 264 89 269 90 254 91 251 92 226 93 225 94 216 
370 -0.4289337396621704 -0.31492048501968384 0.6181774139404297 22 23 26 2.25 82 273 83 268 88 265 89 270 90 255 91 252 92 227 93 226 94 217 95 198 96 172 
371 0.28696680068969727 -0.2913048267364502 0.9041623473167419 101 94 97 1.34 79 348 80 321 81 290 84 221 85 228 86 210 87 202 88 266 89 271 90 256 91 253 92 228 93 227 94 218 95 199 
372 0.30889278650283813 -0.2838829755783081 0.9117503762245178 113 91 89 1.42 79 349 80 322 81 291 84 222 85 229 86 211 87 203 88 267 89 272 90 257 91 254 92 229 93 228 94 219 95 200 96 173 
373 0.11674617230892181 -0.2033577263355255 0.8326675295829773 82 100 114 3.8 79 350 80 323 81 292 82 274 83 269 84 223 85 230 86 212 87 204 88 268 89 273 90 258 91 255 92 230 93 229 94 220 95 201 96 174 
374 0.2613782286643982 -0.2286762148141861 0.8987518548965454 122 142 159 1.63 79 351 80 324 81 293 84 224 85 231 86 213 87 205 88 269 89 274 90 259 91 256 92 231 93 230 94 221 95 202 96 175 
375 0.35904625058174133 -0.09193029999732971 0.8887019157409668 105 104 110 1.56 81 294 84 225 85 232 86 214 87 206 88 270 89 275 90 260 91 257 92 232 93 231 94 222 95 203 96 176 97 45 
376 0.1497775763273239 -0.09370061755180359 0.8023467659950256 72 72 80 1.46 79 352 80 325 81 295 82 275 85 233 86 215 87 207 88 271 89 276 90 261 91 258 92 233 93 232 94 223 95 204 96 177 
377 0.4657214283943176 -0.2254222333431244 0.9807829260826111 135 149 166 1.5 79 353 80 326 81 296 84 226 85 234 86 216 87 208 88 272 89 277 90 262 91 259 92 234 93 233 94 224 95 205 96 178 
378 0.2538621127605438 -0.021250644698739052 0.6580920815467834 122 124 122 1.71 85 235 86 217 87 209 88 273 89 278 90 263 91 260 92 235 93 234 94 225 95 206 
379 -0.08951687812805176 -0.14986476302146912 0.7381096482276917 132 147 156 5.21 79 354 80 327 81 297 82 276 83 270 84 227 85 236 86 218 87 210 88 274 89 279 90 264 91 261 92 236 93 235 94 226 95 207 96 179 
380 0.34224072098731995 -0.2874661386013031 0.9268394112586975 133 134 136 1.33 79 355 80 328 81 298 84 228 85 237 86 219 87 211 88 275 89 280 90 265 91 262 92 237 93 236 94 227 95 208 96 180 
381 0.44444480538368225 -0.0002955526579171419 0.8866260647773743 123 114 112 5.06 80 329 81 299 84 229 85 238 86 220 87 212 88 276 89 281 90 266 91 263 92 238 93 237 94 228 95 209 96 181 
382 0.764201819896698 0.16393236815929413 0.8107995390892029 37 49 26 13.51 88 277 89 282 90 267 91 264 92 239 93 238 
383 0.5328100919723511 -0.25307372212409973 1.0174626111984253 87 83 83 2.95 79 356 80 330 81 300 84 230 85 239 86 221 87 213 88 278 89 283 90 268 91 265 92 240 93 239 94 229 95 210 96 182 
384 0.3646739721298218 -0.2076513022184372 0.9191434979438782 79 78 89 1.43 79 357 80 331 81 301 84 231 85 240 86 222 87 214 88 279 89 284 90 269 91 266 92 241 93 240 94 230 95 211 96 183 
385 0.05920759588479996 -0.11159371584653854 0.7843561768531799 103 104 116 1.78 79 358 80 332 81 302 82 277 83 271 84 232 85 241 86 223 87 215 88 280 89 285 90 270 91 267 92 242 93 241 94 231 95 212 96 184 
386 0.29719844460487366 -0.1738158017396927 0.9013755917549133 171 191 207 1.38 79 359 80 333 81 303 84 233 85 242 86 224 87 216 88 281 89 286 90 271 91 268 92 243 93 242 94 232 95 213 
387 0.4879908263683319 -0.2859399914741516 0.9890429377555847 111 98 99 1.59 79 360 80 334 81 304 84 234 85 243 86 225 87 217 88 282 89 287 90 272 91 269 92 244 93 243 94 233 95 214 
388 0.3066771626472473 -0.25572875142097473 0.9233049750328064 95 105 121 2.39 79 361 80 335 81 305 84 235 85 244 86 226 87 218 88 283 89 288 90 273 91 270 92 245 93 244 94 234 95 215 
389 0.49928730726242065 0.17863328754901886 0.556553065776825 16 25 16 3.21 89 289 90 274 91 271 92 246 
390 0.3041919767856598 -0.07983310520648956 0.8669163584709167 153 154 154 1.65 84 236 85 245 86 227 87 219 88 284 89 290 90 275 91 272 92 247 93 245 94 235 95 216 96 185 97 46 
391 0.07101753354072571 -0.2316134124994278 0.8213196396827698 85 106 109 2.04 79 362 80 336 81 306 82 278 83 272 84 237 85 246 86 228 87 220 88 285 89 291 90 276 91 273 92 248 93 246 94 236 95 217 
392 0.6162363886833191 -0.03358720615506172 0.9886910319328308 86 80 85 2.3 79 363 80 337 81 307 84 238 85 247 86 229 87 221 88 286 89 292 90 277 91 274 92 249 93 247 94 237 95 218 96 186 97 47 99 4 
393 -0.4768799841403961 -0.2774612307548523 0.6014028191566467 102 89 85 2.43 82 279 83 273 88 287 89 293 90 278 91 275 92 250 93 248 94 238 95 219 96 187 
394 0.2681792676448822 -0.13652512431144714 0.8883456587791443 48 67 77 1.92 79 364 81 308 84 239 85 248 86 230 87 222 88 288 89 294 90 279 91 276 92 251 93 249 94 239 95 220 
395 -0.7186106443405151 -0.11513426154851913 0.4741983115673065 76 80 86 7.32 89 295 90 280 91 277 92 252 93 250 94 240 95 221 
396 0.2792808413505554 -0.20093004405498505 0.9032679796218872 116 143 148 1.45 79 365 80 338 81 309 84 240 85 249 86 231 87 223 88 289 89 296 90 281 91 278 92 253 93 251 94 241 95 222 
397 0.07613427937030792 -0.2617412507534027 0.8290579319000244 80 85 86 2.25 79 366 80 339 81 310 82 280 83 274 84 241 85 250 86 232 87 224 88 290 89 297 90 282 91 279 92 254 93 252 94 242 95 223 
398 -0.28993716835975647 -0.2072976678609848 0.6679742336273193 126 126 124 3.39 79 367 80 340 81 311 82 281 83 275 85 251 87 225 88 291 89 298 90 283 91 280 92 255 93 253 94 243 95 224 96 188 
399 -0.2787350118160248 -0.09154711663722992 0.39920589327812195 56 81 43 1.35 89 299 91 281 94 244 
400 0.3612809181213379 -0.23483888804912567 0.9237143993377686 149 154 159 1.35 79 368 80 341 81 312 84 242 85 252 86 233 87 226 88 292 89 300 90 284 91 282 92 256 93 254 94 245 95 225 96 189 
401 0.0394454263150692 -0.30940213799476624 0.8054516315460205 62 56 55 2.06 79 369 80 342 81 313 82 282 84 243 85 253 86 234 87 227 88 293 89 301 90 285 91 283 92 257 93 255 94 246 95 226 
402 0.5788586735725403 0.09770585596561432 1.1780612468719482 151 157 134 5.97 88 294 89 302 90 286 91 284 92 258 
403 -0.7519509196281433 -0.3275824189186096 0.49197351932525635 110 112 100 3.73 82 283 83 276 89 303 90 287 91 285 92 259 93 256 94 247 95 227 96 190 
404 0.253561407327652 -0.0164868775755167 0.8306419253349304 120 74 64 1.64 84 244 85 254 86 235 87 228 88 295 89 304 90 288 91 286 92 260 93 257 94 248 95 228 96 191 
405 0.37477728724479675 0.1394137144088745 0.5202453136444092 58 85 54 2.32 87 229 88 296 89 305 90 289 91 287 
406 0.6172123551368713 -0.08447642624378204 1.001756191253662 145 143 144 1.84 79 370 80 343 81 314 84 245 85 255 86 236 87 230 88 297 89 306 90 290 91 288 92 261 93 258 94 249 95 229 96 192 97 48 
407 0.7622953057289124 0.1564485728740692 0.9393711090087891 85 94 92 5.86 89 307 90 291 91 289 92 262 93 259 94 250 95 230 96 193 
408 0.22988754510879517 0.006121297832578421 0.5103716254234314 37 48 27 4.7 85 256 86 237 87 231 88 298 89 308 90 292 91 290 
409 0.5952680706977844 0.03222841024398804 0.9654708504676819 123 119 118 2.07 87 232 88 299 89 309 90 293 91 291 92 263 93 260 94 251 95 231 96 194 
410 0.7648926973342896 0.1663377434015274 0.8039870262145996 30 43 32 3.29 89 310 90 294 91 292 92 264 
411 0.6561568379402161 0.1507745087146759 0.8193150758743286 58 76 61 14.63 88 300 89 311 90 295 91 293 92 265 93 261 94 252 95 232 96 195 97 49 98 0 
412 0.5313854813575745 -0.19817639887332916 1.0153714418411255 133 155 182 3.79 79 371 80 344 81 315 84 246 85 257 86 238 87 233 88 301 89 312 90 296 91 294 92 266 93 262 94 253 95 233 
413 0.7517300248146057 0.17547644674777985 0.7644457221031189 24 34 24 4.57 88 302 89 313 90 297 91 295 92 267 93 263 94 254 95 234 96 196 
