# 3D point list with one line of data per point:
#   POINT3D_ID, X, Y, Z, R, G, B, ERROR, TRACK[] as (IMAGE_ID, POINT2D_IDX)
# Number of points: 386, mean track length: 6.23
312 0.04480096243344367 0.0058974094900148075 1.2595050059387825 0 0 0 0.22 30 135 57 92 78 97 79 39 80 43 140 96 
313 -0.38395475731977485 -0.003557521645155868 1.3374745531135337 0 0 0 0.38 30 136 31 73 68 23 72 138 78 98 99 88 140 97 143 70 150 64 177 90 212 59 
314 -0.1518402159335682 0.007718132802864912 1.2767555204014993 0 0 0 0.34 30 137 78 99 80 44 189 37 191 53 
315 -0.1521210916385248 0.007798765847083477 1.2778803625837865 0 0 0 0.29 30 138 55 34 57 93 78 100 150 65 189 38 191 54 
316 -0.15467385756887667 0.013251790836029651 1.2741310542970685 0 0 0 0.31 30 139 31 74 55 35 57 94 78 101 79 40 80 45 99 89 106 41 140 98 150 66 189 39 191 55 
317 -0.3341465378459053 0.02434217883224758 1.322236574590796 0 0 0 0.34 30 140 57 95 72 139 78 102 79 41 99 90 106 42 119 40 140 99 150 67 177 91 191 56 216 47 
318 -0.3542143575020924 0.045464636145134 1.3289432916218316 0 0 0 0.29 8 84 24 79 30 141 31 75 57 96 59 54 68 24 72 140 102 66 116 39 119 41 131 83 140 100 143 71 144 59 150 68 154 39 168 199 173 114 178 79 180 70 189 40 191 57 193 57 212 60 216 48 228 48 
319 -0.3711407944207155 0.04480800549472995 1.3222289008282837 0 0 0 0.36 30 142 68 25 131 84 140 101 150 69 168 200 177 92 180 71 189 41 191 58 
320 -0.33574447104191574 0.056478662149496754 1.3193735788388579 0 0 0 0.19 30 143 78 103 99 91 143 72 189 42 
321 -0.33471066036934416 0.07342264932858167 1.3131448596900983 0 0 0 0.42 30 144 31 76 57 97 68 26 78 104 79 42 99 92 119 42 140 102 143 73 144 60 150 70 191 59 212 61 216 49 
322 0.04008573967754388 0.0796886266283167 1.2470196306392904 0 0 0 0.36 30 145 72 141 78 105 106 43 191 60 
323 0.03432639954985608 0.08078276865915014 1.2510526528960946 0 0 0 0.33 30 146 57 98 72 142 78 106 79 43 80 46 99 93 106 44 140 103 191 61 
324 -0.2586429805959408 0.09550343048632765 1.2838679728087865 0 0 0 0.31 30 147 57 99 78 107 80 47 99 94 140 104 150 71 189 43 212 62 228 49 
325 0.19493014832241443 -0.05974806310477517 1.2552385046156207 0 0 0 0.32 30 148 31 77 78 108 150 72 177 93 189 44 
326 -0.14756847011150773 -0.08314914083980245 1.2844841401007654 0 0 0 0.18 30 149 31 78 57 100 78 109 
327 0.18381177305873594 -0.059347594277681104 1.254824382157569 0 0 0 0.38 30 150 78 110 150 73 189 45 
328 0.07637426244352728 -0.05233571687959924 1.2649783104969379 0 0 0 0.21 30 151 78 111 106 45 
329 0.09415176850069049 -0.04220073082076784 1.2578286026565295 0 0 0 0.45 30 152 55 36 57 101 78 112 150 74 
330 -0.31897754123472705 -0.06585347136281666 1.3192505307189388 0 0 0 0.35 30 153 57 102 78 113 99 95 106 46 140 105 144 61 189 46 212 63 228 50 
331 -0.33660731462065113 -0.06073145364981521 1.3190880068687576 0 0 0 0.29 30 154 31 79 57 103 68 27 78 114 119 43 140 106 144 62 150 75 189 47 216 50 228 51 
332 0.1267757067635512 -0.010130104828428277 1.251692058862108 0 0 0 0.21 30 155 31 80 57 104 78 115 106 47 189 48 
333 0.20605510073582686 -0.001250696697014407 1.1798319330163103 0 0 0 0.2 30 156 57 105 189 49 
334 0.1926417261048416 0.0002182367016582299 1.2458787550650006 0 0 0 0.23 30 157 78 116 189 50 
335 0.0445843900227887 -0.005290850228642178 1.2614864257457228 0 0 0 0.47 30 158 31 81 72 143 80 48 189 51 
336 0.08912139624736543 0.0011713692106478664 1.2577536288534157 0 0 0 0.19 30 159 31 82 78 117 80 49 106 48 
337 0.03968721846296083 0.0017759580884689808 1.2598224007952024 0 0 0 0.44 30 160 31 83 72 144 78 118 80 50 140 107 189 52 191 62 
338 0.13820455876910995 0.007161265462269436 1.2482656902424532 0 0 0 0.23 30 161 57 106 78 119 177 94 189 53 
339 0.14560424978216205 0.006923222755769811 1.2502505671350714 0 0 0 0.34 30 162 57 107 78 120 177 95 189 54 
340 -0.5088721665845519 -0.028862094534952466 0.813084721082568 0 0 0 0.49 30 163 46 20 59 55 119 44 140 108 144 63 168 201 191 63 193 58 202 54 211 18 233 27 
341 0.0889374069279637 0.013307186295293245 1.262994904678076 0 0 0 0.38 30 164 31 84 80 51 
342 0.1773025702674387 0.017658591156019955 1.2477965338202401 0 0 0 0.19 30 165 57 108 106 49 189 55 
343 0.17719879496997198 0.01775667416404683 1.247859490420242 0 0 0 0.11 30 166 106 50 189 56 
344 0.11866973780032014 0.022119137501960692 1.2575129038776647 0 0 0 0.24 30 167 57 109 78 121 106 51 
345 0.11900971664803724 0.02200095023385709 1.2625038856745336 0 0 0 0.3 30 168 57 110 106 52 168 202 177 96 
346 0.045011488501841126 0.029670563891543694 1.257668390511247 0 0 0 0.34 30 169 57 111 78 122 80 52 106 53 189 57 
347 -0.46269475097678975 0.024675698138435138 1.0855600608017533 0 0 0 0.17 30 170 150 76 168 203 191 64 
348 -0.45986101931747514 0.024497385007495102 1.0802004688239089 0 0 0 0.28 30 171 31 85 72 145 116 40 119 45 150 77 166 50 168 204 173 115 191 65 193 59 216 51 226 54 233 28 
349 -0.47660829571973073 0.05162444243439499 0.8837250635339885 0 0 0 0.42 30 172 31 86 37 36 46 21 55 37 102 67 143 74 168 205 173 116 178 80 191 66 202 55 212 64 218 76 233 29 
350 -0.48231604828344277 0.05509812309056893 0.8830194681383468 0 0 0 0.31 30 173 31 87 37 37 99 96 137 24 168 206 178 81 193 60 202 56 228 52 233 30 
351 0.13019838552226085 -0.10487149892314582 1.2825444415382796 0 0 0 0.2 30 174 78 123 106 54 150 78 
352 -0.03208822814865882 -0.06573385495984962 1.272840220239805 0 0 0 0.42 30 175 68 28 78 124 79 44 80 53 99 97 106 55 189 58 
353 -0.28584574761040416 -0.06504023770410981 1.3047346981162247 0 0 0 0.46 30 176 57 112 99 98 144 64 150 79 177 97 
354 -0.5319995352081655 -0.05573578912325383 0.7405568122155989 0 0 0 0.53 30 177 57 113 59 56 72 146 149 21 154 40 168 207 177 98 178 82 183 21 212 65 228 53 
355 -0.43995411824167685 -0.012128764815959973 1.1808145832068386 0 0 0 0.38 30 178 37 38 57 114 131 85 150 80 168 208 191 67 212 66 228 54 
356 -0.28655925617197775 0.003290818699666473 1.3037970477529124 0 0 0 0.4 30 179 31 88 68 29 78 125 140 109 144 65 150 81 189 59 212 67 216 52 
357 0.03386043157020475 0.09083781939769517 1.2527238927213198 0 0 0 0.5 30 180 57 115 78 126 79 45 
358 -0.1818452120270116 0.09775393659149709 1.2731464550421119 0 0 0 0.42 24 80 30 181 57 116 59 57 78 127 80 54 99 99 140 110 143 75 150 82 168 209 
359 0.12762913715285876 0.01644362927743877 1.248699258559447 0 0 0 0.26 30 182 57 117 106 56 189 60 
360 -0.20456083742246514 0.06818035225365891 1.2724797881745735 0 0 0 0.33 30 183 72 147 80 55 106 57 177 99 189 61 
361 -0.020591765309262454 0.01994435976571368 1.2629220802092256 0 0 0 0.4 30 184 78 128 99 100 
362 -0.2857452182562696 0.06988753610390833 1.2934665324173713 0 0 0 0.53 30 185 57 118 78 129 99 101 140 111 228 55 
363 -0.30750542806664805 -0.18651472736745778 1.3300284097953547 0 0 0 0.36 31 89 78 130 99 102 106 58 144 66 150 83 212 68 
364 -0.0017667906160134905 -0.14131022422744835 1.275323762336506 0 0 0 0.11 31 90 78 131 150 84 177 100 189 62 
365 -0.28835151518402224 -0.13857585287662172 1.32201438730968 0 0 0 0.2 31 91 78 132 106 59 228 56 
366 -0.28828668248256967 -0.13861674194219775 1.3220380153952849 0 0 0 0.16 31 92 78 133 150 85 216 53 
367 -0.19083836601429047 -0.1297183553039397 1.2915942102899698 0 0 0 0.21 31 93 68 30 72 148 78 134 106 60 150 86 
368 -0.2867151699925652 -0.13238526799206943 1.328060254191369 0 0 0 0.34 31 94 99 103 140 112 143 76 177 101 
369 0.006662115590653814 -0.10217747668868549 1.272318872116648 0 0 0 0.34 31 95 57 119 78 135 79 46 99 104 140 113 150 87 177 102 191 68 
370 -0.1957542159182793 -0.100387370651734 1.2912921846140994 0 0 0 0.29 31 96 78 136 99 105 150 88 
371 -0.3248896481298769 -0.09970605246102594 1.3254741492622981 0 0 0 0.2 31 97 78 137 150 89 233 31 
372 -0.19405857805461924 -0.09538669446255152 1.287045534282876 0 0 0 0.24 31 98 72 149 80 56 99 106 106 61 
373 -0.3776162031172161 -0.08892697057170573 1.3424816115704516 0 0 0 0.37 31 99 99 107 233 32 
374 -0.07595869626517175 -0.0814213131842775 1.2778599609333074 0 0 0 0.27 31 100 55 38 57 120 72 150 78 138 79 47 80 57 99 108 106 62 140 114 150 90 177 103 189 63 
375 -0.422813467173535 -0.07325910897956928 1.3502212786589143 0 0 0 0.36 31 101 72 151 99 109 106 63 150 91 177 104 233 33 
376 -0.14512010621908725 -0.06703703533534237 1.2839563167373371 0 0 0 0.14 31 102 78 139 79 48 106 64 
377 -0.3018495272678103 -0.0655084886395257 1.3092968611423974 0 0 0 0.2 31 103 78 140 99 110 150 92 
378 -0.2792304312325138 -0.06590630819804214 1.306181805258713 0 0 0 0.15 31 104 57 121 99 111 144 67 
379 0.09222823197536069 -0.06011108564527201 1.2639110794502941 0 0 0 0.25 31 105 57 122 78 141 79 49 106 65 150 93 
380 -0.16386590681398147 -0.05530186124582604 1.283905384774575 0 0 0 0.12 31 106 72 152 80 58 106 66 
381 -0.14990742891554013 -0.05322264214349297 1.2808074350157928 0 0 0 0.32 31 107 78 142 80 59 99 112 140 115 150 94 177 105 189 64 191 69 
382 -0.33463328170541756 -0.0555670002717006 1.3206965596366183 0 0 0 0.53 30 186 31 108 72 153 78 143 79 50 99 113 106 67 140 116 216 54 228 57 
383 0.1533655004984944 -0.047501921953332034 1.2593103353373425 0 0 0 0.33 31 109 55 39 57 123 78 144 79 51 106 68 150 95 177 106 189 65 
384 0.1361250941067816 -0.04713387845873184 1.2573153366270184 0 0 0 0.37 31 110 57 124 72 154 78 145 106 69 150 96 
385 0.14919453033538166 -0.044867046102797674 1.261608568044915 0 0 0 0.52 31 111 55 40 78 146 79 52 150 97 177 107 
386 -0.2933277512425833 -0.04872077305963925 1.310622217407219 0 0 0 0.72 31 112 68 31 78 147 79 53 99 114 106 70 150 98 177 108 
387 -0.2611839118108701 -0.022595332806311468 1.2986940689290971 0 0 0 0.31 31 113 80 60 99 115 140 117 150 99 
388 -0.0598529274849912 -0.02058400068721951 1.2696156325440937 0 0 0 0.13 31 114 78 148 80 61 99 116 
389 -0.12777295392949306 -0.01904300494408725 1.2748644838493781 0 0 0 0.17 31 115 78 149 79 54 143 77 150 100 
390 0.038846557583038774 -0.017501149208236005 1.2624352894882653 0 0 0 0.44 31 116 72 155 78 150 106 71 177 109 189 66 
391 0.0387434300573865 -0.017615591774634325 1.2628690767891664 0 0 0 0.34 31 117 55 41 78 151 106 72 140 118 177 110 
392 -0.1128841850889582 -0.015094119948950832 1.2713898879582082 0 0 0 0.42 31 118 78 152 99 117 
393 0.13545544183650451 -0.006220324710499536 1.2540003309396381 0 0 0 0.24 31 119 57 125 78 153 106 73 
394 -0.3346561720451979 -0.0005253115516501105 1.3235462857849654 0 0 0 0.24 30 187 31 120 57 126 72 156 78 154 99 118 140 119 143 78 150 101 228 58 
395 0.04094225227144306 0.013569688346853636 1.2610670396529629 0 0 0 0.31 31 121 78 155 99 119 106 74 
396 -0.38505749338689166 0.02815460730387673 1.341956255763554 0 0 0 0.17 31 122 143 79 150 102 177 111 
397 -0.12094581591970031 0.04816238691218343 1.263454727874595 0 0 0 0.41 31 123 80 62 106 75 177 112 189 67 
398 -0.07672054015144943 0.047932521896720814 1.2649389552193693 0 0 0 0.37 31 124 78 156 80 63 99 120 
399 -0.1450958749431846 0.04934093208523288 1.273263233159635 0 0 0 0.39 30 188 31 125 55 42 57 127 72 157 78 157 79 55 80 64 99 121 106 76 140 120 143 80 150 103 177 113 189 68 
400 -0.05693541075143687 0.049599042264030814 1.2603600616900987 0 0 0 0.23 31 126 80 65 99 122 189 69 
401 -0.14583107412353022 0.06424398978140418 1.2718105783672706 0 0 0 0.18 31 127 80 66 150 104 
402 -0.27304824073542777 0.0816024966584432 1.2903457771977034 0 0 0 0.3 31 128 99 123 106 77 177 114 
403 0.023179403219877295 0.095389408456612 1.253455835004152 0 0 0 0.51 31 129 79 56 80 67 99 124 
404 -0.21802642413442505 0.11011213717739712 1.2769140183528531 0 0 0 0.39 31 130 78 158 80 68 99 125 150 105 177 115 
405 -0.34936633409024814 0.11923600370665385 1.3157503999528062 0 0 0 0.13 31 131 99 126 143 81 
406 -0.29081079715961117 -0.18361654150482196 1.3308076619181202 0 0 0 0.21 31 132 99 127 189 70 
407 -0.1013173875470974 -0.1470682618185769 1.289997400673639 0 0 0 0.42 31 133 78 159 79 57 99 128 140 121 177 116 
408 -0.32435367312229535 -0.13703996941934796 1.33516799239143 0 0 0 0.41 31 134 78 160 79 58 99 129 106 78 119 46 140 122 150 106 189 71 228 59 
409 -0.27652965094097026 -0.13086432331817816 1.318879368930343 0 0 0 0.29 31 135 57 128 72 158 78 161 106 79 140 123 144 68 150 107 189 72 212 69 228 60 
410 -0.11146293866978284 -0.11624702316626162 1.2857076983441984 0 0 0 0.31 31 136 55 43 57 129 72 159 78 162 79 59 106 80 140 124 150 108 177 117 189 73 191 70 
411 -0.04108015872102178 -0.10721104407598499 1.2795568819118246 0 0 0 0.3 31 137 78 163 80 69 99 130 106 81 
412 -0.3995031182515725 -0.10427773390657158 1.3565422814262154 0 0 0 0.41 31 138 78 164 99 131 106 82 150 109 212 70 228 61 233 34 
413 -0.2732773378979156 -0.09721847767937915 1.3082146200470697 0 0 0 0.18 31 139 72 160 99 132 106 83 140 125 144 69 150 110 177 118 189 74 
414 -0.3025249089673787 -0.07140757499457964 1.3117271868419127 0 0 0 0.24 31 140 57 130 68 32 78 165 99 133 150 111 216 55 
415 -0.34619947134196016 -0.06533692361303067 1.3262174497063202 0 0 0 0.25 31 141 68 33 72 161 99 134 106 84 140 126 150 112 233 35 
416 -0.1608485107455176 -0.05948394880293978 1.2836028804010495 0 0 0 0.86 31 142 79 60 80 70 106 85 
417 -0.05254479232936573 -0.05921119571603657 1.2739483002049947 0 0 0 0.68 31 143 78 166 79 61 99 135 106 86 191 71 
418 -0.2565053914981941 -0.05822389775745381 1.2960890205592084 0 0 0 0.21 31 144 57 131 68 34 72 162 78 167 79 62 99 136 106 87 140 127 144 70 150 113 177 119 216 56 228 62 
419 -0.2650049665896612 -0.05702193444625039 1.2958568329391613 0 0 0 0.32 31 145 57 132 78 168 79 63 99 137 119 47 140 128 143 82 144 71 150 114 177 120 189 75 191 72 216 57 228 63 
420 -0.2649593357018521 -0.05689666993707 1.295965831978374 0 0 0 0.36 31 146 78 169 99 138 143 83 191 73 
421 -0.16479546463795153 -0.05053789055801032 1.2838367929207053 0 0 0 0.04 31 147 72 163 80 71 
422 -0.2476177792806657 -0.033802639249967834 1.2958121566812375 0 0 0 0.2 31 148 68 35 80 72 99 139 106 88 140 129 150 115 177 121 
423 -0.1506045073676027 -0.02835616897286618 1.280269702415338 0 0 0 0.38 30 189 31 149 57 133 72 164 78 170 79 64 80 73 99 140 106 89 140 130 150 116 189 76 191 74 216 58 
424 -0.06065198363648795 -0.013270555626412396 1.2679261074554427 0 0 0 0.42 31 150 57 134 78 171 80 74 99 141 106 90 140 131 189 77 191 75 
425 0.05450667280609243 0.001183870045048632 1.2596086720803423 0 0 0 0.18 31 151 80 75 140 132 177 122 189 78 
426 0.07418087014666823 0.0013591601409525642 1.257578888613493 0 0 0 0.27 31 152 78 172 140 133 189 79 191 76 
427 0.12586396696874516 0.006873505581047659 1.253402182516861 0 0 0 0.84 31 153 57 135 78 173 106 91 177 123 
428 -0.1924679827408405 0.025337226126343718 1.280362524918627 0 0 0 0.25 31 154 80 76 99 142 106 92 140 134 150 117 
429 0.039589706552352597 0.03246137166013103 1.2553631903203573 0 0 0 0.56 31 155 57 136 78 174 106 93 
430 -0.3627929957475862 0.03510819045282929 1.329178872713758 0 0 0 0.28 31 156 140 135 143 84 177 124 
431 0.020763032187947082 0.04076482895928878 1.2581016555337174 0 0 0 0.19 31 157 78 175 80 77 99 143 
432 -0.13291623175189518 0.04807760173963716 1.264799761054321 0 0 0 0.25 31 158 80 78 99 144 106 94 140 136 177 125 
433 -0.009648860155332457 0.08141410414200778 1.2559073158803533 0 0 0 0.24 31 159 57 137 78 176 99 145 
434 -0.009592256988751597 0.08140577343050204 1.2552492759483556 0 0 0 0.2 31 160 78 177 79 65 
435 -0.05991939201612652 0.0946991427104502 1.25932792384536 0 0 0 0.15 31 161 57 138 80 79 106 95 
436 -0.21327122159300121 0.11451060953998592 1.2783975287675613 0 0 0 0.32 31 162 78 178 80 80 119 48 140 137 143 85 150 118 177 126 216 59 
437 -0.47825683133686264 -0.13790036346512258 0.8675370296841525 0 0 0 0.5 31 163 99 146 121 28 168 210 171 29 180 72 211 19 
438 -0.3094527412827697 -0.16129628397556572 1.333582693138947 0 0 0 0.21 31 164 78 179 99 147 106 96 115 15 144 72 150 119 189 80 228 64 
439 -0.020524357064115845 -0.1465823295804753 1.2757098017546458 0 0 0 0.4 31 165 55 44 57 139 78 180 79 66 99 148 106 97 140 138 150 120 177 127 
440 -0.1049406589154527 -0.14221118847126232 1.2869503543548821 0 0 0 0.21 31 166 55 45 78 181 79 67 99 149 106 98 
441 -0.10497570675432831 -0.14215921198189654 1.2871152957688945 0 0 0 0.12 31 167 55 46 57 140 78 182 99 150 
442 -0.29262341967227756 -0.12650863103967586 1.32041603761032 0 0 0 0.24 31 168 78 183 140 139 143 86 150 121 177 128 189 81 212 71 216 60 228 65 
443 -0.30489964221855215 -0.12641753968597455 1.3262714815724685 0 0 0 0.27 31 169 57 141 78 184 79 68 99 151 106 99 140 140 143 87 144 73 150 122 177 129 189 82 212 72 216 61 
444 -0.4132674087249828 -0.12601701120256534 1.3668008152201034 0 0 0 0.23 31 170 168 211 191 77 
445 -0.208942810430994 -0.11390457147709127 1.2865995986783556 0 0 0 0.25 31 171 68 36 106 100 140 141 150 123 177 130 189 83 
446 -0.3177669464907094 -0.11405520451772018 1.3327061060631205 0 0 0 0.3 31 172 57 142 78 185 99 152 106 101 140 142 143 88 150 124 177 131 189 84 216 62 228 66 
447 -0.42219987503527295 -0.10184281705288438 1.3584885932751418 0 0 0 0.22 31 173 57 143 106 102 144 74 150 125 189 85 
448 -0.3616876830086034 -0.0967608373654907 1.3391989581864086 0 0 0 0.36 31 174 57 144 78 186 99 153 119 49 144 75 150 126 189 86 191 78 212 73 228 67 233 36 
449 0.069738500317422 -0.07388308872313408 1.2691675302888517 0 0 0 0.45 31 175 80 81 106 103 
450 -0.07595029951009323 -0.07493938608692395 1.2781119627255397 0 0 0 0.44 31 176 55 47 78 187 80 82 99 154 191 79 
451 0.03357742552738702 -0.06613678486644552 1.2663297599421166 0 0 0 0.31 23 115 24 81 31 177 57 145 72 165 78 188 79 69 99 155 140 143 168 212 177 132 189 87 191 80 202 57 
452 0.21919757249810132 -0.06039796938967054 1.262429682200863 0 0 0 0.17 31 178 106 104 189 88 
453 0.2200460644121299 -0.06078988174922902 1.266350497218818 0 0 0 0.26 31 179 57 146 189 89 
454 0.1948914799744359 -0.05980569392078803 1.255584442783399 0 0 0 0.29 30 190 31 180 78 189 150 127 189 90 
455 0.08194881887659254 -0.059067998623699144 1.2631557733521355 0 0 0 0.43 31 181 57 147 78 190 106 105 168 213 191 81 
456 0.10772381021760358 -0.059263174412701264 1.2620490493968535 0 0 0 0.32 30 191 31 182 57 148 78 191 150 128 189 91 
457 0.061699438687517254 -0.058916963252788036 1.2657483108662948 0 0 0 0.34 31 183 57 149 78 192 79 70 80 83 
458 0.14505103411835313 -0.055110903138408066 1.2613367504137043 0 0 0 0.3 31 184 57 150 78 193 79 71 106 106 150 129 
459 -0.31362382655646953 -0.05645484885398907 1.3164315926540087 0 0 0 0.25 31 185 57 151 78 194 99 156 106 107 144 76 216 63 
460 -0.15559076599404784 -0.049345992914337396 1.279428544690276 0 0 0 0.26 30 192 31 186 55 48 57 152 68 37 78 195 79 72 80 84 99 157 106 108 140 144 150 130 189 92 191 82 
461 -0.1682995307586238 -0.04338063488686503 1.2823873739124947 0 0 0 0.13 31 187 72 166 80 85 99 158 
462 -0.34364140553132716 -0.004308381531523158 1.3207284564188186 0 0 0 0.47 31 188 57 153 72 167 78 196 79 73 99 159 119 50 140 145 144 77 150 131 189 93 
463 0.09841396973595858 0.0011358437541222925 1.255271739086383 0 0 0 0.35 31 189 57 154 72 168 78 197 140 146 189 94 
464 0.06373006957242745 0.0018081661644985738 1.257980342903146 0 0 0 0.13 31 190 78 198 80 86 
465 -0.48844161440063383 0.004612679561250147 0.8543633895845126 0 0 0 0.36 31 191 34 43 57 155 59 58 131 86 144 78 151 36 168 214 177 133 183 22 212 74 218 77 
466 -0.18829210646953262 0.013387381491398183 1.2773232436522233 0 0 0 0.28 31 192 78 199 79 74 99 160 140 147 150 132 177 134 
467 -0.2577419013574707 0.015157215092832941 1.2905232343897073 0 0 0 0.32 30 193 31 193 78 200 80 87 99 161 140 148 150 133 177 135 189 95 212 75 
468 -0.40240201396134395 0.04678766872473025 1.352562452974151 0 0 0 0.16 31 194 72 169 177 136 189 96 
469 0.027919867487877486 0.07883870662693848 1.2541283334869755 0 0 0 0.33 23 116 31 195 72 170 80 88 140 149 168 215 202 58 
470 -0.10478562462594565 0.0878151820586099 1.2609558503358296 0 0 0 0.28 31 196 78 201 99 162 140 150 
471 -0.10473831669817446 0.08760754330109348 1.260931291438061 0 0 0 0.3 31 197 78 202 140 151 177 137 
472 -0.3103607100594388 0.09335104786155421 1.3035748878093691 0 0 0 0.53 31 198 57 156 140 152 168 216 178 83 180 73 191 83 228 68 
473 -0.3103755042651964 0.09371525963934918 1.3035861058483917 0 0 0 0.48 31 199 57 157 140 153 168 217 178 84 191 84 228 69 
474 0.03186912486122674 0.09031592297775355 1.2427861533385622 0 0 0 0.22 31 200 80 89 99 163 
475 -0.08249737841812467 0.0945904036208735 1.2592136150963305 0 0 0 0.36 31 201 80 90 99 164 
476 -0.16744825904408522 0.11334271207090527 1.2723485605921891 0 0 0 0.53 31 202 80 91 143 89 
477 -0.3445217349393189 0.12333946636511417 1.3179084733306345 0 0 0 0.18 31 203 143 90 150 134 
478 -0.46598059231776967 -0.16522941331885035 0.9467126628165671 0 0 0 0.3 31 204 131 87 168 218 177 138 178 85 216 64 218 78 226 55 
479 -0.3885387754044571 -0.15412059866446162 1.3578336166351224 0 0 0 0.54 31 205 78 203 99 165 115 16 119 51 144 79 191 85 228 70 
480 -0.48214015524884296 -0.10846952550931573 1.001518821980888 0 0 0 0.45 31 206 72 171 115 17 154 41 168 219 173 117 178 86 218 79 225 28 
481 -0.4461009750572944 -0.10598555289213125 1.1218590565748823 0 0 0 0.32 31 207 115 18 149 22 168 220 178 87 180 74 216 65 
482 -0.18134356492376175 -0.10115595383298433 1.2875783036192663 0 0 0 0.41 31 208 55 49 72 172 78 204 79 75 99 166 106 109 115 19 140 154 150 135 189 97 216 66 
483 -0.2893215478483394 -0.10204676921337909 1.3084401704333606 0 0 0 0.44 31 209 57 158 59 59 72 173 99 167 102 68 131 88 144 80 168 221 171 30 177 139 212 76 216 67 225 29 
484 -0.300857871569322 -0.10153058757250158 1.3134072033604969 0 0 0 0.24 31 210 72 174 140 155 143 91 
485 0.15110255357069183 -0.09475911785033296 1.2756033708463812 0 0 0 0.25 31 211 78 205 150 136 189 98 
486 -0.3766746293870544 -0.09628492852435866 1.34373721053644 0 0 0 0.15 31 212 57 159 99 168 144 81 150 137 189 99 233 37 
487 -0.34476715945292863 -0.09113504681833562 1.3335313388374546 0 0 0 0.57 31 213 57 160 78 206 99 169 140 156 144 82 189 100 191 86 
488 -0.3905524419170842 -0.08962012143302407 1.3500325515417546 0 0 0 0.98 31 214 78 207 79 76 
489 -0.47883801156151923 -0.06005044162597635 0.9923897870569979 0 0 0 0.35 31 215 72 175 154 42 168 222 173 118 177 140 178 88 218 80 225 30 
490 0.01232967298952814 -0.06642676800387969 1.2693606114015334 0 0 0 0.16 31 216 78 208 80 92 99 170 
491 -0.4574260725804121 -0.05975079883071975 1.0854193545926722 0 0 0 0.38 31 217 72 176 99 171 119 52 133 31 168 223 173 119 178 89 191 87 
492 0.04064363824608499 -0.06335138495637503 1.2654662993465164 0 0 0 0.58 31 218 78 209 79 77 80 93 99 172 140 157 189 101 
493 -0.24717518256972423 -0.015105026450331672 1.2952306516164644 0 0 0 0.3 31 219 57 161 68 38 80 94 99 173 140 158 144 83 150 138 177 141 189 102 
494 -0.4542720634042096 -0.00793777471041355 1.120848658660662 0 0 0 0.23 31 220 116 41 131 89 144 84 154 43 168 224 177 142 202 59 218 81 
495 -0.3384547410745214 0.0035022048755450463 1.3226374295032277 0 0 0 0.08 31 221 78 210 228 71 
496 -0.3889166627190414 0.00452175535791492 1.3355931189386854 0 0 0 0.29 24 82 31 222 59 60 99 174 137 25 143 92 168 225 173 120 177 143 180 75 189 103 191 88 202 60 
497 -0.3988432546750638 0.012594085303539004 1.3432486601248936 0 0 0 0.36 31 223 57 162 59 61 72 177 99 175 119 53 131 90 139 23 143 93 150 139 168 226 189 104 191 89 226 56 228 72 
498 -0.23776011999290383 0.0224086831591285 1.2845922125983498 0 0 0 0.47 31 224 57 163 68 39 78 211 79 78 99 176 140 159 150 140 177 144 189 105 228 73 
499 -0.3503034738357368 0.06303201347317162 1.2053905683640747 0 0 0 0.81 31 225 137 26 168 227 178 90 
500 -0.399087635297142 0.07996200956038985 1.325132290519294 0 0 0 0.2 31 226 59 62 137 27 150 141 168 228 191 90 228 74 
501 -0.16887237087781906 0.0957995902983101 1.267149347074525 0 0 0 0.41 31 227 68 40 78 212 80 95 99 177 140 160 150 142 168 229 
502 -0.3144113249093851 -0.17029587290468795 1.3347642606598922 0 0 0 0.42 31 228 78 213 115 20 150 143 189 106 
503 -0.010541085190026568 -0.15038109684259618 1.274075984997139 0 0 0 0.51 31 229 55 50 57 164 68 41 78 214 106 110 150 144 177 145 
504 -0.010686879673713557 -0.15035870277851293 1.2748982540142388 0 0 0 0.57 31 230 55 51 57 165 68 42 78 215 99 178 106 111 150 145 177 146 
505 -0.37275622391277086 -0.13036944481400872 1.339234005576988 0 0 0 0.35 31 231 99 179 144 85 150 146 189 107 
506 0.12223712855418634 -0.09403576985045597 1.2767565015172284 0 0 0 0.21 31 232 78 216 150 147 
507 -0.1053331787582767 -0.07523693014611704 1.2808888300923553 0 0 0 0.41 31 233 57 166 68 43 78 217 79 79 106 112 150 148 191 91 
508 -0.10547727005105971 -0.07521650851773551 1.2810460933102528 0 0 0 0.4 8 85 23 117 31 234 57 167 68 44 78 218 79 80 106 113 140 161 150 149 168 230 191 92 
509 -0.4643612811715671 -0.06279265355906494 1.057522064962485 0 0 0 0.37 31 235 37 39 46 22 57 168 72 178 94 30 99 180 116 42 119 54 125 33 131 91 133 32 149 23 150 150 154 44 166 51 168 231 173 121 191 93 211 20 212 77 
510 -0.3378600701340885 -0.013913573329975193 1.3234598915141857 0 0 0 0.32 31 236 68 45 78 219 99 181 140 162 144 86 150 151 189 108 191 94 212 78 216 68 228 75 
511 -0.23113800852929164 0.00043886492249529626 1.2843169901887639 0 0 0 0.42 31 237 78 220 140 163 144 87 150 152 212 79 
512 -0.05581937046872336 0.08340603132182649 1.2593350233293106 0 0 0 0.42 31 238 78 221 80 96 99 182 
513 -0.05566691606332355 0.08331469114674508 1.259408312581714 0 0 0 0.41 8 86 23 118 24 83 31 239 55 52 57 169 72 179 78 222 80 97 99 183 168 232 177 147 191 95 202 61 
514 -0.48892169634638455 0.05737673455593713 0.8586526585020763 0 0 0 0.34 31 240 57 170 121 29 168 233 
515 -0.2609476949861213 0.0875085004509529 1.2866687122550347 0 0 0 0.3 31 241 57 171 80 98 140 164 177 148 189 109 
516 -0.32047008139289573 -0.008128658072985915 1.318586567653508 0 0 0 0.61 31 242 57 172 68 46 78 223 139 24 140 165 144 88 168 234 178 91 202 62 212 80 216 69 228 76 
517 -0.2384044349981975 0.06707003482900807 1.2969187137694802 0 0 0 0.48 31 243 80 99 99 184 189 110 
518 -0.23811506547515313 0.06699341674901392 1.2929319463336413 0 0 0 0.4 31 244 57 173 80 100 99 185 106 114 189 111 
519 -0.17335984456142184 0.06736083343978824 1.274178560153236 0 0 0 0.33 31 245 80 101 106 115 189 112 
520 -0.1732848540278488 0.06726217682661728 1.2709543704039576 0 0 0 0.23 31 246 72 180 80 102 106 116 
521 -0.32288977761665566 0.0920383906951751 1.3127752115345828 0 0 0 0.09 31 247 137 28 168 235 
522 -0.47388486770402666 -0.10489369447111732 0.8751594172846134 0 0 0 0.43 31 248 57 174 59 63 72 181 99 186 102 69 116 43 121 30 125 34 131 92 133 33 140 166 144 89 149 24 151 37 154 45 166 52 168 236 173 122 177 149 178 92 193 61 202 63 210 19 212 81 216 70 218 82 226 57 
523 0.13643171066022436 -0.10728604587141594 1.275128774898277 0 0 0 0.5 31 249 57 175 78 224 
524 -0.4487051312665263 -0.09751866217472552 1.097086927450849 0 0 0 0.69 31 250 34 44 57 176 59 64 94 31 116 44 119 55 125 35 131 93 133 34 140 167 144 90 151 38 166 53 168 237 173 123 177 150 191 96 193 62 218 83 225 31 228 77 233 38 
525 -0.48249437187028044 -0.0791780923485647 1.0242930989108148 0 0 0 0.38 31 251 59 65 72 182 131 94 154 46 168 238 177 151 218 84 225 32 
526 -0.2733655052615081 -0.07106504465921328 1.3044975115833835 0 0 0 0.34 31 252 57 177 78 225 119 56 144 91 150 153 189 113 216 71 228 78 
527 -0.3515472871628135 -0.05747527845669959 1.3263852752811154 0 0 0 0.59 31 253 68 47 78 226 99 187 140 168 189 114 212 82 
528 -0.3364354382165898 0.06840091221391387 1.312708768328015 0 0 0 0.28 8 87 31 254 57 178 99 188 102 70 121 31 137 29 140 169 150 154 154 47 168 239 178 93 180 76 189 115 191 97 212 83 216 72 228 79 
529 -0.27522515541832776 0.08955148528217893 1.2944759163491715 0 0 0 0.53 31 255 68 48 99 189 150 155 
530 -0.3344430756663905 -0.07042946178775496 1.3309801518184843 0 0 0 1.01 31 256 68 49 78 227 106 117 150 156 228 80 
531 -0.010529006161764302 -0.1392324590181459 1.276915175447907 0 0 0 0.66 31 257 72 183 78 228 106 118 140 170 150 157 168 240 177 152 202 64 
532 -0.010034209286505506 -0.13879193015166283 1.2748752120781632 0 0 0 0.51 31 258 78 229 106 119 150 158 
533 -0.4342709957293736 -0.08783936778862382 1.1921266768586665 0 0 0 0.53 34 45 37 40 59 66 72 184 86 28 119 57 131 95 140 171 144 92 149 25 168 241 173 124 177 153 178 94 180 77 191 98 193 63 210 20 211 21 225 33 228 81 233 39 
534 -0.5291198279998709 -0.06833601996807116 0.7473360207542502 0 0 0 0.3 34 46 37 41 59 67 94 32 99 190 116 45 131 96 133 35 168 242 191 99 212 84 
535 -0.42268273707146037 -0.06627923742883265 1.1956015744914283 0 0 0 0.32 34 47 59 68 72 185 151 39 168 243 173 125 178 95 193 64 
536 -0.46287685231288783 0.04961019136626743 0.9334659062736628 0 0 0 0.38 34 48 37 42 46 23 57 179 125 36 144 93 168 244 177 154 202 65 218 85 233 40 
537 -0.5148175440502932 -0.12147916157039036 0.8221678879449105 0 0 0 0.61 34 49 46 24 99 191 166 54 168 245 202 66 233 41 
538 -0.4697812624634201 -0.11443737045243911 1.0382453593676169 0 0 0 0.28 34 50 59 69 72 186 125 37 140 172 143 94 144 94 168 246 173 126 177 155 180 78 183 23 193 65 212 85 218 86 225 34 226 58 
539 -0.4469631101078914 0.0025969684251156196 1.1120222104796824 0 0 0 0.26 34 51 68 50 133 36 140 173 168 247 212 86 226 59 
540 -0.4945551685696332 0.06601908973381075 0.8027450587334565 0 0 0 0.35 34 52 144 95 168 248 180 79 183 24 
541 -0.4742792873149805 0.018640676117725154 0.9974297495054371 0 0 0 0.37 34 53 59 70 133 37 168 249 
542 -0.5527737667728605 0.012910424211032825 0.5278674439289703 0 0 0 0.3 34 54 72 187 168 250 180 80 
543 -0.5415438480465856 -0.1461373771772278 0.6040895412899787 0 0 0 0.69 34 55 59 71 131 97 150 159 153 48 168 251 173 127 226 60 228 82 
544 -0.5419455792376849 -0.14284748083518092 0.6880839632082902 0 0 0 0.34 34 56 168 252 180 81 202 67 218 87 
545 -0.5064033721241297 -0.09916589167465546 0.8165810064068347 0 0 0 0.49 34 57 72 188 168 253 
546 -0.5587336379709522 -0.1275958387532075 0.61798760838926 0 0 0 0.46 34 58 59 72 116 46 119 58 131 98 133 38 151 40 153 49 154 48 168 254 183 25 202 68 212 87 216 73 226 61 
547 -0.5160238273255952 -0.050879774240471805 0.792966577504191 0 0 0 1.38 34 59 99 192 133 39 143 95 168 255 173 128 
548 -0.5294506233561554 -0.06847374058003987 0.7480824358716796 0 0 0 0.3 37 43 99 193 168 256 191 100 
549 -0.5540275219237034 -0.07109673751409448 0.6400743605733554 0 0 0 0.2 37 44 46 25 119 59 144 96 168 257 191 101 226 62 
550 -0.5688996853192992 -0.2597743818950759 0.8539941477452357 0 0 0 0.6 37 45 59 73 72 189 143 96 168 258 173 129 178 96 180 82 191 102 202 69 226 63 
551 -0.6872925227755182 -0.12967800665212073 0.724167248275722 0 0 0 1.49 37 46 46 26 168 259 
552 -0.46112626031995296 0.03206947746636893 0.9669644249467265 0 0 0 0.38 37 47 116 47 119 60 131 99 140 174 143 97 144 97 151 41 168 260 173 130 178 97 193 66 202 70 211 22 212 88 216 74 218 88 233 42 
553 -0.5822215127279198 -0.07530366914717983 0.4457180224516725 0 0 0 0.22 37 48 72 190 143 98 168 261 191 103 
554 -0.585720088990192 -0.03304780746976738 0.44436482371045194 0 0 0 0.53 37 49 143 99 168 262 
555 -0.4755966118845394 0.05776293093497441 0.8868423290726618 0 0 0 0.3 37 50 133 40 168 263 178 98 
556 -0.41125575714341506 -0.007735088446066044 1.2151231005302057 0 0 0 0.34 37 51 46 27 59 74 72 191 119 61 143 100 144 98 150 160 151 42 168 264 178 99 191 104 202 71 211 23 212 89 226 64 
557 -0.47069582359629586 0.02581715510475014 1.0188310136458834 0 0 0 0.33 37 52 57 180 116 48 125 38 131 100 137 30 143 101 168 265 177 156 211 24 212 90 218 89 228 83 
558 -0.5683896238651079 0.006616382588223128 0.4591367262169615 0 0 0 0.75 37 53 59 75 131 101 143 102 151 43 168 266 171 31 212 91 
559 -0.5079710518692819 -0.17258379164636886 0.8361851085550852 0 0 0 0.8 37 54 72 192 131 102 143 103 168 267 191 105 226 65 
560 -0.5644183236434867 -0.1076837342394268 0.6172501756554392 0 0 0 0.52 102 71 116 49 154 49 168 268 173 131 193 67 
561 -0.5453874713064336 -0.12793233202768 0.718559754697682 0 0 0 0.36 46 28 72 193 140 175 168 269 177 157 
562 -0.4550857399732439 0.040087872737394135 0.9620421346272229 0 0 0 0.49 46 29 140 176 168 270 177 158 202 72 
563 -0.5735662754703464 0.02346334027143069 0.45011697267610173 0 0 0 0.41 46 30 168 271 212 92 218 90 
564 -0.48808477757234364 -0.18164503401098667 0.8669862585744479 0 0 0 0.85 46 31 119 62 168 272 177 159 
565 -0.5699294353284932 -0.11211428235969206 0.5806631818132274 0 0 0 0.74 46 32 168 273 178 100 180 83 
566 0.13847069281918267 -0.19233736144463462 1.318093727171556 0 0 0 0.43 55 53 57 181 78 230 150 161 
567 0.13847069281918267 -0.19233736144463462 1.318093727171556 0 0 0 0.43 55 54 57 182 78 231 150 162 
568 -0.20328255179614974 -0.08152708252960583 1.292378636211911 0 0 0 0.1 55 55 78 232 79 81 150 163 
569 -0.1601769828940132 -0.07447646737798017 1.284240510706726 0 0 0 0.4 55 56 57 183 78 233 79 82 
570 -0.054553859335792924 -0.014233909064912998 1.26846945432981 0 0 0 0.18 55 57 68 51 78 234 80 103 99 194 140 177 189 116 191 106 
571 -0.04739218859612194 -0.0060644440048675755 1.267752562778474 0 0 0 0.21 55 58 78 235 79 83 80 104 99 195 
572 -0.15014118329021625 -0.00703223716205048 1.2752520748669667 0 0 0 0.11 55 59 57 184 72 194 78 236 99 196 140 178 150 164 
573 -0.05134696461431956 0.03874757668888349 1.2633521096175713 0 0 0 0.29 55 60 78 237 79 84 80 105 99 197 106 120 140 179 191 107 
574 -0.12514143384687804 0.09566438011574234 1.2645481709539148 0 0 0 0.29 55 61 78 238 79 85 140 180 
575 -0.13457226456106747 0.09642911889778834 1.2641442457117527 0 0 0 0.43 55 62 78 239 80 106 99 198 
576 -0.09805546104194761 -0.11620684264043027 1.282940079552136 0 0 0 0.38 55 63 78 240 79 86 150 165 189 117 
577 -0.21170612027460795 -0.09952580570640512 1.2921874684600778 0 0 0 0.33 55 64 68 52 78 241 79 87 106 121 140 181 150 166 189 118 216 75 
578 0.0387692102893639 -0.0410644377145407 1.268024053086772 0 0 0 0.28 55 65 78 242 189 119 
579 -0.16143548169808516 -0.023705418410090735 1.2806382739695148 0 0 0 0.22 55 66 68 53 78 243 189 120 
580 -0.12227434786059438 -0.0035261463565871257 1.2763074991915442 0 0 0 0.21 55 67 78 244 150 167 177 160 
581 0.05376132243181661 0.007877275634388661 1.2597773435966035 0 0 0 0.44 55 68 57 185 78 245 79 88 80 107 
582 -0.041508127353706584 0.08519931615778072 1.2566253701098422 0 0 0 0.37 55 69 57 186 78 246 106 122 
583 -0.001697488987565277 -0.14670545043753896 1.2752872271965008 0 0 0 0.55 55 70 72 195 78 247 79 89 140 182 150 168 168 274 177 161 189 121 
584 -0.3044567688829441 -0.13337572705847087 1.326929598489584 0 0 0 0.44 55 71 59 76 68 54 78 248 99 199 115 21 140 183 143 104 144 99 168 275 171 32 177 162 180 84 189 122 202 73 212 93 216 76 225 35 228 84 
585 -0.1468720392011927 -0.08406553304301596 1.2792260105883477 0 0 0 0.09 55 72 168 276 177 163 
586 -0.14751160726685678 -0.08426992618995341 1.2834518871526488 0 0 0 0.16 55 73 137 31 143 105 168 277 177 164 191 108 
587 0.2255765885593207 -0.028979324556763324 1.2503179966943119 0 0 0 0.37 55 74 57 187 78 249 
588 0.045139922320471176 0.043061701442669326 1.2637568385417988 0 0 0 0.3 55 75 72 196 168 278 
589 -0.05366968205699868 0.09203937374965872 1.2560541130173306 0 0 0 0.38 30 194 55 76 57 188 78 250 80 108 99 200 106 123 
590 -0.021318938322135866 0.09309986621270229 1.2561466585780758 0 0 0 0.33 55 77 57 189 78 251 79 90 80 109 
591 -0.09375265749101758 -0.10927931730625401 1.2840656882037802 0 0 0 0.3 55 78 68 55 78 252 106 124 177 165 
592 -0.24141061831848856 -0.11262505521905333 1.30829747601706 0 0 0 0.26 55 79 57 190 131 103 140 184 143 106 168 279 177 166 191 109 
593 -0.19302738984784068 -0.07196371475892573 1.2910048664413896 0 0 0 0.27 55 80 57 191 78 253 79 91 
594 -0.1814654194572665 -0.042919065418637416 1.2871512850749807 0 0 0 0.41 55 81 78 254 150 169 
595 -0.16989675291021186 -0.03413877675027381 1.2831591844194112 0 0 0 0.33 55 82 78 255 150 170 
596 -0.16954075973622176 -0.034107350308411465 1.2824100443155861 0 0 0 0.32 55 83 78 256 140 185 150 171 
597 0.21485060146062418 0.006884696801623961 1.2478327362749424 0 0 0 0.28 55 84 78 257 106 125 189 123 
598 0.09378281988475409 0.034876403684458296 1.256189609736937 0 0 0 0.16 55 85 106 126 168 280 177 167 189 124 
599 -0.2227296392707488 -0.11996426894747113 1.292499310520223 0 0 0 0.44 55 86 57 192 78 258 133 41 140 186 143 107 150 172 168 281 177 168 189 125 191 110 212 94 
600 -0.5333600631665677 -0.056331541966651695 0.7432652166098715 0 0 0 0.59 55 87 72 197 102 72 137 32 140 187 143 108 144 100 149 26 154 50 168 282 177 169 178 101 193 68 218 91 228 85 
601 0.01034309902845239 -0.12666709192946393 1.2797997657153788 0 0 0 0.46 55 88 78 259 150 173 189 126 
602 0.05640992337727288 -0.020600000701244285 1.2670540701780326 0 0 0 0.48 55 89 72 198 78 260 191 111 
603 -0.04477708356897217 0.07390764573119603 1.2725726982235026 0 0 0 0.35 55 90 72 199 168 283 191 112 
604 -0.29924021185059585 -0.17660573941154722 1.3312998021613358 0 0 0 0.52 55 91 78 261 79 92 115 22 228 86 
605 -0.019833587366500725 -0.10931426046199416 1.2751613599691511 0 0 0 0.35 57 193 80 110 99 201 140 188 
606 -0.2802996862295223 -0.1258569372437513 1.3177639584187706 0 0 0 0.25 57 194 68 56 72 200 78 262 99 202 140 189 143 109 144 101 150 174 177 170 212 95 228 87 
607 -0.0032310774175962364 -0.10249291523150524 1.274960558865369 0 0 0 0.21 57 195 78 263 79 93 99 203 106 127 140 190 150 175 191 113 
608 -0.026060809409129426 -0.10210477889239498 1.276212758730887 0 0 0 0.12 57 196 78 264 99 204 140 191 191 114 
609 -0.01704444339642432 -0.09815089171220785 1.276668334459007 0 0 0 0.25 57 197 80 111 99 205 
610 -0.027778504228872646 -0.09853499602187527 1.280769870486385 0 0 0 0.33 57 198 78 265 191 115 
611 -0.3477721693555163 -0.10624073885309679 1.3377888469377994 0 0 0 0.07 57 199 99 206 233 43 
612 -0.435089307697777 -0.1100663980142154 1.3688829706960752 0 0 0 0.43 57 200 78 266 150 176 189 127 233 44 
613 0.020914251902176488 -0.0782785496237468 1.2708312019780996 0 0 0 0.25 57 201 78 267 80 112 99 207 106 128 140 192 191 116 
614 0.020906601012205542 -0.07827386576396261 1.2703341954715792 0 0 0 0.27 57 202 78 268 79 94 80 113 99 208 106 129 140 193 
615 -0.4311727666517419 -0.10394809119463258 1.367509023648445 0 0 0 0.36 57 203 72 201 78 269 140 194 143 110 144 102 150 177 177 171 189 128 216 77 233 45 
616 -0.1383053061922729 -0.07654577089710178 1.285293319283179 0 0 0 0.2 57 204 80 114 99 209 140 195 
617 -0.403612260894082 -0.08753901902953505 1.351072359983453 0 0 0 0.24 57 205 99 210 106 130 144 103 150 178 
618 -0.27231916124713906 -0.06109717156819881 1.291444652098164 0 0 0 0.27 57 206 143 111 144 104 150 179 177 172 
619 -0.09133255340330032 -0.014923919813860872 1.2698080878124212 0 0 0 0.28 57 207 78 270 80 115 99 211 106 131 177 173 189 129 
620 -0.006445020860161885 -0.009962685706267982 1.2636569894830147 0 0 0 0.18 57 208 78 271 79 95 80 116 99 212 
621 0.019204776495658986 -0.0058757834580821285 1.260218241066415 0 0 0 0.18 57 209 78 272 79 96 
622 -0.21674616251564374 0.03024496679714777 1.2880897197401466 0 0 0 0.16 57 210 80 117 99 213 140 196 
623 -0.03404666112166007 0.03830608476204556 1.2609309591285605 0 0 0 0.38 57 211 78 273 79 97 80 118 99 214 
624 -0.125443348911244 0.04400562291274867 1.2684159502133807 0 0 0 0.25 57 212 78 274 79 98 80 119 99 215 140 197 
625 0.13475538554618882 0.08086585592977778 1.2483729977062317 0 0 0 0.66 57 213 78 275 79 99 
626 -0.1886847721002586 0.08749405817609703 1.2639666228859805 0 0 0 0.45 57 214 78 276 80 120 99 216 140 198 177 174 189 130 
627 -0.144659009132783 0.10008989815051252 1.26591281474289 0 0 0 0.61 57 215 80 121 99 217 143 112 
628 -0.06498321744225659 0.09846160921380849 1.2499675134389072 0 0 0 0.38 57 216 80 122 99 218 
629 -0.30113595994423537 -0.1881625535510282 1.3286044996155049 0 0 0 0.2 31 259 57 217 78 277 99 219 106 132 144 105 150 180 189 131 228 88 
630 -0.3009206846434461 -0.18811934063756 1.3284648580150042 0 0 0 0.31 31 260 57 218 78 278 99 220 106 133 140 199 144 106 150 181 189 132 191 117 
631 -0.20873444463230423 -0.14063749752985463 1.2985870161654705 0 0 0 0.17 57 219 78 279 106 134 150 182 189 133 
632 -0.04031668369648793 -0.12170874269975322 1.281361207861553 0 0 0 0.13 57 220 78 280 80 123 99 221 106 135 177 175 
633 -0.3702193161015114 -0.10199966502444828 1.343505225425735 0 0 0 0.32 57 221 78 281 119 63 144 107 150 183 191 118 212 96 228 89 
634 -0.040287185726024306 -0.07700891989482299 1.276353608248736 0 0 0 0.16 57 222 72 202 80 124 99 222 106 136 177 176 
635 -0.05997697612927236 -0.07789660974082088 1.2776338977563875 0 0 0 0.33 57 223 78 282 140 200 
636 -0.5160583195824726 -0.07982960112935711 0.8197505176684354 0 0 0 0.3 57 224 59 77 72 203 168 284 177 177 180 85 202 74 228 90 
637 -0.3641351498198997 -0.08677907804229446 1.3411829355201237 0 0 0 0.19 57 225 78 283 119 64 144 108 150 184 191 119 212 97 228 91 
638 0.015213307236058678 -0.05977721967443978 1.2671234448807596 0 0 0 0.45 57 226 78 284 80 125 99 223 106 137 
639 0.12714628749390938 -0.049610058623180575 1.261106956637137 0 0 0 0.28 57 227 78 285 150 185 
640 -0.34693778340102094 -0.06527140491787033 1.3260489917256792 0 0 0 0.3 57 228 78 286 144 109 
641 -0.05874071066341606 -0.03403988361382495 1.2695426660736238 0 0 0 0.22 57 229 78 287 79 100 
642 0.03381643393274854 -0.027101914997277512 1.2669104410329015 0 0 0 0.23 57 230 78 288 106 138 177 178 
643 0.1512074833057709 -0.013834102605815066 1.2503880043504056 0 0 0 0.22 57 231 177 179 189 134 
644 0.08670198796499148 -0.004542880688452857 1.2543929002602863 0 0 0 0.38 57 232 78 289 140 201 150 186 189 135 
645 0.07784641035327011 -0.00455938128975269 1.257058768877786 0 0 0 0.28 57 233 72 204 78 290 140 202 150 187 
646 -0.2885526868607098 -0.013967162777308225 1.3073654941146975 0 0 0 0.15 57 234 78 291 106 139 140 203 144 110 
647 -0.23169980280443156 0.014412979099070347 1.2878010613211024 0 0 0 0.3 57 235 72 205 80 126 99 224 106 140 140 204 144 111 150 188 
648 -0.0096219492054282 0.02095081579939977 1.2629273024563872 0 0 0 0.24 57 236 80 127 99 225 
649 -0.0096219492054282 0.02095081579939977 1.2629273024563872 0 0 0 0.24 57 237 80 128 99 226 
650 -0.00961180335845122 0.02866491959178093 1.2612374691530845 0 0 0 0.16 57 238 80 129 99 227 
651 -0.15139887721732379 0.027529432484280515 1.2758525139691639 0 0 0 0.28 57 239 78 292 143 113 191 120 
652 -0.36476028232409236 0.02652730181335396 1.323267583869213 0 0 0 0.16 57 240 72 206 99 228 143 114 144 112 150 189 177 180 189 136 
653 -0.04257735937983251 0.03041219971363048 1.2653198658621025 0 0 0 0.2 57 241 78 293 79 101 80 130 99 229 106 141 140 205 189 137 
654 -0.1503054223302821 0.03601555499089438 1.27368962088179 0 0 0 0.18 57 242 80 131 189 138 
655 -0.4198151540921284 0.046433161917641665 1.3424048432017257 0 0 0 0.11 57 243 150 190 233 46 
656 -0.4330839423425358 0.06648187898969904 1.352824509050155 0 0 0 0.28 57 244 143 115 189 139 
657 -0.15583300255784685 0.08771344428655213 1.2655741379496441 0 0 0 0.43 57 245 78 294 80 132 99 230 106 142 143 116 150 191 177 181 
658 -0.5790625851958133 -0.1737161716533899 0.4501671164850521 0 0 0 0.51 57 246 125 39 131 104 139 25 153 50 166 55 168 285 183 26 193 69 202 75 211 25 212 98 
659 0.14398952936345705 -0.18591055404724754 1.3116918024341735 0 0 0 0.71 57 247 78 295 150 192 
660 -0.012242395094898526 -0.1178552409726297 1.2783613683576764 0 0 0 0.26 57 248 68 57 78 296 79 102 99 231 
661 -0.3325580544895243 -0.12178660443266527 1.3378841923582427 0 0 0 0.63 57 249 99 232 106 143 140 206 150 193 177 182 189 140 
662 -0.25532506245872216 -0.10319911787015405 1.2945363965800436 0 0 0 0.39 57 250 72 207 131 105 140 207 143 117 144 113 150 194 168 286 191 121 228 92 
663 0.1688343089146356 -0.06582113050216953 1.254929181810268 0 0 0 0.54 57 251 78 297 189 141 
664 -0.015936254563083303 -0.07375198498499283 1.2724356698357069 0 0 0 0.35 57 252 78 298 80 133 99 233 
665 -0.35429991404628125 -0.09157231783415708 1.3371751382171153 0 0 0 0.22 31 261 57 253 78 299 99 234 106 144 119 65 144 114 189 142 191 122 212 99 228 93 
666 -0.3449846098741566 -0.09038930634153029 1.3346464001559886 0 0 0 0.16 57 254 99 235 144 115 
667 0.10758164470252321 -0.05906582462795761 1.2607971680245604 0 0 0 0.22 57 255 78 300 150 195 
668 0.1290669303953041 -0.03654880436068768 1.2586835462388182 0 0 0 0.45 57 256 78 301 79 103 106 145 150 196 
669 0.1287794381148009 -0.03614583257389601 1.253738515115521 0 0 0 0.35 57 257 78 302 106 146 
670 0.03856091806542471 -0.031116950876803603 1.2666312183370354 0 0 0 0.28 57 258 78 303 106 147 191 123 
671 0.028261301218087776 -0.0235561676289537 1.2666399757995457 0 0 0 0.25 57 259 78 304 106 148 189 143 
672 0.06950559576199986 -0.013379672637598745 1.2613087875964342 0 0 0 0.45 57 260 78 305 80 134 106 149 140 208 
673 0.06277113422780058 -0.011007044885537012 1.2626054671585925 0 0 0 0.39 57 261 78 306 177 183 
674 0.07614551009687778 -0.010736785412070661 1.2607016942681204 0 0 0 0.41 57 262 78 307 80 135 
675 0.21748712343124182 -0.0061830533632667405 1.2469950061293784 0 0 0 0.29 57 263 78 308 106 150 189 144 
676 0.053480817792334066 -0.004445763920206148 1.2604818521096786 0 0 0 0.2 57 264 78 309 106 151 
677 0.06189758389305462 -0.004529865983705434 1.261478883116185 0 0 0 0.26 57 265 78 310 80 136 106 152 140 209 
678 0.08082615178083691 0.001204860338673516 1.2570073443322536 0 0 0 0.24 57 266 78 311 80 137 140 210 150 197 
679 -0.33846845535205133 0.0035262226722933194 1.3222645037390202 0 0 0 0.19 57 267 78 312 79 104 99 236 
680 -0.3734018660301708 0.018168646487405637 1.33090786833237 0 0 0 0.15 57 268 119 66 143 118 150 198 168 287 189 145 191 124 
681 -0.1804276869615585 0.021727762013471454 1.276550662458161 0 0 0 0.76 57 269 78 313 99 237 140 211 150 199 
682 -0.18086589857385565 0.021617750085226553 1.2770765921170169 0 0 0 0.58 57 270 78 314 99 238 150 200 
683 -0.06757252135627749 0.025271009427538727 1.2845264894975483 0 0 0 0.37 57 271 72 208 168 288 202 76 
684 -0.4137870479458821 0.027947286649510097 1.340692605128406 0 0 0 0.37 57 272 59 78 68 58 72 209 116 50 119 67 131 106 139 26 143 119 144 116 150 201 154 51 168 289 178 102 189 146 191 125 193 70 202 77 212 100 226 66 
685 -0.412784099287458 0.027991322099743636 1.3384000677546437 0 0 0 0.23 31 262 57 273 59 79 68 59 72 210 99 239 116 51 119 68 131 107 137 33 139 27 143 120 144 117 150 202 151 44 154 52 168 290 178 103 189 147 202 78 212 101 226 67 228 94 
686 -0.16745139701880682 0.03469028328567871 1.2801724633255742 0 0 0 0.36 57 274 78 315 99 240 140 212 150 203 
687 -0.19945119338894451 0.03571280843571906 1.2882554256081429 0 0 0 0.21 57 275 80 138 150 204 177 184 189 148 
688 -0.3776099078159201 0.05598457681189735 1.3406865809954287 0 0 0 0.33 57 276 59 80 119 69 137 34 140 213 143 121 150 205 168 291 173 132 177 185 178 104 191 126 193 71 202 79 212 102 226 68 228 95 
689 -0.2650474608913812 0.07724600012470001 1.2828019798455677 0 0 0 0.23 57 277 140 214 150 206 177 186 189 149 191 127 
690 -0.020886450893263565 0.09321192690540002 1.2555637721757602 0 0 0 0.44 57 278 78 316 99 241 
691 -0.00015353676668758464 0.09315846534391611 1.2559261167032354 0 0 0 0.34 57 279 78 317 79 105 80 139 99 242 
692 -0.00016902228966017278 0.09309287944068677 1.2559710581930328 0 0 0 0.22 57 280 78 318 79 106 80 140 191 128 
693 0.1366685862739504 -0.15050061487173036 1.2826239378035313 0 0 0 0.34 57 281 78 319 150 207 189 150 
694 -0.00988739020365958 -0.1261449672292535 1.2778252808781971 0 0 0 0.42 57 282 72 211 78 320 79 107 99 243 140 215 150 208 168 292 177 187 189 151 191 129 
695 0.05075912744421256 -0.06407859789324497 1.262685687528856 0 0 0 0.49 57 283 78 321 79 108 
696 -0.2761705990632524 -0.08059322598680188 1.306871661033886 0 0 0 0.49 57 284 78 322 150 209 216 78 228 96 233 47 
697 -0.5300307840390909 -0.07300453807210891 0.7912233830807467 0 0 0 0.42 57 285 59 81 125 40 154 53 168 293 180 86 191 130 202 80 
