# 3D point list with one line of data per point:
#   POINT3D_ID, X, Y, Z, R, G, B, ERROR, TRACK[] as (IMAGE_ID, POINT2D_IDX)
# Number of points: 291, mean track length: 9.18
506 0.04553365624250678 -0.012185067801559774 0.7699911476900432 0 0 0 0.5 21 506 26 90 73 85 181 37 199 48 71 73 103 54 198 17 209 101 142 82 224 177 229 99 
507 0.0971206089689997 -0.013646941105354455 0.8167396642837333 0 0 0 0.32 21 507 26 91 73 86 181 38 199 49 
508 0.06654517894926293 -0.008932097990486108 0.7878329938549653 0 0 0 0.23 21 508 26 92 73 87 181 39 199 50 142 83 
509 0.11142230936716237 0.017134476513532098 0.8213420485218225 0 0 0 0.7 21 509 26 93 71 74 73 88 126 73 181 40 224 178 199 51 
510 0.08019952824874219 0.03183366769054666 0.7887810552922078 0 0 0 0.4 21 510 26 94 71 75 73 89 126 74 181 41 224 179 142 84 
511 0.11223419126441568 0.04101415169861713 0.8186732846053753 0 0 0 0.45 21 511 26 95 73 90 181 42 199 52 71 76 81 37 198 18 209 102 
512 0.09002185942848913 0.05707861125142055 0.796454567861391 0 0 0 0.31 21 512 26 96 181 43 
513 0.30314415456723115 0.07875920103723158 1.0158055880218329 0 0 0 0.63 21 513 26 97 44 177 92 80 164 212 199 53 220 98 
514 0.3602130557485621 0.10885253655501806 0.9205762137604393 0 0 0 0.26 21 514 128 56 148 216 
515 0.3456690558010092 0.13342790908576913 0.9368287861841263 0 0 0 0.82 21 515 27 87 33 100 50 106 77 158 81 38 96 61 111 106 118 73 128 57 146 53 172 84 221 42 0 41 2 46 209 103 217 31 43 31 224 180 
516 0.37286667743359986 -0.09871838880123608 0.9571267203603793 0 0 0 0.4 21 516 103 55 111 107 164 213 172 85 
517 0.3864525750424484 -0.030343336912520467 0.9228725985686513 0 0 0 0.34 21 517 25 44 43 32 53 47 60 103 67 26 81 39 88 36 96 62 111 108 118 74 127 24 128 58 146 54 157 80 164 214 181 44 213 76 219 46 220 99 224 181 232 55 26 98 50 107 0 42 4 50 17 43 27 88 61 61 172 86 190 29 204 38 217 32 227 50 41 16 64 9 114 40 138 13 179 56 198 19 1 25 56 13 71 77 199 54 
518 0.19283109000219756 -0.01488785068062279 0.9021231850726257 0 0 0 0.33 21 518 71 78 164 215 181 45 
519 0.3382292243722169 -0.013977326974852485 0.9872161744635624 0 0 0 0.4 21 519 32 39 44 178 77 159 148 217 25 45 26 99 27 89 43 33 50 108 53 48 60 104 61 62 67 27 71 79 73 91 81 40 88 37 92 81 96 63 111 109 118 75 127 25 146 55 157 81 164 216 172 87 181 46 199 55 213 77 219 47 220 100 227 51 232 56 0 43 2 47 3 35 4 51 11 43 12 7 17 44 41 17 64 10 65 19 128 59 138 14 190 30 198 20 204 39 217 33 221 43 1 26 179 57 114 41 103 56 126 75 176 89 209 104 56 14 
520 0.3500120272547853 0.02361921785950837 0.9606844458075826 0 0 0 0.63 21 520 26 100 44 179 50 109 67 28 73 92 77 160 88 38 92 82 110 49 146 56 148 218 164 217 199 56 219 48 36 19 53 49 103 57 4 52 81 41 96 64 114 42 157 82 190 31 198 21 213 78 43 34 61 63 71 80 25 46 217 34 1 27 56 15 220 101 232 57 127 26 19 36 40 43 52 85 142 85 126 76 9 18 85 73 196 120 229 100 
521 0.323078617168518 0.02993809740924308 1.0021589781890596 0 0 0 0.45 21 521 26 101 71 81 113 16 148 219 199 57 29 3 92 83 110 50 142 86 221 44 
522 0.12886926174453234 0.08527554471571383 0.8300562013932035 0 0 0 0.71 21 522 199 58 224 182 
523 0.3836116567193551 0.10279094094372114 0.8889243346029305 0 0 0 0.47 21 523 26 102 60 105 67 29 81 42 92 84 103 58 111 110 158 38 162 68 172 88 176 90 227 52 232 58 71 82 126 77 0 44 4 53 27 90 50 110 53 50 61 64 77 161 96 65 118 76 129 5 157 83 11 44 65 20 128 60 217 35 198 22 221 45 142 87 148 220 
524 0.33571499462648474 0.11925474332820907 0.9538732964607644 0 0 0 0.66 21 524 43 35 53 51 67 30 196 121 220 102 44 180 81 43 88 39 96 66 103 59 111 111 224 183 0 45 2 48 17 45 50 111 71 83 118 77 217 36 221 46 232 59 1 28 65 21 73 93 164 218 198 23 199 59 209 105 4 54 9 19 19 37 25 47 26 103 27 91 77 162 85 74 142 88 148 221 159 99 176 91 
525 0.3721203449119419 0.14191635857663948 0.8971954627004646 0 0 0 0.73 21 525 25 48 26 104 32 40 36 20 44 181 52 86 53 52 81 44 88 40 110 51 126 78 148 222 164 219 181 47 199 60 1 29 142 89 
526 -0.013630651811091075 -0.10136724373459671 0.7283715031173489 0 0 0 0.39 21 526 199 61 221 47 26 105 63 15 142 90 181 48 198 24 
527 0.30488211219218714 -0.08229836850480443 1.054563829645734 0 0 0 0.73 21 527 26 106 36 21 60 106 110 52 148 223 181 49 224 184 199 62 42 26 85 75 159 100 142 91 126 79 196 122 
528 0.32193221316023524 -0.08205024539067382 1.0205476439855758 0 0 0 0.46 21 528 60 107 73 94 77 163 92 85 103 60 209 106 
529 0.3988245906904203 -0.024907920103302058 0.9039518622124355 0 0 0 0.72 21 529 164 220 219 49 232 60 12 8 67 31 179 58 4 55 17 46 43 36 65 22 81 45 88 41 111 112 114 43 118 78 50 112 157 84 
530 0.3749618449623216 -0.01801632696658097 0.937355215255784 0 0 0 0.42 21 530 43 37 67 32 88 42 146 57 164 221 181 50 213 79 220 103 224 185 71 84 
531 0.3508962496634261 -0.00968786673457449 0.9693087796927768 0 0 0 0.76 21 531 26 107 32 41 43 38 71 85 73 95 81 46 88 43 110 53 111 113 118 79 127 27 146 58 164 222 199 63 220 104 224 186 
532 0.38607416412426665 -0.004967842009126321 0.9149134844002309 0 0 0 0.52 21 532 26 108 43 39 53 53 61 65 67 33 81 47 88 44 96 67 111 114 128 61 146 59 172 89 227 53 232 61 0 46 11 45 17 47 27 92 50 113 65 23 118 80 190 32 204 40 213 80 217 37 221 48 4 56 41 18 114 44 138 15 164 223 198 25 199 64 
533 0.36202765471361104 0.005366823731586859 0.948701066739732 0 0 0 0.46 21 533 50 114 67 34 81 48 118 81 146 60 213 81 227 54 
534 0.337179041888944 0.012933324953654344 0.9809984913924409 0 0 0 0.72 21 534 26 109 27 93 44 182 52 87 71 86 73 96 77 164 118 82 128 62 213 82 220 105 224 187 227 55 232 62 0 47 61 66 157 85 172 90 190 33 219 50 221 49 96 68 114 45 164 224 198 26 1 30 25 49 65 24 103 61 127 28 209 107 217 38 56 16 2 49 4 57 17 48 19 38 50 115 142 92 
535 0.3988224160617368 0.03346012223367663 0.8888968981926434 0 0 0 0.32 21 535 88 45 92 86 
536 0.39480178158253365 0.09828883500284123 0.8712956974897288 0 0 0 0.5 21 536 60 108 111 115 162 69 172 91 92 87 
537 0.371783348075745 0.10548940619721324 0.9050930853244455 0 0 0 0.61 21 537 26 110 33 101 60 109 67 35 77 165 81 49 92 88 96 69 111 116 126 80 148 224 162 70 181 51 220 106 43 40 219 51 0 48 11 46 17 49 27 94 50 116 71 87 118 83 157 86 88 46 198 27 227 56 232 63 217 39 1 31 53 54 209 108 19 39 52 88 142 93 196 123 
538 0.38429303808188525 0.11381950981307437 0.8853244817035302 0 0 0 0.76 21 538 26 111 32 42 36 22 44 183 53 55 60 110 81 50 85 76 88 47 111 117 113 17 118 84 128 63 158 39 162 71 164 225 181 52 50 117 213 83 
539 0.33813373619371145 0.1346214899768007 0.9478441261580041 0 0 0 0.77 21 539 25 50 26 112 27 95 36 23 43 41 44 184 50 118 60 111 81 51 88 48 92 89 103 62 111 118 118 85 148 225 164 226 181 53 196 124 199 65 220 107 221 50 232 64 65 25 209 109 224 188 229 101 
540 0.32257795189903804 0.13931389648679365 0.9676268907281116 0 0 0 0.93 21 540 44 185 164 227 221 51 224 189 2 50 9 20 19 40 25 51 85 77 142 94 148 226 196 125 220 108 77 166 229 102 
541 0.34820471083241816 0.15122993965815923 0.9292347631194432 0 0 0 0.68 21 541 26 113 43 42 44 186 88 49 162 72 164 228 220 109 221 52 1 32 209 110 
542 0.3801316240085543 -0.06611076170063399 0.9264149699436768 0 0 0 0.89 52 89 60 112 67 36 88 50 17 50 50 119 160 17 148 227 198 28 217 40 220 110 26 114 56 17 65 26 71 88 96 70 97 20 118 86 127 29 199 66 53 56 19 41 85 78 142 95 126 81 164 229 
543 0.3967956598020186 -0.049627883507087106 0.90815091483472 0 0 0 0.83 21 542 81 52 181 54 127 30 199 67 1 33 26 115 56 18 67 37 71 89 
544 -0.07217433909278245 -0.02209281833210452 0.6656073985730938 0 0 0 0.31 21 543 73 97 199 68 
545 0.3616746129898203 0.12602776564412035 0.9151115385563467 0 0 0 0.57 21 544 26 116 43 43 71 90 92 90 96 71 157 87 164 230 199 69 220 111 1 34 25 52 50 120 81 53 111 119 176 92 209 111 232 65 118 87 142 96 85 79 224 190 229 103 
546 0.07052345127631407 -0.16348179908673546 0.8322435127196595 0 0 0 0.4 0 49 17 51 172 92 
547 -0.08481358951510486 -0.10291335898646312 0.6613802742369987 0 0 0 0.48 0 50 17 52 53 57 
548 0.14567036849974474 -0.16814217702521259 0.8955371802739829 0 0 0 0.94 0 51 3 36 17 53 53 58 61 67 71 91 96 72 157 88 172 93 227 57 232 66 42 27 2 51 73 98 142 97 118 88 148 228 159 101 190 34 221 53 229 104 
549 0.1548775427896344 -0.1544893027720891 0.90117383114931 0 0 0 0.32 0 52 53 59 61 68 
550 0.12704916438244204 -0.13459359974432378 0.8717816773245343 0 0 0 0.3 0 53 61 69 157 89 
551 -0.056413850911565644 -0.06413097347541472 0.6868185625428552 0 0 0 0.19 0 54 53 60 61 70 118 89 
552 0.6234786501915468 -0.36292936858260005 0.034884931650363764 0 0 0 0.41 0 55 14 0 64 11 
553 0.48851724769930094 -0.20865283380863772 0.8132260085252332 0 0 0 0.25 0 56 2 52 185 5 11 47 96 73 179 59 
554 0.7054450345986214 -0.35611037358585756 0.13531337728610762 0 0 0 0.45 0 57 14 1 81 54 111 120 
555 -0.027707534193137946 -0.05578722528609387 0.7109884819079827 0 0 0 0.34 0 58 12 9 61 71 118 90 
556 0.48303128180010046 -0.20212452207906123 0.8204378985582411 0 0 0 0.31 0 59 2 53 77 167 111 121 128 64 190 35 220 112 224 191 12 10 179 60 138 16 
557 0.5358483695800828 -0.2242339437714305 0.7536902397871109 0 0 0 0.49 0 60 15 0 17 54 146 61 
558 0.7058976302326223 -0.3519609170873585 0.13686994503195782 0 0 0 0.27 0 61 14 2 64 12 81 55 111 122 147 0 
559 0.447396834446382 -0.18287464422070118 0.8693213194145891 0 0 0 0.3 0 62 2 54 53 61 63 16 148 229 157 90 162 73 
560 0.4459064025529732 -0.17921350098566644 0.8712185553273327 0 0 0 0.57 0 63 17 55 61 72 103 63 179 61 118 91 221 54 
561 0.45128726524918733 -0.18088584001540575 0.867643015954288 0 0 0 0.77 0 64 17 56 61 73 103 64 118 92 128 65 152 6 60 113 179 62 
562 0.3632946667593618 -0.13959433025230653 0.9733059905785658 0 0 0 0.34 0 65 11 48 61 74 152 7 190 36 213 84 160 18 
563 0.37669551298194814 -0.13992107350210506 0.9529923610484712 0 0 0 0.26 0 66 4 58 27 96 50 121 61 75 213 85 220 113 
564 0.4864540467772282 -0.18815762407015582 0.8176721250164234 0 0 0 0.35 0 67 17 57 61 76 118 93 152 8 
565 0.7146331850569213 -0.3398316797471596 0.11928377251507921 0 0 0 0.24 0 68 14 3 69 0 
566 0.3665726006905658 -0.13085220516386725 0.9633395998741617 0 0 0 0.42 0 69 4 59 103 65 
567 0.4457144257956409 -0.16767871729197031 0.8498496918469534 0 0 0 0.21 0 70 97 21 152 9 
568 0.37900140180684716 -0.13340814825340952 0.9572626902712178 0 0 0 0.18 0 71 2 55 50 122 118 94 164 231 
569 0.43622833647437387 -0.15979880306770802 0.8713357564221025 0 0 0 0.32 0 72 27 97 61 77 152 10 185 6 4 60 89 1 160 19 217 41 
570 0.6687268632112384 -0.24953276715170994 0.6891045148970265 0 0 0 0.33 0 73 14 4 15 1 50 123 64 13 69 1 97 22 118 95 157 91 158 40 172 94 128 66 190 37 204 41 227 58 1 35 3 37 179 63 56 19 65 27 81 56 89 2 
571 0.4406490013969673 -0.15753071219338738 0.8690925245963959 0 0 0 0.28 0 74 2 56 12 11 25 53 33 102 65 28 67 38 103 66 148 230 152 11 164 232 204 42 213 86 219 52 224 192 
572 0.5490975723382211 -0.1993505720141643 0.7767123151380118 0 0 0 0.44 0 75 61 78 152 12 
573 0.6687717311485066 -0.2460341367649592 0.6849493405530022 0 0 0 0.19 0 76 120 0 152 13 172 95 
574 0.36086031111184286 -0.11891612048432006 0.9788736008056615 0 0 0 0.21 0 77 3 38 25 54 111 123 16 1 61 79 
575 0.3850047450105526 -0.1265536452925192 0.9456406034890262 0 0 0 0.18 0 78 61 80 152 14 64 14 71 92 
576 0.4517158705574235 -0.15749856842919124 0.8517894689638477 0 0 0 0.2 0 79 61 81 147 1 
577 0.3116665449238307 -0.0879261461511539 1.0485274113185439 0 0 0 0.24 0 80 3 39 4 61 17 58 41 19 50 124 53 62 61 82 111 124 118 96 172 96 190 38 227 59 232 67 103 67 179 64 
578 0.3846740282954746 -0.1217111252231913 0.9483167640741232 0 0 0 0.37 0 81 11 49 118 97 152 15 157 92 97 23 160 20 
579 0.3694553448355932 -0.11512927656321259 0.9619838722955124 0 0 0 0.41 0 82 33 103 53 63 61 83 4 62 19 42 44 187 96 74 111 125 179 65 172 97 232 68 27 98 41 20 50 125 73 99 77 168 103 68 114 46 152 16 17 59 65 29 67 39 71 93 92 91 118 98 157 93 190 39 1 36 11 50 160 21 213 87 
580 0.31305318619581785 -0.08777838259772801 1.0441147063002203 0 0 0 0.22 0 83 2 57 4 63 17 60 41 21 50 126 53 64 61 84 96 75 103 69 118 99 138 17 157 94 176 93 227 60 232 69 179 66 204 43 128 67 209 112 
581 0.43337288378152883 -0.14266632302161747 0.8778432950924908 0 0 0 0.26 0 84 2 58 41 22 50 127 3 40 4 64 27 99 63 17 89 3 162 74 221 55 232 70 179 67 67 40 114 47 176 94 
582 0.4446829449173456 -0.14646513738344905 0.8576998830987954 0 0 0 0.38 0 85 2 59 3 41 11 51 27 100 50 128 61 85 71 94 96 76 118 100 128 68 146 62 147 2 152 17 204 44 213 88 219 53 221 56 232 71 160 22 
583 0.45329315348359406 -0.14941835202098244 0.8536874621835969 0 0 0 0.4 0 86 2 60 50 129 61 86 71 95 118 101 147 3 152 18 213 89 221 57 232 72 3 42 4 65 11 52 17 61 27 101 77 169 97 24 179 68 128 69 146 63 158 41 176 95 204 45 219 54 227 61 160 23 217 42 33 104 88 51 
584 0.46230899986976964 -0.1517324035941751 0.8429642890992526 0 0 0 0.08 0 87 118 102 147 4 
585 0.31225758075958315 -0.0834976289805806 1.047054391514655 0 0 0 0.36 0 88 3 43 17 62 53 65 190 40 227 62 
586 0.38052467879984614 -0.11557749667176152 0.9439789977392166 0 0 0 0.33 0 89 3 44 17 63 50 130 176 96 
587 0.3675019394830029 -0.10889101032614125 0.9627461754689906 0 0 0 0.44 0 90 3 45 17 64 53 66 77 170 97 25 103 70 157 95 213 90 217 43 227 63 179 69 200 5 41 23 114 48 172 98 176 97 40 44 52 90 109 32 196 126 229 105 
588 0.5216717060161798 -0.1766247974287808 0.758696788360296 0 0 0 0.52 0 91 17 65 158 42 172 99 
589 0.3349744488288506 -0.09293879037460345 1.0097130127717082 0 0 0 0.27 0 92 118 103 172 100 179 70 
590 0.6342477863469415 -0.31966937677052476 -0.10524043046615222 0 0 0 0.22 0 93 89 4 120 1 
591 0.05672819578813328 -0.04154631254387167 0.7858805453582505 0 0 0 0.45 0 94 53 67 61 87 157 96 
592 0.40652119838796613 -0.12018886789630938 0.9058063593944436 0 0 0 0.32 0 95 3 46 17 66 41 24 61 88 118 104 128 70 152 19 157 97 158 43 213 91 221 58 227 64 232 73 
593 0.33847652064671396 -0.0864239009962262 1.0064571840535328 0 0 0 0.4 0 96 11 53 61 89 227 65 232 74 17 67 179 71 
594 0.5096736569086855 -0.16526096613819644 0.7607807433112976 0 0 0 1.07 0 97 2 61 19 43 32 43 38 1 128 71 52 91 142 98 196 127 
595 0.07206613019154798 -0.039816018804650105 0.8013482628920983 0 0 0 0.29 0 98 53 68 118 105 157 98 172 101 
596 0.3574077562338669 -0.09431226741492746 0.9793426068413534 0 0 0 0.38 0 99 2 62 27 102 3 47 43 44 44 188 71 96 111 126 179 72 221 59 
597 0.5160378514635573 -0.1667076456068497 0.7542486235538011 0 0 0 0.35 0 100 2 63 3 48 4 66 12 12 15 2 16 2 17 68 19 44 25 55 26 117 27 103 33 105 36 24 38 2 40 45 43 45 50 131 53 69 67 41 71 97 77 171 89 5 96 77 97 26 103 71 111 127 118 106 120 2 126 82 128 72 146 64 147 5 152 20 158 44 159 102 162 75 164 233 172 102 176 98 185 7 190 41 196 128 204 46 213 92 217 44 219 55 220 114 221 60 222 0 224 193 227 66 232 75 11 54 160 24 42 28 29 4 63 18 142 99 127 31 136 0 229 106 
598 0.10000070137888581 -0.04348100065922331 0.822964526831988 0 0 0 0.23 0 101 61 90 157 99 172 103 
599 0.5095815281082201 -0.16132001437771606 0.7605917110523439 0 0 0 0.38 0 102 3 49 11 55 12 13 16 3 25 56 27 104 50 132 89 6 126 83 127 32 128 73 152 21 158 45 159 103 162 76 172 104 213 93 217 45 219 56 224 194 40 46 42 29 176 99 
600 0.5715035297181575 -0.2832557761535873 -0.02030385615393356 0 0 0 0.59 0 103 69 2 120 3 
601 0.8001971149835907 -0.26270101847543714 0.5640086889898073 0 0 0 0.39 0 104 14 5 61 91 69 3 128 74 
602 0.7544204456975296 -0.25340792699477427 0.5240951451117101 0 0 0 0.35 0 105 14 6 17 69 53 70 103 72 2 64 69 4 89 7 164 234 
603 0.1063106464542263 -0.03903163884843972 0.8293781610651295 0 0 0 0.42 0 106 53 71 61 92 
604 0.49928275459674976 -0.1509046738395634 0.7703208838329791 0 0 0 0.43 0 107 2 65 3 50 4 67 17 70 27 105 32 44 33 106 38 3 40 47 50 133 61 93 71 98 85 80 96 78 111 128 118 107 146 65 147 6 148 231 152 22 158 46 159 104 162 77 172 105 176 100 204 47 213 94 217 46 219 57 220 115 224 195 227 67 232 76 112 0 160 25 190 42 25 57 142 100 214 0 229 107 
605 0.32186536889108913 -0.0701875896856314 1.0222301944813383 0 0 0 0.45 0 108 12 14 17 71 53 72 138 18 172 106 
606 0.49564210136964243 -0.14794803930438036 0.7800365540887175 0 0 0 0.47 0 109 12 15 27 106 61 94 71 99 118 108 217 47 227 68 
607 0.08877143734177839 -0.035632743150997244 0.8141346907360211 0 0 0 0.29 0 110 53 73 61 95 157 100 
608 -0.028758021756207373 -0.018613314914942475 0.7015700970818137 0 0 0 0.32 0 111 17 72 53 74 118 109 
609 0.36751136161415743 -0.08941437098522197 0.9582717609650311 0 0 0 0.58 0 112 61 96 152 23 41 25 97 27 160 26 217 48 
610 0.5670424172006985 -0.17397606134641852 0.7093433825675441 0 0 0 0.61 0 113 15 3 38 4 40 48 44 189 71 100 77 172 9 21 19 45 26 118 33 107 42 30 43 46 52 92 85 81 93 0 110 54 126 84 162 78 164 235 196 129 204 48 
611 0.6315637330056698 -0.19988583376137148 0.649119576880455 0 0 0 0.85 0 114 9 22 26 119 54 0 63 19 71 101 73 100 97 28 190 43 199 70 232 77 56 20 147 7 162 79 15 4 142 101 126 85 148 232 
612 0.5276965436828946 -0.15694177792991656 0.7512493991644419 0 0 0 0.49 0 115 3 51 14 7 43 47 53 75 54 1 60 114 92 92 111 129 118 110 157 101 164 236 172 107 204 49 220 116 227 69 
613 0.45322980241509814 -0.12368404108330011 0.8446344560546281 0 0 0 0.36 0 116 9 23 43 48 61 97 77 173 220 117 224 196 
614 0.6041123682899805 -0.1871547608498664 0.6663452855184678 0 0 0 0.95 0 117 26 120 43 49 85 82 92 93 
615 0.6867955326766721 -0.2187867134110659 0.594174773720805 0 0 0 0.05 0 118 26 121 147 8 
616 0.5769308497595637 -0.1747629921887002 0.7012300076978703 0 0 0 0.57 0 119 15 5 27 107 152 24 217 49 220 118 221 61 
617 0.380643044122304 -0.09124800650219526 0.9373161921201717 0 0 0 0.28 0 120 2 66 4 68 11 56 50 134 61 98 152 25 176 101 67 42 96 79 97 29 160 27 204 50 213 95 
618 0.5199074493597715 -0.15004377409631156 0.7578877444906903 0 0 0 0.7 0 121 40 49 53 76 172 108 185 8 19 46 26 122 142 102 162 80 204 51 
619 0.6904435892819888 -0.2870243959173581 0.10567631357631939 0 0 0 0.22 0 122 67 43 89 8 
620 0.4922601393577069 -0.1384793243742789 0.7829128843074904 0 0 0 0.29 0 123 152 26 158 47 
621 0.14351703688894796 -0.03752155636349113 0.8633846763240465 0 0 0 0.17 0 124 61 99 172 109 
622 0.6662095970654441 -0.2059974274212273 0.6126460310222223 0 0 0 0.23 0 125 17 73 152 27 160 28 1 37 11 57 221 62 222 1 25 58 26 123 88 52 142 103 126 86 127 33 148 233 220 119 232 78 
623 -0.03478432881049797 -0.013903697216178894 0.6947280751045639 0 0 0 0.33 0 126 53 77 172 110 
624 0.5779020882987881 -0.16967938772725005 0.6991056951023011 0 0 0 0.5 0 127 2 67 4 69 17 74 27 108 33 108 40 50 69 5 71 102 73 101 77 174 96 80 118 111 147 9 190 44 204 52 217 50 221 63 227 70 1 38 29 5 53 78 61 100 142 104 148 234 164 237 196 130 
625 0.1838199579279218 -0.04022085460630631 0.9018579655566834 0 0 0 0.29 0 128 53 79 172 111 
626 0.5404469402228959 -0.1545353820966218 0.7348639452527351 0 0 0 0.22 0 129 15 6 61 101 85 83 
627 0.6920856106956256 -0.2128599253475833 0.5839567861677669 0 0 0 0.16 0 130 15 7 27 109 41 26 50 135 69 6 97 30 152 28 11 58 43 50 179 73 96 81 190 45 219 58 222 2 232 79 
628 0.7505612715086577 -0.23535482787115014 0.5278928945007239 0 0 0 0.34 0 131 11 59 15 8 27 110 50 136 53 80 61 102 89 9 96 82 128 75 152 29 190 46 204 53 213 96 227 71 232 80 160 29 1 39 56 21 63 20 147 10 163 0 198 29 208 0 217 51 222 3 
629 0.6923968887022753 -0.2817961124887672 0.10133329433117123 0 0 0 0.11 0 132 67 44 89 10 120 4 
630 0.451880707953109 -0.11344621510880272 0.8356076157698791 0 0 0 0.34 0 133 4 70 17 75 118 112 
631 0.6774069471760752 -0.20115063708429176 0.598566322299158 0 0 0 0.3 0 134 61 103 92 94 120 5 
632 0.34069375279913006 -0.06133424767619927 0.9913556153871886 0 0 0 0.35 0 135 17 76 19 47 43 51 53 81 111 130 118 113 
633 0.45145627060855525 -0.10918867675780655 0.8411955523347584 0 0 0 0.3 0 136 4 71 17 77 25 59 33 109 53 82 71 103 97 31 118 114 213 97 217 52 220 120 232 81 
634 0.6654670539811269 -0.1941776885854944 0.6110872046174177 0 0 0 0.38 0 137 11 60 77 175 96 83 97 32 152 30 158 48 217 53 232 82 
635 0.743092795167351 -0.22550717820935318 0.5329273897764919 0 0 0 0.19 0 138 4 72 11 61 15 9 152 31 128 76 213 98 217 54 
636 -0.062626476532682 -0.0044656579889218615 0.664292220805351 0 0 0 0.38 0 139 17 78 61 104 118 115 204 54 221 64 232 83 
637 0.46469421113579285 -0.11422274122706205 0.8121489033896465 0 0 0 0.16 0 140 2 68 158 49 
638 0.6758475253158007 -0.19580115832323458 0.5990435525336482 0 0 0 0.37 0 141 15 10 69 7 60 115 179 74 
639 0.6779453539660424 -0.19728286964075414 0.5943512103532967 0 0 0 0.16 0 142 53 83 54 2 61 105 69 8 118 116 147 11 152 32 157 102 185 9 
640 0.47158574003155546 -0.11706717956200564 0.7990490609318858 0 0 0 0.13 0 143 2 69 3 52 17 79 50 137 61 106 96 84 157 103 172 112 
641 0.6375723130769668 -0.17994602312677876 0.6405017083466388 0 0 0 0.56 0 144 4 73 146 66 158 50 
642 0.6920550971419186 -0.2022917608320627 0.5808030442463861 0 0 0 0.39 0 145 44 190 73 102 128 77 
643 0.6290559581078735 -0.1763369618118945 0.6412975824914894 0 0 0 0.68 0 146 69 9 120 6 1 40 3 53 11 62 15 11 27 111 44 191 50 138 77 176 81 57 96 85 118 117 160 30 129 6 147 12 152 33 157 104 164 238 176 102 190 47 204 55 213 99 223 0 56 22 71 104 89 11 158 51 197 0 217 55 220 121 222 4 19 48 42 31 126 87 196 131 198 30 
644 0.7741511839909735 -0.23009006443324828 0.5160493604738137 0 0 0 0.16 0 147 61 107 152 34 
645 0.3936056154785098 -0.0790414864785672 0.9155422725662159 0 0 0 0.34 0 148 2 70 17 80 32 45 33 110 40 51 50 139 96 86 118 118 146 67 159 105 164 239 224 197 232 84 
646 0.3332227877644631 -0.049912604993986094 1.013580314204374 0 0 0 0.33 0 149 53 84 172 113 11 63 17 81 65 30 179 75 118 119 138 19 232 85 
647 0.39981848117897284 -0.08183497655746733 0.9020240190104226 0 0 0 0.47 0 150 11 64 157 105 176 103 
648 -0.07927763493364154 0.00020013544176742914 0.6487251432562003 0 0 0 0.31 0 151 53 85 61 108 172 114 
649 0.3689148375188999 -0.06634835948509489 0.9500838263814215 0 0 0 0.28 0 152 2 71 4 74 19 49 25 60 32 46 33 111 44 192 50 140 61 109 71 105 77 177 85 84 97 33 157 106 164 240 176 104 92 95 118 120 196 132 213 100 221 65 96 87 114 49 190 48 204 56 111 131 158 52 172 115 179 76 209 113 40 52 42 32 109 33 52 93 60 116 110 55 148 235 159 106 11 65 27 112 142 105 127 34 217 56 224 198 229 108 
650 0.41370348386064865 -0.08571619846440867 0.8897352836147835 0 0 0 0.78 0 153 44 193 71 106 96 88 148 236 158 53 159 107 190 49 217 57 224 199 209 114 227 72 97 34 160 31 219 59 17 82 19 50 42 33 77 178 85 85 146 68 157 107 176 105 204 57 40 53 142 106 109 34 220 122 229 109 
651 0.32966467777173786 -0.044468298242406605 1.0180325336023752 0 0 0 0.44 0 154 4 75 17 83 50 141 53 86 61 110 67 45 96 89 111 132 128 78 3 54 179 77 172 116 190 50 
652 0.42550492062583367 -0.08354408397371033 0.8861466165532332 0 0 0 1.0 0 155 40 54 60 117 71 107 111 133 17 84 
653 0.45792165522760314 -0.09988963541454818 0.8251436844522873 0 0 0 0.47 0 156 17 85 50 142 118 121 
654 0.6166295023415884 -0.1626336871778431 0.6546679658786206 0 0 0 0.88 0 157 17 86 26 124 32 47 73 103 77 179 15 12 27 113 63 21 97 35 120 7 160 32 185 10 190 51 219 60 220 123 221 66 222 5 56 23 19 51 40 55 42 34 60 118 85 86 148 237 162 81 164 241 172 117 196 133 142 107 
655 0.716229169538698 -0.20085302771079505 0.5558957995964183 0 0 0 0.33 0 158 4 76 11 66 44 194 50 143 71 108 77 180 89 12 120 8 128 79 213 101 221 67 232 86 67 46 112 1 118 122 160 33 152 35 158 54 182 0 190 52 220 124 
656 0.6071139502178496 -0.15847300014091936 0.6631285161169985 0 0 0 0.13 0 159 25 61 96 90 152 36 160 34 219 61 
657 0.7413884360682382 -0.20822833630718035 0.5419932231342113 0 0 0 0.35 0 160 27 114 120 9 
658 0.4347212060551414 -0.0881743574239438 0.8601787895420376 0 0 0 0.91 0 161 27 115 159 108 142 108 204 58 
659 0.46651930565408084 -0.10224366477361566 0.8147655786644223 0 0 0 0.67 0 162 17 87 77 181 118 123 213 102 217 58 232 87 
660 0.07325039602638 -0.010196895089827896 0.7952452707529986 0 0 0 0.55 0 163 61 111 157 108 
661 0.7558017680813499 -0.21304982243856732 0.5171625936931101 0 0 0 0.49 0 164 9 24 15 13 32 48 50 144 77 182 127 35 128 80 152 37 158 55 
662 0.45543752887721894 -0.09505246510178791 0.8318167839186259 0 0 0 0.45 0 165 9 25 17 88 71 109 85 87 148 238 185 11 204 59 219 62 220 125 26 125 42 35 110 56 229 110 
663 0.5730662522000888 -0.14203142944782834 0.6958884077588483 0 0 0 0.34 0 166 4 77 15 14 16 4 50 145 69 10 118 124 128 81 146 69 152 38 157 109 1 41 27 116 44 195 73 104 77 183 111 134 112 2 120 10 160 35 147 13 164 242 190 53 213 103 219 63 220 126 222 6 232 88 26 126 56 24 127 36 19 52 40 56 88 53 142 109 148 239 196 134 
664 0.4664200242902063 -0.09824284748973135 0.8186704239023749 0 0 0 0.32 0 167 2 72 3 55 4 78 9 26 11 67 17 89 19 53 32 49 33 112 40 57 44 196 50 146 53 87 61 112 71 110 77 184 89 13 92 96 97 36 111 135 118 125 147 14 148 240 157 110 158 56 162 82 164 243 196 135 204 60 213 104 219 64 220 127 221 68 224 200 232 89 60 119 179 78 172 118 16 5 28 0 42 36 85 88 93 1 109 35 110 57 159 109 200 6 142 110 
665 0.4765282804145833 -0.10235726830018443 0.8009584718245552 0 0 0 0.74 0 168 11 68 16 6 17 90 
666 0.508343425872301 -0.11553241643084182 0.7640730672777587 0 0 0 0.28 0 169 4 79 11 69 15 15 16 7 17 91 26 127 27 117 33 113 44 197 50 147 61 113 71 111 77 185 89 14 92 97 96 91 118 126 147 15 148 241 152 39 157 111 158 57 159 110 164 244 190 54 213 105 214 1 227 73 232 90 
667 0.5807452166564341 -0.14276841356473818 0.6945308572219655 0 0 0 0.09 0 170 15 16 147 16 
668 0.4740981574509906 -0.10063143592608373 0.8078236618140147 0 0 0 0.6 0 171 3 56 11 70 12 16 71 112 159 111 164 245 204 61 219 65 232 91 
669 0.37098821872172544 -0.0556762276146654 0.9465570440473118 0 0 0 0.34 0 172 11 71 53 88 172 119 162 83 176 106 204 62 209 115 224 201 
670 0.7666789807179766 -0.21416501063622492 0.49875003878623225 0 0 0 0.18 0 173 9 27 61 114 
671 0.10585821716039588 -0.009368116023053744 0.8205963645222074 0 0 0 0.24 0 174 53 89 157 112 
672 0.7996263561585107 -0.22277695287189647 0.4723481186622263 0 0 0 0.29 0 175 50 148 61 115 128 82 152 40 
673 0.5559052455297433 -0.12868872073783133 0.7142823908583099 0 0 0 0.42 0 176 2 73 4 80 9 28 11 72 15 17 16 8 17 92 19 54 26 128 27 118 33 114 36 25 38 5 40 58 44 198 50 149 53 90 54 3 60 120 61 116 63 22 69 11 71 113 77 186 85 89 89 15 92 98 96 92 97 37 103 73 118 127 120 11 126 88 127 37 128 83 146 70 147 17 148 242 152 41 157 113 158 58 159 112 162 84 164 246 176 107 185 12 190 55 196 136 204 63 213 106 214 2 217 59 219 66 220 128 221 69 222 7 223 1 224 202 227 74 232 92 112 3 160 36 200 7 42 37 29 6 52 94 109 36 136 1 142 111 229 111 
674 0.691154026935368 -0.18147339838645926 0.5754235738458298 0 0 0 0.27 0 177 61 117 120 12 
675 0.09329224615885927 -0.006679644475248403 0.8126357716286045 0 0 0 0.45 0 178 53 91 157 114 
676 0.3245724296854782 -0.03186606484693935 1.0121990613409528 0 0 0 0.42 0 179 3 57 4 81 61 118 96 93 118 128 172 120 190 56 213 107 227 75 53 92 103 74 111 136 128 84 157 115 164 247 176 108 209 116 217 60 
677 0.4616833987234585 -0.0911656135523247 0.8168717243028594 0 0 0 0.49 0 180 3 58 60 121 103 75 172 121 
678 0.7656148874061987 -0.20652527708904853 0.5087628179696994 0 0 0 0.29 0 181 9 29 32 50 44 199 50 150 69 12 89 16 118 129 128 85 158 59 176 109 
679 0.3793141622884232 -0.05657738100968613 0.9136435209978737 0 0 0 0.26 0 182 41 27 61 119 157 116 
680 0.3162233399311541 -0.025254977774891885 1.024971312331368 0 0 0 0.37 0 183 17 93 32 51 92 99 118 130 221 70 232 93 172 122 179 79 
681 0.6827996312937363 -0.17386660886156868 0.5856852129750616 0 0 0 0.33 0 184 3 59 12 17 25 62 29 7 33 115 53 93 61 120 96 94 97 38 118 131 127 38 128 86 152 42 190 57 217 61 227 76 56 25 89 17 181 55 160 37 
682 -0.036004283078676196 0.006808486374267546 0.6882530872162882 0 0 0 0.21 0 185 53 94 61 121 
683 0.42595020495085734 -0.07100948599946502 0.8678231254910099 0 0 0 0.21 0 186 61 122 71 114 
684 0.37715752286228404 -0.048268974960852314 0.9422310736136703 0 0 0 0.11 0 187 17 94 118 132 
685 0.8192175812273336 -0.22323874041191918 0.44406685398212786 0 0 0 0.39 0 188 3 60 11 73 15 18 50 151 63 23 69 13 97 39 111 137 118 133 128 87 172 123 190 58 213 108 71 115 114 50 198 31 
686 0.4550666173293628 -0.08088015955763149 0.8283031761293616 0 0 0 0.18 0 189 4 82 19 55 44 200 50 152 
687 0.4623467391896047 -0.08302123437319352 0.8173941043185192 0 0 0 0.19 0 190 17 95 61 123 118 134 
688 0.35234517486521494 -0.032785726993726075 0.9775486000500582 0 0 0 0.31 0 191 50 153 61 124 
689 0.43786975938325895 -0.07013460141086011 0.8548443667396729 0 0 0 0.22 0 192 27 119 126 89 
690 0.8126727214872953 -0.21453720143161634 0.4611625662605699 0 0 0 0.3 0 193 27 120 69 14 77 187 120 13 152 43 
691 0.4798986321785651 -0.08938015897514828 0.7889128626528635 0 0 0 0.39 0 194 4 83 16 9 17 96 50 154 53 95 60 122 61 125 89 18 96 95 111 138 118 135 127 39 152 44 158 60 172 124 176 110 190 59 204 64 213 109 219 67 232 94 41 28 114 51 179 80 136 2 142 112 
692 0.7516905671289449 -0.19158978825954143 0.5131869660806168 0 0 0 0.29 0 195 2 74 11 74 15 19 17 97 27 121 32 52 33 116 50 155 61 126 77 188 89 19 96 96 118 136 127 40 128 88 152 45 158 61 176 111 4 84 29 8 40 59 67 47 120 14 148 243 164 248 172 125 213 110 221 71 227 77 232 95 190 60 204 65 222 8 181 56 1 42 56 26 105 0 235 0 62 0 63 24 97 40 160 38 217 62 
693 0.6372737770180988 -0.14811174130845192 0.6242181783834794 0 0 0 0.42 0 196 2 75 4 85 11 75 15 20 17 98 25 63 26 129 44 201 50 156 53 96 54 4 61 127 71 116 73 105 77 189 85 90 96 97 111 139 118 137 120 15 146 71 147 18 148 244 152 46 157 117 158 62 159 113 164 249 176 112 185 13 196 137 204 66 213 111 217 63 220 129 221 72 222 9 223 2 227 78 232 96 1 43 27 122 29 9 97 41 160 39 16 10 38 6 40 60 103 76 142 113 162 85 
694 0.8205965348481592 -0.2151369096495715 0.4427760402703568 0 0 0 0.31 0 197 3 61 11 76 29 10 44 202 54 5 67 48 97 42 103 77 111 140 118 138 152 47 172 126 190 61 227 79 232 97 
695 0.6367657294168264 -0.1439335886302564 0.6267490835051411 0 0 0 0.21 0 198 11 77 15 21 25 64 40 61 43 52 53 97 54 6 61 128 69 15 97 43 111 141 120 16 128 89 147 19 152 48 158 63 176 113 204 67 213 112 217 64 219 68 222 10 160 40 19 56 96 98 179 81 172 127 227 80 2 76 4 86 17 99 27 123 29 11 42 38 71 117 77 190 85 91 126 90 148 245 159 114 164 250 185 14 196 138 220 130 
696 0.503567000013756 -0.0905890480692467 0.7710028498907858 0 0 0 0.15 0 199 152 49 158 64 
697 0.8244246308286324 -0.2099979986362444 0.4542299883198177 0 0 0 0.24 0 200 53 98 97 44 172 128 
698 0.5424849138648822 -0.105059811709341 0.7240226319414981 0 0 0 0.29 0 201 15 22 16 11 50 157 69 16 118 139 128 90 152 50 157 118 158 65 172 129 176 114 11 78 89 20 120 17 190 62 204 68 213 113 219 69 221 73 232 98 
699 0.5682939146285471 -0.1151390172673474 0.6950937502272798 0 0 0 0.31 0 202 11 79 14 8 61 129 77 191 111 142 118 140 120 18 147 20 172 130 204 69 213 114 219 70 222 11 
700 0.6588987279673163 -0.14915517603263798 0.6058491651117246 0 0 0 0.52 0 203 3 62 11 80 12 18 15 23 26 130 27 124 29 12 43 53 53 99 61 130 71 118 89 21 96 99 120 19 126 91 146 72 147 21 159 115 164 251 172 131 185 15 204 70 222 12 227 81 42 39 63 25 73 106 107 0 148 246 162 86 176 115 196 139 
701 0.5523534517574317 -0.10727294428594117 0.7144478559392732 0 0 0 0.41 0 204 3 63 4 87 11 81 14 9 16 12 17 100 27 125 32 53 38 7 50 158 89 22 92 100 96 100 111 143 147 22 152 51 157 119 158 66 172 132 176 116 190 63 204 71 213 115 219 71 221 74 227 82 232 99 44 203 118 141 160 41 129 7 
702 0.5534502974141235 -0.108663978588433 0.7096472586650068 0 0 0 0.3 0 205 4 88 11 82 17 101 38 8 44 204 50 159 61 131 71 119 77 192 118 142 128 91 147 23 152 52 157 120 158 67 164 252 172 133 176 117 190 64 213 116 232 100 3 64 15 24 120 20 160 42 181 57 217 65 26 131 42 40 85 92 109 37 159 116 185 16 196 140 40 62 52 95 127 41 142 114 148 247 229 112 
703 0.6756166278802547 -0.1534673136670663 0.585320605588977 0 0 0 0.58 0 206 11 83 17 102 118 143 190 65 219 72 
704 0.8200034077073661 -0.20792788199378506 0.4377204907643385 0 0 0 0.37 0 207 3 65 11 84 15 25 17 103 44 205 50 160 53 100 54 7 63 26 67 49 97 45 111 144 120 21 126 92 128 92 147 24 152 53 172 134 190 66 213 117 220 131 227 83 232 101 
705 0.5833921243698753 -0.11779073736845198 0.6768878641358619 0 0 0 0.28 0 208 15 26 69 17 97 46 120 22 128 93 152 54 160 43 
706 0.6856592206188766 -0.15560008673031786 0.5783760856626349 0 0 0 0.36 0 209 2 77 3 66 9 30 11 85 12 19 15 27 17 104 25 65 26 132 27 126 29 13 32 54 33 117 43 54 50 161 53 101 60 123 61 132 63 27 71 120 73 107 118 144 120 23 147 25 148 248 152 55 164 253 176 118 196 141 204 72 213 118 217 66 220 132 227 84 234 0 160 44 182 1 200 8 42 41 54 8 85 93 92 101 146 73 157 121 165 0 185 17 197 1 142 115 126 93 219 73 235 1 
707 0.6915361428402255 -0.15704198914115708 0.5727314535292551 0 0 0 0.31 0 210 2 78 3 67 4 89 9 31 11 86 12 20 15 28 17 105 19 57 25 66 26 133 27 127 29 14 32 55 33 118 50 162 54 9 61 133 63 28 69 18 89 23 96 101 111 145 118 145 146 74 147 26 152 56 157 122 159 117 176 119 204 73 213 119 219 74 220 133 221 75 227 85 232 102 234 1 40 63 42 42 44 206 53 102 60 124 71 121 73 108 77 193 85 94 91 0 92 102 105 1 109 38 148 249 163 1 164 254 165 1 172 135 185 18 196 142 197 2 142 116 162 87 235 2 
708 0.7001102496254464 -0.15944068294074662 0.5624670415889166 0 0 0 0.37 0 211 2 79 12 21 15 29 17 106 43 55 53 103 61 134 63 29 69 19 73 109 77 194 92 103 97 47 120 24 147 27 152 57 158 68 176 120 204 74 213 120 219 75 222 13 232 103 234 2 1 44 3 68 11 87 44 207 50 163 85 95 160 45 9 32 19 58 26 134 28 1 29 15 33 119 42 43 54 10 71 122 91 1 93 2 96 102 105 2 109 39 111 146 118 146 126 94 146 75 148 250 157 123 159 118 164 255 172 136 185 19 196 143 200 9 25 67 27 128 142 117 220 134 221 76 227 86 235 3 
709 0.3174297743120487 -0.0072934827433805355 1.0177828102928612 0 0 0 0.33 0 212 2 80 9 33 17 107 25 68 26 135 32 56 50 164 53 104 71 123 77 195 164 256 220 135 221 77 227 87 111 147 118 147 148 251 172 137 196 144 209 117 224 203 40 64 42 44 52 96 85 96 3 69 4 90 142 118 19 59 229 113 
710 0.14877640503963466 0.005073683736929052 0.857771641865737 0 0 0 0.37 0 213 53 105 61 135 157 124 
711 0.6340751645429208 -0.13334230343543776 0.6260343852448217 0 0 0 0.32 0 214 14 10 17 108 96 103 162 88 1 45 11 88 19 60 26 136 50 165 60 125 111 148 179 82 146 76 164 257 172 138 213 121 217 67 219 76 227 88 
712 0.5932133854710635 -0.1175618359128001 0.6690771023670833 0 0 0 0.25 0 215 2 81 3 70 4 91 11 89 12 22 14 11 15 30 16 13 17 109 29 16 32 57 33 120 36 26 38 9 43 56 50 166 61 136 73 110 89 24 92 104 97 48 118 148 120 25 129 8 147 28 152 58 158 69 172 139 190 67 204 75 213 122 217 68 219 77 232 104 146 77 179 83 199 71 157 125 160 46 176 121 1 46 25 69 26 137 56 27 65 31 164 258 198 32 41 29 
713 0.7191986929483289 -0.16407943310187598 0.5449065141923422 0 0 0 0.96 0 216 4 92 9 34 12 23 15 31 19 61 25 70 27 129 40 65 53 106 61 137 67 50 71 124 77 196 96 104 97 49 118 149 120 26 148 252 158 70 162 89 190 68 204 76 217 69 221 78 234 3 1 47 29 17 50 167 111 149 112 4 127 42 160 47 152 59 182 2 185 20 220 136 56 28 69 20 142 119 165 2 172 140 227 89 
714 0.7258609846832419 -0.16588338254426802 0.5361214428305281 0 0 0 0.47 0 217 2 82 3 71 4 93 9 35 11 90 15 32 17 110 27 130 32 58 33 121 40 66 43 57 44 208 53 107 61 138 63 30 71 125 73 111 85 97 92 105 96 105 118 150 120 27 128 94 147 29 148 253 158 71 164 259 190 69 196 145 204 77 213 123 217 70 221 79 222 14 227 90 232 105 19 62 29 18 42 45 52 97 60 126 105 3 146 78 157 126 159 119 172 141 176 122 185 21 200 10 220 137 235 4 
715 -0.05659124318249404 0.02068049923732622 0.6633838807833078 0 0 0 0.38 0 218 17 111 53 108 61 139 118 151 
716 0.7427487495767041 -0.17014993227164332 0.5199379210102145 0 0 0 0.35 0 219 2 83 3 72 11 91 14 12 17 112 19 63 27 131 33 122 40 67 43 58 44 209 60 127 61 140 69 21 73 112 92 106 96 106 111 150 120 28 152 60 158 72 162 90 164 260 172 142 176 123 196 146 204 78 217 71 227 91 160 48 182 3 1 48 42 46 52 98 136 3 146 79 
717 0.6192039230785791 -0.12417909864685896 0.6409267331414217 0 0 0 0.25 0 220 2 84 3 73 11 92 14 13 17 113 44 210 50 168 89 25 97 50 118 152 120 29 147 30 152 61 157 127 172 143 190 70 213 124 217 72 232 106 1 49 160 49 25 71 26 138 56 29 65 32 158 73 198 33 
718 0.7627674249742572 -0.17548927860144822 0.4992347897931746 0 0 0 0.26 0 221 2 85 3 74 9 36 11 93 15 33 17 114 27 132 33 123 40 68 43 59 50 169 61 141 69 22 73 113 77 197 89 26 120 30 152 62 176 124 12 24 44 211 92 107 158 74 196 147 204 79 213 125 217 73 127 43 160 50 182 4 29 19 42 47 85 98 105 4 136 4 164 261 165 3 227 92 235 5 
719 0.1710882622636221 0.009485490385855035 0.877273651985557 0 0 0 0.28 0 222 53 109 61 142 157 128 
720 0.6633889532538182 -0.1356462747979903 0.5996102616396651 0 0 0 0.4 0 223 4 94 89 27 92 108 204 80 213 126 232 107 
721 0.7957295966420547 -0.18323131409867677 0.463736785177189 0 0 0 0.3 0 224 3 75 15 34 17 115 43 60 53 110 61 143 67 51 77 198 147 31 176 125 204 81 213 127 4 95 27 133 71 126 97 51 111 151 114 52 118 153 164 262 165 4 19 64 29 20 33 124 40 69 42 48 52 99 54 11 60 128 85 99 91 2 126 95 148 254 162 91 163 2 172 144 220 138 235 6 
722 -0.08995698082101149 0.026601536946569554 0.6301942741924956 0 0 0 0.36 0 225 53 111 61 144 
723 0.9058052229770225 -0.2148754093006652 0.40795757243305725 0 0 0 0.62 0 226 11 94 17 116 44 212 50 170 67 52 69 23 120 31 147 32 152 63 172 145 15 35 114 53 182 5 
724 0.6878248929468349 -0.14203569085810866 0.5711547770613721 0 0 0 0.32 0 227 2 86 4 96 15 36 17 117 41 30 50 171 71 127 73 114 77 199 103 78 111 152 146 80 157 129 164 263 190 71 220 139 221 80 179 84 172 146 
725 0.38875904542431944 -0.027918981871887977 0.8950594472481807 0 0 0 0.28 0 228 61 145 157 130 
726 0.1742584364038065 0.013591102930261056 0.874343981955424 0 0 0 0.33 0 229 53 112 61 146 
727 0.5735770909160893 -0.09466167850149486 0.7001826799447851 0 0 0 0.14 0 230 14 14 97 52 
728 0.777961545752787 -0.17194236520372067 0.48136863803436897 0 0 0 0.4 0 231 11 95 67 53 69 24 81 58 89 28 128 95 172 147 176 126 204 82 222 15 227 93 232 108 160 51 56 30 208 1 
729 0.8738436043680126 -0.19889082598142901 0.4328250887633541 0 0 0 0.4 0 232 11 96 17 118 50 172 53 113 67 54 71 128 89 29 120 32 128 96 172 148 190 72 204 83 227 94 4 97 87 0 103 79 111 153 114 54 118 154 163 3 182 6 
730 0.5855163144638268 -0.1003163075887421 0.6741647732181697 0 0 0 0.27 0 233 4 98 11 97 16 14 25 72 97 53 118 155 120 33 147 33 152 64 
731 0.5982818731081743 -0.10127047431736266 0.671212370004987 0 0 0 0.22 0 234 50 173 120 34 
732 0.6374476457097121 -0.11458933549784713 0.6374527469109269 0 0 0 0.28 0 235 50 174 157 131 176 127 160 52 
733 0.6976107725702085 -0.13825607478915386 0.560156295612728 0 0 0 0.28 0 236 3 76 17 119 50 175 120 35 147 34 152 65 213 128 219 78 232 109 
734 0.7465720422709368 -0.15659959101101278 0.5092506804978673 0 0 0 0.16 0 237 4 99 17 120 50 176 73 115 147 35 
735 0.7715215588684642 -0.16284411567193122 0.4824178496307505 0 0 0 0.33 0 238 3 77 11 98 15 37 29 21 43 61 54 12 73 116 77 200 111 154 172 149 190 73 204 84 213 129 217 74 222 16 232 110 71 129 152 66 160 53 42 49 52 100 60 129 63 31 85 100 91 3 126 96 136 5 148 255 159 120 164 264 196 148 
736 0.9095771169220406 -0.20257276964245527 0.4082648204203193 0 0 0 0.49 0 239 3 78 11 99 14 15 15 38 17 121 53 114 54 13 63 32 67 55 89 30 97 54 111 155 128 97 172 150 56 31 65 33 134 0 
737 0.6349295348396813 -0.11096502445471401 0.629054212939958 0 0 0 0.26 0 240 11 100 15 39 29 22 54 14 71 130 97 55 120 36 147 36 213 130 232 111 
738 0.6513771572744289 -0.11474920067474177 0.6151149713485482 0 0 0 0.42 0 241 4 100 146 81 172 151 204 85 223 3 
739 0.7962010226670208 -0.16905221298933298 0.4565870988451657 0 0 0 0.3 0 242 3 79 15 40 53 115 73 117 172 152 27 134 103 80 111 156 114 55 120 37 128 98 164 265 165 5 190 74 
740 0.6679660368117367 -0.117163455069288 0.6041538246179523 0 0 0 0.26 0 243 3 80 17 122 97 56 120 38 152 67 
741 0.8824804171292912 -0.18714934947893627 0.433111179333603 0 0 0 0.19 0 244 61 147 69 25 
742 0.8025247699801786 -0.16820519672586084 0.4538335975079908 0 0 0 0.35 0 245 50 177 53 116 61 148 118 156 120 39 158 75 
743 0.6838161662744875 -0.12257921423297646 0.5815720003638204 0 0 0 0.23 0 246 2 87 50 178 232 112 234 4 
744 -0.02249763638312444 0.031613874916999435 0.6874391795009238 0 0 0 0.32 0 247 53 117 61 149 
745 0.6665245868229404 -0.11310540372056352 0.6165164784931773 0 0 0 0.19 0 248 50 179 61 150 
746 0.35611966570528764 0.0030467649122998862 0.9566512538285313 0 0 0 0.3 0 249 4 101 50 180 61 151 157 132 179 85 128 99 
747 0.5436673097504389 -0.06734504071964391 0.7200060830872493 0 0 0 0.41 0 250 4 102 27 135 29 23 103 81 128 100 
748 0.6084548805406617 -0.08935033784861252 0.6532218155980786 0 0 0 0.35 0 251 120 40 128 101 176 128 204 86 219 79 
749 0.63831779318851 -0.10555243601227852 0.5835785019771209 0 0 0 0.2 0 252 128 102 152 68 
750 0.3552539525228905 0.00864792577591719 0.9539931989006548 0 0 0 0.43 0 253 4 103 17 123 43 62 50 181 61 152 71 131 118 157 157 133 221 81 232 113 25 73 114 56 213 131 126 97 176 129 204 87 209 118 219 80 
751 0.879435147700618 -0.17892130696761432 0.42124891243116047 0 0 0 0.42 0 254 11 101 118 158 190 75 221 82 
752 0.541785430479792 -0.06334574525308685 0.721047742259411 0 0 0 0.33 0 255 9 37 11 102 14 16 41 31 50 182 60 130 61 153 69 26 152 69 157 134 176 130 
753 0.6198846446318286 -0.09189932716199706 0.6360468606457298 0 0 0 0.16 0 256 50 183 152 70 
754 0.7493820598891027 -0.13834525563361666 0.5043964740458067 0 0 0 0.22 0 257 11 103 50 184 69 27 
755 0.9050044815704831 -0.18399010024418738 0.408187373201975 0 0 0 0.5 0 258 53 118 77 201 118 159 128 103 190 76 227 95 232 114 
756 0.4003215060856636 -0.007731530823295333 0.8936192320298215 0 0 0 0.35 0 259 4 104 27 136 111 157 157 135 204 88 221 83 232 115 50 185 209 119 
757 0.5003084451642097 -0.04765751947515364 0.7632460198926292 0 0 0 0.13 0 260 11 104 118 160 
758 0.5607421995524055 -0.06977395398710697 0.6913784708624369 0 0 0 0.09 0 261 17 124 50 186 
759 0.7758426017872855 -0.14534441671215342 0.4786102090907877 0 0 0 0.18 0 262 50 187 61 154 
760 0.7913112728950319 -0.14881276204305185 0.4691605206276628 0 0 0 0.3 0 263 4 105 50 188 69 28 71 132 73 118 81 59 120 41 152 71 172 153 
761 0.802124443033595 -0.15150959328320238 0.45252245817520537 0 0 0 0.25 0 264 3 81 17 125 172 154 176 131 56 32 152 72 
762 0.8157360277620814 -0.1551452361565817 0.442936793905213 0 0 0 0.16 0 265 69 29 152 73 213 132 221 84 
763 0.4292049158703097 -0.015113196813019677 0.8517534546979035 0 0 0 0.25 0 266 3 82 4 106 11 105 41 32 43 63 53 119 61 155 71 133 89 31 96 107 97 57 103 82 111 158 138 20 157 136 158 76 172 155 176 132 190 77 204 89 213 133 219 81 227 96 232 116 179 86 
764 0.674608784825421 -0.10487399084112929 0.5822979277911474 0 0 0 0.29 0 267 3 83 54 15 61 156 118 161 152 74 157 137 
765 0.6828494892514622 -0.1064421830697111 0.5775638161787877 0 0 0 0.1 0 268 81 60 164 266 
766 0.39140626862322536 0.002761962840142622 0.9085430536937272 0 0 0 0.3 0 269 126 98 159 121 204 90 227 97 3 84 114 57 
767 0.8503694400430473 -0.16110777812577287 0.4293914204083277 0 0 0 0.41 0 270 17 126 61 157 97 58 152 75 
768 0.37931649805407347 0.012385134002545069 0.9326476775290753 0 0 0 0.45 0 271 3 85 11 106 53 120 111 159 
769 0.6208665147459768 -0.07940061620775175 0.6388849538494948 0 0 0 0.38 0 272 50 189 120 42 152 76 
770 0.9254668781497334 -0.1764267581209564 0.39852170548579735 0 0 0 0.32 0 273 3 86 11 107 14 17 15 41 17 127 44 213 50 190 53 121 61 158 89 32 92 109 118 162 120 43 147 37 152 77 217 75 221 85 227 98 232 117 67 56 103 83 114 58 128 104 134 1 56 33 62 1 111 160 129 9 165 6 182 7 
771 0.37964004428990095 0.010828186911789897 0.9208332256328323 0 0 0 0.25 0 274 4 107 41 33 43 64 50 191 61 159 118 163 128 105 172 156 176 133 27 137 97 59 114 59 111 161 126 99 162 92 164 267 179 87 209 120 213 134 224 204 232 118 
772 0.5341722818427148 -0.04813813127974049 0.7255192567262858 0 0 0 0.36 0 275 2 88 9 38 15 42 27 138 44 214 54 16 214 3 217 76 221 86 
773 0.4781659037559043 -0.027908630846327526 0.78711309994084 0 0 0 0.41 0 276 2 89 4 108 16 15 27 139 32 59 44 215 53 122 71 134 77 202 92 110 146 82 157 138 172 157 213 135 214 4 232 119 17 128 41 34 114 60 164 268 
774 0.3906056156818385 0.008652983607150935 0.9085428004192264 0 0 0 0.33 0 277 3 87 9 39 53 123 67 57 92 111 96 108 118 164 126 100 138 21 159 122 172 158 176 134 190 78 196 149 227 99 232 120 11 108 179 88 114 61 21 545 50 192 61 160 77 203 128 106 209 121 213 136 2 90 27 140 33 125 52 101 148 256 162 93 164 269 200 11 224 205 229 114 
775 0.42298530941135 -0.00343355681619663 0.8636278453986024 0 0 0 0.27 0 278 71 135 146 83 157 139 172 159 
776 0.47283490030312453 -0.024708188587661963 0.7902210070314336 0 0 0 0.16 0 279 11 109 147 38 
777 0.7520472459720575 -0.12301065756115827 0.501583937128538 0 0 0 0.17 0 280 29 24 50 193 
778 0.7668335771587053 -0.12664796726849542 0.4916147378896263 0 0 0 0.13 0 281 50 194 61 161 71 136 120 44 152 78 
779 0.7435376722870692 -0.11728458539068987 0.5131312063253439 0 0 0 0.17 0 282 4 109 11 110 17 129 118 165 120 45 190 79 213 137 234 5 
780 0.39735420391921716 0.008008699968658474 0.8941554723825356 0 0 0 0.48 0 283 3 88 50 195 96 109 219 82 232 121 179 89 209 122 1 50 26 139 56 34 67 58 164 270 217 77 220 140 221 87 224 206 88 54 118 166 128 107 
781 0.4369578031079817 -0.008624772898609408 0.8336709565161781 0 0 0 0.16 0 284 61 162 158 77 
782 0.8913479874023862 -0.16034036122053058 0.40794555292326135 0 0 0 0.37 0 285 3 89 11 111 15 43 17 130 44 216 50 196 53 124 61 163 69 30 77 204 118 167 120 46 128 108 129 10 147 39 152 79 190 80 217 78 221 88 222 17 227 100 232 122 4 110 103 84 111 162 114 62 164 271 165 7 56 35 71 137 73 119 100 0 105 5 182 8 235 7 
783 0.79915357014386 -0.1352638039944374 0.44819743639907594 0 0 0 0.3 0 286 50 197 61 164 77 205 120 47 152 80 176 135 
784 0.8158500091426156 -0.139143606861962 0.43927343958847054 0 0 0 0.16 0 287 43 65 53 125 152 81 213 138 222 18 
785 0.8832683275944901 -0.15561884227678235 0.41045291429133274 0 0 0 0.31 0 288 3 90 11 112 17 131 36 27 50 198 61 165 120 48 152 82 222 19 232 123 15 44 65 34 77 206 114 63 118 168 147 40 182 9 190 81 198 34 217 79 235 8 
786 0.4216815752654773 0.004543926109631241 0.8693819961472357 0 0 0 0.23 0 289 96 110 126 101 
787 0.4897253858806099 -0.025803821736284236 0.7656559775286339 0 0 0 0.23 0 290 4 111 11 113 16 16 17 132 61 166 118 169 128 109 146 84 147 41 157 140 158 78 172 160 176 136 190 82 204 91 213 139 
788 0.716302102822832 -0.10139520838067122 0.5400867622700084 0 0 0 0.26 0 291 9 40 61 167 69 31 120 49 147 42 152 83 158 79 172 161 
789 0.6286189120122817 -0.18138542545956324 0.0027116169022345198 0 0 0 0.2 0 292 69 32 89 33 120 50 
790 0.6870217579838805 -0.09092929960582251 0.5685684904542806 0 0 0 0.26 0 293 3 91 14 18 17 133 61 168 97 60 
791 0.8476119582528263 -0.1440880500183696 0.4203995959316949 0 0 0 0.33 0 294 9 41 11 114 15 45 17 134 27 141 43 66 44 217 53 126 54 17 61 169 71 138 73 120 77 207 92 112 97 61 118 170 120 51 147 43 152 84 190 83 204 92 217 80 221 89 222 20 232 124 3 92 67 59 114 64 197 3 235 9 56 36 62 2 89 34 103 85 111 163 162 94 164 272 182 10 
792 0.871121039677019 -0.1493836646409924 0.4126154601171446 0 0 0 0.18 0 295 9 42 17 135 44 218 61 170 92 113 152 85 
793 0.33511760559787396 0.040550417978197105 0.9788319884329594 0 0 0 0.43 0 296 4 112 11 115 17 136 213 140 217 81 232 125 73 121 114 65 118 171 179 90 
794 0.3520840480365773 0.03195173913096407 0.9445692293169052 0 0 0 0.15 0 297 17 137 118 172 
795 0.6381236930366132 -0.17985907872899876 0.010296053997188194 0 0 0 0.16 0 298 69 33 120 52 
796 0.6997793284158594 -0.09332441699618023 0.5494080447873162 0 0 0 0.31 0 299 3 93 29 25 33 126 38 10 43 67 61 171 69 34 103 86 128 110 146 85 147 44 157 141 172 162 176 137 204 93 213 141 219 83 222 21 232 126 26 140 44 219 73 122 91 4 142 120 148 257 165 8 
