# 3D point list with one line of data per point:
#   POINT3D_ID, X, Y, Z, R, G, B, ERROR, TRACK[] as (IMAGE_ID, POINT2D_IDX)
# Number of points: 369, mean track length: 10.15
7526 0.8566119298688439 0.18023643869286754 1.0298543070781858 0 0 0 0.13 23 1839 30 645 106 1539 
7527 0.16338154600985758 0.1964846867261087 0.9460425021780224 0 0 0 0.18 23 1840 106 1540 116 2110 177 1691 193 2038 
7528 0.5017453736452926 0.2586847541960779 1.212665819698347 0 0 0 0.58 23 1841 106 1541 180 1919 193 2039 226 1116 228 2164 
7529 0.419193337332071 0.24781963091845857 1.1544184651729867 0 0 0 0.15 23 1842 106 1542 166 1949 193 2040 117 367 
7530 0.2681913474806738 0.21379278657042836 1.0099781393515412 0 0 0 0.22 23 1843 72 1452 106 1543 173 1633 180 1920 
7531 0.6970289654355953 0.26937146310588256 1.28089654618786 0 0 0 0.3 23 1844 99 1307 106 1544 171 983 
7532 0.5103075605240471 0.26297775955990715 1.2094100210914187 0 0 0 0.33 23 1845 72 1453 94 1471 106 1545 122 327 125 2444 150 861 151 2088 173 1634 193 2041 216 1518 228 2165 233 798 117 368 
7533 0.2291041442103439 0.21401392052917598 0.9858642575751031 0 0 0 0.27 23 1846 72 1454 94 1472 106 1546 116 2111 125 2445 149 1150 150 862 154 1666 161 809 183 801 193 2042 205 745 211 1309 216 1519 218 2101 226 1117 
7534 0.11913670244754407 0.19883190177894058 0.9096586890026371 0 0 0 0.32 23 1847 106 1547 116 2112 
7535 0.20221535284067457 0.20899661190054894 0.956579237296011 0 0 0 0.14 23 1848 106 1548 173 1635 177 1692 
7536 0.5401713863560655 0.27255625607979694 1.2214936506552712 0 0 0 0.23 23 1849 106 1549 116 2113 
7537 0.44645276470617296 0.25919276793266854 1.1565520032064798 0 0 0 0.22 23 1850 99 1308 106 1550 116 2114 154 1667 177 1693 218 2102 
7538 0.8960042807051729 0.1887752033716315 1.0002794211823172 0 0 0 0.24 23 1851 106 1551 150 863 
7539 1.1087570108901899 0.11054977752964391 0.7740364300254983 0 0 0 0.39 23 1852 106 1552 177 1694 57 1923 150 864 78 87 79 8 
7540 0.7576823844625243 0.2534717131490711 1.1801974431566327 0 0 0 0.28 23 1853 106 1553 116 2115 131 1123 161 810 216 1520 
7541 0.754170826130037 0.2618956566373519 1.1865116594799794 0 0 0 0.4 23 1854 99 1309 106 1554 210 602 228 2166 78 88 
7542 0.9343331184094645 0.18063238723990793 0.9530731367297561 0 0 0 0.43 23 1855 106 1555 177 1695 191 1471 
7543 1.1115298938309703 0.11565735521796011 0.7637125476494084 0 0 0 0.18 23 1856 106 1556 150 865 78 89 
7544 1.105005017691106 0.1206370317431531 0.7744216080678656 0 0 0 0.41 23 1857 106 1557 150 866 78 90 79 9 
7545 0.7323337287226933 0.2825129715216433 1.2360854573199942 0 0 0 0.39 23 1858 72 1455 99 1310 106 1558 116 2116 140 1640 150 867 154 1668 173 1636 186 549 193 2043 216 1521 228 2167 78 91 79 10 143 1206 117 369 139 1219 
7546 0.20810213463568691 0.22417729189277885 0.9601945713574264 0 0 0 0.38 23 1859 106 1559 119 1223 145 993 177 1696 218 2103 72 1456 116 2117 173 1637 
7547 0.21556665778054157 0.23044239359488647 0.965256433224089 0 0 0 0.28 23 1860 34 1227 99 1311 106 1560 116 2118 145 994 226 1118 7 914 46 1310 216 1522 
7548 0.9495192628147578 0.1876264221275384 0.9312955851143421 0 0 0 0.13 23 1861 106 1561 177 1697 
7549 1.066476814143978 0.14004658773220413 0.7978895914325644 0 0 0 0.24 23 1862 106 1562 150 868 
7550 0.9053946565429565 0.20503441729654043 0.9768332883008515 0 0 0 0.26 23 1863 57 1924 99 1312 102 1254 106 1563 140 1641 177 1698 
7551 0.8736675151950822 0.2203893652072708 1.0115791998400798 0 0 0 0.27 23 1864 106 1564 139 1220 140 1642 189 1360 191 1472 
7552 0.24125850690916323 0.2398624201576673 0.9765334239876292 0 0 0 0.52 23 1865 72 1457 106 1565 216 1523 205 746 99 1313 140 1643 180 1921 
7553 0.9053977840828652 0.2111320781828081 0.9798193585569768 0 0 0 0.29 23 1866 99 1314 106 1566 79 11 
7554 0.5551423772528585 0.29510401435421635 1.1928884869812564 0 0 0 0.35 23 1867 30 646 106 1567 116 2119 140 1644 151 2089 154 1669 173 1638 177 1699 180 1922 193 2044 210 603 216 1524 218 2104 226 1119 233 799 72 1458 99 1315 
7555 1.071971126552372 0.14476590598289085 0.7922337209651777 0 0 0 0.19 23 1868 106 1568 150 869 
7556 0.7661752684877589 0.281842558108167 1.1717056679229545 0 0 0 0.25 23 1869 106 1569 180 1923 
7557 0.7420747381144285 0.30493758685185407 1.2307347895174243 0 0 0 0.23 23 1870 106 1570 140 1645 
7558 0.8549605037543782 0.23987428843899966 1.0293574110904062 0 0 0 0.34 23 1871 30 647 55 1270 57 1925 72 1459 102 1255 106 1571 140 1646 150 870 177 1700 180 1924 68 537 78 92 99 1316 216 1525 
7559 0.3791320412032562 0.29266790609775 1.1002520873178634 0 0 0 0.26 23 1872 106 1572 131 1124 149 1151 173 1639 216 1526 218 2105 226 1120 
7560 0.4350273316368228 0.3042250013760021 1.13846946662267 0 0 0 0.13 23 1873 34 1228 72 1460 106 1573 216 1527 226 1121 
7561 0.5103183484708431 0.31616993687206596 1.182314599514171 0 0 0 0.47 23 1874 46 1311 59 1955 72 1461 94 1473 106 1574 116 2120 137 814 140 1647 150 871 166 1950 173 1640 177 1701 193 2045 211 1310 218 2106 226 1122 233 800 34 1229 37 1205 57 1926 68 538 154 1670 186 550 191 1473 212 1384 117 370 119 1224 
7562 0.5062564341627596 0.32002391757317183 1.1827904018936939 0 0 0 0.29 23 1875 72 1462 99 1317 106 1575 125 2446 140 1648 151 2090 173 1641 177 1702 180 1925 211 1311 226 1123 228 2168 
7563 0.19159002378233264 0.25114572301946353 0.9279971567994575 0 0 0 0.39 23 1876 72 1463 106 1576 116 2121 140 1649 151 2091 166 1951 180 1926 183 802 216 1528 
7564 0.5169994967499161 0.32550158851290634 1.1896994508363459 0 0 0 0.32 23 1877 46 1312 106 1577 122 328 218 2107 226 1124 
7565 0.9428929129820046 0.22400168474462717 0.9238030608141669 0 0 0 0.11 23 1878 106 1578 140 1650 
7566 0.794915152486351 0.29205980626073114 1.0986129304185537 0 0 0 0.12 23 1879 106 1579 216 1529 
7567 0.18754548180552008 0.26296876485778814 0.926875430410356 0 0 0 0.33 23 1880 106 1580 116 2122 173 1642 177 1703 180 1927 193 2046 216 1530 226 1125 99 1318 149 1152 
7568 0.2420252674533727 0.278198905537994 0.9759067076005011 0 0 0 0.53 23 1881 106 1581 144 1744 191 1474 
7569 0.16194378492042838 0.26541586635813685 0.9195021485404781 0 0 0 0.67 23 1882 106 1582 125 2447 
7570 0.3553912243116889 0.31361625542606364 1.079537178278968 0 0 0 0.24 23 1883 72 1464 106 1583 173 1643 177 1704 218 2108 
7571 0.3489910608055454 0.3148866003461841 1.0715299990508023 0 0 0 0.26 23 1884 106 1584 140 1651 
7572 0.7537812225672751 0.3419444322458893 1.1883485942870677 0 0 0 0.33 23 1885 106 1585 140 1652 
7573 1.0285712313141053 0.2198225124263975 0.8499098590743189 0 0 0 0.3 23 1886 30 648 57 1927 106 1586 
7574 0.9352252487161616 0.2497018416335994 0.9232062262893874 0 0 0 0.04 23 1887 106 1587 140 1653 
7575 1.0171805504158598 0.22218003984612203 0.834379682450297 0 0 0 0.52 23 1888 57 1928 99 1319 106 1588 140 1654 78 93 79 12 80 42 
7576 0.8124677428735515 0.32435299042677207 1.066289536087252 0 0 0 0.28 23 1889 99 1320 106 1589 154 1671 180 1928 
7577 0.8859949308968392 0.30711484382182613 1.0148933176622081 0 0 0 0.15 23 1890 106 1590 177 1705 
7578 0.9250526669479721 0.278150736766334 0.9295440455681611 0 0 0 0.06 23 1891 106 1591 140 1655 
7579 0.9342649198406147 0.2754141839443889 0.9231010814269722 0 0 0 0.04 23 1892 106 1592 140 1656 
7580 0.6617912459159511 0.3824645798153784 1.1998121851009114 0 0 0 0.39 23 1893 106 1593 173 1644 
7581 0.3438169148378922 0.333696156750388 1.0315408733985594 0 0 0 0.18 23 1894 106 1594 173 1645 177 1706 218 2109 
7582 0.36376693536454496 0.3428076362703224 1.0572225068055054 0 0 0 0.29 23 1895 34 1230 72 1465 106 1595 
7583 0.407719900855957 0.34727953467318173 1.0665026305885297 0 0 0 0.1 23 1896 106 1596 140 1657 166 1952 173 1646 177 1707 
7584 0.4644871701044783 0.3626849545501991 1.1070629904982179 0 0 0 0.24 23 1897 72 1466 106 1597 116 2123 154 1672 173 1647 216 1531 218 2110 226 1126 
7585 0.8148366580452062 0.3404203249867645 1.063622735371319 0 0 0 0.22 23 1898 99 1321 106 1598 154 1673 
7586 0.18486282738102258 0.3018860675563832 0.9178172592906861 0 0 0 0.64 23 1899 72 1467 106 1599 140 1658 143 1207 145 995 173 1648 177 1708 218 2111 228 2169 
7587 0.19912585833513838 0.3093174795604613 0.9225388727284682 0 0 0 0.62 23 1900 34 1231 72 1468 106 1600 116 2124 173 1649 218 2112 
7588 0.9439427807523362 0.2943807707313143 0.9013719467835677 0 0 0 0.35 23 1901 106 1601 140 1659 177 1709 72 1469 78 94 79 13 
7589 0.8437840411328722 0.34548030442071187 1.0305522579173312 0 0 0 0.13 23 1902 72 1470 106 1602 140 1660 150 872 177 1710 
7590 0.679950043212019 0.40433470728900855 1.1777522387823538 0 0 0 0.21 23 1903 106 1603 173 1650 
7591 0.21602814929958797 0.320789861056401 0.9323894390088897 0 0 0 0.27 23 1904 99 1322 106 1604 151 2092 180 1929 183 803 193 2047 
7592 0.4964759056918628 0.38370454919139846 1.1048347807295198 0 0 0 0.23 23 1905 106 1605 218 2113 
7593 0.8131447137372093 0.36172278550791503 1.0593213816223077 0 0 0 0.11 23 1906 106 1606 140 1661 
7594 0.20467132989664022 0.3223067328522484 0.9292955491828561 0 0 0 0.42 23 1907 72 1471 216 1532 
7595 0.32824503657541243 0.3481363599392809 1.001124538030075 0 0 0 0.24 23 1908 72 1472 106 1607 116 2125 151 2093 177 1711 218 2114 
7596 0.6659804810622452 0.42144321481900543 1.208115075583084 0 0 0 0.14 23 1909 106 1608 173 1651 
7597 0.8384967190789017 0.3484946846410142 1.0216622493840275 0 0 0 0.17 23 1910 72 1473 106 1609 177 1712 
7598 0.30810698499365513 0.34412633633713796 0.9840707241373728 0 0 0 0.25 23 1911 34 1232 106 1610 140 1662 150 873 180 1930 193 2048 
7599 0.9414135920772871 0.30091114088652554 0.8952410652868152 0 0 0 0.25 23 1912 55 1271 106 1611 140 1663 
7600 0.33211991191416507 0.35265710365605096 1.0011044203633666 0 0 0 0.19 23 1913 37 1206 106 1612 150 874 173 1652 180 1931 228 2170 
7601 0.46330977406425183 0.3806263261707161 1.0777939898666666 0 0 0 0.15 23 1914 106 1613 193 2049 228 2171 
7602 0.5952316571613699 0.4148629506645211 1.172956305740573 0 0 0 0.27 23 1915 106 1614 173 1653 
7603 0.5100895924163932 0.38969989755817713 1.1000835920934464 0 0 0 0.36 23 1916 106 1615 125 2448 
7604 0.1839348098498646 0.33280630048507115 0.9169942761084416 0 0 0 0.14 23 1917 106 1616 171 984 177 1713 180 1932 
7605 0.26510447391705816 0.3478583469279129 0.9560092854668061 0 0 0 0.45 23 1918 30 649 106 1617 119 1225 144 1745 145 996 173 1654 177 1714 180 1933 183 804 216 1533 
7606 0.44664049666990546 0.3929924713677128 1.0757227632180195 0 0 0 0.24 23 1919 72 1474 106 1618 180 1934 
7607 0.3603676340535453 0.3700261060247723 1.0113924800705767 0 0 0 0.22 23 1920 45 286 72 1475 106 1619 145 997 151 2094 177 1715 180 1935 186 551 212 1385 216 1534 233 801 
7608 0.47809391663368755 0.39123222312767725 1.062609296905561 0 0 0 0.06 23 1921 106 1620 173 1655 
7609 0.7921485950471864 0.383029501038123 1.046522595346056 0 0 0 0.28 23 1922 106 1621 180 1936 228 2172 78 95 80 43 99 1323 140 1664 143 1208 177 1716 79 14 
7610 0.9485045935629195 0.3205799448490794 0.8885733073260748 0 0 0 0.24 23 1923 57 1929 106 1622 
7611 0.8827485864084903 0.3548960710451326 0.952062625761011 0 0 0 0.18 23 1924 106 1623 140 1665 55 1272 78 96 79 15 
7612 0.5194595521891443 0.41783586290782565 1.0953753529285242 0 0 0 0.31 23 1925 102 1256 106 1624 143 1209 144 1746 151 2095 177 1717 218 2115 46 1313 68 539 139 1221 191 1475 211 1312 
7613 0.8272106257816692 0.3804579449004748 1.0056616557711155 0 0 0 0.33 23 1926 30 650 72 1476 102 1257 106 1625 140 1666 143 1210 177 1718 80 44 99 1324 
7614 0.8609779669755088 0.3685076078304557 0.9733620820138335 0 0 0 0.35 23 1927 72 1477 106 1626 143 1211 150 875 78 97 80 45 99 1325 140 1667 
7615 0.46617152123533334 0.4109883129317525 1.0671441226379141 0 0 0 0.18 23 1928 46 1314 106 1627 177 1719 216 1535 
7616 0.10855489754806068 -0.16077832383205123 1.0693353711398508 0 0 0 0.42 23 1929 59 1956 94 1474 106 1628 34 1233 37 1207 117 371 140 1668 193 2050 
7617 0.11544758335413915 -0.15745274251573846 1.0714126745270416 0 0 0 0.19 23 1930 106 1629 173 1656 
7618 0.1057445651832162 -0.15418961923772828 1.0747466211514438 0 0 0 0.17 23 1931 106 1630 140 1669 
7619 0.26036648288852937 -0.16593546048654537 1.142914641345426 0 0 0 0.32 23 1932 94 1475 106 1631 140 1670 166 1953 177 1720 37 1208 117 372 161 811 
7620 0.26800198614087484 -0.16443037672892755 1.1493328246604135 0 0 0 0.3 23 1933 34 1234 59 1957 72 1478 94 1476 106 1632 116 2126 166 1954 173 1657 
7621 0.23483507794796618 -0.15555436962656916 1.135588182628043 0 0 0 0.35 23 1934 34 1235 72 1479 94 1477 102 1258 106 1633 116 2127 125 2449 140 1671 149 1153 151 2096 173 1658 180 1937 193 2051 226 1127 117 373 150 876 205 747 
7622 0.24929187175050765 -0.13694549014006885 1.1272242057794584 0 0 0 0.28 23 1935 72 1480 106 1634 140 1672 145 998 183 805 
7623 0.2741578255872638 -0.1379606897812631 1.1475556314262332 0 0 0 0.65 23 1936 106 1635 116 2128 125 2450 154 1674 216 1536 218 2116 94 1478 117 374 151 2097 
7624 0.11560258490605524 -0.10187349174259497 1.037287512678809 0 0 0 0.28 23 1937 106 1636 140 1673 145 999 149 1154 150 877 151 2098 161 812 171 985 173 1659 180 1938 193 2052 218 2117 102 1259 117 375 177 1721 
7625 0.11335748192519592 -0.0966860441735757 1.0393371175655612 0 0 0 0.35 23 1938 106 1637 140 1674 150 878 173 1660 46 1315 86 1995 144 1747 180 1939 228 2173 102 1260 117 376 177 1722 193 2053 218 2118 
7626 0.23295213553958055 -0.05896867991499768 1.1019588237893514 0 0 0 0.35 23 1939 106 1638 178 1052 180 1940 183 806 
7627 0.5557827181003752 -0.05222842879378127 1.3675250514281552 0 0 0 0.11 23 1940 106 1639 173 1661 
7628 0.2316451859913369 -0.03603238682727196 1.0888718853843287 0 0 0 0.43 23 1941 55 1273 72 1481 102 1261 106 1640 161 813 173 1662 177 1723 180 1941 193 2054 225 372 86 1996 117 377 140 1675 151 2099 183 807 226 1128 
7629 0.5580040428788015 -0.03240788375970905 1.356261811291314 0 0 0 0.41 23 1942 34 1236 106 1641 154 1675 173 1663 180 1942 
7630 0.4872616271932443 -0.0006319217649305175 1.482568871154281 0 0 0 0.55 23 1943 34 1237 46 1316 86 1997 90 298 106 1642 149 1155 161 814 186 552 233 802 
7631 0.5316411453712417 -0.02381522420520483 1.3530802897851657 0 0 0 0.42 23 1944 55 1274 94 1479 106 1643 116 2129 145 1000 150 879 173 1664 205 748 
7632 0.21983079452442114 -0.019887438233018667 1.0810597513747884 0 0 0 0.68 23 1945 72 1482 106 1644 173 1665 178 1053 218 2119 
7633 0.4350551470683245 0.013083344432233305 1.3745910858119832 0 0 0 0.14 23 1946 106 1645 173 1666 
7634 0.4492203350148513 0.021440557560295476 1.3960220818136573 0 0 0 0.2 23 1947 106 1646 173 1667 177 1724 218 2120 
7635 0.48323844098820534 0.030888710337094588 1.358147826094993 0 0 0 0.16 23 1948 106 1647 173 1668 
7636 0.5174392695228366 0.04487959662136207 1.4091583165437773 0 0 0 0.29 23 1949 106 1648 173 1669 
7637 1.1403134817976375 -0.059850454624441225 0.8624939671359899 0 0 0 0.31 23 1950 55 1275 106 1649 150 880 177 1725 
7638 0.15923210092743567 0.07276330015470678 0.9935771994497234 0 0 0 0.46 23 1951 72 1483 86 1998 94 1480 106 1650 116 2130 151 2100 177 1726 180 1943 193 2055 205 749 216 1537 226 1129 
7639 1.0939892192137908 -0.028896708887858526 0.8502422658971273 0 0 0 0.29 23 1952 106 1651 177 1727 
7640 1.1363024732196831 -0.017026983951372213 0.8291081783284802 0 0 0 0.09 23 1953 55 1276 106 1652 
7641 1.1582875286347223 -0.01222238396445172 0.8224578624639626 0 0 0 0.12 23 1954 106 1653 177 1728 
7642 0.4061440300007348 0.14349933069117188 1.1799246944372987 0 0 0 0.13 23 1955 106 1654 119 1226 218 2121 
7643 1.101082545135479 0.011598379907121448 0.8293447112549007 0 0 0 0.19 23 1956 106 1655 150 881 177 1729 
7644 0.5106686575287533 0.16782488168958054 1.2438174969077989 0 0 0 0.31 23 1957 34 1238 57 1930 59 1958 106 1656 131 1125 140 1676 150 882 151 2101 177 1730 180 1944 218 2122 228 2174 68 540 90 299 233 803 
7645 0.69940075521935 0.17753187307409746 1.3434928944919626 0 0 0 0.32 23 1958 106 1657 119 1227 125 2451 140 1677 150 883 166 1955 171 986 173 1670 180 1945 186 553 191 1476 193 2056 211 1313 216 1538 228 2175 78 98 177 1731 233 804 
7646 0.40534080966831965 0.16121147673688943 1.1776457420358688 0 0 0 0.29 23 1959 55 1277 106 1658 173 1671 177 1732 72 1484 154 1676 226 1130 
7647 0.7957384290928812 0.12425035191020671 1.1561893816791882 0 0 0 0.4 23 1960 106 1659 140 1678 150 884 161 815 205 750 216 1539 228 2176 
7648 0.4380329587952469 0.16935809023376933 1.1942538449428801 0 0 0 0.26 23 1961 72 1485 94 1481 106 1660 140 1679 154 1677 173 1672 226 1131 233 805 
7649 0.7963504346578804 0.13079873248251145 1.1544155138136785 0 0 0 0.24 23 1962 106 1661 161 816 205 751 
7650 0.9667631199516156 0.08110853250712316 0.9602834325439019 0 0 0 0.28 23 1963 57 1931 106 1662 140 1680 150 885 177 1733 191 1477 78 99 99 1326 117 378 
7651 0.8965519084938279 0.11569292522554682 1.0332729314993443 0 0 0 0.35 23 1964 106 1663 137 815 150 886 72 1486 78 100 140 1681 
7652 1.071967119611742 0.05493703204402768 0.8458295504173831 0 0 0 0.23 23 1965 106 1664 177 1734 189 1361 78 101 
7653 0.9162995812305842 0.11099442521632409 1.0081208230846905 0 0 0 0.41 23 1966 57 1932 72 1487 106 1665 140 1682 150 887 191 1478 202 1494 78 102 79 16 
7654 0.8976539977920793 0.11945254299684624 1.0274827464932412 0 0 0 0.23 23 1967 106 1666 137 816 150 888 177 1735 202 1495 78 103 
7655 1.0831398784207196 0.04878832725467374 0.8104309486235305 0 0 0 0.09 23 1968 106 1667 177 1736 
7656 1.0008316160258817 0.08329854592253921 0.9093467635809941 0 0 0 0.12 23 1969 106 1668 150 889 
7657 1.017148311487134 0.0878076480062876 0.9101818891798124 0 0 0 0.24 23 1970 24 2140 57 1933 106 1669 202 1496 
7658 0.9529255626785796 0.1142857134473999 0.970126029802196 0 0 0 0.17 23 1971 99 1327 106 1670 
7659 1.1420597412146933 0.04374859559753009 0.7484695706232168 0 0 0 0.2 23 1972 55 1278 106 1671 
7660 1.0601370704565458 0.09671462433174406 0.8551719066723291 0 0 0 0.23 23 1973 106 1672 177 1737 31 1867 140 1683 
7661 0.9575277663514022 0.135590723927895 0.9458125880058111 0 0 0 0.35 23 1974 55 1279 57 1934 99 1328 106 1673 
7662 0.9119012048684603 0.1684862151392975 0.9768928650983872 0 0 0 0.26 23 1975 57 1935 99 1329 106 1674 140 1684 
7663 0.5922201849900821 0.2800370946274955 1.2525618308826445 0 0 0 0.11 23 1976 106 1675 173 1673 
7664 0.94155239582295 0.17504950406360312 0.9587039120019701 0 0 0 0.24 23 1977 106 1676 202 1497 
7665 0.5520611543728038 0.26989610113489887 1.1978063118827942 0 0 0 0.23 23 1978 31 1868 72 1488 86 1999 99 1330 102 1262 106 1677 116 2131 125 2452 140 1685 151 2102 154 1678 173 1674 177 1738 180 1946 211 1314 218 2123 
7666 0.6737799389101479 0.31945755261515546 1.3832378481014502 0 0 0 0.39 23 1979 106 1678 173 1675 
7667 0.6644440397760567 0.3134014236991933 1.3534217961587127 0 0 0 0.23 23 1980 106 1679 173 1676 177 1739 
7668 0.3181602150638193 0.26774473831686707 1.1100838901596235 0 0 0 0.32 23 1981 72 1489 106 1680 
7669 0.27383888636489756 0.23640894833315187 0.9920804951972717 0 0 0 0.19 23 1982 106 1681 173 1677 
7670 0.5225482195409883 0.29327856187196294 1.2035943054721119 0 0 0 0.4 23 1983 72 1490 102 1263 106 1682 177 1740 180 1947 
7671 0.7273688941741047 0.2969765633243601 1.2327066126402206 0 0 0 0.28 23 1984 30 651 59 1959 72 1491 99 1331 106 1683 119 1228 140 1686 144 1748 150 890 171 987 173 1678 193 2057 202 1498 210 604 216 1540 228 2177 78 104 79 17 189 1362 212 1386 
7672 0.8469752049179308 0.23200356636922947 1.0457501713107398 0 0 0 0.53 23 1985 55 1280 106 1684 150 891 
7673 0.9084020582394373 0.20906983232889012 0.973420957268588 0 0 0 0.24 23 1986 57 1936 99 1332 106 1685 177 1741 189 1363 78 105 80 46 
7674 0.40761738487277255 0.2810674665115936 1.1267029200334 0 0 0 0.38 23 1987 72 1492 94 1482 106 1686 125 2453 145 1001 166 1956 226 1132 7 915 68 541 122 329 143 1212 154 1679 233 806 117 379 151 2103 173 1679 216 1541 
7675 1.082949379097261 0.14294222385813357 0.783671687765507 0 0 0 0.38 23 1988 31 1869 57 1937 106 1687 78 106 80 47 150 892 
7676 0.4336662841216738 0.2882097058171774 1.1442240767920777 0 0 0 0.35 23 1989 72 1493 102 1264 106 1688 173 1680 34 1239 68 542 193 2058 226 1133 228 2178 
7677 0.8873077612134657 0.22255752254935274 0.9937886878615928 0 0 0 0.27 23 1990 99 1333 106 1689 177 1742 
7678 0.6623857581668341 0.31142507697532157 1.234460491515644 0 0 0 0.11 23 1991 106 1690 173 1681 
7679 0.42695433567926 0.2923566143000917 1.1395759118961188 0 0 0 0.24 23 1992 106 1691 154 1680 
7680 0.721828430326726 0.3132553968634339 1.238987149115088 0 0 0 0.22 23 1993 99 1334 106 1692 119 1229 140 1687 173 1682 177 1743 186 554 
7681 0.9482331358104293 0.2042413608872315 0.9313560963164669 0 0 0 0.27 23 1994 55 1281 57 1938 106 1693 140 1688 202 1499 78 107 79 18 80 48 99 1335 
7682 0.860028653591039 0.24038798552251536 1.0249150842309713 0 0 0 0.2 23 1995 55 1282 57 1939 72 1494 106 1694 137 817 140 1689 150 893 68 543 78 108 99 1336 
7683 0.6997446021231941 0.32854473598036443 1.27375693512711 0 0 0 0.25 23 1996 106 1695 218 2124 
7684 0.9317452847321862 0.2118450067236592 0.942999412923758 0 0 0 0.17 23 1997 31 1870 106 1696 
7685 0.47988612012547177 0.30920585190527505 1.1657363271838816 0 0 0 0.41 23 1998 72 1495 99 1337 106 1697 
7686 0.657397514091739 0.3501575147040683 1.3147427387119826 0 0 0 0.16 23 1999 106 1698 173 1683 
7687 0.7516898488215655 0.31039263848042326 1.1824188271741731 0 0 0 0.41 23 2000 30 652 106 1699 144 1749 150 894 154 1681 180 1948 
7688 0.7682600953787534 0.31071235162866045 1.187418478848095 0 0 0 0.17 23 2001 106 1700 131 1126 
7689 0.7301919503599797 0.32624500539049256 1.2233036937345685 0 0 0 0.2 23 2002 106 1701 140 1690 173 1684 
7690 0.9159332519415629 0.24028225310404586 0.9579409461802645 0 0 0 0.28 23 2003 106 1702 202 1500 
7691 0.17474584730360218 0.2594161584949937 0.9348908895330111 0 0 0 0.31 23 2004 72 1496 99 1338 102 1265 106 1703 137 818 151 2104 166 1957 180 1949 202 1501 211 1315 226 1134 
7692 0.2109122426763702 0.26572025538354715 0.9529049723770266 0 0 0 0.23 23 2005 72 1497 106 1704 173 1685 177 1744 
7693 0.9328331013964358 0.2484159264475358 0.9288514438885299 0 0 0 0.29 23 2006 106 1705 140 1691 
7694 0.5014242593842023 0.34788621549955684 1.1736444250482885 0 0 0 0.33 23 2007 106 1706 139 1222 151 2105 173 1686 
7695 1.0484347096237454 0.20244199574050062 0.7985201393287688 0 0 0 0.19 23 2008 57 1940 106 1707 
7696 0.8809413485265472 0.2755190508309764 0.987527293467621 0 0 0 0.1 23 2009 106 1708 137 819 140 1692 177 1745 68 544 
7697 0.2965325230444374 0.31944906241316956 1.0444453116667003 0 0 0 0.4 23 2010 72 1498 106 1709 116 2132 173 1687 177 1746 180 1950 218 2125 
7698 0.7115934628412686 0.37860786965354093 1.2474379210895694 0 0 0 0.24 23 2011 106 1710 173 1688 177 1747 216 1542 
7699 0.40620753654333525 0.3477824177741132 1.1017279432414726 0 0 0 0.3 23 2012 55 1283 102 1266 106 1711 137 820 140 1693 166 1958 173 1689 177 1748 180 1951 193 2059 
7700 0.4568514189308791 0.3574019069611803 1.129016043443985 0 0 0 0.39 23 2013 106 1712 177 1749 218 2126 68 545 131 1127 202 1502 
7701 0.8079198394711826 0.3280210532528999 1.0609277699838813 0 0 0 0.33 23 2014 57 1941 106 1713 119 1230 
7702 0.9065226004538234 0.28897178951926755 0.9559351212082529 0 0 0 0.21 23 2015 106 1714 140 1694 
7703 0.48764748106118344 0.35145739970638995 1.0797646710315165 0 0 0 0.21 23 2016 106 1715 173 1690 
7704 0.7162635457319909 0.4034998472501408 1.1936015664734412 0 0 0 0.4 23 2017 106 1716 171 988 177 1750 211 1316 
7705 1.0472828846181101 0.25512892224858535 0.7919574885012566 0 0 0 0.33 23 2018 31 1871 57 1942 106 1717 
7706 1.0665465962109808 0.24677677531762715 0.771411162737087 0 0 0 0.18 23 2019 31 1872 106 1718 
7707 1.1448751154470822 0.22241530378928226 0.7015230885539336 0 0 0 0.33 23 2020 57 1943 106 1719 
7708 0.3869593483641985 0.36951705940104196 1.029883876044889 0 0 0 0.41 23 2021 34 1240 59 1960 72 1499 106 1720 119 1231 180 1952 
7709 0.9436357768424983 0.31240553679227245 0.8933709297926221 0 0 0 0.33 23 2022 30 653 106 1721 140 1695 68 546 72 1500 78 109 
7710 0.4467676770725398 0.38728207948937315 1.0644110877579867 0 0 0 0.27 23 2023 106 1722 125 2454 151 2106 154 1682 173 1691 193 2060 218 2127 228 2179 
7711 0.8043954271777052 0.370077986613355 1.026538326745935 0 0 0 0.15 23 2024 106 1723 150 895 
7712 0.812125826355836 0.3674103945557393 1.0192124789044918 0 0 0 0.39 23 2025 57 1944 99 1339 106 1724 119 1232 140 1696 150 896 177 1751 
7713 0.1418305569611831 0.31360712968313686 0.8571398563003385 0 0 0 0.32 23 2026 72 1501 106 1725 
7714 0.7722655512411855 0.3977820077459193 1.0801217487100951 0 0 0 0.27 23 2027 72 1502 106 1726 
7715 0.9448920062739458 0.3201296558354403 0.8767971020083974 0 0 0 0.32 23 2028 57 1945 106 1727 191 1479 
7716 0.4570793295354875 0.4001761146965392 1.0679005135410622 0 0 0 0.25 23 2029 106 1728 171 989 173 1692 177 1752 180 1953 193 2061 218 2128 228 2180 
7717 0.8215247534397558 0.3778401072395546 1.009114421886207 0 0 0 0.35 23 2030 30 654 72 1503 99 1340 106 1729 119 1233 140 1697 177 1753 78 110 80 49 150 897 216 1543 
7718 0.6814677125904678 0.5077036618167763 1.307118709021138 0 0 0 0.36 23 2031 106 1730 173 1693 
7719 0.1021516730273059 -0.13830648271718857 1.0907325104348344 0 0 0 0.21 23 2032 46 1317 106 1731 149 1156 173 1694 193 2062 37 1209 59 1961 151 2107 202 1503 
7720 0.11489196175506874 -0.13421755523720766 1.048262897717464 0 0 0 0.16 23 2033 34 1241 106 1732 151 2108 161 817 
7721 0.09780662407420869 -0.11104542591165395 1.0856176692513955 0 0 0 0.4 23 2034 34 1242 37 1210 59 1962 72 1504 106 1733 131 1128 140 1698 144 1750 149 1157 150 898 151 2109 171 990 180 1954 186 555 202 1504 212 1387 226 1135 
7722 0.11276861644754767 -0.046462628296899386 1.0149248621760971 0 0 0 0.31 23 2035 102 1267 106 1734 140 1699 143 1213 173 1695 177 1754 193 2063 218 2129 37 1211 46 1318 117 380 132 71 189 1364 226 1136 
7723 0.11624561257464386 -0.029850568822113 1.0064102649100737 0 0 0 0.16 23 2036 106 1735 131 1129 
7724 0.5026277822584442 0.01672666735960824 1.4388691294236833 0 0 0 0.75 23 2037 34 1243 46 1319 106 1736 131 1130 177 1755 218 2130 233 807 
7725 0.37797849238618014 0.025803511672363878 1.3231458311187836 0 0 0 0.31 23 2038 34 1244 106 1737 131 1131 144 1751 150 899 151 2110 173 1696 177 1756 216 1544 218 2131 
7726 0.2182429084641009 0.015467087940081769 1.0750456478681432 0 0 0 0.34 23 2039 72 1505 106 1738 173 1697 177 1757 
7727 0.22127492399699436 0.05253261938092921 1.0499703713747919 0 0 0 0.37 23 2040 72 1506 106 1739 202 1505 218 2132 68 547 144 1752 149 1158 151 2111 161 818 193 2064 216 1545 226 1137 233 808 34 1245 117 381 137 821 140 1700 173 1698 183 808 212 1388 177 1758 180 1955 203 569 
7728 0.31694875114136245 0.07705218683894736 1.176026251523155 0 0 0 0.29 23 2041 31 1873 106 1740 173 1699 
7729 0.5331665683450916 0.08010114325589462 1.29649176565405 0 0 0 0.13 23 2042 106 1741 173 1700 
7730 1.1127370505044971 -0.041767950768050004 0.872368340656547 0 0 0 0.21 23 2043 106 1742 177 1759 
7731 0.2677133771091028 0.10248088577743278 1.0351805800172094 0 0 0 1.39 23 2044 106 1743 161 819 173 1701 180 1956 183 809 205 752 46 1320 117 382 151 2112 193 2065 228 2181 
7732 1.0732240166086997 0.02312117520238766 0.9556566669895394 0 0 0 0.17 23 2045 24 2141 57 1946 106 1744 177 1760 
7733 0.1361944027630571 0.10658432204923082 0.9418095579167316 0 0 0 0.51 23 2046 86 2000 106 1745 
7734 0.29999221809690446 0.13879090070320083 1.1116718529614138 0 0 0 0.22 23 2047 72 1507 106 1746 173 1702 
7735 1.1001665137392798 0.05012887756873185 0.9722714329550871 0 0 0 0.34 23 2048 106 1747 177 1761 
7736 0.7408764636386821 0.15497148057175625 1.27541143659288 0 0 0 0.45 23 2049 24 2142 31 1874 55 1284 59 1963 86 2001 99 1341 102 1268 106 1748 119 1234 131 1132 137 822 139 1223 140 1701 143 1214 144 1753 150 900 166 1959 171 991 177 1762 178 1054 180 1957 189 1365 191 1480 193 2066 202 1506 211 1317 216 1546 228 2182 78 111 79 19 
7737 0.47142547691256625 0.16489557875841268 1.2202920356161548 0 0 0 0.36 23 2050 106 1749 140 1702 173 1703 177 1763 178 1055 216 1547 218 2133 233 809 
7738 0.7400689845797674 0.16088332299226232 1.2872283368848232 0 0 0 0.08 23 2051 106 1750 173 1704 
7739 0.7578475256258247 0.14695531601478196 1.2364744974392818 0 0 0 0.14 23 2052 55 1285 102 1269 106 1751 177 1764 
7740 1.1567230114792366 0.021466825477623602 0.8098741252033166 0 0 0 0.34 23 2053 31 1875 106 1752 
7741 0.7804812199503303 0.15039068977105857 1.186465812612984 0 0 0 0.17 23 2054 72 1508 106 1753 131 1133 137 823 140 1703 143 1215 177 1765 189 1366 212 1389 
7742 0.9533697507089249 0.05851246510098488 0.8638879557094572 0 0 0 0.34 23 2055 106 1754 177 1766 
7743 0.9260748315290918 0.1108275873811587 1.0035092553805032 0 0 0 0.32 23 2056 24 2143 57 1947 72 1509 106 1755 140 1704 150 901 177 1767 202 1507 
7744 1.1075466567556698 0.06558958891391531 0.8849049528507025 0 0 0 0.2 23 2057 24 2144 106 1756 
7745 1.0118589704739707 0.0796519540452884 0.8805187252997614 0 0 0 0.06 23 2058 31 1876 106 1757 
7746 1.1306786523483112 0.053700760739992505 0.7630624256747982 0 0 0 0.49 23 2059 55 1286 57 1948 106 1758 189 1367 78 112 
7747 1.1377533413118843 0.05921113332260403 0.7818245105213167 0 0 0 0.19 23 2060 106 1759 177 1768 
7748 1.1003128748001825 0.08156692577691642 0.7926399564226101 0 0 0 0.44 23 2061 31 1877 55 1287 106 1760 150 902 
7749 0.9139693225380541 0.18038227935445322 1.0048145512728173 0 0 0 0.32 23 2062 106 1761 202 1508 
7750 0.687688652729726 0.28584835682280435 1.3067790860952617 0 0 0 0.27 23 2063 72 1510 106 1762 171 992 173 1705 202 1509 212 1390 
7751 0.43923905717468026 0.26554604574167445 1.1571910195364756 0 0 0 0.27 23 2064 57 1949 72 1511 106 1763 116 2133 143 1216 151 2113 177 1769 180 1958 216 1548 226 1138 68 548 
7752 1.0203218819291615 0.15029983631910634 0.8708191899071022 0 0 0 0.39 23 2065 57 1950 106 1764 140 1705 177 1770 191 1481 202 1510 78 113 
7753 0.3905235919011654 0.26784028553439876 1.1205411329739416 0 0 0 0.27 23 2066 59 1964 94 1483 106 1765 143 1217 144 1754 145 1002 151 2114 173 1706 178 1056 180 1959 193 2067 218 2134 226 1139 228 2183 
7754 0.8495476861217035 0.22496445846787577 1.0530122449178354 0 0 0 0.27 23 2067 55 1288 59 1965 106 1766 140 1706 202 1511 
7755 0.6196812141178017 0.3184927065985876 1.278976038519244 0 0 0 0.16 23 2068 106 1767 173 1707 
7756 0.9007096753759327 0.21603088997485842 0.9908597112213461 0 0 0 0.18 23 2069 106 1768 202 1512 
7757 0.9132010085771118 0.2064601128985995 0.9620137606745172 0 0 0 0.43 23 2070 31 1878 57 1951 106 1769 140 1707 202 1513 
7758 1.1426838317332673 0.11907219326919968 0.7163481652278886 0 0 0 0.23 23 2071 55 1289 106 1770 
7759 0.30537671943458056 0.26635559259314995 1.0583564192416863 0 0 0 0.46 23 2072 72 1512 106 1771 173 1708 225 373 
7760 0.9080215120994177 0.216848240354551 0.9751945662511815 0 0 0 0.24 23 2073 24 2145 31 1879 106 1772 140 1708 202 1514 
7761 0.2976370339252896 0.2694825100681166 1.0532657469640596 0 0 0 0.14 23 2074 72 1513 102 1270 106 1773 180 1960 
7762 0.7193290923085729 0.31842523569492903 1.2551167256105509 0 0 0 0.44 23 2075 99 1342 106 1774 193 2068 68 549 139 1224 178 1057 202 1515 212 1391 
7763 0.6389362232944068 0.32422001399311084 1.2515604361387995 0 0 0 0.18 23 2076 106 1775 173 1709 
7764 0.6908222343876652 0.3455562151160131 1.2868938777852155 0 0 0 0.48 23 2077 106 1776 150 903 173 1710 180 1961 193 2069 233 810 
7765 0.39333907819734687 0.30378326207657924 1.1205248728977495 0 0 0 0.33 23 2078 55 1290 72 1514 106 1777 116 2134 140 1709 144 1755 149 1159 151 2115 161 820 177 1771 180 1962 193 2070 218 2135 228 2184 117 383 143 1218 150 904 211 1318 
7766 0.7457220700232824 0.3159361161927393 1.1811475170078813 0 0 0 0.43 23 2079 24 2146 57 1952 106 1778 116 2135 131 1134 140 1710 144 1756 161 821 178 1058 189 1368 205 753 31 1880 59 1966 68 550 99 1343 119 1235 137 824 150 905 154 1683 212 1392 228 2185 30 655 78 114 216 1549 
7767 0.8474415279673889 0.2721745831560106 1.0339615142672116 0 0 0 0.25 23 2080 99 1344 106 1779 180 1963 216 1550 
7768 1.019845305665839 0.2186284247346127 0.8300504929249656 0 0 0 0.6 23 2081 31 1881 106 1780 202 1516 57 1953 78 115 
7769 0.6772687155704722 0.39810479491553535 1.295124860938445 0 0 0 0.22 23 2082 106 1781 140 1711 173 1711 193 2071 
7770 0.8784712965245293 0.2839658914573445 0.9813006216605397 0 0 0 0.31 23 2083 99 1345 106 1782 177 1772 137 825 140 1712 
7771 1.044382987673786 0.26160231894697444 0.7935415704352674 0 0 0 0.14 23 2084 57 1954 106 1783 191 1482 
7772 0.6411320699950684 0.4141807365153163 1.1688096088441027 0 0 0 0.39 23 2085 106 1784 173 1712 
7773 0.9502140789696875 0.3106894158834293 0.8771923796101698 0 0 0 0.48 23 2086 55 1291 57 1955 99 1346 106 1785 202 1517 68 551 78 116 
7774 0.8173266823257475 0.3844493524671736 1.0204820009241014 0 0 0 0.55 23 2087 30 656 55 1292 72 1515 102 1271 106 1786 137 826 140 1713 150 906 177 1773 180 1964 68 552 80 50 
7775 0.19493658566630329 -0.10996133473685392 1.082113409085108 0 0 0 0.62 7 916 23 2088 30 657 31 1882 34 1246 55 1293 72 1516 102 1272 106 1787 115 209 116 2136 131 1135 139 1225 140 1714 144 1757 145 1003 149 1160 150 907 151 2116 154 1684 177 1774 180 1965 193 2072 211 1319 216 1551 226 1140 228 2186 117 384 137 827 
7776 0.37165250475782474 0.007447371172360666 1.3180074478146462 0 0 0 0.12 23 2089 106 1788 173 1713 
7777 0.426699765063078 0.022259326825721605 1.361275631294372 0 0 0 0.31 23 2090 106 1789 173 1714 218 2136 
7778 0.19888257676183585 0.011970615465025168 1.0391940333876484 0 0 0 0.26 23 2091 106 1790 173 1715 
7779 0.3051045271436664 0.08325181058632966 1.137694389831727 0 0 0 0.37 23 2092 72 1517 106 1791 173 1716 225 374 
7780 0.36432747445476077 0.12890758813848263 1.1699710717882363 0 0 0 0.26 23 2093 102 1273 106 1792 
7781 0.9676294150598563 0.07482097675029507 1.107315710710304 0 0 0 0.31 23 2094 106 1793 177 1775 202 1518 
7782 0.8984387500217095 0.08786932120379747 1.040279469125778 0 0 0 0.43 23 2095 24 2147 31 1883 55 1294 106 1794 68 553 140 1715 150 908 202 1519 72 1518 78 117 80 51 99 1347 168 332 177 1776 189 1369 191 1483 
7783 1.0732889864118615 0.04270940468781464 0.8483384780870743 0 0 0 0.13 23 2096 106 1795 177 1777 
7784 1.0952239208410617 0.0668505930001152 0.8543016725842502 0 0 0 0.25 23 2097 55 1295 106 1796 177 1778 72 1519 168 333 
7785 1.0212555495054538 0.08713318850409019 0.877267964395027 0 0 0 0.37 23 2098 24 2148 31 1884 106 1797 
7786 0.6903533168416646 0.2931600903767077 1.3273556512184073 0 0 0 0.38 23 2099 106 1798 173 1717 46 1321 68 554 72 1520 99 1348 125 2455 150 909 202 1520 233 811 
7787 1.0736558747595724 0.11058925695873273 0.7912250695170067 0 0 0 0.13 23 2100 106 1799 150 910 
7788 1.0409939985978287 0.1305803877621132 0.8434847238169334 0 0 0 0.12 23 2101 106 1800 140 1716 
7789 1.0683195847582487 0.12437020966541845 0.8267793038759997 0 0 0 0.21 23 2102 57 1956 106 1801 
7790 1.070322033714222 0.1298771885624047 0.8144784710338958 0 0 0 0.07 23 2103 106 1802 140 1717 
7791 1.0157181519820362 0.15663269649668307 0.8746018095572493 0 0 0 0.32 23 2104 57 1957 106 1803 177 1779 189 1370 191 1484 78 118 
7792 1.028375763252618 0.16068546151616125 0.8534118883865066 0 0 0 0.21 23 2105 31 1885 55 1296 106 1804 
7793 1.1452733722418282 0.11444882259815611 0.7247657090406083 0 0 0 0.43 23 2106 55 1297 106 1805 
7794 0.95896379984667 0.1853393855940078 0.9206516925195501 0 0 0 0.19 23 2107 57 1958 106 1806 
7795 1.061813310564116 0.14925854951577733 0.8084875223995538 0 0 0 0.45 23 2108 106 1807 140 1718 150 911 
7796 0.6859497654146537 0.36318625380693564 1.3865228326767585 0 0 0 0.33 23 2109 106 1808 173 1718 
7797 0.9872892383798619 0.21247516435472322 0.8641633215553031 0 0 0 0.22 23 2110 57 1959 106 1809 
7798 0.4056013479863035 0.3509884918335234 1.0832520084105308 0 0 0 0.43 23 2111 24 2149 31 1886 72 1521 102 1274 106 1810 137 828 144 1758 173 1719 178 1059 180 1966 218 2137 
7799 0.9385733244499591 0.287463169309401 0.9236554618137964 0 0 0 0.35 23 2112 106 1811 140 1719 202 1521 
7800 0.6783427494298189 0.42822147767225954 1.2857556945414896 0 0 0 0.34 23 2113 106 1812 140 1720 193 2073 
7801 0.9196586697318773 0.29653725491859734 0.9190919146347158 0 0 0 0.34 23 2114 106 1813 140 1721 202 1522 
7802 0.7195946601355147 0.4083528308083855 1.2018388430730558 0 0 0 0.17 23 2115 106 1814 119 1236 131 1136 212 1393 168 334 177 1780 
7803 0.6587335144031435 0.4376034970154129 1.2728403642758523 0 0 0 0.24 23 2116 106 1815 173 1720 
7804 0.8077000021270482 0.3571191680066811 1.062822586697695 0 0 0 0.21 23 2117 106 1816 150 912 
7805 0.7729967194861744 0.3877227730278827 1.1005792132204553 0 0 0 0.24 23 2118 55 1298 106 1817 140 1722 177 1781 57 1960 150 913 189 1371 191 1485 
7806 0.48885897767353775 0.0049304487137617455 1.4559016460146785 0 0 0 0.61 23 2119 24 2150 34 1247 46 1322 94 1484 99 1349 106 1818 145 1004 150 914 161 822 173 1721 228 2187 
7807 1.1540658233785688 -0.04408298038271974 0.8719204534383451 0 0 0 0.65 23 2120 55 1299 106 1819 
7808 0.6999762136556258 0.14051647990835878 1.3615611454671268 0 0 0 0.57 23 2121 106 1820 131 1137 140 1723 150 915 151 2117 173 1722 180 1967 193 2074 79 20 168 335 
7809 0.7038059036243979 0.15857410681444561 1.3637017428161187 0 0 0 0.25 23 2122 106 1821 131 1138 140 1724 150 916 151 2118 173 1723 180 1968 
7810 0.8244244080156691 0.10145806984670977 1.1096391056815853 0 0 0 0.31 23 2123 106 1822 177 1782 144 1759 216 1552 
7811 1.0544597948391816 0.05321854680949438 0.8759282122508578 0 0 0 0.12 23 2124 106 1823 177 1783 
7812 1.0396640393442143 0.07642889963914062 0.8698079946865783 0 0 0 0.38 23 2125 24 2151 106 1824 
7813 1.1360780167364544 0.041121854710705806 0.7588060887879404 0 0 0 0.36 23 2126 31 1887 106 1825 
7814 1.1156743412986796 0.0693456136231026 0.8442260845685393 0 0 0 0.88 23 2127 55 1300 106 1826 177 1784 150 917 168 336 
7815 0.7674567474886017 0.2619030997850359 1.1603848444121403 0 0 0 0.37 23 2128 57 1961 106 1827 144 1760 180 1969 212 1394 216 1553 
7816 0.8660832523059687 0.28576955422159667 1.0165723934855104 0 0 0 0.31 23 2129 72 1522 106 1828 140 1725 
7817 0.44394161397955706 0.35371089306819326 1.125808316023606 0 0 0 0.24 23 2130 55 1301 106 1829 173 1724 102 1275 151 2119 178 1060 193 2075 
7818 0.7248390557885895 0.3876722987341162 1.2222680265444708 0 0 0 0.38 23 2131 24 2152 31 1888 72 1523 99 1350 102 1276 106 1830 116 2137 131 1139 140 1726 143 1219 154 1685 173 1725 178 1061 180 1970 8 2429 30 658 57 1962 59 1967 68 555 119 1237 137 829 144 1761 150 918 189 1372 193 2076 216 1554 228 2188 168 337 191 1486 212 1395 
7819 1.1024478422894424 0.21628570468256256 0.7628743841006559 0 0 0 0.37 23 2132 24 2153 57 1963 106 1831 
7820 0.9433384111393507 0.2795866844155262 0.918810098605053 0 0 0 0.4 23 2133 106 1832 140 1727 
7821 1.1226152075604567 0.21646932521252057 0.717045810115372 0 0 0 0.35 23 2134 57 1964 106 1833 
7822 0.7720067065416758 0.38753175039507903 1.027514084156983 0 0 0 0.22 23 2135 106 1834 180 1971 
7823 0.39966888918407856 -0.01626854585166265 1.3993712871017372 0 0 0 0.34 23 2136 106 1835 173 1726 
7824 0.9099282552850689 0.09757486121704796 1.0254857765621337 0 0 0 0.3 23 2137 106 1836 177 1785 55 1302 68 556 78 119 
7825 1.0838646564507548 0.0513827889550499 0.8423252602154058 0 0 0 0.43 23 2138 31 1889 57 1965 106 1837 78 120 
7826 0.24795577957336737 0.2171481344727821 0.9738688881721558 0 0 0 0.11 23 2139 106 1838 173 1727 
7827 0.3377415628587684 0.2617682725125014 1.0753615384689943 0 0 0 0.41 23 2140 102 1277 106 1839 131 1140 
7828 0.2558135831236703 0.24003265514742753 0.9889171633212134 0 0 0 0.88 23 2141 106 1840 211 1320 151 2120 191 1487 68 557 144 1762 
7829 0.8589306494973463 0.2578693555965582 1.0544273207141965 0 0 0 0.51 23 2142 106 1841 180 1972 216 1555 
7830 0.44010977110278215 0.31806413261859934 1.1243916388824606 0 0 0 0.3 23 2143 24 2154 31 1890 72 1524 99 1351 102 1278 106 1842 173 1728 177 1786 178 1062 226 1141 
7831 0.6418759670530698 0.4429905509247785 1.2361354506546165 0 0 0 0.31 23 2144 106 1843 173 1729 
7832 0.3833072087530031 -0.015727667290274285 1.4037481602384188 0 0 0 0.73 23 2145 31 1891 106 1844 
7833 0.33132292610443287 0.020178114790165316 1.2298219471484124 0 0 0 0.2 23 2146 106 1845 173 1730 
7834 1.0779364162510334 0.05714063633039139 0.8722588382406039 0 0 0 0.31 23 2147 24 2155 106 1846 177 1787 
7835 0.8730157879782106 0.21243161237611766 1.028859180186017 0 0 0 0.33 23 2148 106 1847 137 830 139 1226 140 1728 150 919 177 1788 202 1523 78 121 
7836 0.8999412121553919 0.223519556029108 0.9606595380820537 0 0 0 0.4 23 2149 57 1966 106 1848 140 1729 68 558 
7837 0.8610458894465376 0.3286092957237974 1.0414821830718344 0 0 0 0.52 23 2150 106 1849 177 1789 
7838 1.0801261567879552 0.07143715037684312 0.9203273003591111 0 0 0 0.28 23 2151 55 1303 106 1850 
7839 0.8705372640502368 0.24517717795168106 1.0163465410930193 0 0 0 0.21 23 2152 106 1851 140 1730 150 920 177 1790 
7840 1.0633458183168345 0.17231421812257663 0.7672846655727007 0 0 0 0.2 23 2153 106 1852 177 1791 
7841 0.8699264626008063 0.269013187399301 0.9995127704025939 0 0 0 0.46 23 2154 106 1853 140 1731 150 921 177 1792 68 559 
7842 1.041788725167804 0.23588245684509615 0.8126484052947168 0 0 0 0.18 23 2155 57 1967 106 1854 
7843 0.5254918742798036 0.40040052569976303 1.1360621108899784 0 0 0 0.41 23 2156 106 1855 131 1141 173 1731 168 338 
7844 0.5485230439159147 0.008776139888650399 1.29597557011028 0 0 0 0.32 24 2156 106 1856 173 1732 
7845 1.195326939956194 0.01653260644730613 0.7229506654158133 0 0 0 0.75 24 2157 57 1968 106 1857 150 922 177 1793 
7846 1.014853897552622 0.12388426466642669 0.9064738754518155 0 0 0 0.34 24 2158 106 1858 140 1732 202 1524 
7847 1.2939730715112039 0.047592283846920276 0.6090627252108004 0 0 0 0.55 24 2159 106 1859 177 1794 
7848 0.47803725501706024 0.29173962907954415 1.1688286656855051 0 0 0 0.24 24 2160 106 1860 173 1733 
7849 0.1901808609273782 -0.16384202175862742 1.0884196745240473 0 0 0 0.19 24 2161 106 1861 116 2138 173 1734 177 1795 218 2138 117 385 149 1161 
7850 1.309095831435655 -0.05279091520249005 0.6731392125331505 0 0 0 0.87 24 2162 31 1892 106 1862 
7851 1.2510746154965422 -0.003104622965804198 0.7935362725398826 0 0 0 0.23 24 2163 106 1863 177 1796 
7852 1.2054688008814378 0.03482737590762479 0.7143088102843826 0 0 0 0.7 24 2164 55 1304 106 1864 
7853 0.9131788671655805 0.17848438857855012 0.9617976551514885 0 0 0 0.39 24 2165 106 1865 140 1733 
7854 1.0347239761921838 0.21453713540531874 0.8247662190695435 0 0 0 0.41 24 2166 55 1305 106 1866 189 1373 191 1488 202 1525 80 52 
7855 1.0876276626920747 0.1996954265564803 0.7904282189722969 0 0 0 0.1 24 2167 106 1867 177 1797 
7856 0.38715193674977183 0.3321695350466342 1.0958486259362692 0 0 0 0.3 24 2168 72 1525 106 1868 226 1142 
7857 0.29675114859220086 0.32389112776452433 1.0113546478792375 0 0 0 0.28 24 2169 106 1869 131 1142 
7858 1.1956979551011166 0.034018363530619274 0.7181472087486602 0 0 0 0.44 24 2170 31 1893 55 1306 57 1969 106 1870 
7859 0.7076630835487594 0.3563675868117511 1.260035545194722 0 0 0 0.72 24 2171 59 1968 99 1352 106 1871 143 1220 171 993 173 1735 180 1973 189 1374 212 1396 68 560 72 1526 139 1227 177 1798 186 556 202 1526 31 1894 119 1238 137 831 150 923 154 1686 168 339 178 1063 216 1556 226 1143 228 2189 117 386 193 2077 
7860 1.26130036311354 0.013425975756886671 0.8563271333734206 0 0 0 0.66 24 2172 31 1895 106 1872 
7861 0.17266040750230055 -0.17146402345408848 1.096716418912363 0 0 0 0.28 106 1873 116 2139 161 823 177 1799 
7862 0.11822389509881158 -0.1390342645182848 1.0498934449434096 0 0 0 0.27 86 2002 106 1874 116 2140 140 1734 150 924 154 1687 171 994 173 1736 177 1800 
7863 0.21336361772239612 0.10652116563624009 1.0174375999075564 0 0 0 0.2 30 659 37 1212 94 1485 106 1875 116 2141 140 1735 149 1162 151 2121 154 1688 180 1974 193 2078 226 1144 228 2190 233 812 
7864 1.0152707291675247 0.10400607477637941 0.8962756898965082 0 0 0 0.44 30 660 99 1353 106 1876 
7865 0.9700912943971555 0.12344331996510306 0.9427678551912729 0 0 0 0.28 30 661 99 1354 106 1877 78 122 
7866 0.8535774282406641 0.1730177323822361 1.0499105840257466 0 0 0 0.22 30 662 106 1878 139 1228 
7867 0.7377669851977618 0.2529150846860847 1.250753645747084 0 0 0 0.55 30 663 106 1879 154 1689 173 1737 140 1736 143 1221 
7868 0.7304815726376251 0.25128650629698734 1.2262714245975919 0 0 0 1.03 30 664 106 1880 193 2079 228 2191 68 561 144 1763 202 1527 
7869 0.7901593751436091 0.25129156409557357 1.1344914345117354 0 0 0 0.34 30 665 99 1355 106 1881 140 1737 150 925 154 1690 180 1975 228 2192 80 53 
7870 1.0549050032293352 0.17476788133163731 0.8172474275443603 0 0 0 0.38 30 666 106 1882 177 1801 78 123 79 21 80 54 140 1738 150 926 
7871 0.14626081601658092 -0.14131483030389078 1.0704709075095427 0 0 0 0.19 72 1527 94 1486 106 1883 116 2142 140 1739 150 927 151 2122 154 1691 161 824 177 1802 183 810 193 2080 210 605 226 1145 117 387 125 2456 149 1163 
7872 0.13581113582685528 0.08997118823874102 0.960144674104638 0 0 0 0.41 30 667 86 2003 106 1884 145 1005 151 2123 161 825 166 1960 173 1738 177 1803 180 1976 205 754 218 2139 228 2193 
7873 1.0907044741116123 0.07873470645216883 0.8089387215452237 0 0 0 0.3 55 1307 57 1970 106 1885 150 928 177 1804 78 124 79 22 
7874 0.7928374934075952 0.17675151037554618 1.1393078027057122 0 0 0 0.23 30 668 55 1308 57 1971 72 1528 106 1886 137 832 139 1229 140 1740 145 1006 161 826 212 1397 
7875 0.7856308850489041 0.1885383281778564 1.1561900787724526 0 0 0 0.24 30 669 55 1309 106 1887 131 1143 140 1741 150 929 205 755 212 1398 216 1557 78 125 177 1805 
7876 0.7854607074532935 0.1886997688347863 1.1424491839766056 0 0 0 0.31 30 670 55 1310 57 1972 106 1888 119 1239 144 1764 189 1375 202 1528 212 1399 228 2194 68 562 
7877 0.9682068532201671 0.14213988410230324 0.9700191511097188 0 0 0 0.47 30 671 31 1896 106 1889 
7878 0.878238617840811 0.224420811163749 1.0083972892508204 0 0 0 0.34 30 672 106 1890 143 1222 150 930 23 2157 24 2173 68 563 189 1376 
7879 0.7396027196292202 0.3093071286697237 1.225462263805407 0 0 0 0.32 30 673 106 1891 140 1742 171 995 193 2081 
7880 0.19438503062583928 0.2949806648983633 0.9295599508014146 0 0 0 0.67 30 674 99 1356 106 1892 116 2143 140 1743 177 1806 
7881 0.29274024592780157 0.3590919468169353 0.9752454957582515 0 0 0 0.39 30 675 55 1311 106 1893 150 931 177 1807 
7882 1.0719131174861276 0.09504642492926736 0.8293816685505822 0 0 0 0.56 30 676 55 1312 106 1894 177 1808 78 126 189 1377 
7883 0.924011380025588 0.16436732722748196 0.9826144653478385 0 0 0 0.54 30 677 106 1895 140 1744 189 1378 191 1489 202 1529 72 1529 78 127 
7884 0.8611637763172802 0.19660057703300904 1.0461399162312222 0 0 0 0.39 30 678 106 1896 140 1745 150 932 202 1530 78 128 79 23 216 1558 
7885 1.1466432810957414 0.027430934687841083 0.7975735726778841 0 0 0 0.27 57 1973 106 1897 150 933 177 1809 
7886 1.1086909250756958 0.13965115939290793 0.76044341843085 0 0 0 0.56 31 1897 55 1313 57 1974 106 1898 189 1379 24 2174 78 129 79 24 168 340 
7887 1.15314195599761 0.1308639862068629 0.7291662377131174 0 0 0 0.36 55 1314 106 1899 177 1810 189 1380 
7888 0.20284639640743168 -0.08711646478202183 1.0863839311878898 0 0 0 0.26 31 1898 72 1530 106 1900 173 1739 180 1977 
7889 0.3855621099823121 -0.014272563153658512 1.3900402265927214 0 0 0 0.47 31 1899 106 1901 173 1740 216 1559 
7890 0.11091001571919722 0.08899788718829992 0.9589505192292876 0 0 0 0.97 31 1900 102 1279 106 1902 151 2124 216 1560 218 2140 23 2158 203 570 
7891 1.122159655906001 -0.022281566832759895 0.8469353729157912 0 0 0 0.23 31 1901 57 1975 106 1903 
7892 0.45494198755212706 0.2003578263617485 1.1855486072751122 0 0 0 0.4 31 1902 106 1904 180 1978 
7893 0.669211067298041 0.2585256499023331 1.3752048357589293 0 0 0 0.17 31 1903 72 1531 106 1905 140 1746 177 1811 193 2082 218 2141 78 130 150 934 228 2195 233 813 
7894 0.4680661870061393 0.2478935657153688 1.191272533591452 0 0 0 0.35 31 1904 106 1906 218 2142 226 1146 
