# 3D point list with one line of data per point:
#   POINT3D_ID, X, Y, Z, R, G, B, ERROR, TRACK[] as (IMAGE_ID, POINT2D_IDX)
# Number of points: 325, mean track length: 8.52
829 -0.09908293474230037 0.12485881032383493 0.7141209311286746 0 0 0 0.07 30 83 203 769 216 208 
830 -0.05534262181919926 0.13776626309539458 0.7467199170144023 0 0 0 0.15 30 84 94 318 99 371 149 521 203 770 216 209 
831 0.014837205962401965 0.15503709014193784 0.7898203050689606 0 0 0 0.24 30 85 86 79 99 372 149 522 153 62 167 94 177 171 193 295 203 771 
832 -0.11910473407100532 0.1496679820431021 0.6990283788458252 0 0 0 0.15 30 86 58 120 151 217 154 235 171 250 183 87 203 772 228 265 233 202 
833 -0.0063153853145067095 0.1698663329469988 0.7685261440618916 0 0 0 0.25 30 87 37 101 72 178 99 373 116 284 131 42 149 523 151 218 161 113 167 95 177 172 180 239 193 296 203 773 226 174 
834 0.02300381117782413 0.1731812551313004 0.7861801731346715 0 0 0 0.25 30 88 72 179 94 319 116 285 140 268 149 524 153 63 154 236 166 167 167 96 171 251 177 173 180 240 193 297 203 774 210 293 
835 -0.10819585086044564 0.19796740371434754 0.6460846696629736 0 0 0 0.36 30 89 149 525 161 114 193 298 203 775 
836 0.1837921033438145 0.2651191263526606 0.8298839145632575 0 0 0 0.11 30 90 203 776 226 175 
837 0.014624854179572808 0.048079053160506625 0.8341585342476893 0 0 0 0.28 30 91 46 96 58 121 86 80 94 320 99 374 116 286 140 269 144 101 149 526 150 31 154 237 166 168 180 241 183 88 203 777 211 144 218 178 228 266 
838 0.10818908194202444 0.06841086975353838 0.8491092783815558 0 0 0 0.19 30 92 99 375 139 71 203 778 
839 -0.012922099393492186 0.12275457549244478 0.7895577651109319 0 0 0 0.43 30 93 37 102 94 321 99 376 102 110 116 287 143 62 149 527 166 169 173 153 203 779 228 267 
840 -0.11602447611643608 0.12317639016507939 0.7089358355356774 0 0 0 0.07 30 94 37 103 149 528 154 238 167 97 203 780 211 145 
841 0.19240929389600836 0.158855851916189 0.8837312610271749 0 0 0 0.37 30 95 46 97 99 377 166 170 180 242 203 781 211 146 218 179 
842 -0.01964811403826012 0.1522088989697323 0.7651318994737266 0 0 0 0.27 30 96 58 122 149 529 166 171 167 98 183 89 193 299 203 782 210 294 228 268 
843 -0.048454003178632805 0.15461270072711572 0.7426257379695167 0 0 0 0.47 30 97 46 98 58 123 86 81 125 183 154 239 166 172 171 252 177 174 203 783 211 147 
844 0.05999941551240081 0.17761899964864086 0.8124922666186022 0 0 0 0.22 30 98 37 104 94 322 99 378 116 288 125 184 139 72 140 270 149 530 151 219 171 253 173 154 177 175 183 90 193 300 203 784 205 95 218 180 228 269 
845 -0.06903250944772163 0.1668933848006853 0.7234588127689486 0 0 0 0.1 30 99 58 124 119 55 140 271 203 785 
846 -0.08129442480678745 0.16932383004518856 0.722896631951878 0 0 0 0.26 30 100 58 125 140 272 154 240 161 115 166 173 171 254 178 72 180 243 193 301 202 63 203 786 226 176 228 270 
847 0.09252060919248781 0.20717156280578533 0.8188489054701215 0 0 0 0.27 30 101 34 117 46 99 180 244 191 55 203 787 228 271 
848 -0.09864861075231598 0.1966668525798804 0.6820132989111177 0 0 0 0.24 30 102 34 118 203 788 
849 0.11886143328684225 0.24321069649138483 0.7899710239770941 0 0 0 0.44 30 103 72 180 99 379 119 56 125 185 143 63 180 245 189 44 191 56 203 789 210 295 215 54 233 203 
850 0.007364460448341465 0.04611279948010553 0.8299640496968413 0 0 0 0.31 30 104 161 116 203 790 233 204 
851 0.03577600960378914 0.053233063648566475 0.847330414126693 0 0 0 0.4 30 105 154 241 203 791 233 205 
852 -0.044384329707639385 0.0490052998432106 0.7902681400316589 0 0 0 0.26 30 106 57 89 58 126 86 82 94 323 116 289 125 186 149 531 166 174 203 792 210 296 
853 -0.024082615815198744 0.05168086539723379 0.8076919787106851 0 0 0 0.15 30 107 86 83 94 324 99 380 116 290 149 532 151 220 166 175 189 45 193 302 203 793 
854 0.07234100214687024 0.06252606918210235 0.8694412575740305 0 0 0 0.52 30 108 47 12 86 84 94 325 99 381 139 73 149 533 154 242 186 19 203 794 233 206 
855 -0.08789514146093681 0.13036635312774064 0.7270766438658061 0 0 0 0.17 30 109 58 127 116 291 203 795 212 97 
856 -0.0393179742375485 0.1702118601807648 0.7386081108059416 0 0 0 0.28 30 110 45 23 55 46 57 90 58 128 59 110 72 181 94 326 99 382 116 292 125 187 131 43 139 74 140 273 149 534 151 221 153 64 154 243 161 117 166 176 177 176 180 246 183 91 193 303 203 796 205 96 210 297 211 148 215 55 216 210 218 181 226 177 228 272 
857 0.0013265746008874766 0.20175589371092623 0.7708372600322493 0 0 0 0.3 30 111 55 47 116 293 119 57 125 188 139 75 143 64 144 102 151 222 154 244 166 177 167 99 177 177 183 92 189 46 191 57 193 304 203 797 212 98 215 56 216 211 218 182 226 178 
858 0.10435325871560922 0.1350605409061716 0.8238123162457125 0 0 0 0.24 30 112 59 111 94 327 99 383 125 189 140 274 144 103 145 70 149 535 151 223 154 245 161 118 166 178 173 155 178 73 180 247 183 93 193 305 202 64 203 798 211 149 212 99 215 57 218 183 228 273 
859 -0.07025097301728862 0.1396302558244057 0.7337122096233406 0 0 0 0.34 30 113 57 91 58 129 59 112 94 328 99 384 116 294 125 190 144 104 149 536 151 224 154 246 161 119 189 47 203 799 210 298 212 100 228 274 
860 -0.12087181712894858 0.13260032516333067 0.7005932547372201 0 0 0 0.38 30 114 45 24 55 48 59 113 72 182 86 85 116 295 119 58 125 191 131 44 140 275 143 65 144 105 151 225 154 247 161 120 166 179 167 100 171 255 183 94 193 306 203 800 205 97 211 150 212 101 216 212 218 184 225 20 226 179 228 275 233 207 
861 -0.05587989511497138 0.17935254587015617 0.7366931538393574 0 0 0 0.41 30 115 34 119 58 130 125 192 151 226 154 248 183 95 191 58 193 307 203 801 225 21 226 180 
862 0.07300880911636838 0.08754336222833949 0.8653775699893499 0 0 0 0.24 30 116 99 385 121 20 125 193 149 537 154 249 178 74 202 65 203 802 228 276 
863 0.019186866722467243 0.17063580567800868 0.7870140285987279 0 0 0 0.59 30 117 57 92 59 114 94 329 116 296 125 194 149 538 154 250 177 178 191 59 203 803 210 299 212 102 215 58 228 277 
864 -0.07096170281856892 0.17856186748327615 0.7147529290998128 0 0 0 0.34 30 118 34 120 58 131 72 183 99 386 125 195 140 276 144 106 154 251 167 101 189 48 191 60 193 308 203 804 211 151 212 103 226 181 228 278 
865 0.05985755627214543 0.1736390826201507 0.8147355336052351 0 0 0 0.25 30 119 59 115 151 227 203 805 216 213 
866 0.09853255886616799 0.03934599830534348 0.8707590818860759 0 0 0 0.35 34 121 46 100 47 13 102 111 125 196 171 256 177 179 180 248 186 20 193 309 203 806 215 59 218 185 228 279 233 208 
867 0.08312576060345025 0.05195906530764848 0.8807819755482117 0 0 0 0.27 34 122 46 101 86 86 99 387 140 277 144 107 154 252 177 180 180 249 186 21 193 310 203 807 218 186 
868 -0.17023750278861272 0.044604925033378526 0.693939318909618 0 0 0 0.31 34 123 58 132 167 102 203 808 211 152 
869 0.013579117484905374 0.09530167845096245 0.8227851374704187 0 0 0 0.42 34 124 46 102 72 184 125 197 178 75 180 250 186 22 203 809 210 300 228 280 
870 0.060583517302582705 0.11633695597531148 0.8376027912933557 0 0 0 0.37 34 125 57 93 72 185 86 87 99 388 102 112 116 297 143 66 144 108 145 71 149 539 151 228 166 180 173 156 177 181 203 810 210 301 212 104 226 182 
871 -0.16122786622465357 0.10343920837800684 0.6761465137915192 0 0 0 0.28 34 126 37 105 46 103 57 94 125 198 149 540 193 311 226 183 
872 0.004953312394686468 0.1263033721569577 0.8039572648593147 0 0 0 0.47 34 127 46 104 116 298 167 103 203 811 210 302 226 184 233 209 
873 0.12989867212583606 0.13552799578972333 0.8393937119062717 0 0 0 0.38 34 128 144 109 173 157 180 251 203 812 
874 0.11561674674478367 0.13423121881831446 0.8241602213336642 0 0 0 0.3 34 129 72 186 99 389 140 278 149 541 151 229 161 121 171 257 173 158 177 182 193 312 203 813 205 98 210 303 211 153 226 185 233 210 
875 0.20384280325459528 0.16738119268173005 0.8797163371682769 0 0 0 0.26 34 130 37 106 46 105 55 49 57 95 72 187 99 390 125 199 139 76 143 67 150 32 151 230 161 122 171 258 177 183 193 313 203 814 205 99 210 304 211 154 215 60 216 214 218 187 233 211 
876 -0.176423387145942 0.1319172265503659 0.6605777349641105 0 0 0 0.28 34 131 37 107 58 133 86 88 139 77 211 155 218 188 
877 0.1847350967527514 0.17088617569515585 0.8649993883695342 0 0 0 0.16 34 132 180 252 203 815 
878 0.28613328938834043 0.19667591853708302 0.9752763311835221 0 0 0 0.33 34 133 37 108 46 106 72 188 94 330 99 391 122 107 125 200 140 279 143 68 149 542 161 123 177 184 180 253 183 96 191 61 202 66 210 305 211 156 216 215 218 189 228 281 
879 0.2768661866375225 0.20077077537700241 0.9665677311052558 0 0 0 0.14 34 134 99 392 189 49 191 62 
880 0.13894834837535391 0.17161631556474125 0.8314652565486016 0 0 0 0.17 34 135 72 189 99 393 102 113 116 299 149 543 171 259 173 159 177 185 203 816 210 306 218 190 
881 0.13269286258504737 0.17455745147036364 0.8235427103192261 0 0 0 0.27 34 136 46 107 59 116 99 394 131 45 140 280 149 544 151 231 202 67 203 817 212 105 228 282 
882 -0.10551578463327552 0.15318820471025785 0.6982596915968443 0 0 0 0.21 34 137 37 109 46 108 58 134 116 300 125 201 140 281 149 545 154 253 183 97 193 314 203 818 205 100 216 216 226 186 228 283 233 212 
883 -0.006252777878781253 0.17007279452728255 0.769217477922386 0 0 0 0.23 34 138 99 395 140 282 203 819 
884 0.12189817673338889 0.18792611407559717 0.8050346497661259 0 0 0 0.28 34 139 46 109 99 396 149 546 173 160 180 254 203 820 
885 -0.06914153277630769 0.17488895976317392 0.71256808039562 0 0 0 0.2 34 140 125 202 203 821 
886 0.004873840695236423 0.20302341078288305 0.771391854747166 0 0 0 0.3 34 141 72 190 94 331 99 397 153 65 154 254 167 104 173 161 177 186 193 315 203 822 210 307 211 157 216 217 
887 0.10777967299635235 0.03540567036520027 0.8624062931716726 0 0 0 0.2 34 142 173 162 178 76 
888 0.0917907816151488 0.04935027262506652 0.8868043460697578 0 0 0 0.29 34 143 47 14 94 332 99 398 116 301 125 203 131 46 139 78 140 283 149 547 154 255 166 181 177 187 180 255 186 23 202 68 203 823 211 158 212 106 218 191 225 22 228 284 
889 0.12957921545987913 0.0749895028572377 0.8654206582381002 0 0 0 0.2 34 144 149 548 203 824 233 213 
890 -0.08163889642582571 0.07604445819343006 0.7627869915613246 0 0 0 0.29 34 145 46 110 58 135 59 117 72 191 99 399 116 302 145 72 149 549 150 33 189 50 203 825 205 101 218 192 226 187 228 285 
891 -0.05174008060439004 0.07960076911258478 0.7811916853398962 0 0 0 0.37 34 146 37 110 46 111 57 96 58 136 99 400 116 303 151 232 166 182 167 105 189 51 203 826 228 286 
892 -0.06483334945710731 0.08821417658775288 0.7702717950479279 0 0 0 0.2 34 147 58 137 86 89 94 333 116 304 140 284 167 106 189 52 191 63 203 827 212 107 226 188 228 287 
893 0.008592796626541119 0.09843360891183231 0.8164018198285496 0 0 0 0.29 34 148 37 111 59 118 86 90 94 334 99 401 116 305 167 107 177 188 203 828 215 61 228 288 
894 0.008484659425424758 0.09824664236272504 0.8152053410718899 0 0 0 0.37 34 149 37 112 59 119 86 91 94 335 116 306 144 110 149 550 150 34 151 233 166 183 167 108 177 189 178 77 193 316 202 69 203 829 212 108 215 62 226 189 228 289 
895 0.2108995699630939 0.1470728454824785 0.8911092991842682 0 0 0 0.29 34 150 55 50 59 120 116 307 122 108 131 47 140 285 144 111 145 73 149 551 151 234 154 256 161 124 180 256 193 317 203 830 205 102 212 109 228 290 
896 0.19431738719166902 0.17280889768664956 0.8731019654337099 0 0 0 0.29 34 151 72 192 86 92 102 114 149 552 151 235 154 257 173 163 180 257 203 831 215 63 218 193 226 190 
897 0.1171692728297411 0.1637861254312813 0.8125532329673716 0 0 0 0.24 34 152 86 93 99 402 102 115 140 286 149 553 154 258 173 164 193 318 203 832 
898 0.07515723962948322 0.17405206663970205 0.8219679534170612 0 0 0 0.44 34 153 72 193 94 336 145 74 191 64 203 833 
899 0.12807506271070407 0.1873835287407167 0.8146401037959453 0 0 0 0.28 34 154 166 184 180 258 203 834 210 308 
900 0.19540242592530996 0.21102647344633851 0.8587162105399073 0 0 0 0.47 34 155 122 109 145 75 151 236 161 125 183 98 203 835 211 159 228 291 
901 -0.1373122781585539 0.1764366109622194 0.674258443790361 0 0 0 0.22 34 156 58 138 59 121 72 194 94 337 116 308 125 204 143 69 144 112 149 554 151 237 166 185 167 109 180 259 191 65 193 319 203 836 211 160 216 218 218 194 228 292 
902 -0.07160572778807721 0.19252631131800463 0.7149917204250932 0 0 0 0.2 34 157 58 139 59 122 94 338 99 403 116 309 119 59 125 205 140 287 143 70 144 113 151 238 153 66 193 320 203 837 211 161 216 219 228 293 
903 0.17523923541194955 0.26045592143435026 0.8303404853674796 0 0 0 0.21 34 158 144 114 180 260 228 294 
904 -0.056323332723874756 0.07650191723084056 0.7798114687435985 0 0 0 0.14 34 159 37 113 46 112 94 339 99 404 203 838 
905 -0.056373811810675814 0.0765093384198065 0.7799054738029464 0 0 0 0.25 34 160 99 405 143 71 177 190 178 78 180 261 203 839 
906 -0.08593075072215017 0.08340550962376325 0.757179022291039 0 0 0 0.3 34 161 121 21 203 840 
907 -0.056153103402604085 0.09068560601138484 0.774610903000765 0 0 0 0.2 34 162 58 140 86 94 116 310 125 206 154 259 203 841 212 110 226 191 228 295 
908 -0.10067457201773314 0.09662389662472394 0.731838612720729 0 0 0 0.27 34 163 59 123 86 95 116 311 125 207 140 288 151 239 167 110 193 321 202 70 203 842 215 64 226 192 
909 -0.03493171171661457 0.10280683703654016 0.7694648272995749 0 0 0 0.2 34 164 58 141 59 124 86 96 94 340 99 406 102 116 116 312 125 208 154 260 166 186 167 111 193 322 202 71 203 843 210 309 212 111 
910 -0.09619582550911598 0.11498996678052348 0.7223107658120578 0 0 0 0.24 34 165 171 260 203 844 
911 -0.15863749472634894 0.12472397188323944 0.6760310990253783 0 0 0 0.31 34 166 55 51 58 142 59 125 125 209 144 115 151 240 154 261 167 112 183 99 189 53 193 323 202 72 212 112 216 220 226 193 228 296 
912 -0.09202496781151064 0.1337782058922122 0.7189454482545357 0 0 0 0.33 34 167 58 143 154 262 161 126 203 845 228 297 
913 -0.06436282709287974 0.18485961425398187 0.7276905959786859 0 0 0 0.37 34 168 46 113 94 341 99 407 116 313 119 60 139 79 151 241 154 263 191 66 203 846 210 310 211 162 215 65 216 221 226 194 228 298 
914 -0.05465108672299334 0.19076379431295498 0.7423693339384929 0 0 0 0.31 34 169 58 144 102 117 116 314 125 210 154 264 177 191 191 67 193 324 203 847 
915 0.12848957929371432 0.22837505192642577 0.8036083434792927 0 0 0 0.28 34 170 57 97 59 126 94 342 99 408 116 315 121 22 122 110 131 48 140 289 143 72 144 116 145 76 149 555 151 242 166 187 171 261 173 165 177 192 178 79 180 262 183 100 186 24 189 54 191 68 193 325 203 848 210 311 212 113 216 222 218 195 233 214 
916 -0.16174606041919976 0.11154208093452904 0.6766999759458813 0 0 0 0.19 34 171 37 114 58 145 94 343 125 211 151 243 154 265 166 188 193 326 203 849 211 163 215 66 216 223 228 299 
917 -0.16017201182194518 0.15021205954204783 0.6754022853939802 0 0 0 0.33 34 172 37 115 55 52 57 98 58 146 144 117 151 244 183 101 189 55 216 224 228 300 
918 -0.03433202504790544 0.19419442285953972 0.7310722068081197 0 0 0 0.32 34 173 59 127 102 118 166 189 167 113 193 327 202 73 203 850 211 164 212 114 228 301 
919 0.19092284025780196 0.09276422895359522 0.9007491925834872 0 0 0 0.62 34 174 173 166 178 80 203 851 216 225 
920 -0.10094252711486419 0.11950194788886387 0.7181381668904818 0 0 0 0.48 34 175 59 128 116 316 131 49 140 290 166 190 171 262 193 328 203 852 228 302 
921 -0.0352493265117028 0.1640576897078065 0.7432848331498921 0 0 0 0.35 34 176 171 263 203 853 
922 -0.11343710057406145 0.16267533891688837 0.7013364752595845 0 0 0 0.36 34 177 116 317 131 50 144 118 153 67 193 329 203 854 226 195 228 303 
923 0.15563685956631287 0.21338661137172618 0.8281873330252797 0 0 0 0.46 34 178 59 129 99 409 116 318 125 212 139 80 140 291 144 119 145 77 149 556 151 245 166 191 180 263 202 74 203 855 212 115 218 196 228 304 
924 -0.17685943534603193 0.07994408685772507 0.6839933542269332 0 0 0 0.42 34 179 57 99 102 119 125 213 144 120 149 557 151 246 154 266 193 330 215 67 216 226 226 196 228 305 
925 -0.16443437868328067 0.15393151271739614 0.6552469237102918 0 0 0 0.4 34 180 37 116 58 147 59 130 94 344 125 214 151 247 191 69 202 75 228 306 
926 0.05788923405465004 0.21754081061810893 0.801584919203015 0 0 0 0.32 34 181 37 117 46 114 55 53 57 100 59 131 72 195 94 345 116 319 119 61 121 23 131 51 139 81 140 292 143 73 144 121 145 78 149 558 151 248 161 127 177 193 178 81 183 102 189 56 191 70 193 331 202 76 203 856 205 103 210 312 212 116 218 197 228 307 
927 0.18722218147060066 0.251313399926955 0.8477020820658787 0 0 0 0.19 34 182 149 559 203 857 
928 0.04077764274346908 0.07254423031181545 0.8441840980392121 0 0 0 0.22 37 118 140 293 154 267 203 858 210 313 
929 0.2048903683764389 0.11044442356565079 0.901174857024291 0 0 0 0.8 37 119 125 215 203 859 210 314 
930 -0.07365527184775578 0.133417385191459 0.7352559138980026 0 0 0 0.11 37 120 58 148 149 560 193 332 203 860 210 315 228 308 233 215 
931 -0.05033959989607205 0.13960459807604853 0.7502471621515273 0 0 0 0.19 37 121 94 346 125 216 149 561 167 114 193 333 203 861 211 165 
932 -0.003710170281698922 0.1525740226229053 0.7759705838931079 0 0 0 0.27 37 122 99 410 140 294 166 192 167 115 177 194 193 334 203 862 
933 -0.0919934586977203 0.1394652353966011 0.718610717560305 0 0 0 0.4 37 123 116 320 193 335 203 863 210 316 216 227 226 197 228 309 
934 0.06632060969280328 0.17219043321297417 0.8214733964121455 0 0 0 0.17 37 124 94 347 99 411 145 79 149 562 151 249 171 264 193 336 203 864 210 317 218 198 228 310 
935 -0.15661373052667005 0.14050614327028135 0.6759321894077766 0 0 0 0.15 37 125 149 563 203 865 
936 -0.025968911519308403 0.1663466094813555 0.7560153486825616 0 0 0 0.16 37 126 46 115 58 149 94 348 99 412 116 321 125 217 140 295 149 564 167 116 193 337 203 866 216 228 226 198 228 311 
937 -0.1643345300483788 0.13892616111293174 0.6616894894920036 0 0 0 0.14 37 127 116 322 161 128 183 103 216 229 
938 0.16778676838365408 0.23287110902080255 0.8184276719614749 0 0 0 0.33 37 128 94 349 99 413 166 193 171 265 203 867 210 318 
939 -0.13801117093167597 0.1970472915498533 0.6277140727638796 0 0 0 0.36 37 129 55 54 58 150 72 196 166 194 193 338 216 230 
940 0.018355831763683876 0.10083708893988864 0.8208745458364405 0 0 0 0.46 37 130 119 62 125 218 140 296 143 74 149 565 154 268 171 266 191 71 193 339 203 868 
941 0.008693801267359719 0.1542974373242184 0.787417054515452 0 0 0 0.21 37 131 46 116 72 197 86 97 99 414 125 219 139 82 140 297 144 122 149 566 151 250 161 129 166 195 173 167 177 195 180 264 193 340 203 869 210 319 211 166 216 231 218 199 226 199 228 312 233 216 
942 -0.17648264213974865 0.13247002923286458 0.6623693758406117 0 0 0 0.2 37 132 46 117 149 567 203 870 211 167 
943 0.19537690271164196 0.2103114945256473 0.8561296844514706 0 0 0 0.48 37 133 55 55 94 350 116 323 140 298 149 568 173 168 177 196 180 265 203 871 216 232 
944 0.21030605524259854 0.22539516513554647 0.8638339793382777 0 0 0 0.32 37 134 59 132 72 198 94 351 99 415 116 324 125 220 140 299 161 130 166 196 173 169 180 266 183 104 191 72 202 77 203 872 210 320 215 68 216 233 226 200 233 217 
945 0.09654877446224285 0.23142746138475648 0.808523554142606 0 0 0 0.3 37 135 72 199 149 569 171 267 203 873 210 321 216 234 226 201 228 313 233 218 
946 -0.10553742147970355 0.19642667028375438 0.6438352217409978 0 0 0 0.26 37 136 46 118 203 874 
947 0.040845254165825184 0.06773973324216859 0.8476348338879981 0 0 0 0.22 37 137 57 101 59 133 94 352 140 300 144 123 149 570 161 131 167 117 202 78 203 875 205 104 212 117 218 200 228 314 233 219 
948 -0.17073772583496669 0.07297404949677408 0.6824075408109942 0 0 0 0.11 37 138 46 119 59 134 86 98 125 221 166 197 167 118 189 57 212 118 
949 -0.1055985113346362 0.09020615460956209 0.7254189317402084 0 0 0 0.13 37 139 59 135 86 99 94 353 116 325 125 222 149 571 154 269 166 198 167 119 171 268 178 82 189 58 191 73 202 79 203 876 212 119 218 201 226 202 
950 0.0822524542157188 0.17249785122079025 0.8323673757559477 0 0 0 0.18 37 140 46 120 59 136 86 100 94 354 102 120 116 326 125 223 140 301 144 124 149 572 154 270 171 269 178 83 180 267 191 74 193 341 202 80 203 877 210 322 211 168 228 315 
951 -0.1046221897536309 0.174919400140051 0.6923283489305098 0 0 0 0.43 37 141 57 102 125 224 140 302 144 125 167 120 191 75 202 81 212 120 225 23 228 316 
952 -0.1702285561231403 0.16645861300688483 0.648000736289391 0 0 0 0.18 37 142 58 151 119 63 125 225 178 84 180 268 191 76 193 342 202 82 211 169 212 121 216 235 226 203 228 317 
953 -0.12124105043732195 0.07504289331775836 0.7335448143930416 0 0 0 0.31 37 143 57 103 58 152 125 226 144 126 151 251 183 105 189 59 193 343 203 878 211 170 228 318 
954 -0.16209307485763044 0.09946572432729461 0.6875986567791373 0 0 0 0.36 37 144 55 56 57 104 58 153 94 355 116 327 119 64 144 127 145 80 183 106 189 60 191 77 215 69 226 204 228 319 
955 0.21340116124792782 0.19046706835081914 0.8756941075303658 0 0 0 0.26 37 145 46 121 94 356 99 416 122 111 131 52 149 573 154 271 171 270 180 269 202 83 203 879 228 320 233 220 
956 -0.09983381945383529 0.17084259041455058 0.6895719582253693 0 0 0 0.28 37 146 58 154 59 137 116 328 119 65 125 227 140 303 154 272 189 61 191 78 193 344 203 880 226 205 228 321 
957 -0.16595880945756813 0.14565903090447418 0.6575252554122915 0 0 0 0.22 37 147 58 155 59 138 125 228 144 128 149 574 151 252 154 273 161 132 171 271 202 84 211 171 212 122 216 236 228 322 
958 0.05854577413062939 0.158658448702251 0.8223950187531123 0 0 0 0.36 37 148 59 139 99 417 125 229 149 575 151 253 154 274 178 85 202 85 203 881 212 123 
959 -0.025308731495669902 0.11422711131121076 0.7792482668198791 0 0 0 0.6 37 149 58 156 86 101 99 418 102 121 116 329 125 230 178 86 203 882 210 323 211 172 228 323 
960 -0.16850460857035265 0.10806480675271983 0.6704766567437689 0 0 0 0.14 45 25 58 157 72 200 116 330 151 254 154 275 183 107 193 345 216 237 228 324 
961 -0.1648681139513867 0.07530013314535329 0.6889453661286996 0 0 0 0.28 45 26 58 158 145 81 203 883 
962 0.1621514477134249 0.24142409840099785 0.8213040871386597 0 0 0 0.27 45 27 46 122 59 140 99 419 116 331 125 231 140 304 171 272 173 170 180 270 189 62 191 79 203 884 212 124 228 325 233 221 
963 0.03461209660758564 0.05843110567854834 0.8431709547279777 0 0 0 0.45 45 28 55 57 59 141 90 28 144 129 149 576 151 255 154 276 203 885 205 105 212 125 228 326 
964 -0.1786136857739076 0.1330374975997923 0.6590125862732626 0 0 0 0.31 45 29 59 142 90 29 116 332 125 232 131 53 139 83 144 130 153 68 154 277 161 133 166 199 171 273 189 63 191 80 193 346 202 86 211 173 212 126 218 202 
965 -0.05278648349391622 0.05358396247011816 0.7866900903972939 0 0 0 0.39 46 123 99 420 116 333 125 233 203 886 210 324 211 174 215 70 233 222 
966 -0.14777513995247873 0.06745406611254048 0.7175164124483782 0 0 0 0.21 46 124 149 577 203 887 
967 -0.06883389244684611 0.10116035540744223 0.749979561292327 0 0 0 0.61 46 125 140 305 150 35 154 278 203 888 210 325 228 327 
968 0.19998175392053455 0.12716560954375625 0.8945432349442117 0 0 0 0.25 46 126 94 357 122 112 151 256 154 279 173 171 180 271 203 889 228 328 233 223 
969 0.09137173641914206 0.13309348200619833 0.849773270666109 0 0 0 0.08 46 127 177 197 203 890 
970 -0.16455781380910833 0.10906195319304006 0.6733534673075283 0 0 0 0.24 46 128 58 159 116 334 149 578 151 257 154 280 161 134 203 891 211 175 216 238 226 206 228 329 
971 -0.1389710858814479 0.11762968154150008 0.6956550148244283 0 0 0 0.18 46 129 94 358 116 335 149 579 161 135 203 892 211 176 228 330 
972 -0.058026563280298434 0.13742260341646279 0.7457100374908131 0 0 0 0.19 46 130 140 306 149 580 154 281 161 136 167 121 203 893 
973 -0.026013805117671502 0.14703523985589587 0.7628300409510851 0 0 0 0.32 46 131 94 359 140 307 154 282 177 198 183 108 203 894 218 203 228 331 
974 0.04296355733099048 0.16220085940447435 0.8080503275918441 0 0 0 0.14 46 132 99 421 177 199 203 895 211 177 
975 0.03946633731410725 0.16320224794619986 0.8040891237136563 0 0 0 0.26 46 133 72 201 140 308 154 283 161 137 203 896 228 332 
976 0.061923341280310316 0.1685731276164169 0.8188582315101376 0 0 0 0.28 46 134 86 102 94 360 99 422 149 581 154 284 177 200 193 347 203 897 210 326 218 204 228 333 
977 0.03004247057043959 0.1651999373440445 0.7904546379623614 0 0 0 0.25 46 135 99 423 193 348 203 898 210 327 
978 0.07386562539155227 0.1753624632675543 0.8234717693300715 0 0 0 0.19 46 136 90 30 94 361 140 309 149 582 154 285 161 138 171 274 183 109 193 349 203 899 
979 0.12197692893178692 0.1879867640099126 0.8050283651068628 0 0 0 0.19 46 137 99 424 180 272 203 900 
980 -0.051664321159755014 0.08568432586888045 0.7818878489592874 0 0 0 0.32 46 138 116 336 171 275 180 273 186 25 202 87 203 901 
981 -0.08221790275511073 0.09723386808994802 0.7541429422387679 0 0 0 0.29 46 139 149 583 150 36 193 350 203 902 211 178 
982 0.07934699037495317 0.12512139377108272 0.8580763886283495 0 0 0 0.28 46 140 86 103 99 425 145 82 171 276 180 274 193 351 203 903 210 328 228 334 
983 0.09101602083329291 0.20169649373451803 0.818797643576796 0 0 0 0.23 46 141 125 234 154 286 193 352 203 904 228 335 
984 -0.1109509278461416 0.19713301959489757 0.6453578777786224 0 0 0 0.34 46 142 167 122 203 905 
985 0.17354100984677895 0.25890931192880673 0.8259582173109107 0 0 0 0.33 46 143 99 426 116 337 119 66 122 113 144 131 180 275 189 64 193 353 203 906 211 179 228 336 
986 0.00939009634697443 0.10634489158036155 0.8156607729658548 0 0 0 0.19 46 144 72 202 116 338 140 310 143 75 144 132 145 83 151 258 154 287 177 201 183 110 193 354 202 88 203 907 212 127 226 207 228 337 
987 -0.039791714859207905 0.10603513818833801 0.7654314077421742 0 0 0 0.13 46 145 99 427 191 81 203 908 
988 -0.06972307127963444 0.10520246495106028 0.7521038669332873 0 0 0 0.35 46 146 72 203 94 362 99 428 116 339 125 235 144 133 150 37 151 259 154 288 189 65 191 82 193 355 203 909 210 329 226 208 228 338 
989 -0.0728621770858985 0.11627645524544983 0.7444720718424492 0 0 0 0.42 46 147 58 160 72 204 125 236 166 200 167 123 189 66 203 910 233 224 
990 -0.050589240617851215 0.1904070187175463 0.7386802308371766 0 0 0 0.27 46 148 58 161 59 143 72 205 153 69 154 289 166 201 167 124 173 172 186 26 202 89 203 911 225 24 228 339 
991 -0.10467210555481356 0.19319830318939193 0.648086425944436 0 0 0 0.11 46 149 58 162 203 912 
992 -0.005951416379232444 0.15519989327192782 0.7679754971500342 0 0 0 0.23 46 150 58 163 86 104 116 340 154 290 189 67 203 913 
993 0.015330418560485278 0.19792795639251012 0.7830499475522223 0 0 0 0.44 46 151 59 144 72 206 116 341 125 237 131 54 140 311 143 76 144 134 154 291 161 139 166 202 167 125 173 173 189 68 191 83 203 914 212 128 225 25 228 340 
994 0.09130377935549472 0.11000542198219299 0.8565841042881478 0 0 0 0.55 46 152 99 429 166 203 186 27 202 90 203 915 
995 0.08429835958888515 0.1152091192613547 0.8592145535842194 0 0 0 0.67 46 153 59 145 99 430 121 24 171 277 173 174 178 87 186 28 202 91 203 916 225 26 228 341 
996 0.05659449586821589 0.11259054368554668 0.8403000766323535 0 0 0 0.32 46 154 86 105 94 363 116 342 144 135 149 584 151 260 154 292 177 202 189 69 191 84 202 92 203 917 211 180 212 129 215 71 228 342 
997 0.05675251227108898 0.11266123873787044 0.8408791099596984 0 0 0 0.32 46 155 59 146 86 106 94 364 116 343 143 77 144 136 149 585 151 261 154 293 177 203 178 88 189 70 191 85 202 93 203 918 212 130 215 72 
998 -0.08855067083610535 0.08151870725234746 0.7444987294099477 0 0 0 0.23 46 156 116 344 125 238 189 71 203 919 226 209 228 343 
999 -0.043794429909413256 0.11321953070751795 0.7646935858279557 0 0 0 0.41 46 157 86 107 167 126 171 278 202 94 203 920 212 131 
1000 -0.0890568157941971 0.18335000237698096 0.7120554316066717 0 0 0 0.61 46 158 151 262 191 86 
1001 0.07937494635312796 0.055689109588549265 0.8778138939061126 0 0 0 0.41 47 15 149 586 151 263 180 276 203 921 
1002 0.07677747988769651 0.059847691485587586 0.8758124108785235 0 0 0 0.27 47 16 94 365 99 431 149 587 193 356 203 922 233 225 
1003 0.21817081772010863 0.18632746214056461 0.8762347770065491 0 0 0 0.31 55 58 72 207 94 366 102 122 116 345 122 114 125 239 140 312 145 84 150 38 151 264 154 294 161 140 166 204 171 279 180 277 193 357 203 923 210 330 211 181 215 73 216 239 226 210 
1004 0.14741400531431764 0.053963890350134235 0.889977416863048 0 0 0 0.11 154 295 180 278 203 924 
1005 0.139500558859165 0.07641984044980299 0.8737403543547195 0 0 0 0.12 99 432 149 588 171 280 203 925 210 331 
1006 0.03722911822404753 0.06913344731401401 0.8469982000398338 0 0 0 0.51 55 59 99 433 116 346 154 296 203 926 
1007 -0.09883278923509298 0.0695513150908407 0.7363606991728444 0 0 0 0.27 55 60 116 347 119 67 125 240 140 313 150 39 151 265 154 297 167 127 203 927 215 74 226 211 228 344 
1008 -0.13536681904711995 0.19722590476876575 0.6303364758873167 0 0 0 0.37 55 61 58 164 72 208 116 348 119 68 211 182 215 75 226 212 228 345 
1009 -0.13985009141507632 0.08681408798061953 0.7022828406856215 0 0 0 0.14 55 62 131 55 211 183 228 346 
1010 0.10323671486023708 0.2050701583335732 0.8022875779018409 0 0 0 0.23 55 63 99 434 119 69 140 314 149 589 180 279 193 358 203 928 228 347 233 226 
1011 -0.1372996012204721 0.17653717397578111 0.6743898869030835 0 0 0 0.16 55 64 149 590 151 266 154 298 203 929 228 348 
1012 -0.15526226002052948 0.08230243727421853 0.7112596585015648 0 0 0 0.43 55 65 119 70 154 299 215 76 
1013 -0.1660218551326108 0.10009327197919657 0.6737993400205887 0 0 0 0.32 55 66 94 367 116 349 119 71 144 137 151 267 166 205 167 128 171 281 189 72 202 95 225 27 226 213 228 349 
1014 0.19973169807199 0.18059116175792253 0.8714350237611175 0 0 0 0.24 55 67 57 105 59 147 72 209 90 31 99 435 131 56 144 138 145 85 173 175 180 280 203 930 210 332 212 132 218 205 228 350 
1015 -0.12605235468314258 0.07574876658448546 0.737286417840429 0 0 0 0.19 57 106 116 350 161 141 203 931 228 351 
1016 -0.17424992611892653 0.08208266635378965 0.6820186425950779 0 0 0 0.41 57 107 58 165 72 210 125 241 139 84 143 78 153 70 154 300 173 176 189 73 212 133 
1017 -0.0396862972298281 0.11401226544152858 0.7626513337157032 0 0 0 0.36 57 108 99 436 125 242 203 932 
1018 -0.1471275009877813 0.11083297228294657 0.6934990050457531 0 0 0 0.08 57 109 58 166 116 351 149 591 211 184 
1019 0.16291884603681298 0.1986352307045123 0.8315199914891954 0 0 0 0.2 57 110 102 123 122 115 125 243 149 592 151 268 166 206 191 87 193 359 203 933 218 206 228 352 
1020 0.04100486706945228 0.06773090334477218 0.84835083129082 0 0 0 0.15 57 111 59 148 116 352 140 315 145 86 154 301 203 934 228 353 
1021 0.0711326518189586 0.0936700509740647 0.8639533774991166 0 0 0 0.25 57 112 59 149 99 437 125 244 140 316 149 593 191 88 193 360 203 935 228 354 
1022 0.16327277224280426 0.09267079819772128 0.8762150457698038 0 0 0 0.27 57 113 203 936 216 240 226 214 
1023 -0.15543476730187003 0.09061101273789046 0.7172942963146268 0 0 0 0.3 57 114 58 167 203 937 
1024 0.01906624930162262 0.11344345716591514 0.8134826586702366 0 0 0 0.31 57 115 149 594 178 89 203 938 226 215 233 227 
1025 0.025591983751903868 0.12278186190023208 0.8076117172466287 0 0 0 0.17 57 116 99 438 140 317 203 939 210 333 211 185 212 134 
1026 -0.012996169260510483 0.1400691523277742 0.7762379453251088 0 0 0 0.28 57 117 116 353 125 245 145 87 166 207 171 282 203 940 225 28 
1027 0.08714716672427562 0.15211206880068462 0.8436557562191948 0 0 0 0.34 57 118 59 150 90 32 94 368 99 439 102 124 116 354 121 25 122 116 125 246 139 85 140 318 144 139 149 595 151 269 154 302 173 177 177 204 178 90 180 281 186 29 203 941 210 334 211 186 212 135 218 207 226 216 
1028 -0.039595628639530964 0.15120963567114112 0.7443572377969591 0 0 0 0.37 57 119 58 168 59 151 99 440 144 140 154 303 203 942 
1029 0.05193999760814556 0.062492396209595936 0.8550107378213152 0 0 0 0.32 57 120 59 152 94 369 116 355 145 88 149 596 151 270 154 304 178 91 193 361 203 943 211 187 212 136 
1030 0.047505922520543815 0.06707465590321711 0.8539737428624069 0 0 0 0.24 57 121 59 153 86 108 94 370 116 356 140 319 144 141 145 89 149 597 151 271 180 282 189 74 203 944 233 228 
1031 -0.1554944368271304 0.059988011061369646 0.712898229751497 0 0 0 0.36 57 122 203 945 216 241 228 355 
1032 -0.020859016660480935 0.0995635784829327 0.7990554966239362 0 0 0 0.29 57 123 116 357 154 305 203 946 
1033 0.07480445837689773 0.10877294418944486 0.8615227607547067 0 0 0 0.31 57 124 94 371 99 441 102 125 119 72 144 142 149 598 166 208 203 947 210 335 212 137 216 242 218 208 
1034 0.007300088764252234 0.053968304022491115 0.8307892304073243 0 0 0 0.5 57 125 99 442 149 599 154 306 166 209 189 75 203 948 233 229 
1035 -0.0185168711459404 0.05590676866699808 0.8040790063723668 0 0 0 0.39 57 126 125 247 131 57 180 283 189 76 191 89 203 949 
1036 0.10391278327384953 0.07105482764712934 0.8529133995534115 0 0 0 0.49 57 127 151 272 154 307 171 283 178 92 180 284 203 950 
1037 -0.021124002092502488 0.15206259655448356 0.7620885199225391 0 0 0 0.27 57 128 116 358 203 951 212 138 
1038 -0.041761719682715054 0.046040063719289016 0.7919944695471469 0 0 0 0.34 58 169 94 372 99 443 149 600 154 308 171 284 203 952 210 336 
1039 -0.008097393640806047 0.056815339307302544 0.8166906864442931 0 0 0 0.25 58 170 94 373 99 444 116 359 140 320 149 601 154 309 161 142 177 205 183 111 193 362 203 953 210 337 216 243 218 209 226 217 
1040 0.026581100006441403 0.09330958773227305 0.8166836794679845 0 0 0 0.16 58 171 72 211 140 321 154 310 167 129 203 954 210 338 
1041 -0.0983417644651137 0.08292905873134084 0.7291554803518432 0 0 0 0.15 58 172 116 360 140 322 193 363 203 955 226 218 228 356 
1042 -0.15664797900265848 0.11068342932886886 0.6853083481389175 0 0 0 0.34 58 173 145 90 149 602 203 956 211 188 216 244 226 219 
1043 -0.16154166181046506 0.11198522807205528 0.6797191305610092 0 0 0 0.11 58 174 203 957 216 245 
1044 -0.03998669888921036 0.13921852092203438 0.7509025839329102 0 0 0 0.16 58 175 140 323 177 206 203 958 228 357 
1045 -0.07367797718106443 0.1368482944072279 0.7347136882429061 0 0 0 0.23 58 176 99 445 149 603 203 959 228 358 
1046 -0.011139221222103375 0.15075758805386896 0.7729767686126569 0 0 0 0.22 58 177 125 248 203 960 
1047 -0.02153733873275186 0.15643400000757224 0.7619180299780748 0 0 0 0.19 58 178 99 446 116 361 140 324 149 604 154 311 171 285 180 285 203 961 210 339 216 246 226 220 
1048 -0.16451261887731478 0.13971871490232435 0.6651221209678597 0 0 0 0.24 58 179 154 312 193 364 203 962 216 247 228 359 
1049 -0.04303254890936029 0.1731049882238933 0.7393533896864685 0 0 0 0.21 58 180 99 447 140 325 149 605 151 273 154 313 161 143 193 365 203 963 
1050 -0.07841714708687396 0.20443877869488303 0.6665869568981064 0 0 0 0.29 58 181 72 212 116 362 151 274 166 210 173 178 193 366 203 964 211 189 218 210 228 360 
1051 0.015478593020513125 0.04824698230991175 0.8391342991665427 0 0 0 0.55 58 182 122 117 149 606 203 965 216 248 
1052 0.019710569296059292 0.04938915050870025 0.8398518663140804 0 0 0 0.48 58 183 90 33 116 363 203 966 228 361 
1053 -0.10848195336389024 0.08012150858238357 0.7302754301316501 0 0 0 0.23 58 184 125 249 203 967 
1054 -0.07918510275145577 0.12352097614144722 0.7344226199526374 0 0 0 0.28 58 185 94 374 99 448 116 364 125 250 149 607 167 130 171 286 203 968 211 190 
1055 -0.09338939159708036 0.1532409788473153 0.7143032684047008 0 0 0 0.3 58 186 94 375 102 126 125 251 140 326 143 79 154 314 166 211 191 90 203 969 215 77 228 362 
1056 -0.17742854856335324 0.13946391618738174 0.6588610125263404 0 0 0 0.35 58 187 167 131 203 970 
1057 -0.0901082568463593 0.16810650370655544 0.7208622245234565 0 0 0 0.17 58 188 116 365 203 971 
1058 -0.06030612409343737 0.17539569503656807 0.7360991680301796 0 0 0 0.33 58 189 116 366 140 327 143 80 154 315 161 144 203 972 218 211 
1059 -0.1468743226438085 0.17210590369394696 0.6766457406915692 0 0 0 0.18 58 190 72 213 153 71 171 287 180 286 193 367 203 973 
1060 0.007346828581102087 0.04611029881027725 0.8300319092556098 0 0 0 0.26 58 191 86 109 99 449 149 608 161 145 203 974 205 106 211 191 233 230 
1061 -0.06099675925212928 0.09036376533804849 0.7714184403726244 0 0 0 0.32 58 192 94 376 99 450 116 367 150 40 154 316 203 975 218 212 
1062 -0.06099155905950943 0.09039051207338426 0.7715897738495766 0 0 0 0.33 58 193 94 377 99 451 150 41 154 317 193 368 203 976 
1063 -0.07010919763700041 0.09547470403879771 0.7505600819402362 0 0 0 0.27 58 194 59 154 94 378 99 452 116 368 125 252 139 86 143 81 150 42 154 318 177 207 191 91 193 369 202 96 203 977 226 221 228 363 
1064 -0.12268829809742757 0.12170436922387098 0.704553316410498 0 0 0 0.18 58 195 94 379 116 369 119 73 151 275 191 92 203 978 228 364 
1065 -0.12274045350683328 0.12161388087601066 0.7039139527358403 0 0 0 0.1 58 196 94 380 151 276 166 212 203 979 211 192 
1066 -0.08001211286784589 0.1320220733690606 0.7316384463536132 0 0 0 0.24 58 197 94 381 119 74 131 58 139 87 154 319 161 146 203 980 210 340 212 139 
1067 -0.07208822186688088 0.1639082653108229 0.7232515919945239 0 0 0 0.21 58 198 86 110 94 382 151 277 154 320 166 213 189 77 191 93 203 981 228 365 
1068 -0.06958218506864249 0.18857170262240613 0.7146776533966208 0 0 0 0.21 58 199 72 214 99 453 116 370 125 253 151 278 154 321 203 982 212 140 218 213 226 222 228 366 
1069 -0.15707660728301462 0.1173181143578177 0.6786770936091807 0 0 0 0.31 58 200 161 147 203 983 212 141 
1070 -0.1090362041101564 0.1295335654729924 0.709148167473768 0 0 0 0.4 58 201 116 371 119 75 153 72 154 322 161 148 189 78 203 984 226 223 
1071 -0.0232816994852811 0.06353756580232091 0.8040720061142557 0 0 0 0.22 58 202 99 454 131 59 149 609 178 93 203 985 233 231 
1072 -0.03636477852270837 0.17795729721645323 0.7361039093104903 0 0 0 0.33 58 203 94 383 99 455 125 254 143 82 154 323 166 214 203 986 211 193 226 224 228 367 
1073 -0.05743061422683494 0.05446991849363059 0.7857447055502162 0 0 0 0.3 58 204 149 610 203 987 
1074 0.10817127231601625 0.06841244984385753 0.8487580448031072 0 0 0 0.2 59 155 149 611 203 988 
1075 0.19241579415579554 0.08911089808708694 0.9069317548621464 0 0 0 0.32 59 156 94 384 99 456 149 612 193 370 203 989 
1076 -0.13353944239505675 0.09608186821205815 0.7241261338754527 0 0 0 0.23 59 157 140 328 144 143 167 132 193 371 203 990 
1077 -0.10494438722357967 0.09819090579708195 0.7233324471389581 0 0 0 0.19 59 158 116 372 139 88 154 324 167 133 183 112 193 372 203 991 233 232 
1078 -0.03275979471845834 0.11007930212473326 0.7648902365492324 0 0 0 0.22 59 159 166 215 203 992 218 214 
1079 -0.0422397022803313 0.11110936555094415 0.7657649648287972 0 0 0 0.23 59 160 72 215 125 255 140 329 178 94 203 993 211 194 212 142 228 368 
1080 0.1082559645433212 0.1439223568778389 0.8184190517634756 0 0 0 0.34 59 161 99 457 122 118 139 89 149 613 161 149 171 288 203 994 212 143 
1081 -0.007088064552067854 0.15017337635698233 0.7767753751525434 0 0 0 0.26 59 162 116 373 125 256 149 614 166 216 191 94 202 97 203 995 210 341 211 195 
1082 -0.006995035049062878 0.1502184031075391 0.7768987452210724 0 0 0 0.28 59 163 72 216 149 615 151 279 161 150 191 95 193 373 203 996 210 342 211 196 
1083 0.10649943917361529 0.16260876242016542 0.8082367419256798 0 0 0 0.21 59 164 140 330 144 144 151 280 202 98 203 997 212 144 228 369 
1084 0.07478355913363381 0.18084233676062797 0.8206863339038938 0 0 0 0.19 59 165 171 289 203 998 
1085 0.12148595670415258 0.20219132422050312 0.8036330582921903 0 0 0 0.32 59 166 72 217 144 145 145 91 173 179 177 208 191 96 203 999 212 145 226 225 
1086 -0.01573141034432266 0.204762418123989 0.7565064695236128 0 0 0 0.34 59 167 72 218 99 458 102 127 116 374 119 76 125 257 140 331 143 83 171 290 177 209 178 95 180 287 203 1000 210 343 211 197 218 215 226 226 
1087 0.025965362912203457 0.21363909716151094 0.7673790491373611 0 0 0 0.15 59 168 94 385 116 375 125 258 166 217 177 210 180 288 203 1001 212 146 
1088 0.026171239133034145 0.21408527066184657 0.7689285629614158 0 0 0 0.22 59 169 94 386 99 459 203 1002 210 344 
1089 0.09650155986207128 0.14394345945020562 0.8465583084318606 0 0 0 0.21 59 170 154 325 186 30 203 1003 210 345 
1090 0.08924650249113489 0.19576476793441858 0.8193027764574041 0 0 0 0.41 59 171 121 26 203 1004 
1091 0.17403703526960745 0.20187504052905828 0.8343264369998723 0 0 0 0.28 59 172 121 27 125 259 143 84 166 218 178 96 202 99 210 346 211 198 215 78 
1092 0.08973804091195438 0.06045798676141524 0.8811167142548736 0 0 0 0.19 59 173 125 260 149 616 154 326 166 219 180 289 203 1005 
1093 -0.01447110543456565 0.0914275911270414 0.8031622354621135 0 0 0 0.18 59 174 149 617 203 1006 
1094 0.08489934596744868 0.19162641552239262 0.8279020275968371 0 0 0 0.3 59 175 149 618 203 1007 211 199 
1095 0.006929126783995429 0.07093364833168787 0.8230422577128939 0 0 0 0.29 59 176 99 460 140 332 149 619 191 97 203 1008 210 347 211 200 233 233 
1096 -0.0776152141917796 0.10478494843687873 0.7507753449620027 0 0 0 0.3 59 177 125 261 139 90 154 327 203 1009 212 147 
1097 -0.07208638841482447 0.12683823034552477 0.7390651352367947 0 0 0 0.25 59 178 178 97 202 100 203 1010 212 148 
1098 0.07543482954989895 0.16438207804307545 0.8350038730296612 0 0 0 0.3 59 179 191 98 203 1011 211 201 228 370 
1099 0.08621368507525999 0.1642498304768006 0.8378335965668849 0 0 0 0.5 59 180 72 219 99 461 121 28 180 290 203 1012 
1100 -0.0877808832574328 0.16951237774402744 0.7233538569883349 0 0 0 0.45 59 181 94 387 116 376 191 99 203 1013 212 149 
1101 0.21485568912800213 0.06130374587525445 0.9285251791729002 0 0 0 0.17 72 220 149 620 203 1014 233 234 
1102 0.009948049814959151 0.064648406652122 0.8260427006506433 0 0 0 0.25 72 221 140 333 203 1015 210 348 216 249 226 227 233 235 
1103 0.026315085976577765 0.093162953393038 0.8154494977103836 0 0 0 0.16 72 222 154 328 203 1016 
1104 0.28584261985147924 0.13714298043284665 0.9896327095067217 0 0 0 0.3 72 223 161 151 177 211 203 1017 205 107 210 349 211 202 218 216 
1105 0.16155445571372318 0.1364439003313955 0.8593390238180123 0 0 0 0.27 72 224 99 462 102 128 116 377 140 334 149 621 154 329 171 291 173 180 180 291 193 374 203 1018 210 350 216 250 226 228 
1106 0.13012487209283688 0.14342340641366083 0.8368038102876358 0 0 0 0.38 72 225 99 463 121 29 131 60 140 335 180 292 203 1019 210 351 
1107 0.1434650787399621 0.15301559987963645 0.8466111662250889 0 0 0 0.32 72 226 149 622 203 1020 
1108 0.27956537483521593 0.19449860241307385 0.9710590855106537 0 0 0 0.29 72 227 102 129 149 623 180 293 203 1021 210 352 218 217 
1109 0.09560935288565006 0.17370338683938055 0.8298986855778515 0 0 0 0.34 72 228 94 388 99 464 102 130 177 212 203 1022 210 353 
1110 0.197819906143289 0.18248074422883154 0.8672843743537404 0 0 0 0.32 72 229 99 465 116 378 119 77 125 262 154 330 161 152 166 220 177 213 183 113 203 1023 205 108 210 354 212 150 218 218 226 229 228 371 
1111 0.09588908761270383 0.17805632550436779 0.8269122866428971 0 0 0 0.24 72 230 102 131 116 379 149 624 177 214 180 294 203 1024 210 355 218 219 
1112 0.09511133491910755 0.18141189502976313 0.8198716879764364 0 0 0 0.3 72 231 99 466 177 215 180 295 203 1025 210 356 
1113 0.2771528896957639 0.21570526132209109 0.954525656834715 0 0 0 0.15 72 232 99 467 149 625 203 1026 210 357 
1114 0.2771528896957639 0.21570526132209109 0.954525656834715 0 0 0 0.15 72 233 99 468 149 626 203 1027 210 358 
1115 0.08784777042918206 0.19478499988035808 0.8280717102078151 0 0 0 0.31 72 234 116 380 154 331 171 292 173 181 177 216 202 101 203 1028 226 230 
1116 0.1293691079501914 0.2042540330258431 0.8100466696859262 0 0 0 0.42 72 235 173 182 203 1029 210 359 226 231 
1117 0.1321824891994762 0.21037399520707176 0.8100315052740149 0 0 0 0.25 72 236 94 389 116 381 166 221 180 296 203 1030 
1118 0.14899493502843714 0.21921683280114926 0.8314760421227502 0 0 0 0.33 72 237 99 469 140 336 173 183 180 297 203 1031 210 360 
1119 0.14807991601146853 0.2185009440341813 0.8290273409349554 0 0 0 0.3 72 238 99 470 140 337 180 298 203 1032 
1120 -0.03491576292740894 0.21545880437988385 0.6941797781505089 0 0 0 0.16 72 239 149 627 151 281 203 1033 
1121 -0.01359369214624637 0.21977640989988062 0.7058029408842276 0 0 0 0.12 72 240 193 375 203 1034 210 361 216 251 226 232 
1122 -0.13798872352154487 0.19697495097212478 0.6279531792969645 0 0 0 0.45 72 241 166 222 216 252 228 372 
1123 0.02493280314664276 0.23042561010761994 0.7312599784449183 0 0 0 0.2 72 242 116 382 149 628 177 217 203 1035 216 253 226 233 
1124 0.0249452074775185 0.23042029238412878 0.7312934113852226 0 0 0 0.19 72 243 116 383 149 629 154 332 193 376 203 1036 216 254 228 373 
1125 -0.08220102456686894 0.09129753766427191 0.7565964240577997 0 0 0 0.21 72 244 149 630 203 1037 
1126 0.058877264271080094 0.11051929016742731 0.8397046572018356 0 0 0 0.2 72 245 166 223 203 1038 210 362 
1127 0.07407243963202112 0.11546747100057754 0.8576436348924897 0 0 0 0.34 72 246 99 471 102 132 203 1039 210 363 218 220 
1128 0.04812328868089088 0.11629726592642056 0.8358358004467149 0 0 0 0.12 72 247 154 333 203 1040 210 364 
1129 0.013995828508311232 0.12754519891452362 0.807410681362795 0 0 0 0.28 72 248 151 282 167 134 177 218 203 1041 212 151 218 221 
1130 -0.025946713309408103 0.12576663847799285 0.7804665991955719 0 0 0 0.16 72 249 154 334 166 224 203 1042 215 79 
1131 0.15365472772330382 0.13778125745917377 0.8658456343486247 0 0 0 0.28 72 250 99 472 149 631 173 184 203 1043 
1132 0.09835259859137077 0.13631501233010362 0.8295244805727668 0 0 0 0.28 72 251 86 111 102 133 140 338 149 632 151 283 161 153 177 219 186 31 203 1044 210 365 216 255 218 222 226 234 
1133 0.04279007413293571 0.13805611181361252 0.8201046995578974 0 0 0 0.07 72 252 99 473 203 1045 
1134 0.2645655416730134 0.17730322958969078 0.9588530334509446 0 0 0 0.18 72 253 99 474 102 134 203 1046 210 366 
1135 0.0661962178000736 0.16820072497788274 0.8219639330836794 0 0 0 0.14 72 254 99 475 116 384 145 92 149 633 151 284 154 335 171 293 173 185 191 100 193 377 203 1047 210 367 218 223 
1136 0.17174039613166428 0.1769173716816206 0.8435794498656325 0 0 0 0.25 72 255 99 476 122 119 149 634 180 299 203 1048 210 368 
1137 0.08030021897146535 0.18087858104406354 0.8248461140642358 0 0 0 0.35 72 256 102 135 119 78 154 336 171 294 203 1049 226 235 228 374 
1138 0.10789949621196142 0.17600142232128174 0.8039725924284898 0 0 0 0.36 72 257 102 136 149 635 151 285 171 295 203 1050 210 369 218 224 226 236 228 375 
1139 0.000762384620158868 0.1767320917679522 0.7726030277261541 0 0 0 0.26 72 258 94 390 99 477 102 137 119 79 149 636 153 73 154 337 177 220 180 300 183 114 193 378 203 1051 210 370 228 376 
1140 -0.003676640429922876 0.20500211894959314 0.7590254192126725 0 0 0 0.21 72 259 153 74 203 1052 226 237 228 377 
1141 -0.14065374390542656 0.19376167144614928 0.6283925735985144 0 0 0 0.19 72 260 153 75 154 338 180 301 203 1053 218 225 
1142 0.00961337867923486 0.20383805397790575 0.7748578774968073 0 0 0 0.3 72 261 99 478 173 186 177 221 180 302 202 102 203 1054 225 29 
1143 0.1747867701801579 0.22295732706500915 0.8265255065846874 0 0 0 0.37 72 262 99 479 102 138 143 85 166 225 171 296 173 187 177 222 180 303 202 103 203 1055 210 371 212 152 218 226 
1144 0.09122220053750443 0.17295584871929817 0.8311829520795768 0 0 0 0.36 72 263 99 480 171 297 173 188 180 304 203 1056 225 30 
1145 -0.01202469595675068 0.14176013938128623 0.7717864737243554 0 0 0 0.65 72 264 144 146 171 298 178 98 203 1057 
1146 -0.03518801121789466 0.19206533740275883 0.7249696019672458 0 0 0 0.32 72 265 131 61 173 189 177 223 178 99 180 305 203 1058 218 227 
1147 0.15907943248101952 0.14798520143071855 0.8604636254813424 0 0 0 0.39 72 266 125 263 173 190 178 100 203 1059 226 238 
1148 -0.020567731058046868 0.18696818780531219 0.7660547388567537 0 0 0 0.35 72 267 167 135 203 1060 218 228 
1149 0.09569938887209786 0.13987936575241583 0.8435784064499341 0 0 0 0.38 86 112 149 637 203 1061 226 239 
1150 0.030756618242402164 0.14898319207273167 0.7967051891589777 0 0 0 0.19 86 113 99 481 102 139 140 339 145 93 153 76 180 306 203 1062 210 372 226 240 
1151 0.02593852020608696 0.15533964091733754 0.7905260178198791 0 0 0 0.1 86 114 154 339 171 299 203 1063 
1152 -0.10075334080458843 0.1458175113388654 0.7038041062001572 0 0 0 0.26 86 115 119 80 125 264 167 136 193 379 203 1064 
1153 0.16756383615108603 0.15322728645447664 0.8520872519918578 0 0 0 0.32 86 116 94 391 203 1065 210 373 
