# 3D point list with one line of data per point:
#   POINT3D_ID, X, Y, Z, R, G, B, ERROR, TRACK[] as (IMAGE_ID, POINT2D_IDX)
# Number of points: 363, mean track length: 8.52
1330 0.21301413113433706 0.04555650203005519 1.1112195389122357 0 0 0 0.24 3 160 53 158 96 189 120 142 160 244 147 143 152 210 172 228 182 115 190 256 204 203 
1331 0.19803212633056264 0.10047440697044578 1.0920723888737858 0 0 0 0.1 3 161 15 88 160 245 
1332 -0.014537410517657999 -0.06108154454842171 1.0959320490811661 0 0 0 0.47 3 162 11 90 27 115 43 82 77 172 92 88 97 116 120 143 160 246 147 144 148 122 158 130 164 277 219 167 221 141 232 252 
1333 -0.2521900863855604 -0.056130347586047825 1.0877822514199353 0 0 0 0.18 3 163 17 155 27 116 50 227 111 335 160 247 157 179 204 204 217 236 219 168 
1334 0.1273092569572777 -0.05391332981963551 1.113484671622834 0 0 0 0.16 3 164 112 23 118 300 160 248 
1335 -0.015781899733262023 -0.04359637392656569 1.0925091797349755 0 0 0 0.59 3 165 15 89 33 80 44 152 50 228 85 24 92 89 111 336 118 301 120 144 160 249 147 145 148 123 152 211 157 180 164 278 196 43 213 222 217 237 224 168 232 253 
1336 -0.05476541291513724 -0.039012379533126085 1.0872924060096107 0 0 0 0.11 3 166 11 91 63 39 71 200 118 302 
1337 0.12950444729735477 -0.03918809848641712 1.1119765430264439 0 0 0 0.35 3 167 11 92 17 156 50 229 120 145 160 250 147 146 164 279 172 229 204 205 213 223 219 169 
1338 0.2404935337477936 -0.0337118583867003 1.1226449489760948 0 0 0 0.41 3 168 44 153 111 337 120 146 127 125 160 251 
1339 0.22791452067135876 -0.021489924603586907 1.122368272997847 0 0 0 0.36 3 169 15 90 27 117 33 81 43 83 44 154 50 230 60 30 67 170 71 201 77 173 92 90 96 190 120 147 127 126 160 252 152 212 158 131 164 280 176 196 196 44 197 67 200 51 213 224 217 238 
1340 0.1944170337441212 -0.018586709399013607 1.120784230623387 0 0 0 0.43 3 170 11 93 53 159 67 171 97 117 120 148 
1341 0.10116455609285473 -0.014093902166194204 1.101277660695398 0 0 0 0.22 3 171 15 91 33 82 41 68 50 231 60 31 111 338 120 149 160 253 164 281 179 439 190 257 213 225 217 239 232 254 
1342 -0.004020431941693031 -0.01104388129331504 1.0870468029075075 0 0 0 0.2 3 172 15 92 44 155 50 232 118 303 120 150 160 254 152 213 181 90 213 226 217 240 232 255 
1343 -0.008249841373030078 -0.010228411213789602 1.0871927797601182 0 0 0 0.39 3 173 44 156 118 304 160 255 129 118 152 214 
1344 0.3018773735880817 0.04604348184009806 1.1210331656638166 0 0 0 0.27 3 174 11 94 15 93 17 157 50 233 53 160 
1345 0.30190067668376264 0.09845123151250375 1.1081295350703895 0 0 0 0.3 3 175 15 94 50 234 67 172 120 151 152 215 190 258 204 206 56 219 69 43 160 256 
1346 0.09328786007323231 0.0994973146396125 1.075223722844017 0 0 0 0.37 3 176 112 24 160 257 152 216 176 197 200 52 
1347 0.21450226130819675 0.13755195698835984 1.0865271343398775 0 0 0 0.42 3 177 11 95 15 95 17 158 33 83 43 84 50 235 53 161 63 40 71 202 73 172 77 174 96 191 111 339 118 305 120 152 127 127 128 208 147 147 158 132 160 258 172 230 181 91 182 116 190 259 197 68 200 53 213 227 221 142 56 220 62 11 65 122 69 44 89 73 103 143 105 14 134 42 164 282 165 47 222 84 232 256 235 26 
1348 0.03973431392224823 -0.05477932709966843 1.1022175182327294 0 0 0 0.43 3 178 15 96 27 118 32 23 33 84 38 11 44 157 63 41 77 175 85 25 111 340 160 259 147 148 148 124 159 50 164 283 176 198 185 19 232 257 26 71 56 221 60 32 97 118 127 128 234 12 
1349 -0.2526965922116292 -0.04425303128110677 1.0905503639891876 0 0 0 0.2 3 179 53 162 71 203 118 306 
1350 0.013812714566414811 -0.014909808526772192 1.0902101374813256 0 0 0 0.36 3 180 11 96 12 31 17 159 43 85 44 158 50 236 92 91 110 10 111 341 118 307 120 153 160 260 146 82 147 149 152 217 164 284 200 54 213 228 217 241 56 222 60 33 69 45 81 183 89 74 100 15 162 160 208 16 220 95 
1351 0.05455150519792891 -0.009612571411706938 1.0956324757608351 0 0 0 0.4 3 181 41 69 112 25 118 308 160 261 1 188 56 223 120 154 127 129 152 218 198 126 232 258 
1352 0.2520395461389619 0.09393308772693484 1.0986949516890683 0 0 0 0.44 3 182 33 85 44 159 50 237 160 262 152 219 164 285 176 199 182 117 204 207 12 32 56 224 73 173 105 15 147 150 
1353 0.19160045650593496 0.09335626161950593 1.089009821317632 0 0 0 0.36 3 183 96 192 160 263 56 225 
1354 0.05022377405370987 -0.06886609116719344 1.099771107461525 0 0 0 1.0 3 184 11 97 15 97 65 123 160 264 181 92 198 127 204 208 25 121 56 226 129 119 217 242 
1355 0.10421578485915058 -0.04535656297299879 1.1078878949732434 0 0 0 0.48 3 185 17 160 33 86 41 70 60 34 63 42 64 87 65 124 71 204 73 174 77 176 96 193 111 342 112 26 120 155 127 130 160 265 
1356 0.1351674205419139 -0.03865349586015888 1.1158743406632023 0 0 0 0.09 3 186 53 163 73 175 
1357 0.2928486631030965 -0.0319435708331823 1.1267347965858692 0 0 0 0.54 3 187 11 98 17 161 81 184 120 156 160 266 152 220 182 118 217 243 56 227 111 343 147 151 
1358 0.03350858211635407 -0.007490027863919159 1.0923277802940017 0 0 0 0.61 3 188 11 99 17 162 50 238 118 309 120 157 160 267 
1359 0.13796277355832257 0.04533178115415988 1.0926017050215928 0 0 0 0.22 3 189 27 119 160 268 
1360 0.23795506201375005 0.14365967887877365 1.0869794594397586 0 0 0 0.4 3 190 12 33 50 239 53 164 81 185 
1361 -0.1880409924921292 -0.038701998655588835 1.0899693688483378 0 0 0 0.2 3 191 63 43 96 194 
1362 0.06925863001559181 -0.023379789141292386 1.0991759961161836 0 0 0 1.0 3 192 12 34 44 160 50 240 81 186 127 131 160 269 146 83 158 133 176 200 199 115 200 55 217 244 219 170 26 72 56 228 69 46 234 13 
1363 0.142045723976159 -0.07080139535393885 1.1217924015911913 0 0 0 0.48 3 193 15 98 27 120 53 165 63 44 96 195 110 11 120 158 160 270 60 35 64 88 81 187 147 152 152 221 181 93 198 128 204 209 217 245 219 171 222 85 
1364 -0.2350408897031566 -0.02994878616227917 1.083631251991786 0 0 0 0.78 3 194 17 163 32 24 33 87 50 241 67 173 77 177 81 188 88 54 96 196 160 271 128 209 148 125 157 181 164 286 176 201 181 94 217 246 219 172 220 96 221 143 224 169 12 35 25 122 26 73 56 229 118 310 127 132 199 116 
1365 0.22195130861378165 0.12248547993795468 1.0901907762995708 0 0 0 0.43 3 195 11 100 17 164 44 161 50 242 65 125 73 176 81 189 118 311 120 159 160 272 15 99 33 88 128 210 129 120 147 153 158 134 182 119 200 56 190 260 12 36 25 123 56 230 71 205 89 75 111 344 164 287 222 86 232 259 234 14 69 47 105 16 
1366 0.23715276287863152 0.12185006995720227 1.0928336995003074 0 0 0 0.3 3 196 50 243 81 190 118 312 160 273 
1367 -0.2518675551502122 -0.07564675575572968 1.0926684601169996 0 0 0 0.57 11 101 17 165 33 89 50 244 118 313 160 274 128 211 176 202 204 210 
1368 0.0362411239819397 -0.0722765660589217 1.1032366349318583 0 0 0 0.29 11 102 15 100 63 45 71 206 96 197 160 275 219 173 232 260 
1369 0.07134362689721842 -0.04411997141317943 1.0974169058343655 0 0 0 0.8 11 103 77 178 160 276 176 203 197 69 
1370 -0.28247322240144423 -0.01583880200776306 1.0768281420807093 0 0 0 0.28 11 104 53 166 160 277 
1371 0.020074085154298944 -0.012903784502011647 1.093848935584688 0 0 0 0.38 11 105 118 314 160 278 
1372 0.13460951385720812 -0.08303000209257146 1.1245522490622062 0 0 0 0.39 11 106 15 101 160 279 148 126 232 261 
1373 -0.08351874439723765 -0.07368870056843355 1.092432425241729 0 0 0 0.28 11 107 67 174 71 207 77 179 96 198 
1374 -0.26730851530814415 -0.06148520753662908 1.090811995033907 0 0 0 0.28 11 108 71 208 160 280 
1375 -0.24613721401797706 -0.05082200213538447 1.089424080137089 0 0 0 0.31 11 109 27 121 53 167 160 281 179 440 219 174 
1376 0.007221841913455354 -0.056925697481716296 1.0986328125343596 0 0 0 0.4 11 110 15 102 17 166 27 122 33 90 38 12 50 245 71 209 73 177 77 180 112 27 127 133 160 282 146 84 147 154 157 182 164 288 176 204 190 261 213 229 217 247 220 97 221 144 
1377 0.18900789343628777 -0.05533467623394965 1.1238710955627398 0 0 0 0.3 11 111 43 86 67 175 120 160 127 134 160 283 152 222 197 70 204 211 219 175 221 145 
1378 0.06565167935870746 -0.047900657586227136 1.1020698214132965 0 0 0 0.63 11 112 27 123 77 181 96 199 160 284 176 205 219 176 223 19 232 262 
1379 -0.3021498297963136 -0.033921877940933515 1.0761608247881074 0 0 0 0.18 11 113 53 168 97 119 
1380 -0.1969713319865329 -0.03584027057733135 1.0814272761854602 0 0 0 0.23 11 114 118 315 160 285 152 223 213 230 217 248 219 177 
1381 -0.2523048700489294 -0.03176386598306502 1.0736782353497472 0 0 0 0.4 11 115 50 246 118 316 160 286 
1382 0.1975708231739046 -0.036192516336493744 1.1188802628685621 0 0 0 0.35 11 116 33 91 50 247 120 161 160 287 204 212 213 231 232 263 
1383 -0.010503561710235039 -0.026888247366880908 1.0900008670758357 0 0 0 0.42 11 117 63 46 112 28 160 288 147 155 159 51 176 206 217 249 
1384 0.07464764598300416 -0.026096764977668482 1.1006425544282836 0 0 0 0.34 11 118 15 103 33 92 38 13 50 248 118 317 120 162 160 289 128 212 147 156 152 224 190 262 217 250 220 98 221 146 
1385 -0.16999118384388903 -0.016137018327399232 1.0800279654455294 0 0 0 0.37 11 119 27 124 33 93 50 249 160 290 
1386 -0.3022715054549659 -0.010007066176428514 1.0810351435912395 0 0 0 0.59 11 120 118 318 160 291 213 232 232 264 
1387 0.11016363556942915 -0.019011571409246794 1.103955913203553 0 0 0 0.3 11 121 27 125 118 319 160 292 147 157 152 225 222 87 
1388 0.2946957989968721 -0.014926605469993158 1.1325575526422678 0 0 0 0.11 11 122 27 126 160 293 
1389 0.05884901963341407 0.09682756631988006 1.0736362046596946 0 0 0 0.25 11 123 15 104 50 250 97 120 112 29 120 163 160 294 
1390 0.07709686097324994 -0.09666081906677945 1.1360727631015097 0 0 0 0.19 11 124 53 169 97 121 
1391 -0.2448793918573159 -0.07247818020346058 1.095026842029076 0 0 0 0.26 11 125 33 94 160 295 152 226 217 251 220 99 232 265 
1392 -0.039356019159068764 -0.07023482843872456 1.0872626050159087 0 0 0 0.45 11 126 15 105 96 200 127 135 160 296 152 227 220 100 
1393 -0.13997859693764922 -0.06769253702903723 1.0941591990433257 0 0 0 0.34 11 127 27 127 33 95 71 210 88 55 97 122 118 320 
1394 0.1432060987276392 -0.06349567493920327 1.1157930055451741 0 0 0 0.4 11 128 50 251 120 164 160 297 182 120 222 88 
1395 0.15523137292525122 -0.06386068343475475 1.1202317552801 0 0 0 0.23 11 129 33 96 160 298 
1396 -0.07276789220322066 -0.05098316374955328 1.0806943262697872 0 0 0 0.26 11 130 71 211 96 201 118 321 160 299 157 183 172 231 176 207 204 213 213 233 219 178 222 89 232 266 
1397 4.103518187948745e-05 -0.034638802783223455 1.0910560342947766 0 0 0 0.33 11 131 17 167 71 212 112 30 120 165 160 300 
1398 -0.2941755391909373 -0.022118691640391815 1.0804790589587638 0 0 0 0.29 11 132 32 25 160 301 157 184 200 57 219 179 
1399 0.04879829764468766 -0.02635698936186636 1.0977296105467327 0 0 0 0.12 11 133 97 123 160 302 
1400 0.1743597823359423 -0.021567578648293083 1.1140214693004744 0 0 0 0.3 11 134 15 106 17 168 27 128 29 16 32 26 33 97 60 36 110 12 120 166 160 303 148 127 196 45 213 234 217 252 220 101 
1401 -0.22950033595440705 -0.007933877871362561 1.0800788943977722 0 0 0 0.21 11 135 17 169 160 304 
1402 0.29628204413272735 -0.0202594768334554 1.1331305322152059 0 0 0 0.21 11 136 43 87 53 170 71 213 77 182 160 305 
1403 0.027553361165714482 -0.011382946543510726 1.0911299512603423 0 0 0 0.39 11 137 15 107 120 167 160 306 25 124 56 231 73 178 152 228 162 161 217 253 
1404 0.13672728160764017 0.03428334538532575 1.0986121502008406 0 0 0 0.21 11 138 33 98 50 252 160 307 152 229 213 235 219 180 
1405 0.1513105218789694 0.03438195322940535 1.1019141624815783 0 0 0 0.32 11 139 27 129 160 308 152 230 196 46 220 102 221 147 232 267 
1406 0.13020695217691627 0.09040355966704862 1.0814711114934994 0 0 0 0.38 11 140 27 130 53 171 96 202 120 168 127 136 160 309 147 158 148 128 152 231 159 52 204 214 213 236 217 254 219 181 232 268 56 232 89 76 164 289 222 90 
1407 -0.17093333791022525 -0.054549202434575325 1.0909647794412602 0 0 0 0.53 11 141 27 131 50 253 160 310 152 232 217 255 25 125 56 233 190 263 
1408 -0.2782351114839968 -0.006266023990204351 1.0807464722071929 0 0 0 0.16 11 142 111 345 160 311 
1409 0.037316628879605865 -0.09716614567751072 1.108998730923269 0 0 0 0.54 11 143 12 37 15 108 53 172 71 214 96 203 110 13 147 159 152 233 160 312 198 129 204 215 213 237 219 182 1 189 26 74 56 234 60 37 81 191 89 77 97 124 103 144 118 322 181 95 190 264 208 17 217 256 232 269 
1410 0.21883983176599608 0.14563171771058506 1.0838064561814857 0 0 0 1.06 11 144 17 170 50 254 65 126 77 183 97 125 118 323 120 169 56 235 147 160 190 265 
1411 0.02673572717953652 -0.09771254457219854 1.1178167336456573 0 0 0 0.55 11 145 118 324 120 170 160 313 152 234 204 216 213 238 232 270 
1412 0.11970649975842533 -0.056633360483928585 1.1157240535296429 0 0 0 0.54 11 146 92 92 120 171 160 314 128 213 129 121 148 129 152 235 162 162 176 208 181 96 190 266 204 217 
1413 0.07815488047601094 -0.00933359687908359 1.101078485823816 0 0 0 0.31 11 147 15 109 17 171 50 255 160 315 128 214 147 161 152 236 172 232 176 209 190 267 204 218 213 239 219 183 232 271 
1414 0.13063791353808196 0.10225660350924003 1.0754497648112296 0 0 0 0.27 11 148 17 172 44 162 53 173 92 93 111 346 118 325 120 172 160 316 56 236 69 48 89 78 152 237 158 135 190 268 232 272 
1415 -0.05709441483938344 -0.06699492175970014 1.0919552566642776 0 0 0 0.85 11 149 53 174 160 317 147 162 152 238 157 185 176 210 190 269 204 219 219 184 56 237 89 79 129 122 
1416 0.00620922394187772 -0.08542514050514802 1.1513828408676603 0 0 0 0.98 11 150 97 126 160 318 
1417 -0.2127725416760931 -0.029021348617915936 1.079342323052064 0 0 0 0.56 11 151 27 132 44 163 50 256 71 215 81 192 88 56 96 204 160 319 204 220 217 257 220 103 25 126 26 75 56 238 127 137 
1418 0.15881231599279638 -0.014493440934605984 1.107320670544557 0 0 0 0.56 11 152 12 38 17 173 44 164 53 175 71 216 160 320 129 123 147 163 152 239 181 97 222 91 148 130 162 163 196 47 198 130 
1419 0.19082124408182327 -0.014782422565196638 1.1142542048940849 0 0 0 0.36 11 153 17 174 120 173 160 321 128 215 147 164 152 240 164 290 222 92 
1420 0.08160032794261532 0.0451576578577118 1.0884787738793724 0 0 0 0.58 11 154 12 39 15 110 17 175 33 99 38 14 77 184 118 326 120 174 127 138 160 322 32 27 50 257 65 127 97 127 128 216 146 85 152 241 157 186 172 233 197 71 204 221 213 240 221 148 232 273 147 165 1 190 25 127 26 76 56 239 103 145 158 136 
1421 0.25418042900896776 -0.02124526853037626 1.1255307294075105 0 0 0 0.25 12 40 15 111 44 165 50 258 118 327 120 175 160 323 147 166 152 242 182 121 217 258 
1422 0.3014967224904073 0.0402392103409405 1.1220031651189593 0 0 0 0.28 12 41 15 112 29 17 50 259 53 176 111 347 118 328 
1423 0.15398094662285264 0.10963994860953515 1.082977722742266 0 0 0 0.33 12 42 33 100 73 179 92 94 110 14 127 139 
1424 0.16729633971699923 -0.03716325362112059 1.1185035183625565 0 0 0 0.48 12 43 50 260 53 177 160 324 147 167 182 122 1 191 26 77 56 240 222 93 
1425 0.1119419790045167 0.022205836178819754 1.0963605270548704 0 0 0 0.5 12 44 27 133 77 185 160 325 129 124 147 168 152 243 220 104 232 274 
1426 0.09766884947648677 0.03450078595114932 1.0927909702719896 0 0 0 0.4 12 45 77 186 97 128 160 326 147 169 152 244 232 275 
1427 0.07152096004250666 -0.10429945291664801 1.182350716189616 0 0 0 0.31 15 113 17 176 96 205 118 329 
1428 0.23949035503805774 -0.07625630580436997 1.1332414381930795 0 0 0 0.38 15 114 27 134 160 327 
1429 -0.035535478885068646 -0.059596544110062676 1.0930931368028862 0 0 0 0.36 15 115 71 217 160 328 172 234 204 222 219 185 
1430 0.006931980612074321 -0.053655963111184944 1.097359062417879 0 0 0 0.25 15 116 112 31 160 329 128 217 152 245 158 137 159 53 176 211 190 270 204 223 221 149 
1431 0.23402616447088695 -0.06312910877218214 1.1297501676506263 0 0 0 0.25 15 117 43 88 50 261 53 178 160 330 182 123 204 224 
1432 -0.04974860046861979 -0.03477959898710315 1.0861665729250998 0 0 0 0.33 15 118 96 206 118 330 127 140 160 331 128 218 147 170 158 138 159 54 217 259 219 186 232 276 222 94 
1433 0.2764540773347441 -0.03593077700222029 1.1225296743621778 0 0 0 0.14 15 119 120 176 160 332 
1434 0.1020752623063341 -0.019236476124392197 1.102825436095807 0 0 0 0.23 15 120 118 331 160 333 157 187 213 241 
1435 0.2122232926928971 0.039827029603717035 1.1117464996489246 0 0 0 0.09 15 121 120 177 160 334 
1436 0.10431755536569524 -0.0749307124825884 1.116124366818747 0 0 0 0.8 15 122 73 180 160 335 213 242 221 150 
1437 0.1366273115840904 -0.07692965869053733 1.1229838037138458 0 0 0 0.15 15 123 120 178 160 336 
1438 0.06875868984319751 -0.0424653083850633 1.1036631420211942 0 0 0 0.43 15 124 27 135 63 47 77 187 97 129 120 179 160 337 185 20 190 271 219 187 220 105 221 151 222 95 
1439 -0.0348738744868512 -0.03683933467698813 1.0904886694282794 0 0 0 0.21 15 125 120 180 160 338 147 171 152 246 
1440 0.10268274429564585 -0.02239537446972768 1.1055254602425637 0 0 0 0.22 15 126 17 177 27 136 50 262 97 130 118 332 120 181 160 339 146 86 176 212 204 225 213 243 217 260 219 188 
1441 0.0017651017306181003 -0.01171010622496039 1.085929563969932 0 0 0 0.28 15 127 71 218 120 182 160 340 158 139 213 244 
1442 0.09195028958726992 -0.01416407628379528 1.0992352659734757 0 0 0 0.1 15 128 71 219 120 183 160 341 
1443 0.06466598241571461 -0.012439289712703359 1.0918749963550898 0 0 0 0.2 15 129 73 181 111 348 
1444 0.2881821252120661 -0.02071145423052991 1.1303787762326993 0 0 0 0.43 15 130 44 166 50 263 53 179 73 182 77 188 118 333 120 184 160 342 
1445 0.21221486775060808 0.03507720344599574 1.1116377590375257 0 0 0 0.24 15 131 50 264 53 180 77 189 96 207 160 343 147 172 152 247 172 235 176 213 213 245 222 96 232 277 1 192 56 241 
1446 0.08634669078471727 -0.009529316712381523 1.1004120908919444 0 0 0 0.29 15 132 44 167 50 265 160 344 
1447 0.16430193516319547 -0.009715910493971988 1.1076755596409265 0 0 0 0.26 15 133 53 181 160 345 56 242 111 349 232 278 
1448 -0.05772202685400571 -0.09126413044439134 1.1539883773486699 0 0 0 0.66 15 134 53 182 81 193 160 346 
1449 0.30002636871136984 0.019137396440705993 1.1258493135408818 0 0 0 0.3 15 135 43 89 50 266 160 347 
1450 0.2073316409042786 0.12077972299201313 1.088434199471871 0 0 0 0.47 15 136 17 178 65 128 44 168 128 219 160 348 182 124 190 272 56 243 69 49 71 220 81 194 89 80 97 131 111 350 118 334 120 185 129 125 147 173 158 140 164 291 181 98 198 131 222 97 
1451 0.17459220618062837 0.02137225808792662 1.1111960111433627 0 0 0 0.79 15 137 50 267 160 349 32 28 65 129 128 220 152 248 222 98 204 226 56 244 69 50 182 125 197 72 118 335 
1452 -0.2610903789915473 -0.014372616160401062 1.080313436315485 0 0 0 0.28 17 179 32 29 160 350 92 95 204 227 213 246 219 189 200 58 232 279 
1453 -0.2739379240346816 -0.019156843878245684 1.0815071092379487 0 0 0 0.25 17 180 33 101 43 90 44 169 53 183 71 221 92 96 96 208 160 351 152 249 157 188 164 292 190 273 200 59 204 228 213 247 224 170 232 280 
1454 0.2842162516388155 -0.024345374463635192 1.130178698670615 0 0 0 0.43 17 181 27 137 44 170 50 268 73 183 77 190 85 26 97 132 118 336 120 186 160 352 152 250 182 126 200 60 204 229 217 261 222 99 232 281 56 245 
1455 0.08090194669271498 0.03497109552384824 1.0891999845663576 0 0 0 0.14 17 182 41 71 50 269 118 337 160 353 146 87 152 251 157 189 213 248 
1456 0.1531163645490485 0.10523686997886764 1.0834400456811675 0 0 0 0.42 17 183 43 91 53 184 73 184 92 97 96 209 120 187 160 354 148 131 158 141 164 293 200 61 213 249 217 262 
1457 0.1177353347147154 -0.0451160630244495 1.098438692860552 0 0 0 0.31 17 184 97 133 118 338 
1458 0.11542607386940237 0.13729471015893357 1.070546199048125 0 0 0 0.44 17 185 44 171 50 270 96 210 111 351 120 188 
1459 0.13066290598266178 0.12018944070412138 1.076563946666312 0 0 0 0.37 17 186 44 172 50 271 81 195 118 339 120 189 160 355 65 130 129 126 147 174 158 142 199 117 200 62 217 263 221 152 25 128 56 246 69 51 232 282 
1460 0.25230523067781013 0.12195144354903815 1.0958172927736365 0 0 0 0.16 17 187 50 272 160 356 
1461 -0.23386292544190235 -0.015533544904761859 1.0769555056590914 0 0 0 0.62 17 188 50 273 160 357 148 132 198 132 217 264 220 106 26 78 56 247 65 131 67 176 71 222 96 211 97 134 118 340 127 141 199 118 
1462 0.1462973862084796 0.11944986766384635 1.0780624147081634 0 0 0 0.85 17 189 27 138 60 38 111 352 160 358 148 133 196 48 
1463 0.11488271052574686 0.12107815194434528 1.07367018964205 0 0 0 0.61 17 190 50 274 120 190 160 359 81 196 190 274 213 250 217 265 147 175 221 153 56 248 65 132 181 99 
1464 0.08517825295756257 -0.019230395135822212 1.10486637805788 0 0 0 0.23 27 139 41 72 160 360 
1465 0.040729966924256296 -0.06767802756871195 1.0979999682711181 0 0 0 0.61 27 140 60 39 71 223 77 191 96 212 118 341 120 191 160 361 213 251 232 283 
1466 -0.05834753993123644 -0.039668774258602116 1.0868389764231803 0 0 0 0.4 27 141 44 173 50 275 64 89 77 192 85 27 112 32 160 362 176 214 220 107 222 100 224 171 
1467 0.0802252996163537 -0.037777495726759695 1.1030292998553346 0 0 0 0.35 27 142 33 102 44 174 50 276 53 185 77 193 120 192 160 363 152 252 157 190 158 143 196 49 200 63 217 266 221 154 222 101 223 20 
1468 0.08671346808222768 -0.03318572212830347 1.102249292976929 0 0 0 0.58 27 143 44 175 53 186 96 213 118 342 120 193 160 364 146 88 157 191 185 21 200 64 232 284 
1469 -0.25267993627499175 -0.011577570977856515 1.0779452303183485 0 0 0 0.37 27 144 92 98 160 365 159 55 176 215 196 50 204 230 219 190 
1470 0.2583565681682886 -0.03726783733534935 1.1098014009083121 0 0 0 0.56 27 145 50 277 160 366 
1471 0.14246003921884318 -0.014989548136174246 1.1067773067778877 0 0 0 0.37 29 18 33 103 50 278 97 135 118 343 160 367 
1472 0.27458768452388976 -0.03299099267345843 1.1215916467885059 0 0 0 0.22 44 176 50 279 160 368 
1473 0.2627354380001505 -0.020682829235250028 1.125551950323063 0 0 0 0.39 32 30 44 177 50 280 92 99 120 194 160 369 164 294 182 127 213 252 
1474 0.2638933702875296 -0.024556620990801994 1.1267600018655188 0 0 0 0.25 32 31 33 104 44 178 50 281 160 370 152 253 182 128 217 267 
1475 0.15065982365036598 -0.021515646826710238 1.1107552134074656 0 0 0 0.35 32 32 110 15 160 371 152 254 182 129 200 65 217 268 
1476 0.27469170169501916 -0.020973324278626106 1.128906373812393 0 0 0 0.39 32 33 33 105 160 372 
1477 -0.2671527757958825 -0.02873290232591261 1.0855181768451476 0 0 0 0.65 32 34 50 282 53 187 67 177 160 373 26 79 56 249 127 142 217 269 221 155 
1478 0.25253904526201926 -0.033742950863987625 1.1228759309958312 0 0 0 0.42 33 106 44 179 160 374 
1479 0.2464892163139059 -0.06348519350577467 1.1317981183309695 0 0 0 0.38 33 107 50 283 97 136 160 375 
1480 -0.2973791147240717 -0.014568628223895631 1.081796788299687 0 0 0 0.54 33 108 97 137 160 376 
1481 -0.23681741325943376 -0.01555512096906699 1.083339871685632 0 0 0 0.62 33 109 53 188 67 178 88 57 96 214 
1482 0.04224824559073934 -0.010060010576200982 1.087132068572725 0 0 0 0.2 41 73 97 138 118 344 120 195 160 377 
1483 0.2300321618886538 -0.060629306417982615 1.1281564759530844 0 0 0 0.37 43 92 50 284 53 189 92 100 96 215 120 196 127 143 160 378 152 255 182 130 197 73 56 250 62 12 89 81 105 17 162 164 
1484 0.27216079380055036 0.0351725155331731 1.1205471997831717 0 0 0 0.33 43 93 44 180 160 379 164 295 172 236 182 131 
1485 0.22429554457166484 -0.054132201421589955 1.1248439182158185 0 0 0 0.24 43 94 81 197 111 353 160 380 
1486 -0.0414659434241926 -0.03060686599723797 1.0878712087713276 0 0 0 0.28 44 181 50 285 160 381 152 256 200 66 217 270 
1487 0.2307116689809061 0.13358486917749018 1.086073189217708 0 0 0 0.48 44 182 118 345 160 382 56 251 69 52 73 185 182 132 232 285 
1488 0.033883612775344706 -0.05684284522343734 1.100401637486534 0 0 0 0.31 44 183 120 197 160 383 157 192 176 216 223 21 
1489 0.24964830607773342 -0.05233218929549577 1.1295106015112004 0 0 0 0.2 44 184 50 286 73 186 81 198 120 198 160 384 56 252 89 82 190 275 197 74 182 133 
1490 0.1712322411137597 0.08968423945829047 1.0883790816368077 0 0 0 0.42 44 185 53 190 118 346 120 199 160 385 128 221 172 237 182 134 213 253 
1491 0.20502412470545373 -0.0332858693240372 1.115996728388437 0 0 0 0.35 50 287 120 200 127 144 160 386 
1492 -0.24639100448528842 -0.010254872329121105 1.082546467301858 0 0 0 0.17 50 288 97 139 160 387 172 238 204 231 
1493 -0.23706232279533648 -0.03684616735307865 1.0833219872378426 0 0 0 0.26 50 289 67 179 96 216 97 140 
1494 -0.007854080814516726 -0.03980196517822422 1.0940970966467574 0 0 0 0.4 50 290 53 191 111 354 160 388 152 257 158 144 
1495 0.2762117591464649 -0.052093411010154224 1.1349125806520999 0 0 0 0.17 50 291 77 194 160 389 
1496 0.11899744092034847 -0.022103119064611328 1.1073436235935703 0 0 0 0.37 50 292 60 40 160 390 152 258 158 145 217 271 
1497 0.3014279375088223 0.10335603985481971 1.1070305028447829 0 0 0 0.55 50 293 120 201 160 391 
1498 0.1385834536952207 -0.06089834631147749 1.1136176318732849 0 0 0 0.22 50 294 118 347 160 392 
1499 0.21650609755196715 -0.05856406990196282 1.1285105652238354 0 0 0 0.33 81 199 88 58 160 393 1 193 56 253 67 180 73 187 111 355 128 222 134 43 147 176 164 296 182 135 190 276 197 75 
1500 0.0838737717461279 -0.005556965121413338 1.1082759560526056 0 0 0 0.33 50 295 120 202 160 394 128 223 152 259 157 193 176 217 
1501 0.13239791064608056 -0.0707032257943693 1.1282364864742451 0 0 0 0.3 50 296 120 203 160 395 
1502 0.26988691165575857 0.0780583106643781 1.106574117173617 0 0 0 0.28 50 297 65 133 160 396 
1503 0.2291531703306343 0.08062270870417786 1.099435950114585 0 0 0 0.22 50 298 120 204 160 397 
1504 0.18679149005531828 0.09158544777219661 1.0906288280133438 0 0 0 0.49 50 299 120 205 160 398 152 260 172 239 
1505 0.27609638792221713 0.10180639752661055 1.1006997726979624 0 0 0 0.27 50 300 67 181 160 399 25 129 56 254 
1506 0.12269410854212963 0.14653215708862158 1.0738019544318822 0 0 0 0.12 50 301 120 206 160 400 
1507 -0.024199179271356924 -0.022085146906803826 1.086493290333894 0 0 0 0.2 50 302 81 200 88 59 160 401 157 194 158 146 
1508 0.056390826616104346 0.13561985507863666 1.0654183964802222 0 0 0 0.24 50 303 111 356 120 207 160 402 
1509 0.278557159004043 0.09782915807201689 1.0983742981013906 0 0 0 0.17 53 192 120 208 160 403 
1510 0.17763090921209826 0.07872574837568339 1.10290996309304 0 0 0 0.14 53 193 120 209 160 404 
1511 -0.20048187312598337 -0.05449002000911653 1.0897795869469646 0 0 0 0.18 63 48 65 134 111 357 160 405 
1512 0.2035456621403587 -0.04513545474066883 1.126358171558914 0 0 0 0.41 63 49 85 28 92 101 96 217 160 406 176 218 185 22 197 76 232 286 
1513 0.10284023963100748 -0.047668986094350586 1.1076240466458154 0 0 0 0.26 64 90 77 195 160 407 179 441 219 191 
1514 0.2334085045617378 -0.047721755381790465 1.1275787655846907 0 0 0 0.42 67 182 81 201 160 408 152 261 197 77 204 232 232 287 56 255 69 53 164 297 181 100 182 136 217 272 73 188 89 83 105 18 
1515 0.1251015433665664 -0.03736342817545358 1.1088349893939786 0 0 0 0.28 71 224 118 348 160 409 172 240 204 233 219 192 222 102 232 288 
1516 0.23156063750193123 0.1476982953355364 1.0817978046210661 0 0 0 0.26 81 202 118 349 160 410 
1517 0.06881761193181933 -0.03781012107450501 1.1026413482567476 0 0 0 0.58 81 203 111 358 160 411 
1518 0.014495365144371991 -0.055157664095447284 1.1014367088863106 0 0 0 0.32 96 218 111 359 120 210 160 412 158 147 190 277 222 103 
1519 0.1384379093073436 0.10495113065522284 1.0832422672398967 0 0 0 0.1 96 219 120 211 160 413 
1520 -0.02110004967741518 -0.04754237502531631 1.096586888502674 0 0 0 0.32 97 141 120 212 160 414 
1521 0.16332182080102545 -0.07113052868777016 1.1219865415565684 0 0 0 0.47 97 142 118 350 160 415 152 262 190 278 213 254 217 273 56 256 138 225 
1522 -0.0033248600436852644 -0.030798144099092113 1.0916997957981882 0 0 0 0.23 128 224 160 416 217 274 
1523 -0.08296823047907138 -0.07363979537978846 1.0903727221023727 0 0 0 0.34 128 225 160 417 176 219 196 51 217 275 222 104 224 172 
1524 0.28068957777215975 -0.06988499712011616 1.1621566974403374 0 0 0 0.2 128 226 152 263 182 137 
1525 0.19392226057162038 -0.018649392621433846 1.1166729591261146 0 0 0 0.18 128 227 159 56 160 418 172 241 204 234 222 105 
1526 0.08696481027713114 -0.04397324784573578 1.0978184537421465 0 0 0 0.35 128 228 152 264 158 148 160 419 172 242 176 220 200 67 
1527 0.02633518078646656 0.026470484864975184 1.097690820347419 0 0 0 0.24 128 229 152 265 160 420 
1528 -0.1728332737902125 -0.03851307594522824 1.0850985522781194 0 0 0 0.83 128 230 152 266 160 421 176 221 190 279 204 235 217 276 219 193 232 289 56 257 
1529 0.3009491676240223 0.01887143935537256 1.128480942705237 0 0 0 0.31 128 231 172 243 182 138 56 258 69 54 97 143 118 351 
1530 0.12065537767995214 -0.04562507880374883 1.1163558217456502 0 0 0 0.4 128 232 152 267 160 422 204 236 232 290 
1531 0.24695615913242847 -0.04323044413806918 1.131637636569607 0 0 0 0.73 128 233 129 127 152 268 160 423 204 237 56 259 89 84 118 352 147 177 197 78 232 291 
1532 0.2757848135205438 -0.04374078802986146 1.1400124488854568 0 0 0 0.28 129 128 152 269 190 280 25 130 56 260 89 85 160 424 
1533 0.11939242846516845 0.012373147402698514 1.1056534528720585 0 0 0 0.18 129 129 152 270 160 425 
1534 0.23718503323672055 0.14364958001545622 1.0855789471964772 0 0 0 0.51 129 130 160 426 182 139 200 68 
1535 0.14679154547566284 0.1513000981683484 1.0739691190842238 0 0 0 0.34 129 131 160 427 200 69 
1536 0.030636840358550417 -0.049133189446908074 1.1096841410594214 0 0 0 0.99 129 132 148 134 152 271 160 428 162 165 164 298 190 281 198 133 220 108 
1537 0.2420568139866078 -0.021524143741842867 1.1252242046089935 0 0 0 0.11 152 272 160 429 182 140 217 277 
1538 0.06687187939568127 0.09998742396970102 1.0693123220918528 0 0 0 0.47 146 89 152 273 160 430 176 222 200 70 213 255 219 194 221 156 
1539 0.22710536541597734 0.15062330981768732 1.0832732450748745 0 0 0 0.33 160 431 172 244 182 141 197 79 222 106 
1540 0.29506951646294693 -0.014334313388906558 1.1286069143340252 0 0 0 0.42 152 274 217 278 220 109 56 261 63 50 65 135 67 183 71 225 89 86 105 19 111 360 118 353 129 133 134 44 147 178 164 299 172 245 181 101 182 142 197 80 198 134 199 119 221 157 222 107 232 292 
1541 0.14343334095205837 -0.0016118296233307292 1.1063547205011917 0 0 0 0.66 147 179 152 275 160 432 162 166 204 238 217 279 220 110 221 158 222 108 232 293 56 262 65 136 73 189 89 87 118 354 163 43 164 300 197 81 198 135 199 120 
1542 0.3010850744818433 0.045967920729125235 1.1181439525576824 0 0 0 0.29 147 180 182 143 190 282 199 121 213 256 
1543 0.2823527672925764 -0.020876037509748018 1.1311182266483863 0 0 0 0.31 152 276 182 144 190 283 221 159 
1544 0.28859831943606684 -0.02091026915099855 1.1309467273299043 0 0 0 0.49 204 239 213 257 222 109 232 294 
1545 0.28187891020335004 -0.0019470323532641434 1.125220851726524 0 0 0 0.28 146 90 152 277 158 149 160 433 182 145 
1546 0.07037926519302455 0.040067388282657844 1.0870044495767728 0 0 0 0.27 146 91 147 181 148 135 152 278 157 195 158 150 160 434 164 301 172 246 190 284 197 82 200 71 204 240 213 258 219 195 220 111 222 110 232 295 
1547 0.2191194391263428 0.14613085909329168 1.0825694829673729 0 0 0 1.35 158 151 160 435 172 247 181 102 213 259 
1548 0.07853232085691246 -0.10458071146550037 1.1600157596309135 0 0 0 0.32 147 182 152 279 160 436 172 248 197 83 204 241 213 260 222 111 232 296 
1549 -0.059318042823988094 -0.05897128045722487 1.0848905947305372 0 0 0 0.33 147 183 157 196 158 152 160 437 176 223 217 280 219 196 
1550 0.042539743707056696 -0.04428064387449135 1.1010941252751956 0 0 0 0.18 147 184 152 280 160 438 176 224 185 23 232 297 
1551 0.11132154817026996 -0.02197027543713176 1.1044811425638645 0 0 0 0.85 147 185 152 281 160 439 164 302 185 24 220 112 232 298 
1552 0.0647949533809053 -0.011834878069865648 1.0921772181818514 0 0 0 0.52 147 186 160 440 217 281 219 197 
1553 0.29702189483245667 -0.020348147067188953 1.135959111759176 0 0 0 0.35 147 187 182 146 197 84 204 242 222 112 232 299 
1554 0.025172632568116894 -0.001451303076025871 1.0958910866682565 0 0 0 0.21 147 188 160 441 172 249 
1555 0.08801920761137398 0.03596918817886994 1.0908815802836738 0 0 0 0.2 147 189 160 442 185 25 
1556 0.1983555362574541 0.03959618981483968 1.1036344056918408 0 0 0 0.2 147 190 152 282 160 443 
1557 0.2993927932368925 0.07631829133310847 1.1197776201667247 0 0 0 0.21 147 191 160 444 176 225 
1558 0.2079674480056408 -0.07580677652551396 1.1482038685219915 0 0 0 0.19 147 192 152 283 160 445 222 113 
1559 0.09673584959750745 0.00261753915023626 1.0973817039023201 0 0 0 0.45 147 193 160 446 190 285 
1560 0.1256999059509421 -0.05908570201607034 1.11694333348518 0 0 0 0.46 147 194 152 284 160 447 176 226 217 282 221 160 
1561 0.10409350754601825 -0.08524549489366064 1.1166296881906592 0 0 0 0.67 147 195 160 448 198 136 222 114 
1562 -0.0026195615925502466 -0.07387698861015901 1.1493756450334112 0 0 0 1.25 147 196 160 449 198 137 
1563 0.2048866430218992 0.021236008401475548 1.111025453901663 0 0 0 0.09 147 197 152 285 160 450 
1564 0.23636847024903856 0.08302097886256646 1.104594269178697 0 0 0 0.2 147 198 152 286 160 451 221 161 
1565 -0.30301107500772795 -0.015548142485814464 1.0841872792509049 0 0 0 0.3 152 287 160 452 172 250 
1566 -0.1571414253124778 -0.08330032306280681 1.0913662167476048 0 0 0 0.41 148 136 160 453 190 286 217 283 
1567 -0.21085411972771806 -0.05266679484115995 1.089118809346534 0 0 0 0.38 148 137 160 454 164 303 
1568 0.05822485636223273 0.10110192913260198 1.0705206411187318 0 0 0 0.24 148 138 152 288 158 153 160 455 176 227 181 103 185 26 204 243 219 198 222 115 
1569 0.1526880765758871 -0.07018015205755022 1.1224672837977117 0 0 0 0.36 148 139 152 289 160 456 190 287 
1570 0.1691672957742949 0.045388812279329914 1.1005588355061469 0 0 0 0.31 148 140 157 197 160 457 182 147 204 244 232 300 
1571 0.16195125586831094 0.12189354330936612 1.0815358170416847 0 0 0 0.54 148 141 160 458 196 52 
1572 -0.26158952054240603 -0.08065947985393712 1.0873104286538817 0 0 0 0.12 152 290 160 459 190 288 
1573 -0.157946355369258 -0.08001932117763184 1.092985874586259 0 0 0 0.23 152 291 160 460 217 284 
1574 -0.25770276461929503 -0.07441794832781769 1.0824314215549375 0 0 0 0.08 152 292 160 461 190 289 
1575 -0.25740054108706667 -0.039116346230660744 1.084883684574013 0 0 0 0.17 152 293 160 462 217 285 
1576 -0.3033758138375359 -0.03412304978988654 1.0809252904564801 0 0 0 0.21 152 294 160 463 190 290 
1577 0.18528504320794195 -0.04814896454860081 1.1255538215160164 0 0 0 0.19 152 295 160 464 197 85 
1578 0.20506315946724812 -0.0448152207522134 1.1614571649650771 0 0 0 0.19 152 296 160 465 204 245 
1579 0.18576389933069679 -0.03853209761157535 1.1180298208269994 0 0 0 0.28 152 297 160 466 176 228 182 148 204 246 
1580 0.27706329584235173 -0.035967927959423523 1.1257814405457234 0 0 0 0.14 152 298 197 86 204 247 
1581 0.12060703974043221 -0.02521576464860133 1.1109522765905644 0 0 0 0.18 152 299 160 467 182 149 
1582 0.2548292478614747 -0.009000807945739847 1.1191460676053793 0 0 0 0.32 152 300 160 468 204 248 213 261 217 286 232 301 
1583 0.30218140814417066 0.040266301881863135 1.124394929765321 0 0 0 0.17 152 301 182 150 204 249 222 116 232 302 
1584 0.041341246886910196 0.05118398402577006 1.0790337411331128 0 0 0 0.23 152 302 160 469 179 442 
1585 0.1953378347551287 0.09909941398055194 1.111668349528531 0 0 0 0.18 152 303 160 470 204 250 
1586 -0.2942166362438633 -0.06369428197761177 1.1093772465117182 0 0 0 0.13 152 304 160 471 213 262 232 303 
1587 -0.2528215918686881 -0.06352746465340492 1.0889584459842918 0 0 0 0.32 152 305 160 472 204 251 217 287 219 199 220 113 232 304 
1588 -0.1469348169017696 -0.06746820570460257 1.0945847541140628 0 0 0 0.33 152 306 160 473 204 252 219 200 
1589 -0.2524381407100862 -0.04435870689316681 1.0886156907888864 0 0 0 0.14 152 307 160 474 213 263 217 288 232 305 
1590 -0.23678928868682017 -0.03687000209074937 1.0823559162969583 0 0 0 0.16 152 308 160 475 176 229 204 253 213 264 
1591 -0.3038390449601285 -0.018320169301516104 1.0769354859570492 0 0 0 0.32 152 309 160 476 190 291 204 254 
1592 0.21792075114746293 -0.021421870884348482 1.1216490263635492 0 0 0 0.33 152 310 158 154 160 477 162 167 164 304 182 151 196 53 217 289 
1593 0.1046833027894121 0.004544905037949634 1.0992508091107103 0 0 0 0.33 152 311 160 478 198 138 56 263 69 55 89 88 
1594 -0.036222782423938775 -0.08965657549851815 1.079672348435399 0 0 0 0.12 152 312 160 479 204 255 
1595 -0.2594104245059141 -0.06440238670402007 1.0923413713327308 0 0 0 0.16 152 313 160 480 217 290 
1596 -0.2701533892368653 -0.05678117477942455 1.089690136328476 0 0 0 0.13 152 314 160 481 213 265 232 306 
1597 0.2018803959020842 -0.08283504009826648 1.1746946896956159 0 0 0 0.2 152 315 160 482 182 152 
1598 0.243899927381544 -0.06974027942076207 1.1363821594744812 0 0 0 0.47 152 316 160 483 197 87 204 256 217 291 221 162 222 117 1 194 25 131 56 264 73 190 81 204 89 89 147 199 164 305 181 104 190 292 
1599 -0.2210168642239242 -0.06388020328929149 1.1102838635394021 0 0 0 0.3 152 317 160 484 204 257 219 201 
1600 -0.17115374389741617 -0.045472869895281494 1.0851584288201024 0 0 0 0.43 152 318 160 485 190 293 217 292 
1601 0.19529097928609035 0.10370217131411338 1.0921867287612226 0 0 0 0.73 152 319 190 294 221 163 
1602 0.1466421719948293 0.10913297252984326 1.0819365740024045 0 0 0 0.67 152 320 160 486 200 72 
1603 -0.09678281604831447 -0.09774486423858772 1.1024174937745927 0 0 0 0.35 152 321 160 487 219 202 
1604 -0.08437859510741996 -0.09968073439179823 1.120109380978967 0 0 0 0.17 152 322 160 488 204 258 
1605 0.05380703985285518 -0.08274764046726646 1.2162165931576217 0 0 0 0.15 152 323 160 489 204 259 
1606 -0.28582172655107385 -0.04255100521693068 1.0804255541460157 0 0 0 0.18 152 324 160 490 190 295 232 307 
1607 0.0671850311727858 0.11986330048045858 1.0684199628883488 0 0 0 0.29 152 325 158 155 160 491 196 54 198 139 56 265 118 355 181 105 
1608 0.17465194776001028 -0.002969306006590966 1.1097573075792817 0 0 0 0.32 152 326 160 492 217 293 
1609 0.20618626248292093 -0.0018424503904999662 1.1198292620842991 0 0 0 0.38 152 327 160 493 197 88 204 260 
1610 0.11300329331740265 -0.0661639616736984 1.1163344430281643 0 0 0 1.05 152 328 160 494 176 230 221 164 
1611 0.20140652886772797 -0.06980781793388717 1.148455143781543 0 0 0 0.81 152 329 160 495 221 165 
1612 -0.05679209900007509 -0.0733173979739041 1.085894372086874 0 0 0 0.66 157 198 160 496 204 261 
1613 0.16124340540686707 0.11591513495323426 1.0822834808574622 0 0 0 0.41 157 199 158 156 160 497 181 106 1 195 26 80 56 266 69 56 73 191 89 90 111 361 134 45 217 294 
1614 -0.2966882279203813 0.0013493670305976815 1.0797180391956334 0 0 0 0.38 158 157 160 498 220 114 221 166 
1615 0.1248507545980651 0.09981137622223171 1.0782237897480929 0 0 0 0.83 158 158 160 499 200 73 217 295 
1616 0.09945687288079573 0.12084341071468284 1.0714045446585527 0 0 0 0.41 158 159 160 500 199 122 217 296 1 196 56 267 69 57 81 205 100 16 172 251 181 107 198 140 220 115 221 167 232 308 
1617 0.08336162073391365 -0.1022975628366218 1.172462850083651 0 0 0 0.21 160 501 219 203 232 309 
1618 0.18921800667742839 -0.06027939785372973 1.1256647440958545 0 0 0 0.48 160 502 204 262 219 204 221 168 232 310 
1619 0.046021234615524736 -0.05636439030084546 1.097203408873133 0 0 0 0.37 160 503 204 263 232 311 
1620 0.004981468376022176 -0.04820315737114112 1.096327964815285 0 0 0 0.19 160 504 204 264 232 312 
1621 0.19307241494681654 -0.03840725764269664 1.1181477472605346 0 0 0 0.29 160 505 196 55 204 265 220 116 
1622 0.22382165410079213 -0.03676158263930124 1.1240505384629123 0 0 0 0.22 172 252 204 266 232 313 
1623 0.24260666033313413 0.04554419522815646 1.113030175856626 0 0 0 0.15 172 253 176 231 232 314 
1624 0.04435700285820882 0.09025931493412798 1.0729295952097442 0 0 0 0.32 160 506 190 296 196 56 56 268 65 137 69 58 
1625 0.24777519355255792 0.09695804065695898 1.0929879644509692 0 0 0 0.13 160 507 176 232 204 267 
1626 0.2820983376164217 0.11538411534733402 1.0989347137853145 0 0 0 0.67 160 508 176 233 196 57 197 89 217 297 
1627 -0.19337377310480916 -0.03295691300933922 1.0749741520954847 0 0 0 0.28 160 509 204 268 217 298 
1628 -0.24520831546342847 -0.0320559918111509 1.0741077214914294 0 0 0 0.19 160 510 204 269 219 205 
1629 -0.2348052988642994 -0.0047903924690982525 1.0806939625066645 0 0 0 0.22 160 511 176 234 204 270 
1630 0.16985567042425803 0.09778783600947659 1.0853529133551767 0 0 0 0.23 160 512 164 306 198 141 
1631 -0.07437118554481006 -0.07038501207545853 1.0964699311705357 0 0 0 0.27 160 513 217 299 219 206 
1632 -0.29826351381244215 -0.04273763676122769 1.086847859494696 0 0 0 0.33 160 514 190 297 204 271 232 315 
1633 -0.2765869791923863 0.0014666102038879082 1.0784566987317374 0 0 0 0.27 160 515 190 298 220 117 
1634 0.13529853837415595 -0.03832304352523815 1.1118421676425692 0 0 0 0.43 160 516 164 307 190 299 
1635 -0.31964305217670513 0.010794802761940227 1.0776955246312145 0 0 0 0.33 160 517 204 272 232 316 
1636 -0.22382063638781094 0.019581505878212977 1.0760937246027025 0 0 0 0.54 160 518 172 254 198 142 213 266 219 207 
1637 0.1194728581967405 0.04521160702406236 1.101649701467078 0 0 0 0.16 160 519 219 208 232 317 
1638 0.05128779037125445 0.1413702440511381 1.0613417783916121 0 0 0 0.32 160 520 181 108 217 300 
1639 -0.188757939404408 -0.03925378156067278 1.1022012776829284 0 0 0 0.69 160 521 204 273 219 209 
1640 -0.2903397524141305 -0.03540598916960413 1.084532873461137 0 0 0 0.31 160 522 204 274 213 267 219 210 
1641 -0.27826433168809867 -0.027332878858262723 1.0764141550516269 0 0 0 0.61 160 523 198 143 204 275 213 268 219 211 221 169 232 318 
1642 0.12720462648096742 0.03211864813464183 1.094767430651113 0 0 0 0.54 160 524 200 74 221 170 232 319 
1643 0.23197192018128932 -0.09649752909347416 1.1333043804541636 0 0 0 0.16 1 197 56 269 65 138 67 184 71 226 
1644 0.23722086417645677 -0.08886531806851651 1.1373245153195757 0 0 0 0.47 1 198 56 270 62 13 67 185 111 362 163 44 
1645 0.08322959013061719 -0.10779901293301666 1.153424519602038 0 0 0 0.33 1 199 56 271 65 139 81 206 89 91 
1646 0.14124208165534374 -0.09782783756684649 1.1263176657769325 0 0 0 0.28 1 200 56 272 67 186 97 144 134 46 181 109 
1647 -0.09171321337786244 -0.10171578477168033 1.0995492378222889 0 0 0 0.31 1 201 26 81 56 273 60 41 65 140 81 207 89 92 97 145 111 363 127 145 138 226 190 300 217 301 12 46 71 227 118 356 147 200 232 320 
1648 -0.03474754299066194 -0.08727999046975887 1.093969790532236 0 0 0 0.23 1 202 56 274 81 208 222 118 
1649 0.07019203855153938 -0.06986839522875232 1.111054844949223 0 0 0 0.3 1 203 56 275 164 308 
1650 -0.1527407737851507 -0.05829816620002423 1.0906890229979789 0 0 0 0.33 1 204 56 276 71 228 81 209 89 93 97 146 103 146 118 357 128 234 179 443 190 301 
1651 -0.05030480050851078 -0.030132276596847123 1.0851973221433378 0 0 0 0.43 1 205 26 82 56 277 63 51 71 229 118 358 127 146 152 330 158 160 164 309 198 144 199 123 217 302 220 118 224 173 232 321 
1652 -0.05058916610971753 -0.02385156005990416 1.0828189717943524 0 0 0 0.3 1 206 56 278 89 94 96 220 111 364 127 147 147 201 162 168 164 310 217 303 222 119 224 174 234 15 
1653 0.010740524852224776 -0.01016996506712907 1.0890957702390653 0 0 0 0.26 1 207 26 83 56 279 60 42 65 141 118 359 129 134 198 145 220 119 232 322 
1654 -0.09007653954030434 -0.01736100238521089 1.0768691839236506 0 0 0 0.21 1 208 26 84 56 280 60 43 88 60 162 169 199 124 
1655 -0.037932391925852016 -0.010671559085464431 1.0823256010152487 0 0 0 0.32 1 209 25 132 56 281 71 230 103 147 118 360 128 235 129 135 152 331 158 161 217 304 224 175 
1656 0.06080901938837551 0.03329083124365001 1.089183970978094 0 0 0 0.35 1 210 26 85 56 282 60 44 103 148 128 236 164 311 
1657 -0.06393564982205314 0.03509516341005313 1.071635815782922 0 0 0 0.24 1 211 56 283 67 187 89 95 100 17 138 227 158 162 172 255 181 110 
1658 -0.04973953149393043 0.043587143307122704 1.078393454640556 0 0 0 0.15 1 212 56 284 100 18 128 237 
1659 -0.29325775266488496 0.030911030662045362 1.076569240870628 0 0 0 0.07 1 213 56 285 96 221 
1660 0.09341694080147853 0.09148539724515048 1.0795558912205616 0 0 0 0.22 1 214 56 286 118 361 232 323 
1661 -0.09029713705803231 0.09037677918423427 1.0506525125815835 0 0 0 0.43 1 215 26 86 56 287 63 52 67 188 71 231 89 96 220 120 221 171 
1662 -0.12518146782227194 0.09117279945454146 1.054934785888172 0 0 0 0.46 1 216 25 133 56 288 118 362 128 238 164 312 172 256 217 305 221 172 
1663 -0.16941387139401784 0.0944465888356233 1.050443587334474 0 0 0 0.49 1 217 56 289 221 173 
1664 0.09344397941342938 0.11689671443290366 1.0702761033744903 0 0 0 0.21 1 218 56 290 65 142 69 59 152 332 
1665 0.09047420832757078 0.12659245006091052 1.069133488360611 0 0 0 0.44 1 219 26 87 56 291 197 90 
1666 0.06202251503909327 0.13491066331272053 1.0637200905143722 0 0 0 0.36 1 220 56 292 96 222 111 365 208 18 
1667 0.13775081171614276 -0.0936695975200825 1.1294410000199193 0 0 0 0.62 1 221 25 134 56 293 65 143 71 232 97 147 179 444 217 306 
1668 0.031793057210724715 -0.09266596445091872 1.1076373650375486 0 0 0 0.38 1 222 56 294 71 233 89 97 97 148 118 363 147 202 221 174 232 324 
1669 0.1991319231948403 -0.06672906672118138 1.1652686598288655 0 0 0 0.62 1 223 56 295 147 203 221 175 222 120 
1670 0.08115454146229945 -0.07793966886727118 1.122373991079116 0 0 0 0.13 1 224 56 296 89 98 
1671 0.039591136242612464 -0.07797184852651495 1.1104982934864187 0 0 0 0.63 1 225 12 47 56 297 71 234 81 210 221 176 
1672 -0.00752235654915875 -0.07548833375414807 1.0960495871917508 0 0 0 0.6 56 298 89 99 118 364 172 257 
1673 0.23824417264905715 -0.03696347224286946 1.126452916406759 0 0 0 0.38 1 226 56 299 69 60 81 211 89 100 105 20 152 333 182 153 221 177 
1674 -0.12253452879575279 -0.05631926795502285 1.0931864407859733 0 0 0 0.37 1 227 26 88 56 300 60 45 71 235 81 212 111 366 147 204 190 302 217 307 232 325 
1675 -0.08158320063712853 -0.027883358555779295 1.0812696964952448 0 0 0 0.32 1 228 25 135 26 89 56 301 63 53 71 236 89 101 111 367 118 365 152 334 158 163 162 170 172 258 190 303 220 121 222 121 224 176 232 326 
1676 0.15013417774404783 0.005187280660364628 1.1090392860017426 0 0 0 0.32 1 229 56 302 152 335 
1677 0.18228837916483906 0.017906201896492745 1.1144419742657936 0 0 0 0.36 1 230 56 303 179 445 
1678 -0.0982632193767071 -0.009906183103538288 1.0755558673263397 0 0 0 0.58 1 231 26 90 56 304 81 213 88 61 96 223 100 19 129 136 158 164 224 177 234 16 
1679 0.03644712306277913 0.005743855808480876 1.090138466467017 0 0 0 0.34 1 232 56 305 73 192 221 178 232 327 
1680 0.1366129481524194 0.03427259540302913 1.0982960308216596 0 0 0 0.31 1 233 26 91 56 306 71 237 147 205 182 154 197 91 217 308 
1681 -0.27114702018847264 0.002230554512414877 1.0775529010375229 0 0 0 0.36 1 234 25 136 56 307 67 189 71 238 81 214 118 366 127 148 190 304 198 146 232 328 
1682 -0.2920287718205233 0.009371498571417315 1.0779334748176366 0 0 0 0.33 1 235 26 92 56 308 81 215 
1683 0.13654467393414954 0.054167585929851006 1.0939223580688602 0 0 0 0.33 1 236 25 137 26 93 56 309 69 61 73 193 89 102 118 367 182 155 190 305 197 92 217 309 
1684 0.029487639750285212 0.046109894219289016 1.0821276839910479 0 0 0 0.41 1 237 56 310 65 144 81 216 152 336 158 165 181 111 232 329 234 17 
1685 -0.053832358198010535 0.03871055299080733 1.0732346280805196 0 0 0 0.39 1 238 26 94 56 311 63 54 65 145 67 190 71 239 128 239 147 206 162 171 181 112 217 310 222 122 
1686 -0.030637241453826007 0.045666403824232545 1.0753672573407342 0 0 0 0.37 1 239 56 312 60 46 118 368 128 240 
1687 -0.06510239387245179 0.04356807706028032 1.0710999884521195 0 0 0 0.05 1 240 26 95 56 313 81 217 
1688 -0.23596865410143505 0.03979003087550653 1.070415149376752 0 0 0 0.36 1 241 26 96 56 314 88 62 129 137 
1689 -0.1655546211002122 0.0454968295157789 1.0662721031313214 0 0 0 0.45 1 242 56 315 67 191 111 368 129 138 181 113 217 311 
1690 0.1563530058896306 0.09174693514969791 1.0862329595150124 0 0 0 0.33 1 243 56 316 65 146 69 62 73 194 103 149 118 369 134 47 138 228 147 207 152 337 158 166 172 259 182 156 190 306 217 312 221 179 232 330 
1691 0.10356976690505333 0.09128293823790917 1.073983719160428 0 0 0 0.27 1 244 56 317 96 224 103 150 217 313 
1692 0.1922146454725886 0.10381182327169405 1.0808335579871302 0 0 0 0.26 1 245 25 138 56 318 73 195 
