# 3D point list with one line of data per point:
#   POINT3D_ID, X, Y, Z, R, G, B, ERROR, TRACK[] as (IMAGE_ID, POINT2D_IDX)
# Number of points: 344, mean track length: 9.3
544 0.19299810772968956 0.08458449764660395 0.4528149041918502 50 49 35 0.81 74 265 75 321 76 323 77 293 82 295 83 302 
545 0.17084838892954066 0.018275100985322305 0.34262684173242247 214 214 200 0.61 74 266 75 322 76 324 77 294 
546 0.1870114117704547 0.001118829487898528 0.3380037414954152 117 133 60 0.67 74 267 75 323 76 325 77 295 
547 0.13131266168565614 0.16806106706810978 0.49372801271950506 14 15 10 0.8 74 268 75 324 76 326 77 296 83 303 
548 0.63287995921804 -0.24674302446138766 1.058455577012889 109 99 102 0.36 74 269 75 325 76 327 77 297 78 357 79 398 80 417 81 420 84 344 85 339 86 318 87 291 88 366 89 370 
549 0.11111111678803345 -0.2700394020068713 0.7584774668029093 142 130 126 0.59 74 270 75 326 76 328 77 298 78 358 79 399 80 418 81 421 82 296 83 304 88 367 89 371 
550 0.19652213448775668 0.0042676297968143205 0.3291071694044741 69 74 20 0.78 74 271 75 327 76 329 77 299 
551 0.20880537390230006 0.16436756249897824 0.47120910141057326 86 95 39 1.41 74 272 75 328 76 330 77 300 78 359 
552 0.21964810301013168 0.11843095424450671 0.38856635922567995 121 120 88 1.95 74 273 75 329 76 331 77 301 82 297 83 305 
553 0.31506997845265117 -0.22955271786736411 0.8690155202993101 36 30 32 0.41 74 274 75 330 76 332 77 302 78 360 79 400 80 419 81 422 82 298 83 306 84 345 85 340 86 319 87 292 88 368 89 372 
554 0.26512313317798963 0.16290727854635434 0.4391302854832054 138 161 118 0.44 74 275 75 331 76 333 83 307 
555 0.6765215059772299 -0.16372281689382137 1.0745579779995584 134 129 141 0.46 74 276 75 332 76 334 77 303 78 361 79 401 80 420 81 423 84 346 85 341 86 320 87 293 88 369 89 373 
556 0.3547307950791134 -0.11717416790542266 0.8651983765069233 193 194 197 0.59 75 333 76 335 77 304 78 362 79 402 80 421 81 424 82 299 83 308 84 347 85 342 86 321 88 370 89 374 
557 0.12329431450471605 0.11455584835434098 0.4295692739922014 97 107 57 0.79 74 277 75 334 76 336 77 305 82 300 83 309 
558 0.5409711565230046 -0.022221142039983228 0.7807085375968493 144 149 103 1.89 74 278 75 335 76 337 77 306 78 363 79 403 80 422 
559 0.474553300405857 -0.21556148831247998 0.9691772851906348 100 109 111 0.8 74 279 75 336 76 338 77 307 78 364 79 404 80 423 81 425 82 301 83 310 84 348 85 343 86 322 87 294 88 371 89 375 
560 0.1912251928784992 0.10702775654295615 0.427758032243459 72 90 41 0.86 74 280 75 337 76 339 77 308 78 365 82 302 83 311 
561 0.48312496147396616 -0.2192889472035828 0.9680667770411838 35 27 30 0.67 74 281 75 338 76 340 77 309 78 366 79 405 80 424 81 426 82 303 83 312 84 349 85 344 86 323 87 295 88 372 89 376 
562 0.16342255606362593 0.014634051579458756 0.33973299730339124 69 84 31 0.53 74 282 75 339 76 341 77 310 
563 0.25941459174864 -0.015805788042213584 0.48617414539665926 96 122 54 1.01 74 283 75 340 76 342 77 311 79 406 82 304 83 313 
564 0.5918228410345997 -0.21589859218254343 1.0304056470033067 67 47 50 0.33 74 284 75 341 76 343 77 312 78 367 79 407 80 425 81 427 84 350 85 345 86 324 87 296 88 373 89 377 
565 -0.09860095847568462 -0.18770032023738098 0.6245535201847122 147 149 152 0.67 74 285 75 342 76 344 77 313 82 305 83 314 88 374 89 378 
566 0.25787888027079986 0.13151601095605361 0.4242889695174367 189 190 139 1.07 74 286 75 343 76 345 77 314 78 368 83 315 
567 0.5717240457311897 -0.1455872290980216 1.0023543250432456 101 104 118 0.56 74 287 75 344 76 346 77 315 78 369 79 408 80 426 81 428 84 351 85 346 86 325 87 297 88 375 89 379 
568 0.11599591252990198 -0.03302891055617466 0.45006130933020305 46 65 23 0.94 74 288 75 345 76 347 77 316 82 306 83 316 
569 0.13579731401104822 0.028913977391957207 0.34105077182563703 167 193 161 0.43 74 289 75 346 76 348 77 317 
570 0.20458734303321705 0.030184361803512305 0.3373042197438476 139 137 76 0.84 74 290 75 347 76 349 77 318 
571 -0.06775921883200092 -0.17162756090564982 0.6547319516188803 176 204 227 0.53 74 291 75 348 76 350 77 319 82 307 83 317 88 376 89 380 
572 0.4259864426464403 -0.11204248086367562 0.911204907101237 145 156 171 0.42 74 292 75 349 76 351 77 320 78 370 79 409 80 427 81 429 82 308 83 318 84 352 85 347 86 326 87 298 88 377 89 381 
573 -0.02289301919742417 0.016819277281410246 0.6380168364179195 76 80 75 0.74 74 293 75 350 76 352 83 319 88 378 89 382 
574 0.1716303331995942 0.019104536505675195 0.3428616227053371 120 131 86 0.58 74 294 75 351 76 353 77 321 
575 0.10661696554778033 -0.28331168438566906 0.753478056322754 89 97 104 0.45 74 295 75 352 76 354 77 322 80 428 81 430 82 309 83 320 88 379 89 383 
576 0.24849439878713947 -0.031229799489913897 0.4569050796999101 208 208 49 1.43 74 296 75 353 76 355 77 323 78 371 82 310 
577 -0.0972034289505586 -0.11977931107168945 0.6173660014162127 50 47 54 0.6 74 297 75 354 76 356 77 324 82 311 83 321 88 380 89 384 
578 0.1654779665678472 0.08147414065159607 0.4507231996091906 69 71 59 0.47 74 298 75 355 76 357 77 325 78 372 82 312 83 322 
579 0.19760742266576778 -0.027757798352770757 0.45048771878446775 104 127 42 0.55 74 299 75 356 76 358 77 326 78 373 82 313 83 323 
580 0.292868792578039 0.15080326240030487 0.5935320295886722 60 78 40 0.39 75 357 76 359 77 327 78 374 
581 0.4818609169395487 0.12398794143072855 0.9198808894310397 88 101 112 0.9 76 360 77 328 78 375 79 410 80 429 81 431 82 314 83 324 84 353 
582 0.23500163197986135 0.11904753195484045 0.4037948472633567 104 127 78 1.25 74 300 75 358 76 361 77 329 82 315 83 325 
583 0.1481758711319135 0.01227625915883689 0.34214293289982234 204 213 185 0.61 74 301 75 359 76 362 77 330 
584 0.22224569443392203 0.11302680311910968 0.41087653560639875 149 159 120 1.03 74 302 75 360 76 363 77 331 78 376 82 316 83 326 
585 0.22436029760969114 -0.23634994891812214 0.8156818388860104 186 189 194 0.36 74 303 75 361 76 364 77 332 78 377 79 411 80 430 81 432 82 317 83 327 84 354 85 348 86 327 87 299 88 381 89 385 
586 -0.2002937287018936 -0.1015885029335685 0.5676242854203213 130 122 121 1.64 74 304 75 362 76 365 88 382 89 386 
587 0.2074661502458976 0.04210745312166474 0.35151468922714385 180 191 159 0.35 74 305 75 363 76 366 77 333 
588 0.15408949220082355 0.007518559447344442 0.3468397060165258 171 184 123 0.69 74 306 75 364 76 367 77 334 
589 0.26380817537036344 0.16356452442187375 0.42099079500133424 108 133 50 0.54 74 307 75 365 76 368 83 328 
590 0.2539303934765046 -0.1999273671210378 0.8276117190416356 124 140 153 0.62 74 308 75 366 76 369 77 335 78 378 79 412 80 431 81 433 82 318 83 329 84 355 85 349 86 328 87 300 88 383 89 387 
591 0.5145963228455521 -0.21136937632158 0.9821366288757151 194 188 182 0.58 74 309 75 367 76 370 77 336 78 379 79 413 80 432 81 434 82 319 83 330 84 356 85 350 86 329 87 301 88 384 89 388 
592 0.22671678193274156 0.10852423792731503 0.4428891280647134 180 174 57 0.67 74 310 75 368 76 371 77 337 78 380 82 320 83 331 
593 0.27098116284682744 -0.229064398699387 0.8493058229446729 119 113 107 0.44 74 311 75 369 76 372 77 338 78 381 79 414 80 433 81 435 82 321 83 332 84 357 85 351 86 330 87 302 88 385 89 389 
594 0.18396534926204933 0.029920389869620645 0.3353289099888792 206 214 84 0.74 74 312 75 370 76 373 77 339 
595 -0.05125622890872158 -0.04466442547308097 0.6268899891271578 146 146 147 1.18 74 313 75 371 76 374 83 333 88 386 89 390 
596 0.19078597701230596 0.0837960788994514 0.4538027125918778 171 187 145 0.92 74 314 75 372 76 375 77 340 78 382 82 322 83 334 
597 0.12447708476149666 -0.06252972538814622 0.4438057596079233 193 201 196 1.12 74 315 75 373 76 376 77 341 82 323 
598 0.1408278769432814 0.044202864790762894 0.36554293946108524 80 88 45 0.94 74 316 75 374 76 377 77 342 
599 0.5991461539180316 -0.21487448150216698 1.0363695750324853 53 44 48 0.36 74 317 75 375 76 378 77 343 78 383 79 415 80 434 81 436 84 358 85 352 86 331 87 303 88 387 89 391 
600 0.2833148544810855 -0.0782827529092142 0.8145002928564598 63 52 43 0.65 76 379 77 344 78 384 79 416 80 435 81 437 82 324 83 335 84 359 85 353 86 332 
601 -0.08146321854983371 -0.19278334697218483 0.6448154528002793 40 48 50 0.58 74 318 75 376 76 380 77 345 82 325 83 336 88 388 89 392 
602 0.6761750587174195 -0.18501965968202144 1.0785413888437527 147 155 169 0.43 74 319 75 377 76 381 77 346 78 385 79 417 80 436 81 438 84 360 85 354 86 333 87 304 88 389 89 393 
603 0.04651771437141259 -0.031609804777365656 0.6719482144923736 122 122 116 0.88 74 320 75 378 76 382 82 326 83 337 88 390 
604 0.16509438170550367 0.17187115320390967 0.43872849694994276 98 81 64 0.88 74 321 75 379 76 383 82 327 83 338 
605 -0.04566728274563465 0.014710404801314704 0.6350907258149744 117 126 131 1.04 74 322 75 380 76 384 83 339 88 391 89 394 
606 0.28106368837965534 0.16773797208902508 0.4429803477814009 107 125 93 0.36 74 323 75 381 76 385 83 340 
607 -0.03829135709161209 -0.16426203073113635 0.6643213145721196 58 72 81 0.31 74 324 75 382 76 386 77 347 82 328 83 341 88 392 89 395 
608 -0.04345073735803483 -0.0008478071752250845 0.6351090514911794 86 93 90 0.46 74 325 75 383 76 387 83 342 88 393 89 396 
609 0.720023191360422 -0.27444402365073683 1.0951539311158676 49 43 49 0.76 74 326 75 384 76 388 77 348 78 386 79 418 80 437 81 439 84 361 85 355 86 334 87 305 88 394 89 397 
610 0.1798552218003535 -0.03536380797118228 0.46077226378476716 182 196 50 0.6 74 327 75 385 76 389 77 349 78 387 82 329 83 343 
611 0.21657879058080162 -0.2529723791019058 0.8139952074904171 165 152 152 0.28 74 328 75 386 76 390 77 350 78 388 79 419 80 438 81 440 82 330 83 344 84 362 85 356 86 335 87 306 88 395 89 398 
612 0.42637699984169253 -0.06897214805522836 0.8998402346804191 85 75 69 0.7 74 329 75 387 76 391 77 351 78 389 79 420 80 439 81 441 82 331 83 345 84 363 87 307 88 396 89 399 
613 0.25456404568273033 0.16392718909627027 0.43261846675347765 183 198 183 0.35 74 330 75 388 76 392 83 346 
614 -0.06438954082257746 0.016414226876541493 0.625081018818078 112 127 139 1.26 74 331 75 389 76 393 77 352 83 347 88 397 89 400 
615 0.1596793821177823 0.03929027874184339 0.3436908993098869 162 179 127 0.66 74 332 75 390 76 394 77 353 
616 0.19115104115048498 0.11107072195866975 0.41414664785193717 65 70 38 0.8 74 333 75 391 76 395 77 354 78 390 83 348 
617 0.11414194603234076 -0.05005161133156812 0.4484508414924776 82 82 80 0.4 74 334 75 392 76 396 77 355 82 332 
618 0.21341638517368822 0.10932525942159187 0.42259351787226646 46 57 21 0.71 74 335 75 393 76 397 77 356 78 391 82 333 83 349 
619 0.309868054086022 -0.1744173898443978 0.8634175918478888 95 116 126 0.57 76 398 77 357 78 392 79 421 80 440 81 442 82 334 83 350 84 364 85 357 86 336 87 308 88 398 89 401 
620 0.03622374449484815 -0.22583095401604092 0.708938973169242 170 160 149 0.84 74 336 75 394 76 399 77 358 78 393 79 422 82 335 83 351 88 399 89 402 
621 0.48223178022213087 -0.14125738592691595 0.9619389679610247 205 218 239 0.74 74 337 75 395 76 400 77 359 78 394 79 423 80 441 81 443 82 336 83 352 84 365 85 358 86 337 87 309 88 400 89 403 
622 -0.16248204192761875 -0.1683535865201056 0.5811310192932065 134 135 139 0.75 74 338 75 396 76 401 77 360 88 401 89 404 
623 0.256022049225479 0.1708874853059632 0.41164859323944125 189 205 175 0.46 74 339 75 397 76 402 
624 0.6586772821351254 -0.2159498852144644 1.0721781461710358 73 76 79 0.42 74 340 75 398 76 403 77 361 78 395 79 424 80 442 81 444 84 366 85 359 86 338 87 310 88 402 89 405 
625 0.25693602386507486 0.19056543319634345 0.5385930312244914 22 21 17 0.43 74 341 75 399 76 404 77 362 78 396 
626 -0.08515042219695784 -0.1430558317226743 0.6364512573332328 145 179 208 0.65 74 342 75 400 76 405 77 363 82 337 83 353 88 403 89 406 
627 0.2995390666246706 0.12956791195286618 0.6051514262642671 69 98 56 1.08 76 406 77 364 78 397 79 425 
628 0.11457684617044904 -0.011681817610620945 0.39280596859909983 105 128 97 1.33 74 343 75 401 76 407 77 365 
629 0.1946084135404049 0.032823559501341755 0.33630510281210746 127 140 92 0.43 74 344 75 402 76 408 77 366 
630 0.2035980120224649 0.03504745167105358 0.3421690984497905 101 126 40 0.34 74 345 75 403 76 409 77 367 
631 0.1761213948321299 0.025254443809668535 0.3402896846621748 101 114 46 0.44 74 346 75 404 76 410 77 368 
632 0.12047470168467612 -0.2365350383548489 0.7673761726011392 135 141 150 0.78 74 347 75 405 76 411 77 369 78 398 79 426 80 443 81 445 82 338 83 354 87 311 88 404 89 407 
633 0.2933637320009144 -0.15412491946656937 0.853735665933166 201 216 234 0.52 76 412 77 370 78 399 79 427 80 444 81 446 82 339 83 355 84 367 85 360 86 339 87 312 88 405 89 408 
634 0.22620928747359775 -0.002255394211173681 0.46684545899486746 65 85 34 0.93 74 348 76 413 77 371 78 400 82 340 83 356 
635 0.28981555680373555 0.16986350855783344 0.4354227517716115 52 48 32 0.64 74 349 75 406 76 414 83 357 
636 0.45474501556588925 -0.11427146457913573 0.9454741944367172 139 162 185 0.73 75 407 76 415 77 372 78 401 79 428 80 445 81 447 82 341 84 368 86 340 87 313 88 406 89 409 
637 0.041740885588632745 -0.2481776499458978 0.7170379257553297 178 178 179 0.74 74 350 75 408 76 416 77 373 78 402 79 429 82 342 83 358 88 407 89 410 
638 0.44275285583941787 0.06735893530715532 0.9015283505814642 149 167 185 0.82 76 417 77 374 78 403 79 430 80 446 81 448 82 343 88 408 89 411 
639 0.09342585887084767 0.00028021241079371405 0.3849540358308433 82 99 64 0.69 74 351 75 409 76 418 77 375 
640 0.5459053992621343 -0.2168608906602982 0.9985409386347622 61 48 48 0.39 74 352 75 410 76 419 77 376 78 404 79 431 80 447 81 449 84 369 85 361 86 341 87 314 88 409 89 412 
641 0.3076850858811534 0.1767503450220487 0.4333507000798393 54 47 39 1.26 74 353 75 411 76 420 
642 -0.05508239203776448 -0.07256445886525452 0.6282300176828935 145 141 135 0.51 74 354 75 412 76 421 77 377 83 359 88 410 89 413 
643 0.21347679242525952 -0.04372696739210005 0.4554804473641171 167 166 97 0.64 74 355 75 413 76 422 77 378 78 405 82 344 83 360 
644 -0.026729891310013416 -0.24936804065747675 0.6819627732967372 28 25 26 0.44 74 356 75 414 76 423 77 379 78 406 82 345 83 361 88 411 89 414 
645 -0.027354493145892396 -0.11870951316091838 0.662173191968799 137 143 156 0.57 74 357 75 415 76 424 82 346 83 362 88 412 
646 -0.010533323013857662 0.12726862346796888 0.6211981782402107 28 20 20 0.75 74 358 75 416 76 425 77 380 83 363 
647 0.47404304619954757 -0.10842994502853909 0.9554757210853426 65 78 88 0.76 75 417 76 426 77 381 78 407 79 432 80 448 81 450 82 347 83 364 84 370 85 362 86 342 87 315 88 413 89 415 
648 0.2725365973806093 -0.20406379071299363 0.8517863063676536 175 188 209 0.47 74 359 75 418 76 427 77 382 78 408 79 433 80 449 81 451 82 348 83 365 84 371 85 363 86 343 87 316 88 414 89 416 
649 0.30384414549696104 0.1707142464068156 0.46785676148761807 69 89 51 0.73 74 360 75 419 76 428 83 366 
650 0.2199885204782033 0.11832406804379673 0.39054363376853596 154 156 125 1.48 74 361 75 420 76 429 77 383 82 349 83 367 
651 0.6529242391274712 -0.21625573759200722 1.0698188605287307 58 46 46 0.34 74 362 75 421 76 430 77 384 78 409 79 434 80 450 81 452 84 372 85 364 86 344 87 317 88 415 89 417 
652 -0.10776260919984182 0.03503651880368193 0.45060237456122276 154 131 121 0.36 74 363 75 422 76 431 
653 -0.20845062989594274 -0.10726221291573429 0.549426104103255 38 29 19 1.27 74 364 75 423 76 432 
654 0.1489901792442723 -0.21779081836327774 0.7742632979037956 85 74 89 0.55 74 365 75 424 76 433 77 385 78 410 79 435 80 451 81 453 82 350 83 368 85 365 86 345 87 318 88 416 89 418 
655 0.3230077385851439 0.17107712466396244 0.4589523486382493 119 144 133 0.74 74 366 75 425 76 434 83 369 
656 0.35266996462702055 -0.11520748252652142 0.8641667123540892 137 144 158 0.54 75 426 76 435 77 386 78 411 79 436 80 452 81 454 82 351 83 370 84 373 85 366 86 346 88 417 89 419 
657 0.23844438837353799 0.11410576255587897 0.45350594044706244 202 194 65 0.69 74 367 75 427 76 436 77 387 78 412 82 352 83 371 
658 0.46428771382623374 -0.1655360632232849 0.9590593065863044 125 142 161 0.77 74 368 75 428 76 437 77 388 78 413 79 437 80 453 81 455 82 353 83 372 84 374 85 367 86 347 87 319 88 418 89 420 
659 0.2536842088613533 0.19124752167293368 0.5176163194377708 170 167 166 0.3 74 369 75 429 76 438 77 389 
660 0.17037104322856753 0.10561786155964151 0.43591618668385373 56 79 31 0.86 74 370 75 430 76 439 77 390 78 414 82 354 83 373 
661 0.2061636591856835 0.15816218690402278 0.4598961252839618 153 171 59 0.84 74 371 75 431 76 440 77 391 82 355 83 374 
662 0.0823794561842993 -0.21118870605338597 0.7315099305490358 151 153 165 0.54 74 372 75 432 76 441 77 392 78 415 79 438 80 454 82 356 83 375 88 419 89 421 
663 -0.08671459851086943 -0.19469934397993596 0.6390724958539781 165 188 213 0.64 74 373 75 433 76 442 77 393 83 376 88 420 89 422 
664 0.14807825714902492 0.027769632878737627 0.35026501735184223 81 100 50 0.36 74 374 75 434 76 443 77 394 
665 0.49247249643575697 0.011316098167720836 0.9260106607301788 72 75 78 0.89 75 435 76 444 77 395 78 416 79 439 80 455 81 456 82 357 86 348 87 320 88 421 89 423 
666 0.10128822956287431 -0.23670562838042927 0.7549842057823974 116 123 132 0.55 74 375 75 436 76 445 77 396 78 417 79 440 80 456 81 457 82 358 83 377 88 422 89 424 
667 0.28859472560212646 -0.258923981186793 0.8577938776800933 155 149 148 0.38 74 376 75 437 76 446 77 397 78 418 79 441 80 457 81 458 82 359 83 378 84 375 85 368 86 349 87 321 88 423 89 425 
668 0.12270597094398544 -0.027282889786830408 0.4612731867849472 84 110 77 1.13 74 377 75 438 76 447 77 398 82 360 83 379 
669 0.19229399069829026 0.02873754398950462 0.3292441497583624 172 172 151 0.43 74 378 75 439 76 448 77 399 
670 0.23941426311181885 -0.0032457681821006054 0.47012791192990533 141 155 115 0.83 74 379 76 449 77 400 78 419 82 361 83 380 
671 0.28075074444844594 0.1723805915081973 0.5589035438463262 159 166 158 1.68 74 380 76 450 77 401 79 442 
672 0.24969690101447214 0.02368270872314984 0.4026780767976859 185 203 60 1.02 74 381 75 440 76 451 77 402 78 420 
673 0.22352178389065067 0.032041284426728184 0.37173664413694546 209 225 198 0.36 74 382 75 441 76 452 77 403 
674 0.5603861551952971 -0.2661705634408188 0.993757020297161 67 64 74 0.43 74 383 75 442 76 453 77 404 78 421 79 443 80 458 81 459 84 376 85 369 86 350 87 322 88 424 89 426 
675 0.4558943754768216 -0.22324513181409084 0.9539188837056982 51 39 40 0.53 74 384 75 443 76 454 77 405 78 422 79 444 80 459 81 460 82 362 83 381 84 377 85 370 86 351 87 323 88 425 89 427 
676 0.26287185602376695 0.044549344240208774 0.37652534737538557 187 202 190 1.63 75 444 77 406 
677 0.20075365298415662 0.1708558952843048 0.41910668913252536 82 71 64 0.39 74 385 75 445 76 455 83 382 
678 -0.1948088101666737 -0.03477534239208975 0.5328170154686256 95 79 79 1.44 74 386 75 446 76 456 82 363 83 383 89 428 
679 -0.12198103668663568 0.03440935437946551 0.5424399577398568 128 125 121 0.13 75 447 76 457 77 407 
680 -0.1378575023232636 0.0065050331866376545 0.5538425683309064 68 63 67 0.92 74 387 75 448 76 458 77 408 82 364 89 429 
681 0.049502476671722216 0.13743820685447328 0.5732922153117574 46 48 33 0.5 74 388 75 449 76 459 77 409 
682 0.47798476560168274 -0.16630860776217465 0.965072134662218 134 152 169 0.76 74 389 75 450 76 460 77 410 78 423 79 445 80 460 81 461 82 365 83 384 84 378 85 371 86 352 87 324 88 426 89 430 
683 -0.1930415509793212 -0.12067241899949324 0.571222328783973 110 130 150 0.92 74 390 75 451 76 461 77 411 88 427 89 431 
684 0.629938726776774 -0.06154439464014977 1.01729081452783 126 128 125 0.52 74 391 75 452 76 462 77 412 78 424 79 446 84 379 85 372 86 353 87 325 88 428 89 432 
685 -0.19847328517573862 -0.02445195907836396 0.5294115778058426 26 19 16 0.95 74 392 75 453 76 463 82 366 89 433 
686 -0.0304577998633853 0.056797465374534256 0.6290695435273523 107 120 118 1.08 74 393 75 454 76 464 83 385 88 429 89 434 
687 0.485552358186935 0.09662574772636025 0.9178597817471139 116 114 128 1.14 75 455 76 465 77 413 78 425 79 447 80 461 81 462 82 367 83 386 84 380 87 326 
688 0.16562611184542994 0.08730261592439705 0.44806136181803013 49 49 40 0.42 74 394 75 456 76 466 77 414 78 426 82 368 83 387 
689 -0.20206784355409896 -0.09844667040976693 0.5660455270822445 79 52 48 1.48 74 395 75 457 76 467 88 430 
690 0.2700228899609453 -0.2037527485278564 0.8500261630925721 147 172 190 0.59 74 396 75 458 76 468 77 415 78 427 79 448 80 462 81 463 82 369 83 388 84 381 85 373 86 354 87 327 88 431 89 435 
691 0.18553824219681 0.00815593120117202 0.3448299885737081 222 232 219 0.87 74 397 75 459 76 469 77 416 
692 0.2719697233806417 0.1644147620960643 0.42715512517546894 38 52 31 0.35 74 398 75 460 76 470 83 389 
693 0.4728755778902265 0.10262229981475393 0.910197072536482 48 52 49 1.37 75 461 76 471 77 417 78 428 79 449 80 463 81 464 82 370 83 390 84 382 86 355 88 432 
694 0.2091803797750557 0.10697791703974152 0.43927498109981805 114 131 63 0.85 74 399 75 462 76 472 77 418 78 429 82 371 83 391 
695 0.33019902923888217 0.12576532794299367 0.8188776101955835 47 34 35 1.12 75 463 76 473 77 419 78 430 79 450 80 464 81 465 82 372 83 392 84 383 85 374 86 356 
696 0.10257187861350371 -0.017284486848539206 0.38690330037957227 140 163 145 0.75 74 400 75 464 76 474 77 420 
697 0.486058419588295 -0.009345385227512912 0.9246772599287162 171 172 176 0.42 75 465 76 475 77 421 78 431 79 451 80 465 87 328 88 433 89 436 
698 0.3073409708286398 0.160116012022943 0.5296049977690032 18 24 17 0.68 75 466 76 476 77 422 78 432 
699 0.46094006868423265 -0.1604123664799779 0.9561311691985043 140 169 191 0.77 74 401 75 467 76 477 77 423 78 433 79 452 80 466 81 466 82 373 83 393 84 384 85 375 86 357 87 329 88 434 89 437 
700 -0.021724502409486656 -0.16494803336816813 0.6703435502244666 83 85 102 0.37 74 402 75 468 76 478 77 424 82 374 83 394 88 435 89 438 
701 -0.04643817091838319 -0.01863425631913139 0.6216231491854092 35 29 23 1.01 74 403 75 469 76 479 83 395 88 436 89 439 
702 -0.0656588244035603 0.0036228154664317645 0.628387766439287 92 103 105 1.13 74 404 75 470 76 480 83 396 88 437 89 440 
703 -0.016394999691285786 0.0940101587795305 0.6257259339690844 114 123 132 1.17 74 405 75 471 76 481 83 397 88 438 89 441 
704 -0.02559366788900656 -0.11522352231712574 0.6619016887954268 172 190 207 0.5 74 406 75 472 76 482 82 375 83 398 88 439 
705 0.030614593664190514 0.12399589970751532 0.6226245953105474 27 28 28 1.25 74 407 75 473 76 483 77 425 83 399 
706 -0.0916482060884483 -0.10085425040122882 0.6162448462334026 110 106 102 0.46 74 408 75 474 76 484 77 426 82 376 83 400 88 440 89 442 
707 -0.08674920658405218 -0.17345128896453238 0.6405015486693892 169 190 215 0.57 74 409 75 475 76 485 77 427 83 401 88 441 89 443 
708 0.29906893470146323 0.17089124374459636 0.4595786793076991 167 185 177 0.38 74 410 75 476 76 486 83 402 
709 0.4802391537868481 -0.16646673528045314 0.96585910635426 179 202 222 0.83 74 411 75 477 76 487 77 428 78 434 79 453 80 467 81 467 82 377 83 403 84 385 85 376 86 358 87 330 88 442 89 444 
710 0.3023072950299296 0.0877323282773687 0.8241067152324903 107 116 124 1.61 76 488 77 429 78 435 79 454 80 468 81 468 82 378 83 404 84 386 85 377 86 359 
711 0.32479818947377065 -0.08037427813462443 0.8406385359017087 155 161 109 0.45 76 489 77 430 78 436 79 455 80 469 81 469 82 379 83 405 84 387 85 378 88 443 89 445 
712 0.3171664927805934 -0.23363409159310894 0.8691298712554698 49 42 43 0.37 74 412 75 478 76 490 77 431 78 437 79 456 80 470 81 470 82 380 83 406 84 388 85 379 86 360 87 331 88 444 89 446 
713 0.022872839048139793 -0.2837823105761182 0.6950574851465335 47 51 54 0.63 74 413 75 479 76 491 77 432 82 381 83 407 88 445 89 447 
714 0.27605639150773337 0.13816205423697034 0.6031959389636901 52 65 42 0.6 75 480 76 492 77 433 78 438 79 457 
715 -0.057791725470407555 -0.01944937400634255 0.6128621432313057 60 54 52 0.69 74 414 75 481 76 493 77 434 88 446 89 448 
716 0.3791314310986438 0.14561586825031583 0.8263628118192496 99 121 78 1.32 74 415 75 482 76 494 77 435 78 439 79 458 82 382 85 380 86 361 
717 0.09370961921227103 -0.024814733794498122 0.37590355382117097 150 159 119 1.22 74 416 75 483 76 495 77 436 
718 0.04201371806179142 0.12099240442485436 0.39079441503016604 150 145 137 0.67 74 417 75 484 76 496 77 437 83 408 
719 0.21396768429122381 0.11968591090763052 0.39207581045002193 126 140 98 1.62 74 418 75 485 76 497 77 438 78 440 82 383 83 409 
720 0.6104409068189103 -0.026473925463410156 0.9990878383070437 126 115 126 0.53 74 419 75 486 76 498 77 439 85 381 86 362 87 332 88 447 89 449 
721 -0.056351856205391695 -0.07101863654135247 0.6270756906862608 113 102 100 0.55 74 420 75 487 76 499 77 440 83 410 88 448 89 450 
722 0.22668412241872382 -0.08413445465988963 0.48990203734522464 154 178 147 0.9 74 421 75 488 76 500 77 441 
723 0.09434950386810598 0.027469684657611664 0.4178263401036635 71 90 34 0.47 74 422 75 489 76 501 77 442 
724 0.3161525093545413 0.1210695883781522 0.6383544117246835 83 90 72 0.07 75 490 76 502 77 443 78 441 
725 0.1759224382842808 0.017014895547336963 0.3466805287004118 87 98 53 1.03 74 423 75 491 76 503 77 444 
726 0.6547294596606483 -0.2344228833451778 1.073450324640902 127 92 93 0.45 74 424 75 492 76 504 77 445 78 442 79 459 80 471 81 471 84 389 85 382 86 363 87 333 88 449 89 451 
727 -0.0689683373767477 -0.1697692590980076 0.6534462989052807 81 87 89 0.44 74 425 75 493 76 505 77 446 82 384 83 411 88 450 89 452 
728 0.24966313087454242 0.020008642616168415 0.4022930633798546 143 164 118 1.09 74 426 75 494 76 506 77 447 78 443 
729 0.16923711362312627 0.13197493548567665 0.43957893222090927 29 25 19 0.91 74 427 75 495 76 507 77 448 78 444 83 412 
730 -0.15500779341925108 -0.12527652580288973 0.5858296664996857 126 132 137 0.76 74 428 75 496 76 508 77 449 83 413 88 451 89 453 
731 0.07075974574967674 0.13358140857412748 0.6360730162800419 102 113 99 0.52 74 429 75 497 76 509 77 450 82 385 
732 0.28075074444844594 0.1723805915081973 0.5589035438463262 159 166 158 1.68 74 430 76 510 77 451 79 460 
733 0.0987497205985482 -0.022621710035710785 0.37516236392050134 114 138 100 1.28 74 431 75 498 76 511 77 452 
734 0.21001609223176793 0.026746748376671275 0.35521171625919956 44 59 27 0.62 74 432 75 499 76 512 77 453 
735 0.026546744794432534 -0.15312048365753408 0.681298138817771 58 60 81 0.78 74 433 75 500 76 513 82 386 83 414 88 452 89 454 
736 0.2000057067448545 0.04608395430378645 0.3689343362446384 97 102 82 0.48 74 434 75 501 76 514 77 454 
737 -0.021235455397941697 -0.22987531199186925 0.680373940090355 134 77 59 0.42 74 435 75 502 76 515 77 455 78 445 82 387 83 415 88 453 89 455 
738 0.3496749580878092 0.09054613022131079 0.8228488177128449 146 142 150 0.65 76 516 77 456 78 446 79 461 80 472 81 472 82 388 83 416 84 390 85 383 86 364 
739 0.3507357893488849 0.13209577824019259 0.8193878961490838 131 115 119 1.11 75 503 76 517 77 457 78 447 79 462 80 473 81 473 82 389 83 417 84 391 85 384 86 365 
740 -0.017670128975633383 0.04450524992906949 0.461287160512648 61 78 40 0.31 74 436 75 504 76 518 77 458 
741 0.23513591227938213 0.18261616520601368 0.47828158392546927 121 112 108 0.33 74 437 75 505 76 519 
742 0.16290421086082232 0.08166930420733892 0.45071951238671876 73 69 65 0.78 74 438 75 506 76 520 77 459 78 448 82 390 83 418 
743 -0.046902136747298755 0.016394541386684364 0.6348275975562871 72 82 78 1.05 74 439 75 507 76 521 83 419 88 454 89 456 
744 0.47117191007195053 -0.1978726477168486 0.9674154554825618 76 82 85 0.69 74 440 75 508 76 522 77 460 78 449 79 463 80 474 81 474 82 391 83 420 84 392 85 385 86 366 87 334 88 455 89 457 
745 0.23628107089266995 0.1118090262074475 0.4517726280866449 30 38 21 0.49 74 441 75 509 76 523 77 461 78 450 82 392 83 421 
746 0.04089378962311588 0.1420483407645628 0.621509375670933 31 31 33 0.41 74 442 75 510 76 524 77 462 
747 0.18818401095472254 0.023585152359842976 0.3347694928554026 107 122 92 0.47 74 443 75 511 76 525 77 463 
748 0.2943180072916824 0.1729564351317922 0.43222427004616887 160 184 144 0.86 74 444 75 512 76 526 
749 0.47558980107953025 -0.09456620469408429 0.9540861049918141 36 32 34 0.71 75 513 76 527 77 464 78 451 79 464 80 475 81 475 82 393 84 393 85 386 86 367 87 335 88 456 89 458 
750 0.47454942876528955 -0.11995279176507931 0.9566472873661712 53 68 76 0.83 74 445 75 514 76 528 77 465 78 452 79 465 80 476 81 476 82 394 83 422 84 394 85 387 86 368 87 336 88 457 89 459 
751 0.027259483552356745 -0.09877829749485385 0.6694531636462768 98 105 86 0.67 74 446 75 515 76 529 82 395 83 423 88 458 
752 -0.07992221652991914 0.037081602645070134 0.5928904201007561 49 33 35 0.7 74 447 75 516 76 530 77 466 88 459 89 460 
753 0.47657655612121674 -0.11068483428841991 0.9557657908934216 57 77 90 0.83 75 517 76 531 77 467 78 453 79 466 80 477 81 477 82 396 83 424 84 395 85 388 86 369 87 337 88 460 89 461 
754 0.4822641584687951 -0.1390541791622175 0.9614402448403907 185 206 229 0.77 74 448 75 518 76 532 77 468 78 454 79 467 80 478 81 478 82 397 83 425 84 396 85 389 86 370 87 338 88 461 89 462 
755 0.20629065163490387 0.10742680190933337 0.44033102577477923 153 168 128 0.92 74 449 75 519 76 533 77 469 78 455 82 398 83 426 
756 0.20877470405683035 0.033718988480500374 0.34376935346682264 220 202 140 0.85 74 450 75 520 76 534 77 470 
757 -0.0008529664731117451 0.1434296626752875 0.6128133488913575 63 62 52 0.26 74 451 75 521 76 535 77 471 
758 0.46085487343086384 -0.1144842529912267 0.9494123404923361 170 192 213 0.71 75 522 76 536 77 472 78 456 79 468 80 479 81 479 82 399 84 397 86 371 87 339 88 462 89 463 
759 -0.15903167779505792 -0.06416954229381716 0.5684257162076758 69 72 75 0.49 74 452 75 523 76 537 77 473 82 400 88 463 89 464 
760 0.08988855581861492 -0.24508790481336465 0.7442974980669667 46 40 44 0.46 74 453 75 524 76 538 77 474 78 457 79 469 80 480 82 401 83 427 88 464 89 465 
761 0.21954222333930487 -0.21229789262189158 0.8128921497789238 121 135 155 0.53 74 454 75 525 76 539 77 475 78 458 79 470 80 481 81 480 82 402 83 428 84 398 85 390 86 372 87 340 88 465 89 466 
762 -0.08847545441733824 -0.14632704801970253 0.6298290928588185 70 61 73 0.71 74 455 75 526 76 540 77 476 82 403 83 429 88 466 89 467 
763 0.17695326165705713 0.004456769857125844 0.34003697954734746 122 130 86 0.59 74 456 75 527 76 541 77 477 
764 0.32317728702661125 -0.12312844652937636 0.854181035276508 91 80 88 0.51 75 528 76 542 77 478 78 459 79 471 80 482 81 481 82 404 83 430 84 399 85 391 86 373 88 467 89 468 
765 0.17930354424638895 0.1183781173034702 0.42459149544364533 75 88 44 1.05 74 457 75 529 76 543 77 479 78 460 82 405 83 431 
766 0.23796170752914797 -0.015865891168169107 0.47465752968943986 59 78 20 1.24 74 458 75 530 76 544 77 480 78 461 82 406 83 432 
767 0.12332706133684723 -0.05264042026431748 0.4401298792456547 69 88 65 0.95 74 459 75 531 76 545 77 481 83 433 
768 0.2624446207682188 0.16266669213052792 0.42843869978282023 119 132 103 0.44 74 460 75 532 76 546 83 434 
769 -0.04302740373547129 0.04227135518743872 0.6266585074432829 122 134 140 0.56 74 461 75 533 76 547 88 468 89 469 
770 0.5512412157584518 0.05070301618312796 0.7205877884669927 111 117 103 1.85 75 534 76 548 77 482 80 483 84 400 
771 0.7029960559736692 -0.20597745366917564 1.098377514426006 136 122 124 0.56 74 462 75 535 76 549 77 483 78 462 79 472 80 484 81 482 84 401 85 392 86 374 87 341 88 469 89 470 
772 0.6531280832516894 -0.2114418940666429 1.0706416223345383 36 29 34 0.29 74 463 75 536 76 550 77 484 78 463 79 473 80 485 81 483 84 402 85 393 86 375 87 342 88 470 89 471 
773 0.207388185150097 0.10774809849190688 0.4353655431080879 83 90 48 0.97 74 464 75 537 76 551 77 485 78 464 82 407 83 435 
774 0.5838650740628077 0.0010348549265808877 0.9824785548272936 136 122 123 0.62 75 538 76 552 77 486 85 394 86 376 87 343 88 471 89 472 
775 0.21532460800462108 0.18792876301365027 0.498422403482778 130 117 116 0.65 74 465 75 539 76 553 83 436 
776 0.2856153474842364 0.16822242812164864 0.4374235212075128 77 88 41 0.6 74 466 75 540 76 554 83 437 
777 0.11175775193731649 -0.090127798173792 0.4786016556246984 90 121 40 0.81 74 467 75 541 76 555 77 487 
778 0.4948749032491908 0.011445979111406528 0.9266341019461183 76 83 89 0.85 75 542 76 556 77 488 78 465 79 474 80 486 81 484 82 408 86 377 87 344 88 472 89 473 
779 -0.18058252373691483 -0.027499835463795603 0.5426631417742015 93 79 82 1.02 74 468 75 543 76 557 82 409 89 474 
780 0.3027082873531255 0.17002485681788243 0.46845390202082715 162 176 160 1.13 74 469 75 544 76 558 83 438 
781 0.3047032284275412 -0.261062661048973 0.8660219604576549 124 115 116 0.45 74 470 75 545 76 559 77 489 78 466 79 475 80 487 81 485 82 410 83 439 84 403 85 395 86 378 87 345 88 473 89 475 
782 0.16385418799475365 0.08036080449398204 0.4504311406181818 143 152 158 0.6 74 471 75 546 76 560 77 490 78 467 82 411 83 440 
783 0.3316913864708458 -0.08032126372282514 0.8434472453114455 139 134 144 0.32 75 547 76 561 77 491 78 468 79 476 80 488 81 486 82 412 83 441 84 404 85 396 88 474 89 476 
784 0.32265923686903974 -0.09418479458482627 0.8494786797371999 72 58 68 0.45 76 562 77 492 78 469 79 477 80 489 81 487 82 413 83 442 84 405 85 397 88 475 89 477 
785 0.3131991472993512 0.14810595685724337 0.5217408447331005 44 51 51 1.04 74 472 75 548 76 563 77 493 79 478 
786 0.024685593284287228 -0.16041294851228874 0.6821169952978003 67 73 72 0.99 74 473 75 549 76 564 82 414 83 443 88 476 89 478 
787 0.28548114164766825 0.13716310953481275 0.8162273455706084 153 183 194 1.37 76 565 77 494 78 470 79 479 81 488 82 415 85 398 
788 0.20939447386259835 0.04697411846351978 0.36494343036301913 174 183 142 0.43 74 474 75 550 76 566 77 495 
789 0.3754166844611313 -0.14572586027977155 0.8842009286170541 173 177 185 0.47 75 551 76 567 77 496 78 471 79 480 80 490 81 489 82 416 83 444 84 406 85 399 86 379 87 346 88 477 89 479 
790 -0.06970089072662738 -0.1678545144352837 0.6521051591080845 50 61 65 0.42 74 475 75 552 76 568 77 497 82 417 83 445 88 478 89 480 
791 0.30317411866692545 0.17057760730662855 0.45000861172417744 171 188 181 0.63 74 476 75 553 76 569 83 446 
792 0.42658467643376713 0.03509325071251976 0.8825679199418582 79 83 76 1.02 77 498 78 472 79 481 80 491 81 490 82 418 83 447 84 407 88 479 89 481 
793 0.800721975443044 -0.09349388392043192 1.1510136262643238 157 174 196 0.43 75 554 79 482 80 492 81 491 84 408 85 400 86 380 87 347 88 480 89 482 
794 0.8304279609183541 0.13480600301609988 0.7847146807544884 17 26 18 1.73 84 409 85 401 86 381 87 348 88 481 89 483 
795 0.7979021129885706 0.09026774298821821 0.8207952207771291 37 52 52 0.55 87 349 88 482 89 484 
796 0.08221673668135067 -0.24726165617847112 0.7383424440185798 27 29 32 0.85 74 477 75 555 76 570 77 499 78 473 79 483 80 493 82 419 83 448 88 483 89 485 
797 0.488238798446835 -0.222568212209451 0.9689013692843405 63 55 55 0.42 74 478 75 556 76 571 77 500 78 474 79 484 80 494 81 492 82 420 83 449 84 410 85 402 86 382 87 350 88 484 89 486 
798 0.08560744708897554 -0.24317973624641936 0.7432846461230102 19 17 18 0.74 74 479 75 557 76 572 77 501 78 475 79 485 80 495 82 421 83 450 88 485 89 487 
799 0.6456426064721138 0.005102039404671387 0.7206770073881035 103 114 76 1.3 78 476 79 486 84 411 86 383 87 351 88 486 89 488 
800 0.02787692198432815 -0.2822286284573243 0.6989220908049849 22 23 26 1.04 75 558 76 573 77 502 82 422 83 451 88 487 89 489 
801 0.09786772084920049 -0.1341173636164411 0.7438279317751819 59 65 73 1.25 79 487 80 496 82 423 83 452 88 488 89 490 
802 0.6198082185951324 -0.09038266000603819 1.0364424311754314 110 156 185 0.58 74 480 75 559 76 574 77 503 78 477 79 488 81 493 84 412 85 403 86 384 87 352 88 489 89 491 
803 0.8222947999098473 -0.1947583286615475 1.1723601578175424 108 108 112 0.43 75 560 78 478 79 489 80 497 81 494 84 413 85 404 86 385 87 353 88 490 89 492 
804 0.8844952140775604 -0.10132059762725529 1.1862945864956764 158 157 157 0.44 79 490 80 498 81 495 84 414 85 405 86 386 87 354 88 491 89 493 
805 0.7706564918477619 -0.11772905346351112 1.128259516492648 34 39 50 0.7 75 561 76 575 79 491 80 499 81 496 84 415 85 406 86 387 87 355 88 492 89 494 
806 0.49225603863518663 0.01140956390829539 0.9256482264443011 76 76 76 0.45 75 562 76 576 77 504 78 479 79 492 80 500 82 424 86 388 87 356 88 493 89 495 
807 0.440899054040812 -0.25226383612733244 0.9454677939802146 107 100 97 0.38 74 481 75 563 76 577 77 505 78 480 79 493 80 501 81 497 82 425 84 416 85 407 86 389 87 357 88 494 89 496 
808 0.8001040397771269 -0.16467657481152706 1.1707263234789917 218 222 216 0.36 79 494 80 502 81 498 84 417 85 408 86 390 87 358 88 495 89 497 
809 0.8275070318528288 -0.10428721139319884 1.1605831519990215 75 72 84 0.63 75 564 78 481 79 495 80 503 81 499 84 418 85 409 86 391 87 359 88 496 89 498 
810 0.4357821398255304 -0.01679871399691286 0.8976569944686702 89 88 93 0.69 75 565 76 578 77 506 78 482 79 496 80 504 81 500 82 426 88 497 89 499 
811 0.8637466435202196 -0.16713720502137738 1.1863476833869067 143 141 141 0.33 79 497 80 505 81 501 84 419 85 410 86 392 87 360 88 498 89 500 
812 0.8542678730991711 0.02052596715840526 1.1469770382514377 139 137 138 0.45 80 506 81 502 84 420 85 411 86 393 87 361 88 499 89 501 
813 0.5872408598731504 -0.12283206762116489 1.0130923345694907 150 150 152 0.43 74 482 75 566 76 579 77 507 78 483 79 498 80 507 81 503 84 421 85 412 86 394 87 362 88 500 89 502 
814 0.7328053283532299 0.020188034588571966 1.0672786557140626 122 122 106 0.73 80 508 81 504 84 422 85 413 86 395 87 363 88 501 89 503 
815 0.27134130341500046 -0.1539857956303028 0.8419890127559595 162 186 204 0.6 76 580 77 508 78 484 79 499 80 509 81 505 82 427 83 453 84 423 85 414 86 396 87 364 88 502 89 504 
816 0.5741991202965281 -0.16440514326056896 1.0086130155849398 111 63 55 0.47 74 483 75 567 76 581 77 509 78 485 79 500 80 510 81 506 83 454 84 424 85 415 86 397 87 365 88 503 89 505 
817 0.8806385519564485 -0.0006824546374786923 1.1640972175038753 86 80 85 0.46 79 501 80 511 81 507 84 425 85 416 86 398 87 366 88 504 89 506 
818 0.9569917052173258 0.11954755579756556 0.9385193318378438 18 23 20 0.26 87 367 88 505 89 507 
819 0.9383374561560202 0.13875922157723067 0.9765660339283485 23 30 28 0.8 87 368 88 506 89 508 
820 0.27147852073807155 -0.12684441619115092 0.8386359255550822 130 152 168 0.84 76 582 77 510 78 486 79 502 80 512 81 508 82 428 83 455 84 426 85 417 86 399 87 369 88 507 89 509 
821 0.635778308063485 0.016396958055004907 0.7029341451934179 70 75 67 1.38 81 509 85 418 86 400 87 370 88 508 89 510 
822 0.8550604874866437 0.014203516594558032 1.1476047045325104 137 134 135 0.39 80 513 81 510 84 427 85 419 86 401 87 371 88 509 89 511 
823 0.764527813270343 -0.06910925140330271 1.1114205184294745 63 63 72 0.6 75 568 80 514 81 511 84 428 85 420 86 402 87 372 88 510 89 512 
824 0.6247399754011165 0.022966641976144606 0.7540985607374029 66 72 69 0.75 86 403 87 373 88 511 89 513 
825 0.8543876195889927 -0.1121813608483002 1.1702297765350862 148 141 140 0.3 79 503 80 515 81 512 84 429 85 421 86 404 87 374 88 512 89 514 
826 0.4682856394997081 -0.24979630394290409 0.9627258495771147 99 86 87 0.44 74 484 75 569 76 583 77 511 78 487 79 504 80 516 81 513 82 429 84 430 85 422 86 405 87 375 88 513 89 515 
827 -0.062194108946805014 -0.04037497141601247 0.6193657709651091 107 105 107 1.63 74 485 75 570 83 456 88 514 89 516 
828 0.5934514366488285 0.0276021182545547 0.9839635421808564 151 154 157 0.65 75 571 76 584 77 512 84 431 85 423 86 406 87 376 88 515 89 517 
829 0.42911522660085766 0.04149176307690128 0.8935137022647046 112 125 141 1.13 77 513 78 488 79 505 80 517 81 514 82 430 83 457 88 516 89 518 
830 0.5981057028002857 -0.10205105428123817 1.0264462540737005 48 67 77 0.63 74 486 75 572 76 585 77 514 78 489 79 506 81 515 84 432 85 424 86 407 87 377 88 517 89 519 
831 -0.09330169225794346 -0.10549411401749481 0.6104101069546908 80 85 86 1.47 77 515 88 518 89 520 
832 0.30805971086813366 -0.25485814369538246 0.8668528927984783 101 88 85 0.71 74 487 75 573 76 586 77 516 78 490 79 507 80 518 81 516 82 431 83 458 84 433 85 425 86 408 87 378 88 519 89 521 
833 0.7691464593188845 0.029461688490553535 1.089284538489371 24 24 25 0.56 80 519 81 517 84 434 85 426 86 409 87 379 88 520 89 522 
834 0.6371683519883719 -0.23655328377210197 1.0596070473674744 109 94 93 0.41 74 488 75 574 76 587 77 517 78 491 79 508 80 520 81 518 84 435 85 427 86 410 87 380 88 521 89 523 
835 0.5923720199221422 -0.21513409803802744 1.0334235936410525 21 19 23 0.44 74 489 75 575 76 588 77 518 78 492 79 509 80 521 81 519 84 436 85 428 86 411 87 381 88 522 89 524 
836 0.8249390874033448 -0.028804100722363026 1.1337360908326202 149 148 147 0.17 80 522 81 520 84 437 85 429 86 412 87 382 88 523 89 525 
837 0.6315392512273988 -0.18348368400852738 1.0598496146275143 117 133 155 0.53 74 490 75 576 76 589 77 519 78 493 79 510 80 523 81 521 84 438 85 430 86 413 87 383 88 524 89 526 
838 0.8152550038303333 -0.1480740548374442 1.1701783461082385 133 155 182 0.57 75 577 78 494 79 511 80 524 81 522 84 439 85 431 86 414 87 384 88 525 89 527 
839 0.8613687239109024 0.08830206820795251 0.8227250613873907 73 90 52 0.85 84 440 85 432 86 415 87 385 88 526 89 528 
840 0.49699744102134286 -0.07880132294974261 0.94556820036451 132 123 120 0.47 75 578 76 590 77 520 78 495 79 512 80 525 81 523 82 432 85 433 86 416 87 386 88 527 89 529 
841 0.7712607888361761 -0.08584312807355153 1.1281728744232513 97 141 199 0.68 75 579 80 526 81 524 84 441 85 434 86 417 87 387 88 528 89 530 
842 0.6095539209406117 -0.0034182236821038367 0.8323352212022258 115 122 100 1.44 86 418 87 388 88 529 89 531 
843 0.5578951338380714 -0.2765887341653895 0.9896221473789318 49 50 65 0.55 74 491 75 580 76 591 77 521 78 496 79 513 80 527 81 525 84 442 85 435 86 419 87 389 88 530 89 532 
844 0.41392625700428465 -0.11630061576254083 0.9044061503013651 166 172 175 0.54 74 492 75 581 76 592 77 522 78 497 79 514 80 528 81 526 82 433 83 459 84 443 85 436 86 420 87 390 88 531 89 533 
845 0.7638278678340318 -0.12587785395637782 1.1260771384949186 179 198 216 0.81 75 582 76 593 79 515 80 529 81 527 84 444 85 437 86 421 87 391 88 532 89 534 
846 0.7528740389803479 -0.14163268960874975 1.112789437911057 160 160 160 0.36 74 493 75 583 76 594 79 516 80 530 81 528 84 445 85 438 86 422 87 392 88 533 89 535 
847 0.48512234854614356 -0.025058924158750627 0.9275404249978015 140 138 135 0.48 75 584 76 595 77 523 78 498 79 517 80 531 87 393 88 534 89 536 
848 0.7103352616709561 0.1514370956969543 0.7264151884580443 58 85 54 0.93 87 394 88 535 89 537 
849 0.45108314821105705 -0.1404021661817821 0.9421321332762026 102 118 138 0.27 74 494 75 585 76 596 77 524 78 499 79 518 80 532 81 529 82 434 83 460 84 446 85 439 86 423 87 395 88 536 89 538 
850 0.8083843286701679 0.023054850267659695 1.3777792122678723 96 87 79 1.34 88 537 89 539 
851 0.633955118332483 -0.10496222671531714 1.0462378822507923 167 191 213 0.44 74 495 75 586 76 597 77 525 78 500 79 519 81 530 84 447 85 440 86 424 87 396 88 538 89 540 
852 0.9264788357734267 0.1528241612445333 1.1460388305962037 67 73 72 1.75 87 397 88 539 89 541 
853 0.7731555367010073 -0.08338500424725424 1.1282475255992297 98 138 197 0.69 75 587 80 533 81 531 84 448 85 441 86 425 87 398 88 540 89 542 
854 -0.01357910479108063 -0.29705970372017304 0.6669896059392458 91 92 84 0.94 82 435 83 461 88 541 89 543 
855 0.9561921547036039 0.157044625480372 0.9946333679746879 58 76 61 0.4 87 399 88 542 89 544 
856 0.7836696858847249 -0.005862594184153546 1.1060432554600088 161 160 160 0.32 80 534 81 532 84 449 85 442 86 426 87 400 88 543 89 545 
857 0.9104933312244085 -0.032371752610370334 1.1897814179209139 150 150 154 0.47 79 520 80 535 81 533 84 450 85 443 86 427 87 401 88 544 89 546 
858 0.836092167621836 -0.07798374814312181 1.156064360640301 143 144 146 0.32 79 521 80 536 81 534 84 451 85 444 86 428 87 402 88 545 89 547 
859 0.8405701103151326 -0.15786148696669855 1.1728594948407318 131 124 122 0.55 78 501 79 522 80 537 81 535 84 452 85 445 86 429 87 403 88 546 89 548 
860 0.6784190128563277 0.017093014142364762 1.0382677437613357 122 124 122 0.35 81 536 84 453 85 446 86 430 87 404 88 547 89 549 
861 -0.03879473836178883 -0.2351923571760217 0.6733622381870938 179 214 255 1.7 74 496 82 436 83 462 88 548 89 550 
862 0.8431350707951154 -0.13058762197319063 1.1681727634952486 62 64 76 0.55 78 502 79 523 80 538 81 537 84 454 85 447 86 431 87 405 88 549 89 551 
863 0.7817653009561668 -0.20979513051807855 1.1434103680279373 88 81 82 0.66 75 588 76 598 78 503 79 524 80 539 81 538 84 455 85 448 86 432 87 406 88 550 89 552 
864 0.618927245429889 -0.10083541677652319 1.0389335050407322 67 93 103 0.32 74 497 75 589 76 599 77 526 78 504 79 525 81 539 84 456 85 449 86 433 87 407 88 551 89 553 
865 0.2864770708443635 -0.2568509490236446 0.854122359431781 112 103 100 0.61 74 498 75 590 76 600 77 527 78 505 79 526 80 540 81 540 82 437 83 463 84 457 85 450 86 434 87 408 88 552 89 554 
866 0.7762003024416927 -0.23779041791950595 1.1427937302517837 82 76 78 0.55 75 591 79 527 80 541 81 541 84 458 85 451 86 435 87 409 88 553 89 555 
867 0.6724770228233279 -0.18500576399498211 1.0719384299025776 111 114 124 0.6 74 499 75 592 76 601 77 528 78 506 79 528 80 542 81 542 84 459 85 452 86 436 87 410 88 554 89 556 
868 0.3791133496866995 -0.1803851320881952 0.892929270714566 137 148 152 0.61 75 593 76 602 77 529 78 507 79 529 80 543 81 543 82 438 83 464 84 460 85 453 86 437 87 411 88 555 89 557 
869 0.780499484624241 -0.11891923423406 1.138063582674434 30 31 36 0.24 75 594 79 530 80 544 81 544 84 461 85 454 86 438 87 412 88 556 89 558 
870 0.46456807174119535 -0.21638114981224732 0.9591905514225223 83 90 91 0.39 74 500 75 595 76 603 77 530 78 508 79 531 80 545 81 545 82 439 83 465 84 462 85 455 86 439 87 413 88 557 89 559 
871 0.6572556976242317 -0.1273637467734314 1.05663458392129 100 105 115 0.46 74 501 75 596 76 604 77 531 78 509 79 532 80 546 81 546 84 463 85 456 86 440 87 414 88 558 89 560 
872 0.777817948138677 -0.1990633849553149 1.1539987832055618 73 76 82 0.23 79 533 80 547 81 547 84 464 85 457 86 441 87 415 88 559 89 561 
873 0.9064135011532128 0.08462843572708201 1.1635989708168797 142 144 151 0.71 87 416 88 560 89 562 
874 0.6317390734434875 -0.007428504055180575 1.0135800013849119 123 122 126 0.36 74 502 75 597 84 465 85 458 86 442 87 417 88 561 89 563 
875 0.6918086535612173 -0.0978359361700592 1.0655428693144526 102 105 111 0.75 74 503 75 598 76 605 77 532 78 510 80 548 81 548 84 466 85 459 86 443 87 418 88 562 89 564 
876 0.5941426613767194 -0.1075883941181081 1.0250143358851656 143 163 182 0.45 74 504 75 599 76 606 77 533 78 511 79 534 81 549 84 467 85 460 86 444 87 419 88 563 89 565 
877 0.9039949784255357 0.10901481908256397 1.1461393437932128 113 114 117 0.72 87 420 88 564 89 566 
878 0.6517089618343851 -0.003581100367132553 1.0201034557884774 137 137 139 0.49 74 505 84 468 85 461 86 445 87 421 88 565 89 567 
879 0.43855209159779746 -0.16903889528658783 0.94012679338778 106 124 139 0.49 74 506 75 600 76 607 77 534 78 512 79 535 80 549 81 550 82 440 83 466 84 469 85 462 86 446 87 422 88 566 89 568 
880 0.9116031311964417 0.09582241502931838 1.1534916010491558 95 105 107 0.76 87 423 88 567 89 569 
881 0.8261861722653304 -0.08860457159421516 1.1563678512290103 164 173 194 0.29 79 536 80 550 81 551 84 470 85 463 86 447 87 424 88 568 89 570 
882 0.431408968619849 -0.09469757481706514 0.9221062435637116 21 21 24 0.93 75 601 76 608 77 535 78 513 79 537 80 551 81 552 82 441 83 467 84 471 85 464 87 425 88 569 89 571 
883 -0.021895354684888017 -0.25802037517791476 0.6765723147849466 77 63 64 1.53 75 602 76 609 77 536 82 442 83 468 88 570 89 572 
884 0.6317999213224698 -0.205211271338525 1.0619280166231413 95 105 121 0.36 74 507 75 603 76 610 77 537 78 514 79 538 80 552 81 553 84 472 85 465 86 448 87 426 88 571 89 573 
885 0.8057800141614594 -0.06793345265971658 1.142205994008122 178 196 218 0.13 80 553 81 554 84 473 85 466 86 449 87 427 88 572 89 574 
886 0.6099593844794281 -0.13577099871034462 1.0412214300320035 189 209 227 0.49 74 508 75 604 76 611 77 538 78 515 79 539 80 554 81 555 84 474 85 467 86 450 87 428 88 573 89 575 
887 0.7656082324349558 -0.057527143880394725 1.101394581273044 108 109 108 0.52 75 605 80 555 81 556 84 475 85 468 86 451 87 429 88 574 89 576 
