# 3D point list with one line of data per point:
#   POINT3D_ID, X, Y, Z, R, G, B, ERROR, TRACK[] as (IMAGE_ID, POINT2D_IDX)
# Number of points: 366, mean track length: 7.17
253 0.3836129572928526 0.10508891095927554 1.0668333418800189 0 0 0 0.2 21 253 33 51 44 102 50 59 77 78 164 114 172 41 213 46 
254 0.3789583637007029 0.10571393636372274 1.067778209741015 0 0 0 0.53 21 254 77 79 162 46 164 115 224 79 111 37 209 79 
255 0.3890448181954697 0.10299656740756022 1.0365031531223785 0 0 0 0.09 21 255 60 88 92 36 
256 0.3875652057366239 0.10640855032374832 1.0533286906656636 0 0 0 0.08 21 256 60 89 110 60 113 58 
257 0.38058576139108 0.10879638270378454 1.0639341071019746 0 0 0 0.16 21 257 44 103 52 36 61 24 77 80 148 103 162 47 164 116 213 47 
258 0.05772513628349984 0.08772077630114729 0.8299631034541983 0 0 0 0.31 21 258 126 14 229 19 
259 0.37869280525119 0.11323996831665917 1.0668847258614855 0 0 0 0.26 21 259 27 28 96 14 209 80 224 80 227 9 
260 -0.008414256782660385 0.08151291915050221 0.7511547919044479 0 0 0 0.21 21 260 224 81 229 20 
261 -0.005222897387611603 0.08365439580751488 0.7512433913264418 0 0 0 0.14 21 261 224 82 229 21 
262 0.37581284048933133 0.1217650859426952 1.0650744689134357 0 0 0 0.28 21 262 27 29 44 104 50 60 61 25 71 14 77 81 96 15 103 23 111 38 118 28 128 29 146 56 148 104 159 29 162 48 164 117 196 32 213 48 221 9 224 83 60 90 204 10 209 81 227 10 232 16 
263 -0.06413513818350682 0.08372340165627808 0.7059175404163205 0 0 0 0.17 21 263 224 84 229 22 
264 0.4534647416692227 0.11259917736428046 0.9559030293884256 0 0 0 0.17 21 264 33 52 44 105 50 61 61 26 157 47 60 91 77 82 118 29 146 57 148 105 162 49 164 118 176 45 213 49 
265 0.3402562823996739 0.13575535391975854 1.108481273409664 0 0 0 0.49 21 265 27 30 50 62 77 83 111 39 118 30 164 119 221 10 224 85 232 17 209 82 
266 0.36462687248928793 0.135269735576514 1.0778014411039318 0 0 0 0.42 21 266 27 31 50 63 71 15 77 84 111 40 118 31 146 58 148 106 224 86 43 6 209 83 220 12 
267 0.38975125252816184 0.13856486560056633 1.0465740400466168 0 0 0 0.41 21 267 32 32 33 53 50 64 60 92 61 27 113 59 157 48 162 50 209 84 
268 0.4639053745944112 0.12585313092140607 0.9471333582832853 0 0 0 0.2 21 268 52 37 77 85 224 87 
269 0.34043567931062285 0.14830593481899265 1.1041816209048536 0 0 0 0.56 21 269 27 32 44 106 77 86 148 107 196 33 
270 0.391154213368711 0.13930152486162456 1.0378591347686124 0 0 0 0.25 21 270 25 5 26 3 44 107 60 93 71 16 73 4 92 37 110 61 111 41 113 60 148 108 159 30 162 51 164 120 221 11 224 88 1 1 50 65 81 1 176 46 209 85 227 11 
271 0.4188672314046427 0.135697515896475 1.0092200363562556 0 0 0 0.37 21 271 32 33 33 54 44 108 92 38 111 42 220 13 224 89 
272 0.3831612484932114 0.14211783629772512 1.0577485175940526 0 0 0 0.42 21 272 25 6 50 66 52 38 111 43 146 59 148 109 157 49 162 52 172 42 61 28 118 32 209 86 227 12 
273 0.4569304135781842 0.1279013209953065 0.948331554825247 0 0 0 0.28 21 273 52 39 162 53 224 90 
274 0.36445645451534203 0.1473269359679633 1.0748147495029214 0 0 0 0.2 21 274 43 7 232 18 
275 0.36960819406969747 0.14964315928139588 1.0694782814573307 0 0 0 0.52 21 275 33 55 61 29 77 87 92 39 148 110 164 121 196 34 213 50 
276 0.3630231069380767 0.15383474735954633 1.0792889088818223 0 0 0 0.22 21 276 114 14 162 54 224 91 60 94 111 44 113 61 148 111 209 87 172 43 227 13 
277 0.3934590101648248 0.1474421565381313 1.03202935191625 0 0 0 0.44 21 277 33 56 50 67 73 5 85 30 113 62 162 55 164 122 224 92 209 88 
278 0.3714895635113403 0.1564524410085618 1.0645203148508744 0 0 0 0.23 21 278 44 109 196 35 224 93 
279 0.4355915560177725 0.1461780005425693 0.9586768648576218 0 0 0 0.29 21 279 44 110 77 88 162 56 
280 0.42608374030142915 0.1547302338983612 0.9873389518813379 0 0 0 0.61 21 280 33 57 44 111 111 45 164 123 
281 0.44817337708044436 0.14894931198373215 0.9543958516033986 0 0 0 0.4 21 281 44 112 52 40 110 62 148 112 164 124 
282 0.4226969090928975 0.15625013716423627 0.9886800957301013 0 0 0 0.42 21 282 44 113 50 68 61 30 77 89 110 63 111 46 146 60 164 125 176 47 
283 0.4132004005937627 0.1457677946214907 0.917950050894927 0 0 0 0.31 21 283 33 58 44 114 162 57 
284 0.3624226054856025 0.174174154963309 1.0751055830084912 0 0 0 0.19 21 284 44 115 60 95 73 6 111 47 164 126 209 89 217 1 
285 0.34615542166572244 0.1900812962075672 1.104016440232175 0 0 0 0.33 21 285 148 113 164 127 
286 0.3502007142761639 0.19490168859267754 1.0956937864610385 0 0 0 0.37 21 286 44 116 50 69 60 96 164 128 196 36 
287 0.36594029420420315 0.19467936471285532 1.0622718394144737 0 0 0 0.26 21 287 44 117 162 58 164 129 209 90 220 14 
288 0.3718642197225024 0.20322185579924637 1.0582723787127646 0 0 0 0.23 21 288 44 118 92 40 196 37 
289 -0.01518404660283086 -0.17932549768852207 0.8273856901347975 0 0 0 0.24 21 289 73 7 142 7 229 23 
290 -0.022433104083739254 -0.1746430689708547 0.8211817889705603 0 0 0 0.27 21 290 63 4 142 8 
291 0.13673397459286107 -0.1507497142509832 0.9685146797524635 0 0 0 0.51 21 291 26 4 96 16 148 114 159 31 221 12 
292 0.47982473717440355 -0.1541829164490053 0.9852029053088166 0 0 0 0.27 21 292 67 1 126 15 
293 0.40733422151946586 -0.1661507265721622 1.0812109290672076 0 0 0 0.23 21 293 146 61 148 115 164 130 
294 0.05665074217065168 -0.12866425021399186 0.8902314985652744 0 0 0 0.08 21 294 63 5 142 9 
295 0.4924610503208451 -0.12857482067309944 0.9719273232695727 0 0 0 0.34 21 295 77 90 103 24 
296 0.41348642932048774 -0.12746621567101513 1.0719991914785951 0 0 0 0.3 21 296 25 7 33 59 44 119 50 70 77 91 126 16 128 30 146 62 148 116 162 59 176 48 224 94 
297 0.4088174458572113 -0.12694688845407245 1.0746587466591782 0 0 0 0.27 21 297 27 33 33 60 44 120 50 71 77 92 111 48 113 63 146 63 148 117 162 60 164 131 196 38 221 13 224 95 
298 0.4765586672938293 -0.1117710457115451 0.9673206384600717 0 0 0 0.31 21 298 52 41 111 49 179 31 
299 0.39342349074325983 -0.10732993525881605 1.0977664835540588 0 0 0 0.2 21 299 43 8 60 97 113 64 
300 0.36349104380690794 -0.10148914751726346 1.1302307336054183 0 0 0 0.42 21 300 113 65 162 61 164 132 
301 0.4472101191706802 -0.07394911045898207 1.0115081256971659 0 0 0 0.23 21 301 44 121 162 62 
302 0.10286727481767903 -0.05992823139237489 0.9131120114830915 0 0 0 0.23 21 302 126 17 142 10 
303 0.42293227728864674 -0.07032704997340684 1.0434345218178547 0 0 0 0.33 21 303 52 42 77 93 85 31 92 41 96 17 110 64 113 66 126 18 146 64 148 118 159 32 164 133 172 44 176 49 
304 0.1601956740619983 -0.06399244937696795 0.9739664520440438 0 0 0 0.51 21 304 25 8 73 8 126 19 142 11 159 33 
305 0.3744746760917462 -0.07033977170157608 1.1097234219931447 0 0 0 0.17 21 305 113 67 148 119 172 45 
306 0.10346525083007344 -0.05208783870814598 0.9120317457825007 0 0 0 0.21 21 306 126 20 229 24 
307 0.34913975579398 -0.06541101793807362 1.1583487054213886 0 0 0 0.29 21 307 43 9 50 72 96 18 111 50 164 134 176 50 219 18 114 15 209 91 227 14 
308 0.43512649115072205 -0.0488541884630802 1.0292021292594984 0 0 0 0.25 21 308 44 122 77 94 111 51 148 120 146 65 209 92 
309 0.340947881682168 -0.0540907465695858 1.1612629503821725 0 0 0 0.29 21 309 25 9 26 5 27 34 44 123 60 98 67 2 71 17 73 9 77 95 85 32 92 42 96 19 103 25 110 65 111 52 118 33 126 21 127 31 148 121 159 34 162 63 164 135 176 51 181 0 196 39 219 19 221 14 224 96 232 19 1 2 65 1 128 31 209 93 220 15 
310 0.3213456950116418 -0.05254059690315032 1.187757215587747 0 0 0 0.32 21 310 26 6 60 99 73 10 77 96 148 122 164 136 224 97 
311 0.3132479730043705 -0.04506353900184847 1.2050741342348603 0 0 0 0.25 21 311 77 97 148 123 164 137 
312 0.3299258397669969 -0.04363360988108225 1.1770933874971707 0 0 0 0.16 21 312 25 10 44 124 60 100 77 98 148 124 71 18 111 53 126 22 209 94 
313 0.19669191761612534 -0.032047507690123885 0.9987395063130006 0 0 0 0.14 21 313 142 12 148 125 
314 0.4326130020551705 -0.03325751049967021 1.0293323576285922 0 0 0 0.17 21 314 26 7 33 61 146 66 148 126 158 30 162 64 164 138 224 98 50 73 77 99 128 32 209 95 
315 0.3157253226638748 -0.03710832969035199 1.1926222403141296 0 0 0 0.57 21 315 26 8 44 125 52 43 60 101 77 100 148 127 159 35 181 1 224 99 
316 0.32620123640670423 -0.03493440193286322 1.178602545473515 0 0 0 0.24 21 316 25 11 26 9 27 35 44 126 60 102 71 19 73 11 77 101 85 33 111 54 142 13 148 128 196 40 224 100 
317 0.051467058597735614 -0.01924236781611468 0.857908346340626 0 0 0 0.2 21 317 126 23 142 14 
318 0.47320232820052444 -0.022678574690109553 0.9665774664199341 0 0 0 0.38 21 318 27 36 38 10 53 12 61 31 85 34 111 55 113 68 148 129 159 36 164 139 176 52 232 20 
319 0.4657269414096243 -0.020574494780778663 0.9778227857191037 0 0 0 0.39 21 319 61 32 110 66 128 33 
320 -0.009696087382774894 -0.014621268251636682 0.7774761500227052 0 0 0 0.08 21 320 142 15 224 101 
321 0.36455042090616574 -0.02075167560351706 1.1148462656596092 0 0 0 0.08 21 321 52 44 113 69 
322 0.4721165535666275 -0.018556201746140005 0.9681020373211116 0 0 0 0.35 21 322 25 12 27 37 44 127 50 74 52 45 53 13 61 33 63 6 67 3 71 20 77 102 85 35 92 43 103 26 110 67 111 56 113 70 146 67 148 130 158 31 162 65 172 46 176 53 224 102 232 21 
323 0.18729574987723288 -0.01707416175105421 0.9855217390238069 0 0 0 0.21 21 323 148 131 159 37 
324 0.1970329082857164 -0.015450833131490448 0.9944505013911543 0 0 0 0.18 21 324 142 16 148 132 224 103 
325 0.3246748021110422 -0.013492002263003275 1.1742768409511228 0 0 0 0.33 21 325 44 128 60 103 73 12 126 24 164 140 
326 0.3874018830617455 -0.011291518238134688 1.0967509973629757 0 0 0 0.22 21 326 111 57 157 50 
327 0.4785263518181752 -0.010730553058535425 0.9505344574721197 0 0 0 0.52 21 327 38 11 103 27 110 68 172 47 220 16 
328 0.22383990712568252 0.00029023513673199537 1.0133416472704706 0 0 0 0.46 21 328 77 103 159 38 196 41 
329 0.361710026330096 0.004486783722849683 1.1285484319001766 0 0 0 0.57 21 329 92 44 127 32 148 133 164 141 
330 0.19737715403760855 0.007892139264653092 0.9869320550569498 0 0 0 0.4 21 330 142 17 148 134 164 142 
331 0.3300496676888161 0.008093096831711602 1.1696699624618778 0 0 0 0.19 21 331 77 104 148 135 164 143 224 104 
332 0.3609799076739527 0.011495367641247445 1.1243234347617737 0 0 0 0.45 21 332 92 45 111 58 164 144 
333 0.20293584107519536 0.010638440725309797 0.9917663093757241 0 0 0 0.36 21 333 110 69 148 136 164 145 
334 0.4085193681423605 0.014791514477761013 1.052791978173186 0 0 0 0.21 21 334 33 62 103 28 111 59 1 3 44 129 50 75 71 21 73 13 81 2 118 34 128 34 146 68 148 137 158 32 164 146 172 48 209 96 213 51 217 2 220 17 232 22 
335 0.2149630649903652 0.015933057457794577 1.0007586995979698 0 0 0 0.23 21 335 77 105 142 18 159 39 164 147 196 42 126 25 148 138 209 97 
336 0.3605846788093604 0.01907795084689208 1.1191150278015976 0 0 0 0.38 21 336 44 130 157 51 
337 0.3939882174389106 0.018722574709964405 1.07107666412258 0 0 0 0.17 21 337 44 131 71 22 113 71 148 139 
338 0.23651943143926737 0.01988209153080883 1.0196536385264352 0 0 0 0.11 21 338 142 19 196 43 
339 0.21523958662097253 0.027052759499739707 0.9998436534078123 0 0 0 0.28 21 339 27 38 77 106 126 26 142 20 148 140 164 148 196 44 224 105 
340 0.36388048809233425 0.034297058682080696 1.1153281732467886 0 0 0 0.35 21 340 77 107 126 27 148 141 162 66 164 149 
341 0.19786979371265181 0.03277111411603617 0.9821169617393541 0 0 0 0.19 21 341 126 28 142 21 148 142 159 40 
342 0.3659470037800433 0.03852066586557029 1.1019464488186124 0 0 0 0.43 21 342 26 10 43 10 44 132 60 104 71 23 73 14 77 108 114 16 148 143 164 150 172 49 224 106 
343 0.3620833488581738 0.04205655872020008 1.1068546120549376 0 0 0 0.4 21 343 26 11 27 39 32 34 52 46 60 105 73 15 77 109 85 36 88 0 113 72 114 17 126 29 127 33 146 69 148 144 159 41 162 67 172 50 176 54 209 98 219 20 
344 0.3691964662988845 0.05277332396071223 1.0939512266646358 0 0 0 0.42 21 344 73 16 114 18 126 30 148 145 221 15 50 76 157 52 209 99 
345 0.3221781271388591 0.05618892220296684 1.1596238868482052 0 0 0 0.32 21 345 60 106 73 17 77 110 126 31 164 151 
346 0.3619498888483683 0.055828137109838444 1.1022326115812067 0 0 0 0.15 21 346 114 19 172 51 
347 -0.031377000641192254 0.045001139510914535 0.7492507830845464 0 0 0 0.26 21 347 142 22 229 25 
348 0.36698232019969335 0.0757614748304809 1.0951476515789549 0 0 0 0.29 21 348 25 13 44 133 52 47 77 111 111 60 114 20 146 70 148 146 164 152 172 52 176 55 224 107 229 26 
349 0.32232591599666743 0.08446227998847951 1.149806880249146 0 0 0 0.6 21 349 44 134 52 48 60 107 164 153 
350 0.45417162801198413 0.06962667116922781 0.9649360316053177 0 0 0 0.18 21 350 52 49 127 34 
351 0.4150135589421204 0.07812120098844626 1.0264588420186112 0 0 0 0.21 21 351 111 61 172 53 50 77 61 34 158 33 204 11 209 100 217 3 
352 0.39199711958691813 0.08311868264567657 1.0469986353692529 0 0 0 0.18 21 352 50 78 114 21 
353 0.0859505268816061 0.07185886947931831 0.8581637100608173 0 0 0 0.54 21 353 142 23 224 108 
354 0.43021668426292825 0.0848636563967387 0.9972177531605999 0 0 0 0.09 21 354 162 68 172 54 
355 0.4264237677213305 0.08787497940789211 0.9973750680368774 0 0 0 0.19 21 355 52 50 111 62 114 22 209 101 227 15 
356 0.45975710660631386 0.08577980104930427 0.9557998627419436 0 0 0 0.05 21 356 111 63 162 69 
357 -0.06411115828861967 0.06906035578931687 0.7103874717075519 0 0 0 0.12 21 357 142 24 229 27 
358 0.20070948051956852 0.10053567656382975 0.9721987481398933 0 0 0 0.19 21 358 164 154 224 109 
359 0.21655382937836518 0.10711750933670922 0.9795543569823383 0 0 0 0.4 21 359 77 112 110 70 142 25 159 42 196 45 
360 0.20308788614547876 0.1094722534034727 0.979760560969075 0 0 0 0.2 21 360 148 147 164 155 
361 -0.06677134529749201 0.08126843410063368 0.7060739751286415 0 0 0 0.2 21 361 142 26 224 110 229 28 
362 0.39389524296317624 0.1175699503199587 1.038958722123761 0 0 0 0.32 21 362 26 12 44 135 50 79 60 108 61 35 77 113 85 37 110 71 111 64 157 53 164 156 176 56 224 111 
363 0.42626500126434436 0.11498002125135406 0.992804044411448 0 0 0 0.24 21 363 25 14 33 63 50 80 61 36 77 114 111 65 146 71 148 148 157 54 158 34 164 157 172 55 176 57 196 46 213 52 229 29 209 102 
364 -0.06667882565403269 0.0862540779412512 0.7055910415345918 0 0 0 0.17 21 364 73 18 229 30 209 103 224 112 
365 0.34858494115513844 0.13564224785680842 1.1074219253724535 0 0 0 0.41 21 365 43 11 60 109 36 13 159 43 176 58 
366 -0.06643463588710154 0.09322449291543937 0.7034848295761638 0 0 0 0.23 21 366 73 19 224 113 229 31 
367 0.41315718827844605 0.1314716306866461 1.0150765187384618 0 0 0 0.17 21 367 96 20 162 70 164 158 176 59 224 114 
368 0.4087905540764007 0.1335865170007467 1.0212448863010823 0 0 0 0.33 21 368 52 51 111 66 162 71 196 47 224 115 146 72 209 104 
369 0.3938367056419809 0.1392451301655705 1.0329841658590773 0 0 0 0.36 21 369 44 136 50 81 148 149 164 159 
370 0.43592378410561583 0.1342503368198196 0.9860254481682168 0 0 0 0.53 21 370 27 40 162 72 172 56 232 23 
371 0.41846852436769705 0.1379504997232565 0.9995761076278918 0 0 0 0.36 21 371 25 15 26 13 33 64 44 137 60 110 71 24 92 46 113 73 146 73 148 150 162 73 164 160 220 18 224 116 81 3 176 60 209 105 
372 0.38391008537379445 0.15000590926836285 1.0574966865703772 0 0 0 0.32 21 372 44 138 52 52 71 25 77 115 118 35 146 74 148 151 162 74 172 57 232 24 
373 0.45082976418725507 0.13838236365452417 0.9517173658283515 0 0 0 0.23 21 373 33 65 44 139 52 53 60 111 77 116 92 47 103 29 111 67 148 152 158 35 162 75 164 161 172 58 196 48 220 19 224 117 
374 0.3892424943643268 0.15362400801873966 1.0424539194653126 0 0 0 0.47 21 374 33 66 50 82 60 112 73 20 77 117 81 4 111 68 148 153 162 76 164 162 176 61 224 118 92 48 204 12 209 106 217 4 220 20 
375 -0.010661678063294709 0.11228440308707759 0.7346793101832679 0 0 0 0.24 21 375 63 7 142 27 224 119 
376 0.4449410352376525 0.1443142497331774 0.959809747117212 0 0 0 0.2 21 376 44 140 172 59 220 21 224 120 
377 0.14451712929053023 0.14268657507653237 0.9007353306613043 0 0 0 0.25 21 377 142 28 229 32 
378 0.21684338890843452 0.15700251076839053 0.9658844826786561 0 0 0 0.36 21 378 142 29 148 154 164 163 
379 0.3998446869636911 0.16527963734370016 1.0217986681864875 0 0 0 0.21 21 379 33 67 44 141 77 118 111 69 148 155 164 164 196 49 224 121 1 4 60 113 176 62 209 107 217 5 220 22 227 16 
380 0.20707746023800752 0.16016675886329426 0.9616147410381357 0 0 0 0.26 21 380 148 156 196 50 
381 0.36399323555562035 0.1773941904921838 1.0697197698461576 0 0 0 0.34 21 381 60 114 73 21 111 70 164 165 224 122 162 77 209 108 
382 0.3513243580898156 0.18315542881114355 1.0938601293544519 0 0 0 0.14 21 382 60 115 164 166 
383 0.34173990130788773 0.18636837080728927 1.1051150118266853 0 0 0 0.27 21 383 111 71 148 157 164 167 196 51 224 123 
384 0.4285706439310348 0.18482542699216126 0.9773371804371696 0 0 0 0.21 21 384 44 142 77 119 92 49 
385 -0.21773161506930616 -0.1931687026899479 0.6456675797476346 0 0 0 0.47 21 385 224 124 229 33 73 22 
386 -0.14655022634162818 -0.17930388098219238 0.7065895074152397 0 0 0 0.24 21 386 63 8 73 23 96 21 229 34 
387 -0.11080283693918654 -0.18685575380019465 0.7393617357996402 0 0 0 0.21 21 387 63 9 73 24 
388 -0.13672998981106238 -0.1771227634011628 0.7140543062866369 0 0 0 0.51 21 388 25 16 26 14 71 26 73 25 88 1 229 35 81 5 209 109 221 16 
389 -0.1341623989280106 -0.16650220295614337 0.7127055629327148 0 0 0 0.4 21 389 73 26 96 22 
390 0.15025713475034383 -0.18998670403010176 0.9957959718518471 0 0 0 0.26 21 390 26 15 71 27 81 6 221 17 232 25 
391 0.1495457713140964 -0.15395129695061605 0.9829453887777068 0 0 0 0.41 21 391 26 16 71 28 73 27 142 30 148 158 221 18 224 125 
392 0.4882008113895408 -0.14979397579090115 0.9721363733510455 0 0 0 0.28 21 392 71 29 103 30 
393 0.41064460326047697 -0.13303379218399944 1.0740816493476317 0 0 0 0.23 21 393 44 143 127 35 
394 0.04334138412749951 -0.07117020991013875 0.8624006403817603 0 0 0 0.17 21 394 63 10 142 31 
395 0.0643059098955755 -0.05313614039583093 0.8764189357436244 0 0 0 0.22 21 395 73 28 142 32 221 19 
396 0.41644702248154863 -0.06188152383328704 1.0517035067850908 0 0 0 0.44 21 396 60 116 146 75 114 23 179 32 209 110 
397 0.11524362873953403 -0.04724484131199423 0.9237754227257622 0 0 0 0.22 21 397 142 33 196 52 
398 0.31731297367013916 -0.062062980921813185 1.204170664556822 0 0 0 0.28 21 398 92 50 148 159 159 44 164 168 
399 0.3479105731681482 -0.03927601871199861 1.150974154090521 0 0 0 0.36 21 399 25 17 26 17 27 41 32 35 43 12 44 144 50 83 60 117 67 4 71 30 73 29 77 120 81 7 88 2 92 51 103 31 111 72 118 36 128 35 148 160 157 55 164 169 176 63 181 2 221 20 224 126 232 26 1 5 65 2 127 36 209 111 
400 -0.028758354414246096 -0.024084871053356074 0.7714899981345225 0 0 0 0.36 21 400 63 11 142 34 
401 0.20254061835912282 -0.03129045265228861 1.0013226263972899 0 0 0 0.42 21 401 26 18 110 72 164 170 
402 0.36416398797930505 -0.03427702792579281 1.1212961844993146 0 0 0 0.38 21 402 50 84 60 118 67 5 81 8 111 73 113 74 118 37 127 37 146 76 157 56 162 78 164 171 172 60 176 64 179 33 181 3 213 53 221 21 232 27 52 54 92 52 65 3 103 32 209 112 
403 0.36113279816425226 -0.029851786245765736 1.1279986934850426 0 0 0 0.25 21 403 43 13 50 85 52 55 60 119 67 6 71 31 81 9 88 3 92 53 96 23 110 73 111 74 118 38 127 38 128 36 157 57 199 0 221 22 224 127 232 28 1 6 61 37 172 61 179 34 204 13 209 113 213 54 219 21 227 17 
404 -0.010804341141414237 -0.018725930979058066 0.7781871032048021 0 0 0 0.09 21 404 63 12 142 35 
405 0.34679272153025253 -0.02477772976039141 1.1504355528428278 0 0 0 0.23 21 405 43 14 81 10 88 4 92 54 96 24 103 33 113 75 
406 0.4807620610004471 -0.018118247657225996 0.9521662023614693 0 0 0 0.62 21 406 52 56 63 13 126 32 159 45 162 79 38 12 61 38 146 77 157 58 158 36 172 62 221 23 232 29 
407 0.03754842248594337 -0.012949230449227531 0.8407796103506581 0 0 0 0.14 21 407 63 14 142 36 
408 0.11634905841307974 -0.008601727005956053 0.9132173709597167 0 0 0 0.54 21 408 142 37 196 53 224 128 
409 0.22225141689685418 -0.010147429555978903 1.015731267892705 0 0 0 0.25 21 409 77 121 142 38 159 46 196 54 229 36 
410 0.3926801570311071 -0.004144411848913576 1.0755032474791353 0 0 0 0.38 21 410 26 19 27 42 33 68 50 86 60 120 61 39 111 75 113 76 114 24 157 59 162 80 164 172 172 63 1 7 96 25 176 65 204 14 209 114 213 55 232 30 
411 0.37748109275569763 -0.0009593966644436945 1.1009292033288496 0 0 0 0.21 21 411 142 39 164 173 
412 0.43595554522509256 0.005173412894696736 1.016624586642685 0 0 0 0.32 21 412 52 57 71 32 77 122 103 34 111 76 146 78 148 161 162 81 44 145 53 14 92 55 96 26 110 74 113 77 118 39 126 33 157 60 158 37 164 174 176 66 179 35 190 2 196 55 209 115 213 56 220 23 221 24 224 129 227 18 232 31 
413 0.4235934777786019 0.008365823507036393 1.0275882743233686 0 0 0 0.21 21 413 26 20 33 69 71 33 77 123 85 38 111 77 162 82 
414 0.38748230176550863 0.0209871660105477 1.082058188530971 0 0 0 0.17 21 414 71 34 110 75 221 25 
415 0.38156515486968845 0.023584924299962142 1.0894945883768095 0 0 0 0.2 21 415 25 18 26 21 27 43 33 70 50 87 73 30 77 124 96 27 128 37 146 79 148 162 158 38 159 47 162 83 164 175 179 36 196 56 213 57 221 26 224 130 209 116 217 6 
416 -0.13221419757453007 0.025059039786919774 0.6621970517806146 0 0 0 0.3 21 416 73 31 229 37 
417 0.2284343851602809 0.04984199621544428 1.004735459919628 0 0 0 0.44 21 417 26 22 27 44 73 32 77 125 142 40 148 163 159 48 164 176 
418 0.3662509771400042 0.05949940005449176 1.0992841253441918 0 0 0 0.39 21 418 26 23 27 45 43 15 44 146 50 88 67 7 73 33 77 126 92 56 96 28 111 78 113 78 126 34 142 41 146 80 148 164 159 49 162 84 172 64 213 58 190 3 209 117 227 19 
419 0.33148504254710565 0.06434444307530755 1.1375343372495168 0 0 0 0.35 21 419 52 58 60 121 224 131 50 89 76 1 96 29 103 35 111 79 209 118 
420 0.36952979466908287 0.07025922629916784 1.0888358069473707 0 0 0 0.45 21 420 44 147 73 34 96 30 162 85 164 177 176 67 1 8 50 90 61 40 146 81 157 61 172 65 209 119 219 22 227 20 
421 0.45037624397165377 0.06233047194390004 0.9649861022290188 0 0 0 0.18 21 421 114 25 162 86 
422 0.376902034085013 0.10129031884401868 1.072824016793072 0 0 0 0.76 21 422 27 46 33 71 73 35 96 31 114 26 146 82 162 87 111 80 209 120 
423 0.11804086259585578 0.10032217751078762 0.8864583960437521 0 0 0 0.23 21 423 142 42 224 132 
424 0.14267420988880178 0.10527164585167526 0.9113152368758759 0 0 0 0.47 21 424 159 50 224 133 73 36 
425 0.19022148518667517 0.11464676472978247 0.9532539644815767 0 0 0 0.21 21 425 142 43 159 51 196 57 
426 0.36057556152951503 0.13050058043574936 1.0856562386604875 0 0 0 0.27 21 426 60 122 110 76 172 66 1 9 25 19 43 16 44 148 50 91 61 41 65 4 71 35 73 37 77 127 81 11 96 32 103 36 111 81 113 79 118 40 128 38 148 165 162 88 164 178 209 121 217 7 220 24 221 27 224 134 
427 0.32525849627394576 0.14004247103201628 1.1424992318702285 0 0 0 0.23 21 427 27 47 148 166 164 179 224 135 
428 -0.0630425797311358 0.08926071975774494 0.7048732910414238 0 0 0 0.1 21 428 73 38 142 44 229 38 
429 0.4446943384483383 0.12075148048459522 0.9708750179305128 0 0 0 0.36 21 429 33 72 71 36 111 82 158 39 190 4 209 122 
430 0.41691447587055536 0.1440229873044417 1.0067851588043844 0 0 0 0.19 21 430 25 20 26 24 33 73 44 149 60 123 71 37 77 128 111 83 113 80 126 35 148 167 162 89 164 180 213 59 224 136 1 10 50 92 96 33 157 62 176 68 209 123 217 8 232 32 
431 0.4181992470080007 0.14788660210381896 0.9976419905490043 0 0 0 0.39 21 431 126 36 224 137 50 93 111 84 157 63 209 124 217 9 
432 0.4601689682092417 0.13777492263268928 0.9388617874732857 0 0 0 0.17 21 432 111 85 162 90 
433 0.10655568202110827 0.1318197585022221 0.86655456404174 0 0 0 0.36 21 433 142 45 224 138 
434 0.3905699906748551 0.15693697212828622 1.0330869106113565 0 0 0 0.15 21 434 111 86 162 91 
435 0.04762095551569833 0.12513869828987256 0.8094284933942196 0 0 0 0.24 21 435 142 46 229 39 
436 0.44457750336744567 0.14865739419740684 0.9558248659189301 0 0 0 0.4 21 436 33 74 44 150 
437 0.39487899836732593 0.17077482434233737 1.0257380080522522 0 0 0 0.11 21 437 50 94 111 87 162 92 
438 0.4028401335143906 0.1945668226215419 1.0003717665113598 0 0 0 0.24 21 438 77 129 162 93 
439 -0.2121794227506621 -0.16933769666814538 0.6432586697304795 0 0 0 0.19 21 439 199 1 224 139 
440 0.40112414828514 -0.15669216108786355 1.1019428240547866 0 0 0 0.6 21 440 27 48 77 130 142 47 164 181 224 140 146 83 209 125 
441 -0.05288132223688962 -0.08217236335733528 0.7662358313285061 0 0 0 0.07 21 441 142 48 229 40 
442 -0.10916361215965328 -0.07569249729922597 0.7104265520093626 0 0 0 0.48 21 442 63 15 224 141 229 41 
443 -0.07146913975960383 -0.07572655224914074 0.747130812586642 0 0 0 0.42 21 443 26 25 73 39 199 2 229 42 
444 0.406941300913204 -0.10987303523291346 1.0842566698250156 0 0 0 0.44 21 444 44 151 73 40 96 34 103 37 114 27 127 39 148 168 162 94 164 182 196 58 50 95 71 38 81 12 209 126 227 21 
445 0.47058476857931614 -0.08113034657368084 0.9740795008907195 0 0 0 0.53 21 445 44 152 176 69 232 33 
446 -0.13710097763146117 -0.051957383904911815 0.6786683340828115 0 0 0 0.24 21 446 73 41 199 3 198 0 209 127 
447 -0.11208740003104772 -0.05357072933298771 0.7031072528200208 0 0 0 0.5 21 447 26 26 73 42 224 142 229 43 71 39 209 128 221 28 
448 0.34329111466903084 -0.08962204679913885 1.1677162789893156 0 0 0 0.36 21 448 27 49 43 17 71 40 88 5 113 81 25 21 50 96 60 124 73 43 111 88 128 39 164 183 179 37 209 129 
449 0.4391308837788478 -0.07843546970580548 1.016036147292576 0 0 0 0.4 21 449 71 41 103 38 111 89 114 28 146 84 159 52 164 184 
450 0.3504575629438522 -0.08304950658730859 1.1629650481001137 0 0 0 0.29 21 450 27 50 36 14 113 82 114 29 221 29 232 34 50 97 53 15 65 5 71 42 73 44 81 13 111 90 118 41 128 40 146 85 172 67 176 70 179 38 209 130 219 23 103 39 
451 0.33176710656718444 -0.07509849511064927 1.177977438741736 0 0 0 0.26 21 451 27 51 43 18 44 153 67 8 71 43 73 45 77 131 81 14 88 6 92 57 110 77 199 4 25 22 26 27 52 59 60 125 85 39 111 91 114 30 148 169 164 185 181 4 196 59 224 143 76 2 198 1 209 131 220 25 126 37 
452 -0.11136122542698741 -0.0424341911852488 0.7000103983693048 0 0 0 0.29 21 452 26 28 73 46 224 144 
453 0.4084272963422199 -0.06624227331177837 1.061979012022879 0 0 0 0.56 21 453 52 60 81 15 96 35 113 83 148 170 162 95 219 24 60 126 73 47 114 31 158 40 204 15 209 132 
454 -0.10352915591586845 -0.04142103034889026 0.7070972484542813 0 0 0 0.3 21 454 26 29 73 48 199 5 
455 0.03708951795048868 -0.049595735003830965 0.8488492539074225 0 0 0 0.32 21 455 63 16 142 49 229 44 
456 0.38228656671127736 -0.058973034545607185 1.0989486778200066 0 0 0 0.22 21 456 26 30 27 52 60 127 71 44 88 7 96 36 103 40 110 78 111 92 113 84 114 32 118 42 126 38 146 86 162 96 164 186 172 68 221 30 
457 0.34832772189539396 -0.0575615202327642 1.1523125394990301 0 0 0 0.27 21 457 52 61 88 8 96 37 164 187 
458 0.312882229794552 -0.05457470766087101 1.210929689560373 0 0 0 0.17 21 458 44 154 77 132 92 58 
459 0.35229959975415354 -0.05088007887656484 1.1484582754618193 0 0 0 0.46 21 459 52 62 53 16 71 45 81 16 96 38 111 93 113 85 118 43 146 87 164 188 221 31 232 35 1 11 50 98 65 6 103 41 128 41 157 64 172 69 176 71 179 39 190 5 209 133 219 25 227 22 
460 -0.0488916317711696 -0.028112446410021936 0.7567999276359297 0 0 0 0.24 21 460 142 50 229 45 
461 0.02096226637347608 -0.018776235888233777 0.8248475208801879 0 0 0 0.28 21 461 63 17 229 46 
462 0.3632109303334984 -0.02231337748405808 1.1169763378708222 0 0 0 0.3 21 462 25 23 26 31 27 53 43 19 44 155 60 128 61 42 67 9 71 46 77 133 81 17 88 9 96 39 103 42 111 94 113 86 118 44 126 39 128 42 142 51 146 88 148 171 162 97 164 189 172 70 176 72 196 60 213 60 219 26 221 32 224 145 232 36 1 12 65 7 92 59 127 40 157 65 179 40 190 6 198 2 199 6 204 16 209 134 220 26 227 23 
463 0.3451994216599074 -0.01579311132394997 1.1438603737255706 0 0 0 0.37 21 463 25 24 26 32 44 156 50 99 60 129 71 47 73 49 77 134 96 40 113 87 118 45 164 190 196 61 221 33 224 146 81 18 209 135 
464 0.42012427077077574 -0.016253920111771125 1.0406980137455162 0 0 0 0.43 21 464 26 33 50 100 81 19 88 10 114 33 118 46 126 40 164 191 172 71 224 147 232 37 
465 0.4237987354464777 -0.0010227160094608348 1.028110401549739 0 0 0 0.32 21 465 26 34 44 157 53 17 60 130 61 43 71 48 81 20 88 11 96 41 111 95 118 47 146 89 157 66 158 41 159 53 172 72 176 73 179 41 219 27 221 34 232 38 
466 0.3455928799164962 0.010827867578520957 1.142297080928337 0 0 0 0.29 21 466 26 35 71 49 148 172 50 101 113 88 114 34 209 136 
467 0.03747119155053537 0.011333323411871331 0.8334533328404637 0 0 0 0.46 21 467 26 36 229 47 
468 0.3767637496699767 0.02817682826410186 1.0919304026373284 0 0 0 0.33 21 468 33 75 38 13 50 102 60 131 71 50 73 50 77 135 114 35 126 41 142 52 146 90 148 173 159 54 162 98 164 192 199 7 44 158 65 8 81 21 128 43 176 74 204 17 209 137 217 10 219 28 
469 0.39487329610119887 0.028786590686608632 1.0726822548063943 0 0 0 0.09 21 469 44 159 164 193 199 8 
470 0.39325542498800187 0.040993660961334284 1.0644697582303206 0 0 0 0.23 21 470 219 29 224 148 
471 0.22003269861530916 0.04868898816917982 1.0004213539149092 0 0 0 0.46 21 471 26 37 27 54 148 174 164 194 142 53 159 55 
472 -0.17402756378272422 0.03314294486358771 0.6193147458800446 0 0 0 0.07 21 472 73 51 199 9 
473 0.05334219277171711 0.05276196495799844 0.8387216758805265 0 0 0 0.22 21 473 63 18 142 54 
474 0.32859630538820267 0.08804036467597755 1.143802019473579 0 0 0 0.39 21 474 26 38 73 52 88 12 199 10 
475 0.40175318834896656 0.07993061074653184 1.037174687859833 0 0 0 0.42 21 475 27 55 33 76 50 103 73 53 77 136 111 96 118 48 127 41 1 13 172 73 209 138 217 11 227 24 
476 -0.04644045419711666 0.06097382973736914 0.7310529877770103 0 0 0 0.19 21 476 142 55 229 48 
477 0.3762857876783028 0.08915591073587478 1.0759103467233169 0 0 0 0.36 21 477 73 54 172 74 232 39 
478 -0.07661272773001235 0.059667689581532304 0.7049351750136893 0 0 0 0.19 21 478 73 55 224 149 229 49 
479 0.04033274817619132 0.07007121467707675 0.817830549068321 0 0 0 0.41 21 479 142 56 229 50 
480 0.45723937468063564 0.093131053375345 0.9570908459402315 0 0 0 0.45 21 480 60 132 114 36 172 75 
481 0.411099978457524 0.10170643542063475 1.0244024846014312 0 0 0 0.4 21 481 111 97 162 99 172 76 209 139 227 25 
482 0.06366211231611815 0.0876088456276814 0.8368147685404701 0 0 0 0.2 21 482 26 39 71 51 
483 0.45702921547259756 0.10229348498428477 0.9534749624827776 0 0 0 0.45 21 483 61 44 67 10 71 52 77 137 85 40 92 60 96 42 118 49 126 42 146 91 148 175 158 42 219 30 229 51 
484 0.0536481115548192 0.09345974410118925 0.827502285858873 0 0 0 0.38 21 484 26 40 63 19 126 43 142 57 
485 0.060521320936746746 0.0999928979027423 0.8310467449123087 0 0 0 0.17 21 485 26 41 63 20 142 58 
486 0.4494650651066789 0.11510198560660606 0.9605002952702546 0 0 0 0.28 21 486 25 25 26 42 44 160 52 63 60 133 67 11 71 53 77 138 81 22 85 41 88 13 96 43 111 98 113 89 128 44 158 43 162 100 164 195 172 77 176 75 181 5 199 11 213 61 219 31 224 150 
487 0.18274398220180393 0.11570327811809232 0.946641517632961 0 0 0 0.17 21 487 142 59 199 12 
488 0.4584045482947795 0.12967366108141987 0.9405142682112427 0 0 0 0.45 21 488 25 26 27 56 33 77 44 161 77 139 111 99 128 45 220 27 224 151 
489 0.35503186264302594 0.17565357285357971 1.0907387797716699 0 0 0 0.23 21 489 44 162 50 104 60 134 88 14 92 61 118 50 142 60 164 196 224 152 
490 -0.14087011734497656 -0.1812923387632222 0.7096272710116998 0 0 0 0.03 21 490 73 56 96 44 199 13 
491 -0.13324441033877243 -0.09445883560282173 0.6914417362177713 0 0 0 0.2 21 491 26 43 199 14 229 52 
492 -0.10405007859109683 -0.09757059718272615 0.7159116563238228 0 0 0 0.39 21 492 26 44 229 53 
493 -0.11455749926644222 -0.09309518499626375 0.7116558868361837 0 0 0 0.41 21 493 26 45 63 21 73 57 199 15 224 153 
494 -0.09882514498297801 -0.08941245288634996 0.7240432636000763 0 0 0 0.33 21 494 63 22 73 58 
495 0.37626384218547015 -0.1131666410668761 1.1238390585769023 0 0 0 0.35 21 495 36 15 92 62 126 44 
496 0.33459707838634534 -0.11257667918823713 1.188515856662618 0 0 0 0.33 21 496 26 46 71 54 77 140 85 42 92 63 114 37 159 56 181 6 164 197 199 16 25 27 43 20 60 135 73 59 76 3 81 23 96 45 103 43 111 100 126 45 127 42 148 176 162 101 196 62 198 3 209 140 220 28 224 154 44 163 
497 0.46235809595574767 -0.08606160739371875 0.9890548359555854 0 0 0 0.14 21 497 44 164 53 18 77 141 96 46 111 101 162 102 128 46 209 141 213 62 
498 0.14259221056294608 -0.07202317442461556 0.952993118283981 0 0 0 0.73 21 498 126 46 148 177 196 63 224 155 
499 0.45914761576209623 -0.07630848849068794 0.9909799403600548 0 0 0 0.32 21 499 53 19 111 102 162 103 164 198 219 32 
500 0.1675191388942238 -0.0671453427690034 0.9793710476407625 0 0 0 0.32 21 500 26 47 126 47 142 61 199 17 
501 0.11449939542893367 -0.05968466831903795 0.921693366719953 0 0 0 0.43 21 501 73 60 126 48 142 62 181 7 229 54 26 48 
502 0.4342565494354422 -0.0672766579182497 1.032474060018704 0 0 0 0.36 21 502 27 57 88 15 114 38 126 49 162 104 71 55 81 24 110 79 209 142 227 26 
503 0.3210959427876178 -0.07546580324878033 1.201025894470287 0 0 0 0.28 21 503 26 49 44 165 88 16 110 80 164 199 199 18 85 43 148 178 196 64 224 156 
504 0.41486986687560024 -0.06090358334494297 1.0550682955586042 0 0 0 0.28 21 504 26 50 52 64 148 179 164 200 
505 0.3382674908817119 -0.06536749978008119 1.1702091074229033 0 0 0 0.37 21 505 43 21 44 166 
506 0.4067913338870587 -0.05796275890645305 1.0683196379224222 0 0 0 0.32 21 506 60 136 81 25 88 17 114 39 148 180 146 92 158 44 179 42 209 143 213 63 219 33 227 27 
507 0.3881706939995868 -0.0517121279331328 1.0941851128377995 0 0 0 0.34 21 507 88 18 111 103 164 201 114 40 176 76 198 4 209 144 217 12 224 157 
508 0.3786125154280513 -0.04877540663036539 1.104191322658826 0 0 0 0.39 21 508 88 19 114 41 73 61 103 44 111 104 118 51 128 47 158 45 162 105 164 202 204 18 209 145 213 64 219 34 
509 0.33168851623666 -0.04747075337873132 1.1707857267823845 0 0 0 0.56 21 509 25 28 26 51 44 167 60 137 73 62 77 142 88 20 92 64 111 105 148 181 164 203 71 56 76 4 81 26 209 146 
510 0.36049464326350045 -0.04047510095250927 1.1305212978080734 0 0 0 0.49 21 510 27 58 32 36 43 22 44 168 52 65 53 20 67 12 71 57 73 63 77 143 81 27 88 21 92 65 96 47 111 106 113 90 118 52 146 93 164 204 221 35 232 40 1 14 50 105 61 45 65 9 103 45 128 48 157 67 172 78 179 43 190 7 209 147 213 65 227 28 
511 0.01969961444206508 -0.026427703665636487 0.8293888837811159 0 0 0 0.33 21 511 142 63 224 158 
512 -0.026434878761397433 -0.018725683508010033 0.7680527316106563 0 0 0 0.32 21 512 142 64 229 55 
513 0.35043427284841694 -0.00856421861751329 1.1350217806479033 0 0 0 0.44 21 513 26 52 43 23 60 138 71 58 96 48 111 107 148 182 221 36 224 159 77 144 126 50 25 29 50 106 53 21 73 64 76 5 81 28 92 66 113 91 118 53 164 205 176 77 196 65 198 5 199 19 209 148 219 35 220 29 232 41 
514 -0.042818311074631396 0.011256323656137782 0.7565700811268312 0 0 0 0.43 21 514 63 23 142 65 199 20 111 108 209 149 
515 0.16610651977405566 0.015239562050398857 0.9554208197716105 0 0 0 0.44 21 515 27 59 73 65 196 66 
516 0.3454816124205214 0.023138625421885817 1.1377058688468205 0 0 0 0.21 21 516 26 53 81 29 88 22 110 81 113 92 148 183 60 139 
517 0.2062335673683992 0.023035203509791217 0.9944228201989772 0 0 0 0.75 21 517 159 57 196 67 224 160 
518 0.205563596332917 0.03598743712946722 0.9872963309877575 0 0 0 0.43 21 518 26 54 27 60 73 66 88 23 126 51 142 66 148 184 159 58 164 206 181 8 196 68 199 21 224 161 229 56 71 59 110 82 76 6 111 109 209 150 
519 0.3463089061386219 0.045633130548123964 1.1335734918891172 0 0 0 0.61 21 519 36 16 103 46 126 52 148 185 88 24 113 93 159 59 199 22 96 49 114 42 176 78 198 6 209 151 
520 -0.15118888011301596 0.03740048464189102 0.6393569172945718 0 0 0 0.12 21 520 199 23 229 57 
521 0.08385321682026774 0.06513095291933278 0.8614319423851948 0 0 0 0.24 21 521 142 67 229 58 
522 -0.01307488166628519 0.060042029980635514 0.7356524518990492 0 0 0 0.2 21 522 142 68 224 162 
523 0.20686804685122015 0.07950331546555192 0.9774136443272989 0 0 0 0.55 21 523 88 25 110 83 148 186 224 163 76 7 209 152 
524 0.23154200780874093 0.09801428793090296 0.9937679004033874 0 0 0 0.12 21 524 26 55 71 60 73 67 181 9 
525 0.38399342406594034 0.10964547838541223 1.059399131800165 0 0 0 0.34 21 525 33 78 50 107 73 68 111 110 157 68 
526 0.35029418080077973 0.14147793136010886 1.1055169494391386 0 0 0 0.6 21 526 25 30 26 56 60 140 148 187 164 207 196 69 
527 0.3619154523869179 0.14570049573808702 1.0751145963265634 0 0 0 0.31 21 527 60 141 96 50 1 15 43 24 44 169 50 108 61 46 71 61 81 30 111 111 118 54 148 188 162 106 164 208 176 79 190 8 209 153 213 66 217 13 219 36 220 30 221 37 224 164 232 42 
528 0.3490297517459364 0.15266435571328915 1.1089977756583262 0 0 0 0.74 21 528 27 61 77 145 148 189 224 165 
529 -0.07107505008112767 0.10027747410954119 0.699521085374712 0 0 0 0.3 21 529 26 57 73 69 
530 0.4087542611277506 0.15338888969630676 1.0124630650296371 0 0 0 0.63 21 530 44 170 103 47 111 112 176 80 209 154 157 69 
531 0.3660746022546009 0.1913319729867452 1.0764589867303243 0 0 0 0.28 21 531 44 171 164 209 
532 0.4030029070436609 -0.12039044656163485 1.0940134813027027 0 0 0 0.3 21 532 32 37 92 67 
533 -0.04362347899542074 -0.07224831438640643 0.7748277640540538 0 0 0 0.33 21 533 199 24 221 38 229 59 
534 0.15467378861008307 -0.08870435484687321 0.9696108414353407 0 0 0 0.81 21 534 142 69 148 190 224 166 
535 0.05333868023753027 -0.07634372650994385 0.8702734965096721 0 0 0 0.25 21 535 142 70 229 60 
536 0.3229530596154399 -0.1042813522732137 1.194650214653125 0 0 0 0.44 21 536 26 58 77 146 85 44 88 26 92 68 148 191 164 210 199 25 224 167 
537 -0.1433937796843428 -0.048881450103058915 0.6745393680236232 0 0 0 0.69 21 537 73 70 199 26 221 39 229 61 
538 0.15590565205683982 -0.0697737166862579 0.9700171937468679 0 0 0 0.52 21 538 73 71 126 53 142 71 148 192 159 60 199 27 
539 -0.07451083123879457 -0.03895189627040021 0.7371112019744415 0 0 0 0.43 21 539 73 72 88 27 199 28 
540 0.09376359749765843 -0.04545694440811201 0.9040460846012776 0 0 0 0.6 21 540 26 59 73 73 142 72 199 29 
541 0.14315589986427543 -0.04089152644237915 0.9486826046127328 0 0 0 0.25 21 541 126 54 196 70 224 168 142 73 199 30 
542 0.10473955131478872 -0.03383119132319663 0.9099661759380092 0 0 0 0.38 21 542 26 60 73 74 126 55 142 74 199 31 
543 0.16815556454742225 -0.036651878502292935 0.973526475735234 0 0 0 0.36 21 543 181 10 199 32 
544 0.19149247307079484 -0.03121987665204716 0.9931994755979154 0 0 0 0.25 21 544 26 61 181 11 73 75 199 33 
545 0.35336715536478597 -0.03517440918658348 1.1417682040269144 0 0 0 0.34 21 545 43 25 52 66 67 13 71 62 81 31 88 28 92 69 111 113 118 55 164 211 221 40 232 43 25 31 50 109 60 142 73 76 1 16 53 22 65 10 190 9 209 155 227 29 128 49 
546 -0.06386240757203308 -0.02017703052487068 0.7385365919613485 0 0 0 0.24 21 546 199 34 229 62 
547 0.32361786187028496 -0.028867359032056727 1.1813717507022017 0 0 0 0.29 21 547 52 67 148 193 
548 0.19247273961548067 -0.01286711938893932 0.9910964398686526 0 0 0 0.49 21 548 126 56 148 194 224 169 
549 0.19151644914134627 0.001262888532698099 0.9831824070023047 0 0 0 0.38 21 549 142 75 224 170 
550 0.22087344225372388 0.004458708689773223 1.0148662083120645 0 0 0 0.29 21 550 26 62 164 212 181 12 
551 0.09366183369551714 0.008983559360013538 0.890711010445385 0 0 0 0.24 21 551 126 57 199 35 
552 0.10501133948935032 0.017710570083972317 0.8961089416150945 0 0 0 0.22 21 552 26 63 126 58 142 76 181 13 
553 0.1698814915372665 0.026692644352515314 0.9582048489159442 0 0 0 0.35 21 553 73 77 181 14 199 36 
554 0.19289198234445662 0.03265320456751644 0.9767555051654875 0 0 0 0.4 21 554 126 59 142 77 196 71 224 171 148 195 199 37 
555 0.2163499104010814 0.03200522700876349 0.9873563931813352 0 0 0 0.61 21 555 148 196 224 172 
556 0.10680537011039126 0.05195706488308961 0.8899629054754037 0 0 0 0.44 21 556 26 64 73 78 142 78 181 15 199 38 126 60 76 8 209 156 
557 0.19406472366379932 0.05973757188763352 0.9724218809664524 0 0 0 0.42 21 557 26 65 148 197 181 16 199 39 
558 0.20672150204250728 0.0649504825026857 0.9789352577556107 0 0 0 0.19 21 558 159 61 224 173 
559 0.22185309869670475 0.07495845806696179 1.0002557284437195 0 0 0 0.25 21 559 148 198 164 213 
560 0.16982766551049733 0.08284299400981351 0.9372403390185763 0 0 0 0.45 21 560 142 79 159 62 196 72 
561 -0.07234583065875097 0.07412467388218631 0.7048785352213416 0 0 0 0.08 21 561 73 79 199 40 
562 -0.07249625312246218 0.08687421643740811 0.7008900361020812 0 0 0 0.44 21 562 26 66 73 80 224 174 209 157 
563 0.19444176683238507 0.11773319805701749 0.9539719236360075 0 0 0 0.31 21 563 142 80 148 199 
564 0.4349407221904696 0.1291175098097638 0.9846323841935024 0 0 0 0.56 21 564 60 143 77 147 88 29 111 114 146 94 158 46 162 107 172 79 232 44 81 32 96 51 157 70 44 172 209 158 217 14 
565 0.19509716134294444 0.136127167766226 0.9503765529274102 0 0 0 0.33 21 565 142 81 148 200 
566 -0.0353474587225818 -0.12077981835516806 0.7861110977610024 0 0 0 0.68 21 566 224 175 229 63 
567 -0.18311943681065662 -0.09848357779708543 0.6530399475226039 0 0 0 0.25 21 567 73 81 199 41 
568 0.024229555460994902 -0.1032966090726737 0.8385011070177865 0 0 0 0.37 21 568 63 24 142 82 
569 0.42373299351102583 -0.11526292640584357 1.0579949193578468 0 0 0 0.55 21 569 60 144 103 48 172 80 81 33 111 115 179 44 209 159 
570 0.3985308677517434 -0.10947653734632484 1.0881458459357314 0 0 0 0.38 21 570 60 145 162 108 172 81 209 160 
571 0.03964026957501437 -0.08118845288858728 0.8531967131927244 0 0 0 0.58 21 571 26 67 63 25 73 82 199 42 
572 0.07878368909044488 -0.07176603938798573 0.8928908029973968 0 0 0 0.13 21 572 26 68 142 83 
573 0.04618843469196811 -0.06678296024454626 0.8621032477175696 0 0 0 0.18 21 573 142 84 229 64 
574 0.10249304874139484 -0.06750293138003854 0.9138098372605894 0 0 0 0.41 21 574 26 69 126 61 142 85 
575 0.06669136616813655 -0.06308057001948293 0.883492455876411 0 0 0 0.33 21 575 26 70 142 86 199 43 229 65 
576 0.09081885170842767 -0.058379238977197094 0.9062639206154836 0 0 0 0.31 21 576 26 71 73 83 199 44 229 66 
577 0.11907592459457618 -0.04508185715705588 0.9274131940975002 0 0 0 0.46 21 577 26 72 126 62 142 87 229 67 
578 0.04632509764258407 -0.03752139531897595 0.8559133386144473 0 0 0 0.25 21 578 142 88 229 68 
579 0.3428494039792226 -0.034703672734889036 1.156975607397553 0 0 0 1.22 21 579 52 68 77 148 92 70 224 176 
580 0.04649226728304062 -0.013064351322221265 0.8494867025827398 0 0 0 0.32 21 580 26 73 73 84 199 45 229 69 71 63 103 49 198 7 209 161 
581 0.10417420557904064 -0.015289925639374357 0.9063822664416814 0 0 0 0.46 21 581 26 74 73 85 142 89 199 46 
582 0.07003838700806081 -0.009625476577802421 0.8702684829040201 0 0 0 0.14 21 582 26 75 73 86 142 90 199 47 
583 0.1200953899818354 0.019220480954710267 0.9099941447158267 0 0 0 0.65 21 583 26 76 71 64 73 87 126 63 224 177 199 48 
584 0.08568427453048355 0.03569090491189081 0.8722715555647786 0 0 0 0.45 21 584 26 77 71 65 73 88 126 64 142 91 224 178 
585 0.12149131479858603 0.04574556612125035 0.9080668791962357 0 0 0 0.46 21 585 26 78 73 89 181 17 199 49 71 66 81 34 198 8 209 162 
586 0.09573339932573795 0.06331899451417944 0.8743892852653028 0 0 0 0.48 21 586 26 79 142 92 
587 0.33396876320842506 0.08737987576287169 1.1366176564139148 0 0 0 0.5 21 587 26 80 44 173 92 71 164 214 199 50 
588 0.17944070671562076 0.1013481530136289 0.9486221246791906 0 0 0 0.35 21 588 142 93 199 51 
589 0.3999076599223017 0.11994741243044756 1.0320563081742868 0 0 0 0.21 21 589 128 50 148 201 
590 0.03566363686227035 0.09919879289720265 0.8028182674746003 0 0 0 0.27 21 590 63 26 142 94 
591 0.38424549147127207 0.14797892823678557 1.051464294447613 0 0 0 0.75 21 591 27 62 33 79 50 110 77 149 81 35 96 52 111 116 118 56 128 51 146 95 172 82 221 41 209 163 217 15 43 26 224 179 
592 -0.03430467775631233 -0.09648535793474014 0.7804333529903437 0 0 0 0.32 21 592 142 95 199 52 229 70 
593 0.4113109741617916 -0.11237238101785965 1.0741893540115104 0 0 0 0.35 21 593 103 50 111 117 164 215 172 83 179 45 209 164 114 43 
594 0.42762028607457253 -0.0363426707443699 1.0353927485558934 0 0 0 0.39 21 594 25 32 43 27 53 23 60 146 67 14 81 36 88 30 96 53 111 118 114 44 118 57 127 43 128 52 146 96 157 71 164 216 181 18 213 67 219 37 220 31 224 180 232 45 26 81 50 111 
595 0.2100204141191116 -0.016998182941668133 1.0047093401227287 0 0 0 0.33 21 595 71 67 164 217 181 19 
596 0.3734084448070265 -0.017107077193169562 1.1079470779842284 0 0 0 0.45 21 596 32 38 44 174 77 150 146 97 148 202 158 47 25 33 26 82 27 63 43 28 50 112 60 147 61 47 67 15 71 68 73 90 81 37 88 31 92 72 96 54 111 119 113 94 118 58 127 44 157 72 164 218 172 84 179 46 181 20 199 53 213 68 219 38 232 46 1 17 65 11 103 51 110 84 126 65 128 53 176 81 190 10 198 9 204 19 209 165 221 42 
597 -0.009194438239520385 0.01982441845743331 0.7656404756917929 0 0 0 0.32 21 597 142 96 224 181 
598 0.38701353168557096 0.025152468072641748 1.0771204574803581 0 0 0 0.5 21 598 26 83 44 175 50 113 67 16 73 91 77 151 88 32 92 73 110 85 114 45 146 98 148 203 164 219 199 54 219 39 36 17 103 52 
599 0.3572458391353228 0.03238431816581041 1.1249590118615171 0 0 0 0.43 21 599 26 84 71 69 113 95 148 204 199 55 
600 0.10366598270579822 0.037375299909682774 0.8925784722007348 0 0 0 0.69 21 600 73 92 126 66 142 97 199 56 224 182 
601 0.14044709344903128 0.09503045773698456 0.9209886794585146 0 0 0 0.74 21 601 199 57 224 183 
602 0.42674417169159795 0.1132432329057821 0.9975193328564642 0 0 0 0.36 21 602 26 85 60 148 67 17 81 38 103 53 111 120 158 48 162 109 172 85 232 47 71 70 126 67 
603 0.3725667051186797 0.13155470219442883 1.0700790542071572 0 0 0 0.51 21 603 43 29 53 24 60 149 67 18 162 110 196 73 44 176 81 39 88 33 96 55 103 54 111 121 224 184 1 18 50 114 65 12 71 71 73 93 128 54 164 220 198 10 199 58 209 166 217 16 
604 0.41423338090896755 0.15684545930822522 1.006700976605728 0 0 0 0.59 21 604 25 34 26 86 32 39 36 18 44 177 52 69 81 40 88 34 110 86 126 68 142 98 148 205 164 221 181 21 199 59 
605 -0.019577444773902792 -0.11205828809418479 0.8036619790360837 0 0 0 0.46 21 605 142 99 199 60 221 43 
606 0.3343522766655946 -0.0933300445503086 1.1834122056937988 0 0 0 0.71 21 606 26 87 36 19 60 150 148 206 181 22 224 185 199 61 
607 0.35392671268184267 -0.09311113320293507 1.145582005116132 0 0 0 0.36 21 607 60 151 73 94 77 152 92 74 103 55 209 167 
608 0.44073167716863687 -0.031404052206014464 1.0124868022051443 0 0 0 0.89 21 608 110 87 114 46 164 222 219 40 232 48 
609 0.4148948279041926 -0.022580661667485263 1.0518369638387275 0 0 0 0.5 21 609 43 30 67 19 88 35 146 99 164 223 181 23 213 69 220 32 224 186 71 72 1 19 65 13 118 59 158 49 190 11 209 168 217 17 
610 0.3876398890474092 -0.012461620477238736 1.0874122415777974 0 0 0 0.71 21 610 26 88 32 40 43 31 71 73 73 95 81 41 88 36 110 88 111 122 113 96 114 47 118 60 127 45 146 100 164 224 199 62 224 187 1 20 25 35 65 14 103 56 126 69 176 82 209 169 217 18 77 153 
611 0.4280655244184987 -0.008492645480099755 1.027043353516275 0 0 0 0.39 21 611 26 89 43 32 53 25 61 48 67 20 81 42 88 37 96 56 111 123 113 97 114 48 128 55 146 101 172 86 232 49 
612 0.40074422828974504 0.004100761028631627 1.0648807965123104 0 0 0 0.4 21 612 50 115 67 21 81 43 118 61 146 102 213 70 
613 0.37248791555098104 0.013289708514259452 1.100496422705376 0 0 0 0.63 21 613 26 90 27 64 44 178 52 70 71 74 73 96 77 154 114 49 118 62 127 46 128 56 142 100 213 71 224 188 232 50 1 21 25 36 65 15 103 57 113 98 164 225 190 12 209 170 217 19 220 33 221 44 
614 0.037792781387976745 0.026353129752214308 0.826022523379889 0 0 0 0.47 21 614 26 91 142 101 
615 0.44255386556205656 0.03479388653811819 0.9969078742024647 0 0 0 0.31 21 615 88 38 92 75 
616 0.4398735401310294 0.10750333023013874 0.9781044955299067 0 0 0 0.53 21 616 60 152 111 124 162 111 172 87 92 76 
617 0.41278923673767565 0.11599194175230496 1.0143602900497402 0 0 0 0.49 21 617 26 92 33 80 60 153 67 22 77 155 81 44 92 77 96 57 111 125 126 70 148 207 162 112 181 24 220 34 43 33 219 41 1 22 146 103 209 171 232 51 
618 0.42751073063685147 0.12513487929563838 0.9928724065023851 0 0 0 0.64 21 618 26 93 32 41 36 20 44 179 53 26 60 154 81 45 85 45 88 39 111 126 113 99 118 63 128 57 158 50 162 113 164 226 181 25 50 116 213 72 
