# 3D point list with one line of data per point:
#   POINT3D_ID, X, Y, Z, R, G, B, ERROR, TRACK[] as (IMAGE_ID, POINT2D_IDX)
# Number of points: 413, mean track length: 7.47
7350 0.7028689535357109 0.1669952492063186 0.7904125571246647 0 0 0 0.24 14 205 17 1942 61 1430 89 418 
7351 0.7490495168019091 0.2010485674134771 0.8944666470047176 0 0 0 0.33 14 206 17 1943 32 992 44 1899 50 2395 53 1094 61 1431 77 2135 89 419 92 1575 97 444 118 1409 158 533 
7352 0.7036720814200081 0.16657779995349256 0.7707913572761224 0 0 0 0.3 14 207 17 1944 61 1432 67 376 89 420 111 908 
7353 0.800904117984407 0.21871188574291978 0.904272465503454 0 0 0 0.59 14 208 32 993 158 534 
7354 0.7046221871264392 0.20212213349247565 0.774853560935495 0 0 0 0.14 14 209 17 1945 61 1433 89 421 
7355 0.7045998560925867 0.20733461951013182 0.772338119988823 0 0 0 0.09 14 210 17 1946 61 1434 89 422 
7356 0.5519085719439853 0.27940100340939883 0.8782645598238247 0 0 0 0.6 14 211 19 1095 43 708 60 1210 63 452 73 627 85 1154 91 595 111 909 
7357 0.5284576620702955 0.09937709619958109 0.9625717286974627 0 0 0 1.2 4 3508 11 3437 14 212 15 694 17 1947 25 751 29 897 54 414 60 1211 64 109 65 473 71 905 81 422 97 445 103 638 199 308 
7358 0.697266150843999 0.0438366495492061 0.7241297220116338 0 0 0 0.68 14 213 29 898 53 1095 62 115 97 446 
7359 0.7011327996485304 0.12597410505333395 0.8117483677143017 0 0 0 0.26 14 214 17 1948 81 423 
7360 0.46642979083212904 0.22111524209374223 0.9324057567124646 0 0 0 0.55 14 215 32 994 43 709 89 423 
7361 0.7028428943876281 0.14167544324264358 0.7902542927650461 0 0 0 0.42 14 216 17 1949 61 1435 89 424 
7362 0.7022091133938639 0.14157211251461937 0.7897457122750972 0 0 0 0.44 14 217 17 1950 61 1436 67 377 89 425 
7363 0.7025423893630582 0.15258482589093536 0.8152385066654175 0 0 0 0.15 14 218 17 1951 61 1437 89 426 
7364 0.7021439181891823 0.152509565071578 0.8149073726969736 0 0 0 0.2 14 219 17 1952 61 1438 81 424 89 427 
7365 0.7039692346693839 0.16300659998429046 0.780861135249899 0 0 0 0.15 14 220 17 1953 61 1439 
7366 0.73317985567544 0.2102247083359246 0.8881553186307237 0 0 0 0.41 14 221 15 695 17 1954 29 899 32 995 54 415 65 474 67 378 77 2136 85 1155 89 428 103 639 111 910 118 1410 128 652 158 535 
7367 0.7035255065769218 0.18114247176974482 0.7682301641433881 0 0 0 0.46 14 222 17 1955 61 1440 67 379 
7368 0.7724722888289357 0.2510775737491673 0.878942253227875 0 0 0 0.5 14 223 17 1956 32 996 50 2396 61 1441 77 2137 118 1411 
7369 0.7609997200081536 0.2549821512245443 0.8738511185819756 0 0 0 0.47 14 224 17 1957 32 997 50 2397 53 1096 77 2138 118 1412 
7370 0.443804235759609 0.15151301467824996 0.9692351347821155 0 0 0 0.63 1 617 14 225 15 696 19 1096 44 1900 61 1442 77 2139 111 911 
7371 0.6117232185926362 0.12984288502562796 0.9260958778871458 0 0 0 0.81 14 226 19 1097 60 1212 111 912 
7372 0.7004656436513461 0.07079304384977474 0.7484254355842556 0 0 0 0.74 14 227 29 900 53 1097 65 475 67 380 81 425 
7373 0.7021633447702104 0.12461885155186896 0.765362305160803 0 0 0 0.48 14 228 17 1958 67 381 
7374 0.7021248494871243 0.1704755166661646 0.7441837242289517 0 0 0 0.36 14 229 17 1959 67 382 81 426 89 429 111 913 
7375 0.7447173797694462 0.21653027947716028 0.8869995701089263 0 0 0 0.54 14 230 17 1960 32 998 53 1098 77 2140 103 640 118 1413 
7376 0.7447864162204049 0.21653021659243996 0.8870449160284412 0 0 0 0.6 14 231 17 1961 32 999 77 2141 103 641 118 1414 
7377 0.7048287403936591 0.22160759419538498 0.7603019989830112 0 0 0 0.25 14 232 17 1962 81 427 89 430 111 914 
7378 0.48798056697816766 0.0957387881902515 0.9771856548324263 0 0 0 0.55 14 233 17 1963 53 1099 61 1443 97 447 
7379 0.6997402358047756 0.06846164289036875 0.7662800137125095 0 0 0 0.46 14 234 29 901 53 1100 62 116 67 383 97 448 111 915 
7380 0.7004457136681848 0.06852205241587246 0.7673580589730731 0 0 0 0.37 14 235 29 902 62 117 67 384 111 916 
7381 0.4508500808149273 0.21048976226328225 0.945649277439072 0 0 0 0.15 14 236 27 925 89 431 
7382 0.6966065944980468 0.1424803943742958 0.8131487307776444 0 0 0 0.98 14 237 17 1964 61 1444 97 449 
7383 0.7018534128248426 0.1547451405297136 0.7807985660470512 0 0 0 0.4 14 238 17 1965 67 385 81 428 89 432 111 917 
7384 0.7041572577592201 0.20596574251237407 0.7942910040233232 0 0 0 0.4 14 239 17 1966 53 1101 61 1445 67 386 
7385 0.7041572577592201 0.20596574251237407 0.7942910040233232 0 0 0 0.4 14 240 17 1967 53 1102 61 1446 67 387 
7386 0.7045278633629137 0.21741098214314122 0.788919330735036 0 0 0 0.25 14 241 17 1968 61 1447 
7387 0.5982407621167884 0.12247912994040785 0.9302371985026348 0 0 0 0.31 14 242 19 1098 111 918 
7388 0.7030841223431081 0.13233134473566863 0.7958369517864352 0 0 0 0.87 14 243 17 1969 53 1103 61 1448 65 476 67 388 81 429 89 433 111 919 
7389 0.7024704601192442 0.16214814531378957 0.775598111973794 0 0 0 0.34 14 244 17 1970 67 389 89 434 111 920 
7390 0.7036871187377259 0.16249377541919466 0.7765628744462986 0 0 0 0.2 14 245 17 1971 89 435 
7391 0.7046415486699804 0.17286408492873123 0.7722936333062781 0 0 0 0.25 14 246 17 1972 81 430 
7392 0.7012083069930843 0.07344225652235198 0.7357058999629928 0 0 0 0.92 14 247 29 903 53 1104 62 118 67 390 69 303 111 921 
7393 0.7051693141871461 0.19931732118950238 0.8056268799753237 0 0 0 0.48 14 248 17 1973 61 1449 111 922 
7394 0.5457364643800037 0.26162927172502304 0.889919478140285 0 0 0 0.63 1 618 2 3047 4 3509 9 1135 11 3438 14 249 17 1974 19 1099 33 2238 38 1732 40 663 43 710 44 1901 50 2398 53 1105 54 416 60 1213 61 1450 65 477 69 304 71 906 77 2142 81 431 88 186 91 596 96 919 103 642 110 1091 111 923 118 1415 127 699 146 1978 148 1228 158 536 199 309 
7395 0.5566297206251678 0.2585888364113634 0.8868009247160125 0 0 0 0.73 2 3048 4 3510 11 3439 14 250 17 1975 19 1100 25 752 32 1000 33 2239 36 852 38 1733 40 664 43 711 44 1902 50 2399 53 1106 54 417 60 1214 61 1451 65 478 69 305 71 907 73 628 81 432 88 187 89 436 91 597 96 920 110 1092 111 924 118 1416 127 700 146 1979 148 1229 158 537 199 310 
7396 0.5566843079766939 0.25860985412853704 0.8868290688845607 0 0 0 0.65 2 3049 4 3511 11 3440 14 251 17 1976 19 1101 25 753 32 1001 33 2240 36 853 38 1734 40 665 43 712 44 1903 50 2400 53 1107 54 418 61 1452 65 479 69 306 71 908 77 2143 81 433 88 188 89 437 96 921 103 643 110 1093 111 925 118 1417 127 701 146 1980 148 1230 158 538 199 311 
7397 0.42814457802930983 0.18133587895903083 0.9586118385140532 0 0 0 1.25 1 619 3 1240 14 252 19 1102 25 754 26 470 29 904 33 2241 36 854 40 666 64 110 65 480 69 307 77 2144 85 1156 97 450 103 644 118 1418 127 702 136 467 146 1981 148 1231 157 986 199 312 
7398 0.4936951893639967 0.10759120204440137 1.0058649421167742 0 0 0 0.41 3 1241 15 697 17 1977 41 481 53 1108 61 1453 64 111 89 438 96 922 97 451 103 645 
7399 0.4958517201018138 0.10783523895078527 0.976780339074918 0 0 0 0.1 15 698 73 629 103 646 
7400 0.49408772447170146 0.10749773756210923 0.9729289348087669 0 0 0 0.1 15 699 17 1978 103 647 
7401 0.3781471806701288 0.13488307057872942 1.000991820545113 0 0 0 0.2 15 700 17 1979 53 1109 
7402 0.3873861939065939 0.13316497932778068 0.9996047620357457 0 0 0 0.59 2 3050 3 1242 4 3512 11 3441 15 701 17 1980 27 926 38 1735 67 391 77 2145 111 926 146 1982 
7403 0.5272138408183802 0.10317248441676671 0.9579734759011005 0 0 0 0.9 3 1243 15 702 38 1736 41 482 64 112 118 1419 
7404 0.5957931377083769 0.09761988236463219 0.9398138037983883 0 0 0 0.71 4 3513 15 703 32 1002 40 667 53 1110 77 2146 92 1576 112 61 128 653 
7405 0.6036831483205364 0.09659486325855518 0.9381841168568302 0 0 0 0.26 15 704 17 1981 19 1103 
7406 0.4631829862898855 0.13382541901334602 0.9619992025661299 0 0 0 0.49 15 705 36 855 69 308 110 1094 
7407 0.5144193468965192 0.12386211170691838 0.957871589138923 0 0 0 0.29 15 706 17 1982 36 856 63 453 
7408 0.5371800778035078 0.12001271001915621 0.9507640908767957 0 0 0 0.3 15 707 29 905 103 648 
7409 0.5184168456998628 0.13328334026193503 0.9512619318118816 0 0 0 0.21 15 708 29 906 53 1111 103 649 
7410 0.40826613986184973 0.16054090107150168 0.9752594860876029 0 0 0 0.41 3 1244 15 709 50 2401 54 419 71 909 111 927 
7411 0.4247243689633761 0.1576863595172947 0.9734341893280457 0 0 0 0.25 15 710 38 1737 148 1232 
7412 0.3758574806801707 0.17020635019925234 0.9840876092619115 0 0 0 0.29 15 711 29 907 40 668 77 2147 118 1420 126 287 127 703 128 654 159 410 
7413 0.392124445712091 0.16793764202916428 0.9799948214998655 0 0 0 0.43 15 712 33 2242 77 2148 112 62 
7414 0.40829420632611135 0.1644849391632265 0.974854524189339 0 0 0 0.15 15 713 25 755 69 309 
7415 0.4082244240439983 0.1645098976768354 0.974778189512532 0 0 0 0.24 15 714 25 756 69 310 89 439 96 923 
7416 0.3832093557832516 0.17274463041409832 0.9816137482305654 0 0 0 0.36 9 1136 15 715 19 1104 25 757 26 471 40 669 44 1904 50 2402 54 420 60 1215 77 2149 96 924 126 288 159 411 
7417 0.48094446746809716 0.15147123797359474 0.9538671234377635 0 0 0 0.45 15 716 40 670 60 1216 110 1095 148 1233 
7418 0.5957745386066738 0.13258794988302455 0.9248801145495794 0 0 0 0.26 15 717 40 671 111 928 
7419 0.5196037136195882 0.15270486434531444 0.9431458781573367 0 0 0 0.64 2 3051 3 1245 15 718 19 1105 29 908 32 1003 33 2243 40 672 50 2403 85 1157 118 1421 157 987 
7420 0.5612590872441596 0.14554736683245595 0.9323814096442686 0 0 0 0.48 4 3514 15 719 17 1983 19 1106 29 909 50 2404 60 1217 77 2150 96 925 111 929 
7421 0.5166796214911734 0.15851751639670006 0.943673802564282 0 0 0 0.83 3 1246 4 3515 11 3442 15 720 29 910 33 2244 40 673 54 421 61 1454 63 454 91 598 92 1577 
7422 0.37402592285809494 0.18919462263587233 0.976726277079959 0 0 0 0.18 15 721 25 758 27 927 54 422 71 910 77 2151 111 930 
7423 0.5084744548833947 0.16107907067541022 0.9421294711239254 0 0 0 0.05 15 722 29 911 110 1096 
7424 0.4863522058737376 0.17037364186073947 0.9455698317245234 0 0 0 0.39 4 3516 9 1137 15 723 25 759 29 912 32 1004 44 1905 54 423 61 1455 77 2152 103 650 
7425 0.481425355034583 0.17465067860727018 0.9508762030283705 0 0 0 0.29 4 3517 12 577 15 724 16 1869 17 1984 25 760 29 913 32 1005 38 1738 73 630 103 651 118 1422 
7426 0.6972188063140163 0.13955025757399303 0.9166991108790142 0 0 0 0.25 15 725 71 911 118 1423 
7427 0.49566738641633507 0.17977652756458964 0.9424461459175693 0 0 0 0.35 15 726 32 1006 53 1112 
7428 0.4380419176869555 0.19403088630540116 0.9597976403694513 0 0 0 0.3 15 727 43 713 60 1218 
7429 0.7339956994723181 0.1442014667076373 0.9184398242975824 0 0 0 0.38 11 3443 15 728 19 1107 32 1007 36 857 44 1906 50 2405 53 1113 61 1456 67 392 71 912 77 2153 85 1158 91 599 92 1578 103 652 111 931 118 1424 
7430 0.7163562187498486 0.16149665283506365 0.9076634438749961 0 0 0 1.46 4 3518 11 3444 15 729 29 914 71 913 77 2154 85 1159 
7431 0.5538167161446345 0.1909754745269697 0.918171659562276 0 0 0 0.11 15 730 44 1907 50 2406 61 1457 
7432 0.5755657918273764 0.18746167548997864 0.912964920297413 0 0 0 0.15 11 3445 15 731 25 761 50 2407 53 1114 77 2155 
7433 0.5086780118298566 0.20454936140753618 0.9261452725515013 0 0 0 0.44 15 732 17 1985 19 1108 44 1908 69 311 71 914 111 932 
7434 0.4673097167188869 0.21727877429353457 0.9347211301886565 0 0 0 0.66 2 3052 4 3519 9 1138 11 3446 15 733 16 1870 33 2245 44 1909 50 2408 63 455 91 600 118 1425 146 1983 
7435 0.6197682447108673 0.18615064951685797 0.8977760954250441 0 0 0 0.35 15 734 50 2409 103 653 
7436 0.43944087397755743 0.226430825606602 0.9449976025329654 0 0 0 0.39 15 735 29 915 32 1008 69 312 
7437 0.4473071388564546 0.22775151571170338 0.9365382528219612 0 0 0 0.22 15 736 16 1871 38 1739 
7438 0.5603509583765485 0.22487837635823094 0.9085496584319618 0 0 0 0.16 15 737 17 1986 44 1910 
7439 0.525568251397345 0.23428189714969813 0.90917685853779 0 0 0 0.23 15 738 17 1987 36 858 50 2410 53 1115 61 1458 69 313 118 1426 157 988 
7440 0.40723694784828207 0.2642084961939515 0.9377386991364192 0 0 0 0.3 11 3447 15 739 29 916 50 2411 61 1459 
7441 0.4204125865404245 0.2623058131213047 0.9308414367669686 0 0 0 0.27 15 740 16 1872 50 2412 
7442 0.36995308047338865 0.2730627912609714 0.9419011954662039 0 0 0 0.3 15 741 19 1109 63 456 92 1579 
7443 0.6388617709247261 0.2223194931832692 0.8724712496293057 0 0 0 0.12 15 742 54 424 63 457 71 915 
7444 0.45558069619026226 0.26945656163661663 0.9188053993182927 0 0 0 0.22 15 743 53 1116 61 1460 
7445 0.41549767668597676 0.2777245737716695 0.9271083113612493 0 0 0 0.23 15 744 17 1988 27 928 113 894 
7446 0.5425612131199263 0.2539285791465166 0.8927708826219889 0 0 0 0.19 15 745 38 1740 146 1984 
7447 0.5423637522992009 0.25381463477447685 0.8924724491721857 0 0 0 0.23 15 746 17 1989 38 1741 85 1160 110 1097 146 1985 
7448 0.565382266890744 0.25068579883606534 0.8878359699586785 0 0 0 0.27 15 747 50 2413 63 458 92 1580 128 655 146 1986 
7449 0.4510594124946676 0.2803808858135998 0.9132569442533344 0 0 0 0.12 15 748 27 929 85 1161 
7450 0.3719844001792114 0.30359147126359937 0.9306116466008683 0 0 0 0.31 15 749 19 1110 44 1911 
7451 0.41546394171216083 0.2969588432289898 0.9162320932278566 0 0 0 0.4 15 750 25 762 27 930 
7452 0.42707954846177304 0.29878698329766945 0.9141666667109255 0 0 0 0.35 15 751 27 931 53 1117 96 926 
7453 0.4673931399963972 0.2911428675195761 0.902010166944784 0 0 0 0.32 4 3520 11 3448 15 752 16 1873 19 1111 27 932 33 2246 36 859 38 1742 44 1912 53 1118 60 1219 61 1461 89 440 92 1581 96 927 103 654 110 1098 127 704 135 127 136 468 146 1987 
7454 0.47629144167914433 0.28958673448115313 0.8994511102255782 0 0 0 0.41 11 3449 15 753 25 763 27 933 92 1582 110 1099 
7455 0.40344022379739225 0.3057481381393645 0.9109842192976919 0 0 0 0.16 15 754 27 934 38 1743 92 1583 
7456 0.49352491074580745 0.10206200609382893 1.006460960853406 0 0 0 0.49 2 3053 15 755 17 1990 96 928 97 452 
7457 0.4968813677681318 0.11815842889472475 0.9671610807585744 0 0 0 0.39 15 756 54 425 73 631 
7458 0.48077230253569514 0.12524643530716792 0.9698901716024686 0 0 0 1.11 2 3054 15 757 17 1991 19 1112 29 917 38 1744 40 674 50 2414 63 459 71 916 73 632 97 453 148 1234 152 281 199 313 
7459 0.39933271227727873 0.14545440904210571 0.982641981223235 0 0 0 0.61 15 758 29 918 96 929 
7460 0.43062578997977685 0.14051366790693384 0.9756673421901043 0 0 0 0.45 15 759 17 1992 27 935 29 919 63 460 71 917 85 1162 97 454 110 1100 
7461 0.4266686046949761 0.14682547682676764 0.9812707591405029 0 0 0 0.48 15 760 25 764 29 920 
7462 0.5299859039919865 0.12682420620188647 0.9498290381106902 0 0 0 0.45 2 3055 3 1247 11 3450 14 253 15 761 19 1113 29 921 32 1009 33 2247 40 675 41 483 43 714 54 426 69 314 71 918 73 633 96 930 103 655 111 933 128 656 157 989 159 412 
7463 0.5983484112059958 0.11742453626610495 0.9351819865664366 0 0 0 0.51 15 762 19 1114 32 1010 40 676 50 2415 60 1220 61 1462 77 2156 92 1584 105 407 110 1101 127 705 128 657 136 469 158 539 
7464 0.4195922908750332 0.16864689429253507 0.9691308482556928 0 0 0 0.3 15 763 25 765 40 677 
7465 0.6002058418992461 0.14168970002490136 0.9205436263999585 0 0 0 0.46 15 764 33 2248 40 678 50 2416 127 706 
7466 0.440054130357074 0.1760878372189094 0.9568882537449148 0 0 0 0.33 15 765 25 766 26 472 69 315 97 455 
7467 0.6320666272132669 0.14576527595545943 0.9101878669021793 0 0 0 0.54 3 1248 15 766 44 1913 60 1221 61 1463 73 634 111 934 
7468 0.3752276259518969 0.22252229009007188 0.9653567475269517 0 0 0 0.08 15 767 26 473 27 936 
7469 0.48860381720952617 0.1984597238453418 0.9348126927678081 0 0 0 0.39 15 768 33 2249 38 1745 77 2157 91 601 136 470 148 1235 
7470 0.6851880802269941 0.12016035072914448 0.735177141688379 0 0 0 0.59 43 715 53 1119 97 456 
7471 0.6209787066507514 0.17775093564522138 0.9039430920225763 0 0 0 0.28 3 1249 4 3521 38 1746 
7472 0.4622035873709205 0.21185597754717692 0.9392266825861093 0 0 0 0.32 15 769 63 461 89 441 
7473 0.7017341068221167 0.13021328318128375 0.7535186191014976 0 0 0 0.33 29 922 53 1120 63 462 91 602 97 457 
7474 0.7433673737400645 0.1800323733468008 0.9024742466679145 0 0 0 0.68 15 770 17 1993 32 1011 36 860 53 1121 54 427 61 1464 77 2158 91 603 92 1585 97 458 103 656 118 1427 
7475 0.5604194115113947 0.21120563137597556 0.9110561549854834 0 0 0 0.54 15 771 40 679 50 2417 69 316 73 635 77 2159 
7476 0.7399221981102004 0.18942331388291725 0.8987694894978335 0 0 0 0.51 15 772 29 923 32 1012 35 172 50 2418 54 428 77 2160 91 604 97 459 103 657 128 658 158 540 
7477 0.739001345377469 0.20295986950945533 0.8913695922985356 0 0 0 0.29 15 773 17 1994 36 861 44 1914 53 1122 61 1465 67 393 77 2161 92 1586 
7478 0.6189020037934526 0.2172411101869942 0.8862742005168327 0 0 0 0.28 15 774 53 1123 103 658 
7479 0.5220752838900184 0.23660004469930312 0.9050593071466829 0 0 0 0.15 15 775 16 1874 146 1988 
7480 0.500238327280957 0.24421228540449438 0.9072725695305114 0 0 0 0.4 15 776 17 1995 25 767 50 2419 53 1124 103 659 
7481 0.5500847463589608 0.23729044481037315 0.8971310407598725 0 0 0 0.37 15 777 17 1996 41 484 50 2420 61 1466 69 317 89 442 92 1587 96 931 118 1428 146 1989 
7482 0.7385861802802898 0.21454386028493022 0.8854907681785156 0 0 0 0.4 15 778 17 1997 32 1013 53 1125 61 1467 77 2162 89 443 92 1588 103 660 118 1429 
7483 0.6223965224056742 0.2297709997926545 0.8776662457408824 0 0 0 0.43 4 3522 15 779 54 429 69 318 71 919 77 2163 92 1589 
7484 0.6446506942759094 0.2255927137506709 0.8686464604427793 0 0 0 0.15 15 780 50 2421 69 319 
7485 0.5014321553095753 0.2590541207048483 0.9035412737382842 0 0 0 0.28 15 781 19 1115 25 768 92 1590 111 935 
7486 0.516250130199109 0.26093780579216325 0.8979198247925719 0 0 0 0.33 4 3523 11 3451 15 782 16 1875 17 1998 19 1116 32 1014 36 862 38 1747 44 1915 50 2422 61 1468 69 320 77 2164 146 1990 148 1236 158 541 
7487 0.7039971199713081 0.2050386728374807 0.780942600035726 0 0 0 0.34 17 1999 53 1126 61 1469 89 444 
7488 0.3450091900719747 0.30631344894235324 0.9458639683271711 0 0 0 0.41 15 783 16 1876 17 2000 25 769 43 716 118 1430 146 1991 
7489 0.4906408441290704 0.08991643842178829 0.9787027256196984 0 0 0 0.32 15 784 17 2001 81 434 85 1163 
7490 0.5930237359611246 0.09540140689432247 0.9479967625221438 0 0 0 0.56 15 785 41 485 53 1127 64 113 96 932 
7491 0.5138409630901216 0.12799848824487847 0.9576464738366773 0 0 0 0.19 15 786 38 1748 50 2423 
7492 0.37395503247134093 0.1588295878738008 0.9885978554214043 0 0 0 0.9 3 1250 15 787 17 2002 25 770 29 924 44 1916 53 1128 97 460 
7493 0.4634238430652 0.15782172119166243 0.9590971851399193 0 0 0 0.24 15 788 16 1877 33 2250 38 1749 44 1917 50 2424 77 2165 85 1164 118 1431 148 1237 157 990 
7494 0.7075965067929123 0.12965501617905695 0.9181731392784636 0 0 0 0.38 15 789 17 2003 29 925 32 1015 54 430 71 920 73 636 77 2166 85 1165 91 605 
7495 0.5687630894161522 0.1562790603618701 0.9241929304399679 0 0 0 0.34 1 620 3 1251 15 790 19 1117 29 926 40 680 65 481 67 394 148 1238 
7496 0.43153924065083454 0.19164036910630486 0.9639513161559672 0 0 0 0.2 15 791 27 937 43 717 
7497 0.5392765169330062 0.1684968910427273 0.9354907200254378 0 0 0 0.13 15 792 16 1878 38 1750 
7498 0.6392711725177148 0.15056103789824052 0.9081137207590596 0 0 0 0.19 15 793 50 2425 81 435 146 1992 
7499 0.688267031857115 0.12434009729154273 0.7390317448221063 0 0 0 0.49 43 718 53 1129 97 461 
7500 0.7356744430188392 0.1655874748773483 0.9073500012822775 0 0 0 0.35 3 1252 15 794 17 2004 65 482 67 395 77 2167 89 445 111 936 
7501 0.4420679815061964 0.23044743558458178 0.9404709467993428 0 0 0 0.27 9 1139 15 795 16 1879 29 927 118 1432 
7502 0.41661157118641107 0.23827180442950627 0.9427293706912929 0 0 0 0.46 15 796 19 1118 29 928 
7503 0.6527791604600923 0.20114976208220342 0.8779389578254548 0 0 0 0.57 15 797 65 483 67 396 
7504 0.7390818354353611 0.20907200352801217 0.8885559753806406 0 0 0 0.46 15 798 17 2005 44 1918 50 2426 53 1130 54 431 61 1470 77 2168 89 446 92 1591 
7505 0.35745099950907255 0.2740515580086694 0.947313053661528 0 0 0 0.31 15 799 17 2006 26 474 103 661 
7506 0.5652944821486187 0.23556286600878823 0.8948344450620758 0 0 0 0.44 3 1253 15 800 17 2007 44 1919 53 1131 61 1471 92 1592 96 933 118 1433 146 1993 
7507 0.34971893597831977 0.28041120167806033 0.9437887667271608 0 0 0 0.24 15 801 17 2008 25 771 26 475 27 938 65 484 71 921 96 934 
7508 0.4667249870884858 0.2587230453941026 0.9158026433474165 0 0 0 0.52 15 802 33 2251 40 681 63 463 73 637 85 1166 127 707 148 1239 
7509 0.3818477389529224 0.2931939052636508 0.9304789022973807 0 0 0 0.24 15 803 38 1751 50 2427 
7510 0.3794438903493412 0.2991073303962498 0.9253175064515972 0 0 0 0.5 15 804 25 772 27 939 43 719 92 1593 
7511 0.34500275472333014 0.3091400896510632 0.9425889419009015 0 0 0 0.54 15 805 16 1880 38 1752 77 2169 
7512 0.3448542409314187 0.3089691671306145 0.9423294283449467 0 0 0 0.57 15 806 16 1881 77 2170 
7513 0.5863857798907719 0.275297289961776 0.8663731093250877 0 0 0 0.39 15 807 17 2009 69 321 
7514 0.5768023428062518 0.10758960759157093 0.9703209076598998 0 0 0 0.85 15 808 32 1016 40 682 50 2428 92 1594 
7515 0.5438345274698113 0.1145826818579383 0.9551578484532874 0 0 0 0.84 2 3056 15 809 50 2429 97 462 128 659 
7516 0.5836877813059569 0.11389699802806098 0.9534375631921086 0 0 0 0.67 15 810 73 638 77 2171 
7517 0.4516827616770011 0.1433855306184393 0.968438403092317 0 0 0 0.73 15 811 17 2010 38 1753 53 1132 81 436 97 463 
7518 0.5809498893013803 0.11872378863094409 0.9391171201071287 0 0 0 0.67 15 812 35 173 40 683 73 639 92 1595 105 408 148 1240 
7519 0.6055825845955194 0.12795802974495546 0.9277048240393214 0 0 0 0.45 15 813 32 1017 69 322 77 2172 103 662 
7520 0.6057507567534826 0.1281169865297452 0.9280818821014618 0 0 0 0.56 15 814 53 1133 69 323 77 2173 103 663 199 314 
7521 0.6528174593459116 0.1645576184377605 0.897007191248126 0 0 0 0.28 15 815 50 2430 69 324 
7522 0.5217957261897845 0.22288857153923441 0.9140616638219089 0 0 0 0.28 15 816 16 1882 38 1754 61 1472 77 2174 91 606 128 660 
7523 0.42676257999471684 0.25618454601115787 0.9292653325146765 0 0 0 0.14 15 817 25 773 69 325 
7524 0.5632905233626673 0.24791793765921288 0.8873402352479183 0 0 0 0.26 15 818 17 2011 50 2431 69 326 
7525 0.35309724908033546 0.3194008135184968 0.9172777830542475 0 0 0 0.36 15 819 16 1883 17 2012 
7526 0.43031493311020813 0.18097149699112114 0.9664866794103081 0 0 0 0.38 15 820 27 940 53 1134 81 437 92 1596 96 935 111 937 
7527 0.7329358643713314 0.21003720206386162 0.8879921250112618 0 0 0 0.48 15 821 17 2013 29 929 32 1018 44 1920 50 2432 53 1135 54 432 61 1473 65 485 67 397 77 2175 85 1167 89 447 92 1597 103 664 118 1434 128 661 158 542 
7528 0.7315611816070735 0.21813867399983655 0.8825749553255317 0 0 0 0.35 15 822 17 2014 65 486 77 2176 89 448 92 1598 
7529 0.729705782371643 0.21779606943944185 0.8802835268585366 0 0 0 0.29 15 823 17 2015 65 487 77 2177 89 449 
7530 0.734188695841392 0.2274111306011546 0.8815133067211947 0 0 0 0.24 15 824 17 2016 65 488 77 2178 103 665 111 938 
7531 0.569212580929912 0.10424893831606939 0.9914836722857316 0 0 0 1.22 2 3057 15 825 29 930 33 2252 40 684 50 2433 71 922 73 640 105 409 126 289 
7532 0.6065041108484538 0.09681504024161473 0.9431795075915453 0 0 0 0.47 15 826 40 685 65 489 105 410 
7533 0.598207384224092 0.09513550241811379 0.940873609560451 0 0 0 0.32 15 827 17 2017 69 327 
7534 0.7338031785421955 0.18077001243589913 0.9009042055657652 0 0 0 0.52 15 828 43 720 44 1921 54 433 65 490 77 2179 89 450 
7535 0.39673663355067096 0.256015633915267 0.9406328382570357 0 0 0 0.29 1 621 4 3524 11 3452 15 829 16 1884 25 774 38 1755 65 491 77 2180 
7536 0.7213997659093064 0.20300978896517255 0.8885338837933511 0 0 0 1.04 3 1254 11 3453 15 830 17 2018 29 931 32 1019 50 2434 61 1474 65 492 67 398 77 2181 118 1435 158 543 
7537 0.7394192719742033 0.20297602723685054 0.8869315800864295 0 0 0 0.25 15 831 29 932 54 434 65 493 
7538 0.7247578315970326 0.21797493018863 0.8863468541226223 0 0 0 0.48 15 832 17 2019 89 451 
7539 0.7037746209658395 0.19016889198971032 0.7728946941239995 0 0 0 0.46 29 933 53 1136 54 435 62 119 97 464 
7540 0.41968538562462615 0.22788362029274808 0.9483593029491288 0 0 0 0.68 15 833 25 775 41 486 64 114 
7541 0.5303545602526522 0.20493915357452114 0.9184231969087567 0 0 0 1.5 2 3058 11 3454 15 834 16 1885 17 2020 32 1020 33 2253 38 1756 40 686 50 2435 53 1137 54 436 61 1475 63 464 65 494 73 641 77 2182 81 438 89 452 111 939 152 282 
7542 0.6032705848934281 0.2012245493121505 0.8991629928340694 0 0 0 0.45 15 835 17 2021 29 934 61 1476 71 923 81 439 118 1436 
7543 0.5320494653502018 0.2319047052530131 0.9087377597583376 0 0 0 0.4 15 836 17 2022 33 2254 
7544 0.5703159960772287 0.10844188078587143 0.9450269929640936 0 0 0 1.02 15 837 54 437 71 924 97 465 
7545 0.714284993028125 0.1480973856568191 0.9268281314025019 0 0 0 1.02 15 838 17 2023 65 495 
7546 0.23438264864701003 0.16150568537296062 1.107756017092101 0 0 0 0.4 4 3525 33 2255 110 1102 
7547 0.5257417348877234 0.09761969717500005 0.9641066084965588 0 0 0 0.21 38 1757 146 1994 157 991 
7548 0.5274761732740159 0.10736990625120853 0.958007870457742 0 0 0 0.3 33 2256 44 1922 92 1599 146 1995 148 1241 
7549 0.1960585105581916 0.1816836690790482 1.0885010814981146 0 0 0 0.68 2 3059 12 578 16 1886 19 1119 27 941 32 1021 36 863 60 1222 110 1103 111 940 113 895 127 708 148 1242 
7550 0.2614425901858214 0.16839555777593623 1.0652016325224845 0 0 0 0.35 4 3526 11 3455 16 1887 38 1758 113 896 
7551 0.3774882722708617 0.14392064293180562 0.9867694659953808 0 0 0 0.2 16 1888 33 2257 157 992 
7552 0.295924838716804 0.1666674585868669 1.0234975095862073 0 0 0 0.3 16 1889 33 2258 38 1759 136 471 146 1996 157 993 
7553 0.381875273610722 0.14845376522861367 0.9848822981389906 0 0 0 0.48 16 1890 33 2259 38 1760 136 472 146 1997 
7554 0.2647257020229815 0.17517606686576054 1.0367358314638064 0 0 0 0.49 33 2260 127 709 146 1998 
7555 0.5228892497955163 0.12178345799269985 0.9548402290870307 0 0 0 0.18 16 1891 38 1761 146 1999 148 1243 
7556 0.21204854282794955 0.18940477196248878 1.0529557385580637 0 0 0 0.28 11 3456 33 2261 50 2436 146 2000 
7557 0.4188844117849181 0.1449776934270516 0.9793632649712041 0 0 0 0.32 16 1892 33 2262 38 1762 127 710 
7558 0.395079146292551 0.15400768230565706 0.9830208109593456 0 0 0 0.47 16 1893 33 2263 38 1763 146 2001 157 994 
7559 0.3863713198177643 0.15875899045221173 0.9856475907586192 0 0 0 0.5 11 3457 16 1894 33 2264 38 1764 136 473 
7560 0.5857337718849066 0.11851263850811873 0.9335262889379916 0 0 0 0.11 38 1765 85 1168 146 2002 
7561 0.5167387325344082 0.13477233200465247 0.9517009515025271 0 0 0 0.28 16 1895 33 2265 136 474 146 2003 148 1244 157 995 159 413 
7562 0.3966103849635084 0.16116719954532802 0.9809639164460815 0 0 0 0.16 16 1896 112 63 146 2004 
7563 0.47613149073551486 0.14683600324103932 0.957833735851448 0 0 0 0.24 16 1897 33 2266 44 1923 157 996 
7564 0.4202736488904265 0.15879464783850025 0.9742540572703671 0 0 0 0.15 16 1898 33 2267 127 711 146 2005 
7565 0.34406510335212126 0.17360882178203607 0.9895608960027861 0 0 0 0.36 16 1899 33 2268 38 1766 112 64 146 2006 
7566 0.39942773514066215 0.1640135287694859 0.97841591578061 0 0 0 0.16 16 1900 33 2269 127 712 
7567 0.5176455058217087 0.1406412605448083 0.9499691662199632 0 0 0 0.13 16 1901 38 1767 146 2007 
7568 0.36832541580895817 0.17020557098499822 0.9867622744900607 0 0 0 0.18 16 1902 38 1768 41 487 50 2437 113 897 136 475 146 2008 157 997 158 544 
7569 0.47830231109995225 0.14804827230217862 0.9563963345014137 0 0 0 0.12 16 1903 38 1769 148 1245 
7570 0.4481547257649995 0.15550097346355735 0.9657453086597433 0 0 0 0.3 16 1904 33 2270 38 1770 148 1246 
7571 0.41214257253714537 0.1645482828482828 0.9737514358317136 0 0 0 0.19 16 1905 33 2271 44 1924 112 65 146 2009 157 998 
7572 0.4272121014139155 0.1635334286362574 0.9695753647988872 0 0 0 0.36 16 1906 61 1477 146 2010 
7573 0.47317384212124375 0.15441760804906363 0.9568927323935836 0 0 0 0.23 16 1907 33 2272 38 1771 146 2011 157 999 
7574 0.4183522520302732 0.1662025774948778 0.9711600831618179 0 0 0 0.27 16 1908 33 2273 38 1772 146 2012 157 1000 
7575 0.228940470659375 0.2065144769876356 1.0377675228540943 0 0 0 0.18 33 2274 44 1925 50 2438 92 1600 157 1001 
7576 0.22892684947369457 0.20654256120625247 1.037764274837074 0 0 0 0.21 27 942 33 2275 44 1926 50 2439 92 1601 157 1002 
7577 0.4023847327354171 0.16959234638950116 0.9714779797401183 0 0 0 0.37 16 1909 36 864 157 1003 
7578 0.3594819958049534 0.18041813016542263 0.9845927182784744 0 0 0 0.54 16 1910 33 2276 113 898 127 713 157 1004 
7579 0.36928432677997564 0.1787722994946466 0.9836317237848855 0 0 0 0.28 16 1911 33 2277 146 2013 157 1005 
7580 0.400123734649194 0.17297069223949496 0.9741242658390036 0 0 0 0.2 16 1912 33 2278 36 865 44 1927 50 2440 113 899 157 1006 
7581 0.41043752039252834 0.1711309492193396 0.9726384722827677 0 0 0 0.17 16 1913 50 2441 113 900 
7582 0.3555480495633024 0.182823080800264 0.9857111444742581 0 0 0 0.11 16 1914 33 2279 38 1773 113 901 146 2014 157 1007 
7583 0.3576998288121764 0.1826224016321157 0.9859121895808907 0 0 0 0.23 16 1915 33 2280 38 1774 112 66 146 2015 157 1008 
7584 0.3576998288121764 0.1826224016321157 0.9859121895808907 0 0 0 0.23 16 1916 33 2281 38 1775 112 67 146 2016 157 1009 
7585 0.46494067173856585 0.16128040737774738 0.9564479463394437 0 0 0 0.12 16 1917 33 2282 146 2017 148 1247 
7586 0.49013054942560325 0.15628280029597372 0.9487236378320677 0 0 0 0.24 16 1918 33 2283 112 68 146 2018 
7587 0.3527919477081652 0.18445657851332664 0.9874343301115523 0 0 0 0.27 16 1919 33 2284 112 69 157 1010 
7588 0.3699930813368011 0.18164028625311357 0.9822689770331157 0 0 0 0.11 16 1920 33 2285 146 2019 
7589 0.38184694025059596 0.17923699023860132 0.9786521130740362 0 0 0 0.17 16 1921 33 2286 146 2020 
7590 0.4492749437491074 0.16563546492349646 0.9575015185449824 0 0 0 0.65 9 1140 16 1922 32 1022 50 2442 
7591 0.34572928364421224 0.18679417717657465 0.9885853114528262 0 0 0 0.2 2 3060 16 1923 33 2287 50 2443 112 70 146 2021 
7592 0.34949137971092903 0.18604429671257688 0.9866608663984529 0 0 0 0.16 16 1924 33 2288 113 902 157 1011 
7593 0.3494926927664055 0.1860549688234531 0.9866070972205255 0 0 0 0.19 16 1925 33 2289 113 903 
7594 0.46693408400915776 0.16297119652535577 0.9556605015306383 0 0 0 0.14 16 1926 33 2290 146 2022 157 1012 
7595 0.46693408400915776 0.16297119652535577 0.9556605015306383 0 0 0 0.14 16 1927 33 2291 146 2023 157 1013 
7596 0.37336357479143417 0.18200623709254393 0.980523053861364 0 0 0 0.1 16 1928 112 71 146 2024 
7597 0.4563530790710945 0.16641281442391162 0.9591108738902998 0 0 0 0.33 16 1929 19 1120 33 2292 60 1223 77 2183 110 1104 157 1014 
7598 0.45727805434340235 0.16611503704304456 0.9582886898609704 0 0 0 0.17 16 1930 33 2293 38 1776 157 1015 
7599 0.45727805434340235 0.16611503704304456 0.9582886898609704 0 0 0 0.17 16 1931 33 2294 38 1777 157 1016 
7600 0.5699008023265973 0.14625183279095844 0.9300909699852381 0 0 0 0.25 33 2295 105 411 110 1105 146 2025 
7601 0.6116933199779034 0.13907187491383385 0.9205336907402439 0 0 0 0.38 33 2296 85 1169 146 2026 
7602 0.4434951304158954 0.17202788458904528 0.9606478088060443 0 0 0 0.24 16 1932 33 2297 38 1778 146 2027 
7603 0.6482532740004008 0.13327467287449302 0.9119070633266569 0 0 0 0.48 33 2298 44 1928 85 1170 146 2028 148 1248 
7604 0.1847567187100777 0.22855030535318235 1.053000334078764 0 0 0 0.17 33 2299 50 2444 146 2029 
7605 0.6144549915487055 0.14036758495378748 0.9172068901189158 0 0 0 0.28 33 2300 85 1171 91 607 105 412 110 1106 
7606 0.3757939019803 0.1878836846472851 0.9762145984806784 0 0 0 0.08 16 1933 112 72 146 2030 
7607 0.49465625175465144 0.1649871212289867 0.9458062646438523 0 0 0 0.23 16 1934 33 2301 44 1929 60 1224 
7608 0.413605683202362 0.18102977810565285 0.9662459596918939 0 0 0 0.21 16 1935 33 2302 38 1779 
7609 0.440413856048446 0.176246720748634 0.9578556435395099 0 0 0 0.22 16 1936 33 2303 127 714 148 1249 
7610 0.3187635628256533 0.20180887794022567 0.9966323735787399 0 0 0 0.15 16 1937 33 2304 38 1780 50 2445 146 2031 
7611 0.4720420347732814 0.1716938599410299 0.9499240413165646 0 0 0 0.16 16 1938 38 1781 146 2032 
7612 0.4718901224823049 0.17165613682984046 0.9495269740538704 0 0 0 0.17 16 1939 38 1782 146 2033 157 1017 
7613 0.2936839898138652 0.2093167711962859 1.0040075644310547 0 0 0 0.1 16 1940 38 1783 146 2034 
7614 0.31622091152174664 0.20422334283484248 0.9958695406852982 0 0 0 0.19 16 1941 38 1784 146 2035 
7615 0.2909651416089821 0.21062066242156083 1.0079342655345425 0 0 0 0.12 16 1942 33 2305 146 2036 
7616 0.31918310847300424 0.20427466377790776 0.9961303088092868 0 0 0 0.2 16 1943 33 2306 157 1018 
7617 0.5105193391289835 0.16592205691003997 0.9416165781270345 0 0 0 0.16 16 1944 33 2307 91 608 
7618 0.5218505534886219 0.16376976281355923 0.9370582882390656 0 0 0 0.24 16 1945 33 2308 136 476 
7619 0.5383316966988643 0.16066668477236992 0.933341711423305 0 0 0 0.29 33 2309 38 1785 91 609 105 413 148 1250 
7620 0.5427633561655673 0.15986074194615707 0.9324751856471175 0 0 0 0.25 33 2310 44 1930 91 610 148 1251 
7621 0.3932279253765423 0.18938077315084997 0.9702012330991476 0 0 0 0.2 16 1946 112 73 146 2037 
7622 0.5347680707802434 0.16209969243375116 0.9348226462951148 0 0 0 0.28 16 1947 33 2311 38 1786 118 1437 127 715 146 2038 
7623 0.49058343318181186 0.17116051641883506 0.9431261997300829 0 0 0 0.11 16 1948 127 716 146 2039 
7624 0.243003855484342 0.2230753131037779 1.0266142627800758 0 0 0 0.25 16 1949 33 2312 146 2040 
7625 0.1864290009224538 0.2356645934936175 1.0482104123277518 0 0 0 0.26 11 3458 33 2313 50 2446 127 717 128 662 146 2041 
7626 0.5650717386427959 0.15907755811561355 0.9252028731167383 0 0 0 0.08 33 2314 91 611 105 414 146 2042 
7627 0.3236834276919918 0.20840480764398306 0.9938821076293298 0 0 0 0.17 16 1950 33 2315 60 1225 146 2043 
7628 0.48935770751238766 0.17598676132977825 0.9438437271552266 0 0 0 0.19 16 1951 33 2316 146 2044 
7629 0.5678733393554679 0.1634169304711291 0.924117025366543 0 0 0 0.17 16 1952 33 2317 146 2045 157 1019 
7630 0.41708930892205465 0.1934321000572858 0.9611008602734233 0 0 0 0.08 16 1953 33 2318 157 1020 
7631 0.491000253097342 0.1816689782473893 0.940060190077351 0 0 0 0.29 16 1954 33 2319 38 1787 148 1252 
7632 0.6138517186854098 0.15984932585185588 0.9092935954017434 0 0 0 0.42 19 1121 91 612 136 477 
7633 0.26906774997383043 0.23057527332686514 1.0119035805068697 0 0 0 0.11 16 1955 38 1788 146 2046 
7634 0.43939359693095853 0.19962996628683582 0.9511544795814906 0 0 0 0.41 16 1956 112 74 146 2047 
7635 0.46821673990778 0.19867840784443194 0.9399666369506496 0 0 0 0.29 16 1957 50 2447 146 2048 
7636 0.4195729383847349 0.20967230577109786 0.9544601981968808 0 0 0 0.2 16 1958 38 1789 112 75 136 478 
7637 0.4442016852545699 0.2048073159509247 0.9471031224457742 0 0 0 0.27 16 1959 33 2320 136 479 146 2049 157 1021 
7638 0.22142598651840817 0.25285824621820974 1.0287697053225806 0 0 0 0.4 19 1122 44 1931 50 2448 61 1478 73 642 
7639 0.3742000304156053 0.21949783862307914 0.9665343866630324 0 0 0 0.17 16 1960 92 1602 112 76 
7640 0.3920168048268041 0.21562155219482285 0.9607600970614095 0 0 0 0.33 16 1961 112 77 146 2050 
7641 0.2226315074355403 0.2549160457689593 1.0260704706641164 0 0 0 0.21 11 3459 33 2321 50 2449 146 2051 
7642 0.1986381647134155 0.2604092977811113 1.0341404252805504 0 0 0 0.13 33 2322 146 2052 157 1022 
7643 0.2490189137667904 0.24917167482457617 1.0139450731715323 0 0 0 0.06 16 1962 33 2323 146 2053 
7644 0.37771567098150094 0.2213099157457271 0.9652801288472147 0 0 0 0.07 16 1963 38 1790 146 2054 
7645 0.2135908894031491 0.2587837030931773 1.0329411388956162 0 0 0 0.43 41 488 50 2450 157 1023 
7646 0.2709087523194825 0.2461683439806243 1.0035299898059569 0 0 0 0.29 16 1964 33 2324 38 1791 146 2055 
7647 0.43078209606125106 0.21340596023604935 0.9486262863386951 0 0 0 0.21 16 1965 33 2325 136 480 148 1253 157 1024 
7648 0.4895134649240627 0.20219712214168556 0.9324762547772604 0 0 0 0.31 16 1966 33 2326 38 1792 41 489 44 1932 77 2184 127 718 146 2056 
7649 0.4817718585360313 0.20393305360286273 0.9347778661345634 0 0 0 0.24 16 1967 33 2327 91 613 127 719 
7650 0.4817509886806024 0.20393569784027316 0.9347214438698633 0 0 0 0.21 16 1968 33 2328 91 614 127 720 136 481 
7651 0.4733883353962294 0.20677348353012012 0.937707387734738 0 0 0 0.35 16 1969 33 2329 44 1933 91 615 136 482 146 2057 
7652 0.4419718249958594 0.21309969698170747 0.9458653261157733 0 0 0 0.18 16 1970 38 1793 146 2058 
7653 0.460008937323503 0.20976213257646376 0.9417931750274587 0 0 0 0.16 16 1971 33 2330 136 483 
7654 0.5032071153661876 0.2012088528656718 0.9289899085866581 0 0 0 0.17 16 1972 32 1023 110 1107 
7655 0.5559255831231737 0.19272580044055623 0.9162402128820151 0 0 0 0.16 33 2331 35 174 38 1794 105 415 127 721 148 1254 
7656 0.4882735039147593 0.2056823110061799 0.9331362655792682 0 0 0 0.34 16 1973 112 78 146 2059 
7657 0.5534416422791106 0.19315143430395462 0.91682360861916 0 0 0 0.17 33 2332 85 1172 91 616 105 416 157 1025 
7658 0.5533295212145842 0.1930733081638558 0.9162665642275425 0 0 0 0.16 33 2333 85 1173 91 617 105 417 148 1255 
7659 0.6540121303057502 0.1743839111520144 0.8923652336576683 0 0 0 0.16 2 3061 19 1123 33 2334 40 687 60 1226 105 418 127 722 148 1256 
7660 0.4735159954665064 0.20865670191661714 0.9367264054192207 0 0 0 0.36 16 1974 33 2335 146 2060 
7661 0.3831854352576549 0.2264133455509796 0.9617739535010675 0 0 0 0.18 16 1975 33 2336 146 2061 
7662 0.3831854352576549 0.2264133455509796 0.9617739535010675 0 0 0 0.18 16 1976 33 2337 146 2062 
7663 0.3403976987092381 0.2354140319098322 0.9746812964780884 0 0 0 0.12 16 1977 33 2338 112 79 
7664 0.3857376458412182 0.22622632159197692 0.9610982734591399 0 0 0 0.11 16 1978 38 1795 136 484 
7665 0.5084859909959971 0.20322457188701884 0.9283949994506794 0 0 0 0.28 16 1979 33 2339 44 1934 
7666 0.4749087827022231 0.2093947197368261 0.9364358849676061 0 0 0 0.31 16 1980 33 2340 157 1026 
7667 0.3445009333417837 0.23543687416220316 0.9740634050606588 0 0 0 0.22 16 1981 41 490 112 80 
7668 0.20873135660104913 0.2656663408334252 1.0277845383838766 0 0 0 0.25 33 2341 60 1227 146 2063 157 1027 
7669 0.4496146940185665 0.21556105053826385 0.9431153659805355 0 0 0 0.39 16 1982 33 2342 38 1796 44 1935 136 485 146 2064 157 1028 159 414 
7670 0.4521757435319801 0.21499607958146202 0.9422350492403316 0 0 0 0.25 4 3527 16 1983 33 2343 38 1797 136 486 
7671 0.5600911490443724 0.1948029876708978 0.9152555044196897 0 0 0 0.23 16 1984 33 2344 148 1257 
7672 0.4615382763889919 0.21370184332836528 0.939626266568149 0 0 0 0.11 16 1985 33 2345 136 487 157 1029 
7673 0.3493581962318348 0.23517583463527844 0.9684198317729397 0 0 0 0.23 16 1986 112 81 146 2065 
7674 0.5007739156116648 0.20674817781454013 0.9281084134569039 0 0 0 0.08 16 1987 33 2346 91 618 146 2066 
7675 0.3459014691701152 0.23632684707696525 0.9668683579622692 0 0 0 0.27 16 1988 50 2451 61 1479 146 2067 
7676 0.3928651277702037 0.22833156749240321 0.9555147084538806 0 0 0 0.09 16 1989 112 82 146 2068 
7677 0.5498654996838126 0.19900653312741287 0.916119754353497 0 0 0 0.31 2 3062 33 2347 44 1936 91 619 105 419 136 488 146 2069 157 1030 
7678 0.5482659360103285 0.19961423767438205 0.9172142671282117 0 0 0 0.23 16 1990 33 2348 91 620 157 1031 
7679 0.5603460549066709 0.19735602662102242 0.9133606194702396 0 0 0 0.15 33 2349 105 420 136 489 146 2070 
7680 0.2510885535666709 0.2621581459565241 1.0107393209456166 0 0 0 0.35 16 1991 33 2350 38 1798 
7681 0.44075439675232436 0.22228917012516525 0.9416165126668672 0 0 0 0.1 16 1992 112 83 146 2071 
7682 0.4638004108608489 0.2190166535183893 0.9381815243614025 0 0 0 0.1 16 1993 50 2452 146 2072 
7683 0.4179784632545199 0.22792567806485833 0.9464649936249703 0 0 0 0.23 16 1994 136 490 146 2073 
7684 0.4421198662081745 0.22380501699614233 0.9397284890665573 0 0 0 0.2 16 1995 38 1799 128 663 
7685 0.6645733447939142 0.18461055948441552 0.8880099827655421 0 0 0 0.19 33 2351 60 1228 136 491 148 1258 
7686 0.2478275169249738 0.27059881553177284 1.0070503937594169 0 0 0 0.23 16 1996 33 2352 38 1800 113 904 146 2074 
7687 0.3233037607355183 0.27336327740783195 0.9669186214739475 0 0 0 0.27 16 1997 38 1801 146 2075 
7688 0.26409714688754093 0.2893178331466948 0.9880548844985723 0 0 0 0.19 16 1998 33 2353 146 2076 
7689 0.3735415800432843 0.2648555715582622 0.9440061073544737 0 0 0 0.47 16 1999 33 2354 38 1802 146 2077 157 1032 
7690 0.2925868702544344 0.28265478238269637 0.9733825192825085 0 0 0 0.07 16 2000 50 2453 146 2078 
7691 0.39664278307156564 0.2610521557401068 0.9374107799190524 0 0 0 0.21 16 2001 33 2355 38 1803 146 2079 157 1033 
7692 0.3725181895911386 0.2660811010586149 0.9432586475038417 0 0 0 0.27 9 1141 16 2002 33 2356 44 1937 92 1603 
7693 0.34982823566807586 0.27040878801685697 0.9477504157508635 0 0 0 0.1 16 2003 33 2357 146 2080 
7694 0.3491047060341981 0.27163056745742314 0.9473334411445063 0 0 0 0.09 16 2004 33 2358 38 1804 146 2081 157 1034 
7695 0.5209278343631315 0.24165446939966997 0.9032944823204468 0 0 0 0.17 16 2005 136 492 146 2082 
7696 0.594014088242402 0.22897296513028517 0.8862420726873855 0 0 0 0.12 91 621 110 1108 146 2083 
7697 0.3595648884663296 0.2731615008827524 0.9495707295002105 0 0 0 0.06 16 2006 33 2359 38 1805 
7698 0.36212157372873194 0.2727453645213186 0.9490331075358517 0 0 0 0.13 16 2007 33 2360 157 1035 
7699 0.44403720059567137 0.25649546077167024 0.9227073635661688 0 0 0 0.23 16 2008 112 84 146 2084 
7700 0.4693257531578235 0.2520933282373319 0.9153999345621563 0 0 0 0.23 16 2009 112 85 146 2085 
7701 0.39350438967527257 0.2676111606745206 0.9381180947801901 0 0 0 0.14 16 2010 112 86 146 2086 
7702 0.5626435044532793 0.23790491706187156 0.8998281200390479 0 0 0 0.11 38 1806 44 1938 50 2454 91 622 
7703 0.23886914863768824 0.3006910780568605 0.9939227097787927 0 0 0 0.25 50 2455 61 1480 146 2087 
7704 0.5189707603691504 0.24399621729266874 0.9015081790947077 0 0 0 0.2 16 2011 33 2361 91 623 
7705 0.47913203965523676 0.25311263544366625 0.9169987910152111 0 0 0 0.25 16 2012 38 1807 91 624 
7706 0.3648712002297159 0.27467324523486564 0.9481014859048104 0 0 0 0.08 16 2013 136 493 146 2088 
7707 0.3212125914792145 0.2832108162067767 0.9584084667979358 0 0 0 0.17 16 2014 33 2362 50 2456 146 2089 
7708 0.5859306115946838 0.2344965675751042 0.8896625520733789 0 0 0 0.07 2 3063 38 1808 44 1939 
7709 0.46094848537371186 0.2572778539661031 0.9203993132962399 0 0 0 0.23 16 2015 38 1809 85 1174 
7710 0.4322291348706686 0.2643348271939655 0.9303064598072592 0 0 0 1.17 16 2016 136 494 146 2090 
7711 0.5295125068732939 0.24632288555358234 0.9042870837267437 0 0 0 0.23 16 2017 38 1810 44 1940 146 2091 
7712 0.5341212566234497 0.24526334182309958 0.9016427536135091 0 0 0 0.23 16 2018 33 2363 40 688 91 625 148 1259 157 1036 
7713 0.364685337108756 0.2767112388115096 0.9462575449180134 0 0 0 0.04 16 2019 38 1811 146 2092 
7714 0.33713793528182806 0.283020011320202 0.957805926832327 0 0 0 0.25 16 2020 33 2364 38 1812 146 2093 
7715 0.480791677631206 0.2556557657356103 0.9158748895542058 0 0 0 0.09 16 2021 38 1813 146 2094 
7716 0.33132101792721824 0.284952887976497 0.9602218288990118 0 0 0 0.09 16 2022 112 87 146 2095 
7717 0.4884712564892472 0.25441346394561754 0.9132770340483893 0 0 0 0.1 16 2023 33 2365 91 626 
7718 0.4113773879244869 0.26924414665939816 0.9348891720850407 0 0 0 0.09 16 2024 38 1814 146 2096 
7719 0.5909687490105844 0.2345249325287618 0.8815703490965654 0 0 0 0.26 77 2185 91 627 92 1604 
7720 0.2455745882525271 0.30410410723301 0.9900999859408423 0 0 0 0.24 11 3460 16 2025 33 2366 148 1260 
7721 0.4845664978337539 0.256224469089335 0.9136376276052697 0 0 0 0.12 16 2026 33 2367 146 2097 
7722 0.4895363481895787 0.2552809818717055 0.9117284494151723 0 0 0 0.16 16 2027 44 1941 91 628 
7723 0.4113188116781062 0.27054023911533415 0.9339531693765811 0 0 0 0.22 16 2028 33 2368 146 2098 
7724 0.4113188116781062 0.27054023911533415 0.9339531693765811 0 0 0 0.22 16 2029 33 2369 146 2099 
7725 0.38463750427153665 0.27498557463730794 0.9392168278770217 0 0 0 0.16 16 2030 33 2370 148 1261 
7726 0.3884050972871784 0.2745091578286811 0.9381096220672905 0 0 0 0.31 16 2031 92 1605 146 2100 
7727 0.43425249332159227 0.26718139310457206 0.9272669128126876 0 0 0 0.06 16 2032 33 2371 146 2101 
7728 0.4368792112441441 0.26667153631455354 0.9264941308368083 0 0 0 0.1 16 2033 33 2372 146 2102 
7729 0.4820649282410958 0.2580702559687136 0.9138994974497864 0 0 0 0.19 16 2034 38 1815 110 1109 146 2103 
7730 0.44420713387687694 0.2644072057395634 0.919285270814448 0 0 0 0.23 16 2035 112 88 146 2104 
7731 0.22948663780183012 0.31110957743849904 0.996665711373894 0 0 0 0.25 2 3064 11 3461 33 2373 146 2105 157 1037 
7732 0.23390188787986144 0.3103980265796615 0.9956566260579827 0 0 0 0.18 33 2374 50 2457 146 2106 
7733 0.3783386846249401 0.2779244524086977 0.9366847283177324 0 0 0 0.19 16 2036 33 2375 146 2107 
7734 0.5182958988782043 0.2517971243979384 0.8985916565828745 0 0 0 0.14 16 2037 33 2376 146 2108 157 1038 
7735 0.4029492518514734 0.27443061408329744 0.9315572662039362 0 0 0 0.2 16 2038 92 1606 135 128 146 2109 
7736 0.5132888395411047 0.2560744506613738 0.9026448768571279 0 0 0 0.29 16 2039 38 1816 91 629 146 2110 
7737 0.2957723825266062 0.29886142228227375 0.9678309082688921 0 0 0 0.29 16 2040 33 2377 36 866 38 1817 50 2458 92 1607 110 1110 146 2111 157 1039 
7738 0.32802581028840383 0.29185932010821897 0.9550567515810175 0 0 0 0.2 16 2041 38 1818 50 2459 146 2112 157 1040 
7739 0.5669176912855484 0.24637687961895088 0.8864256870744421 0 0 0 0.53 33 2378 35 175 38 1819 85 1175 91 630 92 1608 157 1041 
7740 0.3654881910128958 0.2849269325438873 0.9431693933096016 0 0 0 0.07 16 2042 136 495 146 2113 
7741 0.24263077990938067 0.31193533398655665 0.9883972188392401 0 0 0 0.23 33 2379 146 2114 157 1042 
7742 0.3263974104177328 0.29285859789436874 0.9538836790364367 0 0 0 0.13 16 2043 38 1820 146 2115 
7743 0.3498246499010515 0.28728974786115496 0.9427374254783845 0 0 0 0.14 16 2044 33 2380 146 2116 
7744 0.4322720426202024 0.27332159006126283 0.9246898413927687 0 0 0 0.25 16 2045 110 1111 146 2117 
7745 0.35122468660873685 0.2883757289064359 0.9430370630327664 0 0 0 0.11 16 2046 33 2381 146 2118 
7746 0.5307807046012265 0.2568262533474699 0.8985357121284219 0 0 0 0.21 4 3528 11 3462 16 2047 38 1821 92 1609 96 936 110 1112 
7747 0.5354862117271695 0.2561548406523555 0.8973003986506566 0 0 0 0.17 16 2048 38 1822 146 2119 148 1262 
7748 0.47389012459588153 0.26632994050395437 0.9095774402587311 0 0 0 0.21 16 2049 38 1823 91 631 146 2120 
7749 0.47389012459588153 0.26632994050395437 0.9095774402587311 0 0 0 0.21 16 2050 38 1824 91 632 146 2121 
7750 0.6065945838780715 0.24482252734754814 0.8812218472909508 0 0 0 0.11 38 1825 91 633 146 2122 
7751 0.6157641515585567 0.24147116565484 0.8730451309069748 0 0 0 0.2 33 2382 91 634 105 421 146 2123 
7752 0.524295605513578 0.25932146525283684 0.8959129415749046 0 0 0 0.25 16 2051 38 1826 44 1942 91 635 110 1113 146 2124 157 1043 
7753 0.24354744258166905 0.3188747684155996 0.9858699497985519 0 0 0 0.12 33 2383 146 2125 157 1044 
7754 0.49573227496267963 0.2692607008676686 0.9001699382992551 0 0 0 0.2 16 2052 38 1827 91 636 92 1610 110 1114 
7755 0.29674828048008933 0.3103292247595575 0.963326309937032 0 0 0 0.31 16 2053 33 2384 38 1828 41 491 92 1611 113 905 146 2126 148 1263 157 1045 
7756 0.29095382076122966 0.31619682103840474 0.9650913805174814 0 0 0 0.28 16 2054 38 1829 146 2127 
7757 0.5204581027475778 0.27240307123890695 0.8922306056590606 0 0 0 0.31 16 2055 38 1830 85 1176 91 637 136 496 146 2128 
7758 0.5190916956318921 0.27332463667424817 0.8924891778342764 0 0 0 0.18 16 2056 91 638 92 1612 146 2129 
7759 0.3492675435336373 0.30395106941184835 0.9362311934506302 0 0 0 0.05 16 2057 33 2385 146 2130 
7760 0.49787115853004965 0.27861708673559615 0.8965623725193369 0 0 0 0.24 16 2058 38 1831 91 639 
7761 0.4450201698971288 0.28869548234089704 0.9112246010551428 0 0 0 0.14 16 2059 38 1832 146 2131 
7762 0.5587060282174392 0.270409759365456 0.8843198273032482 0 0 0 0.08 33 2386 105 422 146 2132 
