# 3D point list with one line of data per point:
#   POINT3D_ID, X, Y, Z, R, G, B, ERROR, TRACK[] as (IMAGE_ID, POINT2D_IDX)
# Number of points: 293, mean track length: 12.29
1822 -0.4247687778253368 0.03596971030615371 0.6929141545950591 57 41 47 0.47 46 716 47 750 48 759 49 759 50 732 51 704 52 632 53 505 54 475 57 492 58 459 59 406 60 383 61 274 62 455 63 470 64 466 65 462 66 483 67 520 68 495 72 208 
1823 -0.4347918440877554 0.23915862517962416 0.6374149457322316 137 162 187 0.56 46 717 47 751 48 760 49 760 50 733 51 705 52 633 53 506 54 476 57 493 58 460 59 407 62 456 63 471 64 467 65 463 66 484 67 521 68 496 72 209 
1824 -0.41455045936315305 0.16667684170852598 0.650748418097871 59 43 49 0.44 46 718 47 752 48 761 49 761 50 734 51 706 52 634 53 507 54 477 57 494 58 461 59 408 61 275 62 457 63 472 64 468 65 464 66 485 72 210 
1825 -0.5262268123062105 -0.02343116970939032 0.8814550151499959 158 160 161 0.36 46 719 47 753 48 762 49 762 50 735 51 707 52 635 53 508 54 478 57 495 58 462 59 409 60 384 61 276 62 458 63 473 64 469 65 465 66 486 67 522 68 497 69 423 70 373 71 257 72 211 
1826 -0.5365580270796474 -0.012058191382509584 0.8989842148208002 125 115 114 0.3 46 720 47 754 48 763 49 763 50 736 51 708 52 636 53 509 54 479 57 496 58 463 59 410 60 385 61 277 62 459 63 474 64 470 65 466 66 487 67 523 68 498 69 424 70 374 
1827 -0.41151939827022965 0.029246830545399442 0.656873319118287 148 142 138 0.47 46 721 47 755 48 764 49 764 50 737 51 709 52 637 53 510 54 480 57 497 58 464 59 411 60 386 61 278 62 460 63 475 64 471 65 467 66 488 67 524 71 258 72 212 
1828 -0.4128770881010017 -0.253126798921135 0.6916731603648022 167 169 170 0.57 46 722 47 756 48 765 49 765 50 738 51 710 53 511 54 481 57 498 58 465 59 412 60 387 61 279 63 476 64 472 65 468 66 489 67 525 68 499 69 425 70 375 71 259 72 213 
1829 -0.5199746501389013 0.2587851354452909 0.7808216895766925 32 49 37 0.65 47 757 48 766 49 766 50 739 51 711 52 638 53 512 54 482 57 499 58 466 59 413 62 461 63 477 64 473 65 469 66 490 67 526 68 500 69 426 
1830 -0.5517137493027707 -0.005541580947285662 0.9253528778784486 178 181 184 0.37 46 723 47 758 48 767 49 767 50 740 51 712 52 639 53 513 54 483 57 500 58 467 59 414 60 388 61 280 62 462 63 478 64 474 65 470 66 491 67 527 68 501 69 427 70 376 
1831 -0.45749420106608957 -0.08195983032518729 0.7554691225888733 167 159 158 0.32 46 724 47 759 48 768 49 768 50 741 51 713 52 640 53 514 54 484 57 501 58 468 59 415 60 389 61 281 62 463 63 479 64 475 65 471 66 492 67 528 68 502 69 428 70 377 71 260 72 214 
1832 -0.4743446154165268 -0.12477624842910177 0.7915809364808168 187 192 194 0.38 46 725 47 760 48 769 49 769 50 742 51 714 52 641 53 515 54 485 57 502 58 469 59 416 60 390 61 282 62 464 63 480 64 476 65 472 66 493 67 529 68 503 69 429 70 378 71 261 72 215 
1833 -0.6465612063159011 0.08888678724880246 1.0999507655697165 152 157 162 0.42 46 726 47 761 48 770 49 770 50 743 51 715 52 642 53 516 54 486 57 503 58 470 59 417 60 391 62 465 63 481 64 477 65 473 66 494 67 530 68 504 69 430 70 379 
1834 -0.6238136454692733 0.06630795551180597 1.059181451636455 109 107 109 0.36 46 727 47 762 48 771 49 771 50 744 51 716 52 643 53 517 54 487 57 504 58 471 59 418 60 392 62 466 63 482 64 478 65 474 66 495 67 531 68 505 69 431 70 380 
1835 -0.5040021008794208 -0.047106664820859255 0.8412418586485461 183 181 176 0.34 46 728 47 763 48 772 49 772 50 745 51 717 52 644 53 518 54 488 57 505 58 472 59 419 60 393 61 283 62 467 63 483 64 479 65 475 66 496 67 532 68 506 69 432 70 381 71 262 72 216 
1836 -0.3359500463258066 -0.2971402872282102 0.5486447721308377 62 48 46 0.55 46 729 47 764 48 773 49 773 50 746 51 718 52 645 53 519 54 489 57 506 59 420 60 394 61 284 63 484 
1837 -0.6031794766131524 -0.11795938687203353 1.0403583202054871 133 136 137 0.55 46 730 47 765 48 774 49 774 50 747 51 719 52 646 53 520 54 490 57 507 58 473 59 421 60 395 61 285 62 468 63 485 64 480 65 476 66 497 67 533 68 507 69 433 70 382 71 263 
1838 -0.6024275404341469 -0.06424440689667839 1.0324964222531745 157 156 158 0.57 46 731 47 766 48 775 49 775 50 748 51 720 52 647 53 521 54 491 57 508 58 474 59 422 60 396 61 286 62 469 63 486 64 481 65 477 66 498 67 534 68 508 69 434 70 383 71 264 72 217 
1839 -0.35338848310746257 -0.29491852645631367 0.5803143934271826 182 183 176 0.55 46 732 47 767 48 776 49 776 50 749 51 721 52 648 53 522 54 492 57 509 59 423 60 397 61 287 63 487 
1840 -0.7233546399867744 0.13552500470294748 1.1125544751102183 32 50 49 0.79 52 649 53 523 54 493 57 510 58 475 59 424 60 398 62 470 63 488 64 482 65 478 66 499 67 535 68 509 70 384 71 265 
1841 -0.48744491754975655 -0.020405084308662995 0.8060504588083671 114 118 129 0.28 46 733 47 768 48 777 49 777 50 750 51 722 52 650 53 524 54 494 57 511 58 476 59 425 60 399 61 288 62 471 63 489 64 483 65 479 66 500 67 536 68 510 69 435 70 385 72 218 
1842 -0.4628006712609551 -0.07828485073248084 0.7663799457296542 52 49 60 0.28 46 734 47 769 48 778 49 778 50 751 51 723 52 651 53 525 54 495 57 512 58 477 59 426 60 400 61 289 62 472 63 490 64 484 65 480 66 501 67 537 68 511 69 436 70 386 71 266 72 219 
1843 -0.6227491486661401 -0.154415499058606 1.082694679081115 165 154 152 0.42 46 735 47 770 48 779 49 779 50 752 51 724 52 652 53 526 57 513 58 478 59 427 60 401 62 473 63 491 64 485 65 481 66 502 67 538 68 512 69 437 70 387 71 267 
1844 -0.570869508873782 0.005237714715927001 0.9629179425379386 181 183 184 0.38 46 736 47 771 48 780 49 780 50 753 51 725 52 653 53 527 54 496 57 514 58 479 59 428 60 402 61 290 62 474 63 492 64 486 65 482 66 503 67 539 68 513 69 438 70 388 
1845 -0.5476920415235336 -0.11200467898357243 0.9306042443740822 185 183 177 0.5 46 737 47 772 48 781 49 781 50 754 51 726 52 654 53 528 54 497 57 515 58 480 59 429 60 403 61 291 62 475 63 493 64 487 65 483 66 504 67 540 68 514 69 439 70 389 71 268 72 220 
1846 -0.5687254978262115 -0.0025335080923454866 0.9587273937045014 119 118 119 0.32 46 738 47 773 48 782 49 782 50 755 51 727 52 655 53 529 54 498 57 516 58 481 59 430 60 404 61 292 62 476 63 494 64 488 65 484 66 505 67 541 68 515 69 440 70 390 
1847 -0.6550613253880548 -0.11260947952966267 1.1439203780935905 162 155 149 0.45 46 739 47 774 48 783 49 783 50 756 51 728 52 656 53 530 54 499 57 517 58 482 59 431 60 405 62 477 63 495 64 489 65 485 66 506 67 542 68 516 69 441 70 391 71 269 
1848 -0.3138595470543197 -0.26649651630576965 0.50838154885941 149 153 137 0.56 46 740 47 775 48 784 49 784 50 757 51 729 52 657 53 531 54 500 57 518 59 432 61 293 63 496 
1849 -0.4578856621270302 0.09844513868618429 0.45525628586886824 9 13 10 0.61 50 758 59 433 61 294 63 497 
1850 -0.6023455495268663 0.08470469969792102 1.0283583110247463 48 39 44 0.27 47 776 48 785 49 785 50 759 51 730 52 658 53 532 54 501 57 519 58 483 59 434 60 406 62 478 63 498 64 490 65 486 66 507 67 543 68 517 69 442 70 392 
1851 0.4490546527636348 0.09724979307603765 0.8823601855600626 52 58 54 0.56 79 590 80 602 81 608 82 431 83 455 84 529 85 525 
1852 0.10719780227932897 -0.16422048131043968 0.7257425650107894 150 166 191 0.88 79 591 80 603 82 432 83 456 88 660 89 667 90 153 91 149 92 146 93 148 94 146 95 139 96 108 
1853 0.360052458571116 0.11879925680192086 0.8097039456000658 57 37 38 0.38 79 592 80 604 81 609 82 433 83 457 84 530 85 526 86 511 
1854 0.3532769739695232 0.07030765988801561 0.8145500868680599 81 64 65 0.31 79 593 80 605 81 610 82 434 83 458 84 531 85 527 86 512 
1855 0.3229934777707788 -0.17824380264901488 0.8580579261859432 158 201 236 0.4 79 594 80 606 81 611 82 435 83 459 84 532 85 528 86 513 87 523 88 661 89 668 90 154 91 150 92 147 93 149 94 147 95 140 
1856 0.6317636711869926 -0.015288752827235323 0.6784967442819714 157 168 141 1.37 81 612 85 529 88 662 89 669 90 155 91 151 
1857 0.47697188178091393 0.04334161815620224 0.9048572789408565 97 110 120 0.75 79 595 80 607 81 613 82 436 88 663 89 670 
1858 0.17747639412678604 -0.25870160314741447 0.7768629132674605 124 104 100 0.48 79 596 80 608 81 614 82 437 83 460 85 530 86 514 87 524 88 664 89 671 90 156 91 152 92 148 93 150 94 148 95 141 96 109 
1859 0.43534570052397836 -0.18940427480159444 0.9181143167035218 138 158 180 0.42 79 597 80 609 81 615 82 438 83 461 84 533 85 531 86 515 87 525 88 665 89 672 90 157 91 153 92 149 93 151 94 149 95 142 96 110 
1860 0.27778036964697445 -0.14886663147483925 0.8256412204591763 63 78 87 0.44 79 598 80 610 81 616 82 439 83 462 84 534 85 532 86 516 87 526 88 666 89 673 90 158 91 154 92 150 93 152 94 150 95 143 
1861 0.48888049887462326 -0.1878668807820084 0.9557964818293746 112 129 146 0.44 79 599 80 611 81 617 82 440 83 463 84 535 85 533 86 517 87 527 88 667 89 674 90 159 91 155 92 151 93 153 94 151 95 144 96 111 
1862 0.5853958521988953 -0.1477718404749336 0.9959357197455274 156 158 161 0.62 79 600 80 612 81 618 84 536 85 534 86 518 87 528 88 668 89 675 90 160 91 156 92 152 93 154 94 152 95 145 96 112 97 21 
1863 0.13180349459568153 -0.03193856440279565 0.70676404737316 82 57 59 0.27 79 601 80 613 82 441 83 464 
1864 0.20103758395057184 0.06052357295042492 0.5261931356961562 132 153 83 1.15 79 602 82 442 83 465 89 676 
1865 0.27479780886455996 0.09525217393824391 0.7779532199054151 143 150 166 0.61 79 603 80 614 81 619 82 443 83 466 84 537 85 535 86 519 87 529 
1866 0.4510812496616739 0.015165220502206405 0.8911273892237072 59 55 47 1.03 79 604 80 615 81 620 82 444 83 467 87 530 88 669 89 677 90 161 
1867 0.8753428636070362 -0.24892839978586248 1.1679853440131913 84 71 65 0.89 79 605 80 616 81 621 84 538 85 536 86 520 87 531 88 670 89 678 90 162 91 157 92 153 93 155 94 153 
1868 0.34344105140155845 -0.06957745911158517 0.8344149962374279 155 150 149 0.63 79 606 80 617 81 622 82 445 83 468 84 539 85 537 89 679 90 163 91 158 92 154 93 156 94 154 95 146 
1869 0.17384604801094047 -0.0056183790715978715 0.7299489136436277 18 13 12 0.22 79 607 80 618 81 623 82 446 83 469 
1870 0.22089553171831486 -0.1783074610244948 0.7915160159322385 156 157 158 0.67 79 608 80 619 81 624 82 447 83 470 84 540 85 538 86 521 87 532 88 671 89 680 90 164 91 159 92 155 93 157 94 155 95 147 96 113 
1871 0.35170346952271825 -6.734782587680678e-05 0.8276363420299039 139 132 133 0.27 79 609 80 620 81 625 82 448 83 471 84 541 85 539 
1872 0.10903989286971488 0.06819535947201408 0.694753750933131 142 162 187 0.28 79 610 80 621 82 449 83 472 88 672 89 681 
1873 0.10916276499347892 0.0723162235480893 0.6893837366853522 51 47 50 0.97 79 611 80 622 82 450 83 473 88 673 89 682 90 165 
1874 0.500675188453704 -0.013962891479389334 0.915924777552581 77 71 80 0.69 79 612 80 623 81 626 87 533 88 674 89 683 90 166 91 160 92 156 93 158 94 156 95 148 
1875 0.10923418971858553 0.043773118839039865 0.6944893235274299 124 136 158 0.34 79 613 80 624 82 451 83 474 88 675 
1876 0.10103751576965761 -0.09409784348757387 0.7064076990962966 49 50 45 1.12 79 614 80 625 82 452 83 475 93 159 94 157 95 149 
1877 0.27071773379550423 0.10212301059534593 0.7637910509696924 99 86 84 0.72 79 615 80 626 81 627 82 453 83 476 84 542 85 540 86 522 87 534 88 676 
1878 0.14531314733763082 -0.14574420461838414 0.7509378690001213 92 136 166 0.83 79 616 80 627 81 628 82 454 83 477 88 677 89 684 90 167 91 161 92 157 93 160 94 158 95 150 96 114 
1879 0.30157494514418615 0.040698153653085226 0.8124075841638757 101 124 133 0.39 79 617 80 628 81 629 82 455 83 478 84 543 85 541 86 523 
1880 0.1660098521255383 -0.10480848485943943 0.7509872204119804 169 186 204 1.07 79 618 80 629 81 630 82 456 83 479 88 678 89 685 90 168 91 162 92 158 93 161 94 159 95 151 96 115 
1881 0.19084736047286494 -0.12421346217902621 0.7579704599451722 153 149 147 0.7 79 619 80 630 81 631 82 457 83 480 85 542 86 524 87 535 88 679 89 686 90 169 91 163 92 159 93 162 94 160 95 152 96 116 
1882 0.6443823690064552 0.034756878363887 0.7000790782287223 81 100 53 0.64 79 620 80 631 81 632 
1883 0.5985923873007256 0.019390488023553188 0.6845357086859654 76 85 49 1.13 79 621 80 632 81 633 83 481 84 544 85 543 86 525 87 536 88 680 89 687 90 170 91 164 
1884 0.1671138417504024 -0.18161984677673412 0.7639035407399491 109 126 150 0.98 79 622 80 633 81 634 82 458 83 482 85 544 86 526 87 537 88 681 89 688 90 171 91 165 92 160 93 163 94 161 95 153 96 117 
1885 0.4501792442491122 -0.2153480403683171 0.9365491440285326 104 102 103 0.43 79 623 80 634 81 635 82 459 83 483 84 545 85 545 86 527 87 538 88 682 89 689 90 172 91 166 92 161 93 164 94 162 95 154 96 118 
1886 0.33036920481015364 0.032292049973336075 0.8279929870928828 129 134 145 0.46 79 624 80 635 81 636 82 460 83 484 84 546 85 546 86 528 
1887 0.30974616890267737 0.021434930030758328 0.818476538327605 84 101 107 0.15 79 625 80 636 81 637 82 461 83 485 84 547 85 547 
1888 0.30020646161115633 -0.0037136692098436383 0.7973827835521423 125 117 118 0.67 79 626 80 637 81 638 82 462 83 486 84 548 85 548 86 529 91 167 
1889 0.5621656487395773 0.04478193631293705 0.6977037348904425 91 98 79 1.3 79 627 80 638 82 463 83 487 84 549 85 549 87 539 89 690 91 168 94 163 
1890 0.6177927298365655 -0.0021580789151250616 0.6805102382092634 74 90 46 1.27 79 628 80 639 81 639 85 550 87 540 88 683 89 691 90 173 91 169 
1891 0.2647350013484461 -0.02380675006636277 0.7812173286617106 86 73 76 0.55 79 629 80 640 81 640 82 464 83 488 84 550 85 551 86 530 93 165 
1892 0.284759906895634 0.008863815300642376 0.8045196790308465 61 70 65 0.58 79 630 80 641 81 641 82 465 83 489 84 551 85 552 86 531 91 170 
1893 0.09296544050170484 -0.22362459233524284 0.7194220260952937 140 140 140 1.01 79 631 80 642 82 466 83 490 88 684 89 692 90 174 91 171 92 162 93 166 94 164 95 155 96 119 
1894 0.6064921422657543 -0.2104275304298946 1.022032444612296 37 30 32 0.41 79 632 80 643 81 642 84 552 85 553 86 532 87 541 88 685 89 693 90 175 91 172 92 163 93 167 94 165 95 156 96 120 
1895 0.4511155675837919 -0.09487426202792061 0.9168269275468178 54 53 52 0.43 79 633 80 644 81 643 82 467 85 554 87 542 88 686 89 694 90 176 91 173 92 164 93 168 94 166 95 157 96 121 
1896 0.2706355225607381 -0.15527499646556486 0.8211194201402475 184 205 230 0.48 79 634 80 645 81 644 82 468 83 491 84 553 85 555 86 533 87 543 88 687 89 695 90 177 91 174 92 165 93 169 94 167 95 158 96 122 
1897 0.29355491611085766 0.12528587279750472 0.7906380678012611 121 135 145 0.72 79 635 80 646 81 645 82 469 83 492 84 554 85 556 86 534 87 544 
1898 0.2920847727919669 0.04165720809695617 0.8064892806106482 140 162 178 0.24 79 636 80 647 81 646 82 470 83 493 84 555 85 557 86 535 
1899 0.23646018501292554 -0.14784754600500913 0.7943106643254857 151 146 145 0.47 79 637 80 648 81 647 82 471 83 494 84 556 85 558 86 536 87 545 88 688 89 696 90 178 91 175 92 166 93 170 94 168 95 159 96 123 
1900 0.4674573050634169 -0.21337082422196907 0.9472314867134024 83 87 91 0.43 79 638 80 649 81 648 82 472 83 495 84 557 85 559 86 537 87 546 88 689 89 697 90 179 91 176 92 167 93 171 94 169 95 160 96 124 
1901 0.14788638093818007 0.0052736214019688706 0.7253820863858569 81 84 80 0.3 79 639 80 650 81 649 82 473 83 496 
1902 0.2681709625104178 -0.02363171451893299 0.5136400379944532 179 171 137 1.45 79 640 82 474 83 497 
1903 0.32561849274781207 -0.12567829615781503 0.8495714124143883 105 146 177 0.55 79 641 80 651 81 650 82 475 83 498 84 558 85 560 86 538 88 690 89 698 90 180 91 177 92 168 93 172 94 170 95 161 
1904 0.25753147185540437 -0.17212927895641683 0.8091889973821108 166 166 166 0.51 79 642 80 652 81 651 82 476 83 499 84 559 85 561 86 539 87 547 88 691 89 699 90 181 91 178 92 169 93 173 94 171 95 162 96 125 
1905 0.5720828690596426 0.042623387298336694 0.6963120502360438 56 70 52 1.17 79 643 80 653 81 652 82 477 83 500 84 560 85 562 87 548 91 179 
1906 0.2756310813652468 0.06360229016269356 0.7800214516246751 135 144 164 0.25 79 644 80 654 81 653 82 478 83 501 84 561 85 563 86 540 
1907 0.21402449637400656 0.12304176857812575 0.5248435814262694 61 68 34 0.93 79 645 82 479 83 502 
1908 0.6349349988372723 -0.20636431006555073 1.0436908737233486 88 75 69 0.4 79 646 80 655 81 654 84 562 85 564 86 541 87 549 88 692 89 700 90 182 91 180 92 170 93 174 94 172 95 163 96 126 
1909 0.6461300704831674 0.006149235853448814 0.6955770827896106 56 64 26 0.5 80 656 88 693 89 701 90 183 91 181 
1910 0.21513912993233103 -0.13211563263262494 0.7765652166466497 134 131 128 0.59 79 647 80 657 81 655 82 480 83 503 84 563 85 565 86 542 87 550 88 694 89 702 90 184 91 182 92 171 93 175 94 173 95 164 96 127 
1911 0.645035334244239 0.048540954918271276 0.6934434357858451 109 98 93 1.18 79 648 80 658 81 656 84 564 85 566 88 695 89 703 90 185 
1912 0.31096967448402596 0.05585614484336155 0.8096758783151686 135 156 168 0.21 79 649 80 659 81 657 82 481 83 504 84 565 85 567 
1913 0.16268284485958295 -0.1545245012127461 0.7555889041409243 44 47 47 0.67 79 650 80 660 81 658 82 482 83 505 88 696 89 704 90 186 91 183 92 172 93 176 94 174 95 165 96 128 
1914 0.45482196673494696 -0.0986215546125661 0.918866463007668 151 175 195 0.37 79 651 80 661 81 659 82 483 87 551 88 697 89 705 90 187 91 184 92 173 93 177 94 175 95 166 96 129 
1915 0.1637144201064395 -0.010534902158277615 0.7202857762441432 26 22 15 0.28 79 652 80 662 81 660 82 484 83 506 
1916 0.47848640477533266 0.05426278701546593 0.9028039440056201 124 140 155 0.84 79 653 80 663 81 661 88 698 89 706 
1917 0.27103814242319574 -0.1083506650798807 0.8065866959440688 139 139 156 0.6 79 654 80 664 81 662 82 485 83 507 84 566 85 568 86 543 87 552 89 707 90 188 91 185 92 174 93 178 94 176 95 167 96 130 
1918 0.5249543463405277 0.04751134584553945 0.716884095222753 45 56 28 1.12 80 665 81 663 82 486 83 508 84 567 85 569 87 553 89 708 91 186 
1919 0.4702701924818659 -0.16369423077301343 0.9421758995344894 76 100 117 0.53 79 655 80 666 81 664 82 487 83 509 84 568 85 570 86 544 87 554 88 699 89 709 90 189 91 187 92 175 93 179 94 177 95 168 96 131 
1920 0.23744324969434422 -0.1570599816199161 0.7967817219581662 166 166 167 0.57 79 656 80 667 81 665 82 488 83 510 84 569 85 571 86 545 87 555 88 700 89 710 90 190 91 188 92 176 93 180 94 178 95 169 96 132 
1921 0.66278719063394 0.011242405452994545 0.6909373042567719 46 57 34 0.57 80 668 90 191 91 189 
1922 0.4444760486596558 0.09023913320579147 0.8641834780804647 109 117 126 0.67 79 657 80 669 81 666 82 489 83 511 84 570 87 556 
1923 0.13413982065490787 -0.15869688968733947 0.7437216927403253 70 78 83 1.01 79 658 80 670 81 667 82 490 83 512 88 701 89 711 90 192 91 190 92 177 93 181 94 179 95 170 96 133 
1924 0.10829148721091593 -0.15986747040512783 0.7263166476164468 59 57 55 0.97 79 659 80 671 82 491 83 513 88 702 89 712 90 193 91 191 92 178 93 182 94 180 95 171 96 134 
1925 0.28606750665889413 -0.12665069621267483 0.8299855174536623 150 181 210 0.57 79 660 80 672 81 668 82 492 83 514 84 571 85 572 86 546 87 557 88 703 89 713 90 194 91 192 92 179 93 183 94 181 95 172 
1926 0.13411619208169426 0.10817540192977167 0.698838591929208 114 135 157 1.07 79 661 80 673 82 493 83 515 88 704 89 714 90 195 
1927 0.333166678840773 0.1092901487880873 0.8132369644755498 140 151 164 0.31 79 662 80 674 81 669 82 494 83 516 84 572 85 573 86 547 
1928 0.3525561925767078 0.03331804800012297 0.8224905498940673 127 114 116 0.25 79 663 80 675 81 670 82 495 83 517 84 573 85 574 86 548 
1929 0.47100564255121874 -0.19092174854844046 0.9473059233883969 167 183 203 0.42 79 664 80 676 81 671 82 496 83 518 84 574 85 575 86 549 87 558 88 705 89 715 90 196 91 193 92 180 93 184 94 182 95 173 96 135 
1930 0.35431661152685284 0.02361666140170306 0.8247423102470708 127 112 112 0.33 79 665 80 677 81 672 82 497 83 519 84 575 85 576 
1931 0.1356351906690167 -0.12115374313874497 0.7429924983303728 111 156 179 1.13 79 666 80 678 81 673 82 498 83 520 88 706 89 716 91 194 92 181 93 185 94 183 95 174 
1932 0.057830401823593336 -0.22471814860703193 0.6999604040732574 125 116 106 0.97 79 667 82 499 83 521 88 707 89 717 90 197 91 195 92 182 93 186 94 184 95 175 96 136 
1933 0.5834759923011311 -0.20662149738444066 1.0060133354336342 168 156 150 0.57 79 668 80 679 81 674 84 576 85 577 86 550 87 559 88 708 89 718 90 198 91 196 92 183 93 187 94 185 95 176 96 137 
1934 0.6406841519342475 -0.23255497824072918 1.044895087862849 147 138 136 0.43 79 669 80 680 81 675 84 577 85 578 86 551 87 560 88 709 89 719 90 199 91 197 92 184 93 188 94 186 95 177 96 138 
1935 0.26682043581876086 0.0392365019287956 0.7722314495474636 117 106 105 0.38 79 670 80 681 81 676 82 500 83 522 84 578 85 579 86 552 
1936 0.4794754148139068 0.07905426450245874 0.897435408171891 122 137 152 0.77 79 671 80 682 81 677 82 501 88 710 
1937 0.29200841482024886 0.09677189835000319 0.7990885919844404 139 155 170 0.51 79 672 80 683 81 678 82 502 83 523 84 579 85 580 86 553 87 561 
1938 0.5542004275840829 0.04333895546789154 0.723375117645822 105 116 94 0.84 79 673 80 684 83 524 84 580 
1939 0.5034074331026414 0.016805303095502506 0.91413079114242 19 16 17 0.9 79 674 80 685 81 679 82 503 86 554 87 562 88 711 89 720 90 200 92 185 
1940 0.3138218663549715 0.10924981534035079 0.8055868656840911 148 165 181 0.38 79 675 80 686 81 680 82 504 83 525 84 581 85 581 86 555 87 563 
1941 0.5856493235454665 -0.16370911203303817 0.9974728552250626 167 167 167 0.85 79 676 80 687 81 681 83 526 84 582 85 582 86 556 87 564 88 712 89 721 90 201 91 198 92 186 93 189 94 187 95 178 96 139 
1942 0.12172335061565566 -0.019398283235158152 0.7040784421672789 133 131 130 0.41 79 677 80 688 82 505 83 527 
1943 0.43768816167266095 -0.11344065331917748 0.9037405812963626 133 144 160 0.49 79 678 80 689 81 682 82 506 83 528 84 583 85 583 86 557 87 565 88 713 89 722 90 202 91 199 92 187 93 190 94 188 95 179 96 140 
1944 0.5137994537727297 0.04190783279979263 0.7359011459638028 46 64 40 1.01 79 679 80 690 81 683 82 507 83 529 84 584 85 584 86 558 89 723 91 200 93 191 
1945 0.6707114695171574 0.08916868051337695 0.7359251421911229 81 95 72 0.6 79 680 80 691 81 684 
1946 0.14215101177480155 -0.2329129495593251 0.761620524200791 93 92 101 0.93 79 681 80 692 81 685 82 508 83 530 87 566 88 714 89 724 90 203 91 201 92 188 93 192 94 189 95 180 96 141 
1947 0.5407923113538261 0.05815039990835198 0.7132381556132754 57 68 42 0.8 79 682 80 693 81 686 82 509 83 531 84 585 85 585 88 715 92 189 
1948 0.45512829882313577 0.11780143528640877 0.8881944280777082 87 98 107 0.55 79 683 80 694 81 687 82 510 83 532 84 586 85 586 
1949 0.14686011507830704 -0.265665944022202 0.758520282774806 87 77 74 0.83 79 684 80 695 81 688 82 511 83 533 87 567 88 716 89 725 90 204 91 202 92 190 93 193 94 190 95 181 96 142 
1950 0.12338635818342111 -0.26654478684572863 0.7440887721347998 94 77 71 0.65 79 685 80 696 81 689 82 512 83 534 88 717 89 726 90 205 91 203 92 191 93 194 94 191 95 182 96 143 
1951 0.49369876538499075 -0.12537867308003603 0.9455903226920754 172 186 203 0.49 79 686 80 697 81 690 82 513 83 535 84 587 85 587 86 559 87 568 88 718 89 727 90 206 91 204 92 192 93 195 94 192 95 183 96 144 
1952 0.3436480062434833 -0.00021296063530135253 0.8245408107817391 104 105 110 0.32 79 687 80 698 81 691 82 514 83 536 84 588 85 588 
1953 0.5161853075151206 0.04350003120628487 0.9157456810635836 140 142 142 1.15 79 688 80 699 81 692 87 569 88 719 89 728 
1954 0.313667739119968 0.12466732896554042 0.8010015577275692 133 145 160 0.6 79 689 80 700 81 693 82 515 83 537 84 589 85 589 86 560 87 570 
1955 0.2798855200513958 0.11647106855783242 0.7667046813633261 140 164 185 0.67 79 690 80 701 81 694 82 516 83 538 84 590 85 590 86 561 87 571 88 720 
1956 0.7183359933691773 -0.15679872443184126 1.0761905990460818 173 171 176 0.57 79 691 80 702 81 695 84 591 85 591 86 562 87 572 88 721 89 729 90 207 91 205 92 193 93 196 94 193 95 184 96 145 
1957 0.13170401521874553 0.09736686685207752 0.7031964503520363 135 151 170 1.25 79 692 80 703 82 517 83 539 88 722 89 730 90 208 
1958 0.2713083600853304 0.004826752721961708 0.7844428565183629 83 69 71 0.25 79 693 80 704 81 696 82 518 83 540 84 592 85 592 86 563 
1959 0.5341791823891924 0.08038830471217552 0.9074033076653218 112 111 104 0.7 79 694 80 705 81 697 83 541 84 593 87 573 
1960 0.661938077928396 0.036420743944225065 0.7183587668249909 82 92 51 1.18 79 695 80 706 81 698 84 594 88 723 89 731 90 209 91 206 
1961 0.33433066620808993 -0.23526663471002715 0.8640468591090535 115 90 92 0.45 79 696 80 707 81 699 82 519 83 542 84 595 85 593 86 564 87 574 88 724 89 732 90 210 91 207 92 194 93 197 94 194 95 185 96 146 
1962 0.6944628015079336 0.08345193273916474 0.7576323302680629 129 135 135 0.97 79 697 80 708 81 700 84 596 91 208 
1963 0.26577341416475747 0.11387182696669162 0.7551097464716908 121 116 118 0.89 79 698 80 709 81 701 82 520 83 543 84 597 85 594 86 565 87 575 89 733 
1964 0.2728982593505055 0.013326090876358727 0.46299848466264126 132 139 52 1.22 79 699 82 521 83 544 
1965 0.8036100893450476 -0.21872246336826706 1.1413246230678395 127 110 109 0.51 79 700 80 710 81 702 84 598 85 595 86 566 87 576 88 725 89 734 90 211 91 209 92 195 93 198 94 195 95 186 
1966 0.6624243217717325 -0.20940889310134425 1.055801779799311 33 26 28 0.48 79 701 80 711 81 703 84 599 85 596 86 567 87 577 88 726 89 735 90 212 91 210 92 196 93 199 94 196 95 187 96 147 97 22 
1967 0.35068643371722963 0.04945464814770385 0.8203797409317418 87 75 77 0.27 79 702 80 712 81 704 82 522 83 545 84 600 85 597 86 568 
1968 0.3332681862581937 0.057487667471497264 0.820521888479136 141 152 168 0.26 79 703 80 713 81 705 82 523 83 546 84 601 85 598 
1969 0.13544249364454788 -0.24407660991398475 0.7480413162322506 55 49 48 0.63 79 704 80 714 81 706 82 524 83 547 88 727 89 736 90 213 91 211 92 197 93 200 94 197 95 188 96 148 
1970 0.2439477162492482 -0.005879753548391453 0.5081492713647241 169 172 120 1.28 79 705 82 525 83 548 
1971 0.5657064958783713 0.029365256756616175 0.7242892367129228 118 125 101 0.65 79 706 80 715 81 707 82 526 83 549 84 602 85 599 91 212 
1972 0.3593638977938182 0.11039192282744589 0.8086384665408911 112 98 99 0.36 79 707 80 716 81 708 82 527 83 550 84 603 85 600 86 569 
1973 0.6277429792042605 0.09270721759925099 0.7406260794684298 38 34 30 1.43 79 708 80 717 81 709 85 601 87 578 88 728 89 737 90 214 91 213 
1974 0.22754656577495233 -0.222032435062535 0.8026302895599668 154 148 144 0.68 79 709 80 718 81 710 82 528 83 551 84 604 85 602 86 570 87 579 88 729 89 738 90 215 91 214 92 198 93 201 94 198 95 189 96 149 
1975 0.22585775733793706 0.08344058563090871 0.5291641991071371 64 69 36 1.02 79 710 82 529 83 552 89 739 
1976 0.4241027229611804 0.10697712646047645 0.6002631772808256 18 22 14 0.34 79 711 80 719 81 711 82 530 83 553 
1977 0.26275809936049077 0.0713087006621313 0.7660788941620922 119 115 119 0.59 79 712 80 720 81 712 82 531 83 554 84 605 85 603 86 571 87 580 
1978 0.17318240751918737 -0.2520452409822289 0.7716782033980226 82 72 75 0.64 79 713 80 721 81 713 82 532 83 555 85 604 86 572 87 581 88 730 89 740 90 216 91 215 92 199 93 202 94 199 95 190 96 150 
1979 0.30837859174517696 -0.10204087138896743 0.8364496527703017 163 182 206 0.57 79 714 80 722 81 714 82 533 83 556 84 606 85 605 87 582 88 731 89 741 90 217 91 216 92 200 93 203 94 200 95 191 
1980 0.6023813532049943 -0.18736267386411704 1.0166245454198883 150 182 204 0.5 79 715 80 723 81 715 84 607 85 606 86 573 87 583 88 732 89 742 90 218 91 217 92 201 93 204 94 201 95 192 96 151 
1981 0.47601688411964527 0.06696923990950955 0.8981406362863623 119 134 150 1.03 79 716 80 724 88 733 89 743 
1982 0.56034357571461 -0.16568811088288485 0.9809002428789401 55 53 65 0.88 79 717 80 725 81 716 83 557 84 608 85 607 86 574 87 584 88 734 89 744 90 219 91 218 92 202 93 205 94 202 95 193 96 152 
1983 0.49864524432192553 0.09127174216608859 0.9103488141034887 128 137 155 0.5 79 718 80 726 81 717 82 534 87 585 
1984 0.4711525631637216 -0.1370768867740659 0.9368451299012247 64 63 66 0.56 79 719 80 727 81 718 82 535 83 558 84 609 85 608 86 575 87 586 88 735 89 745 90 220 91 219 92 203 93 206 94 203 95 194 96 153 
1985 0.33808451218814967 -0.0911442050040203 0.8383770146628535 65 59 73 0.77 79 720 80 728 81 719 82 536 83 559 84 610 85 609 87 587 88 736 89 746 90 221 91 220 92 204 93 207 94 204 95 195 96 154 
1986 0.4943850292419644 -0.13949797224699453 0.9472854925024499 185 201 223 0.47 79 721 80 729 81 720 82 537 83 560 84 611 85 610 86 576 87 588 88 737 89 747 90 222 91 221 92 205 93 208 94 205 95 196 96 155 
1987 0.5413267748274811 0.05667363499481118 0.7104126332643521 62 72 41 1.04 79 722 80 730 81 721 82 538 83 561 84 612 85 611 88 738 92 206 
1988 0.16931406090700135 -0.03134790995154478 0.7280680092644336 135 130 132 0.32 79 723 80 731 81 722 82 539 83 562 
1989 0.23415922456487773 0.07793340956246095 0.5344935405823273 77 93 18 1.09 79 724 82 540 83 563 89 748 
1990 0.4407602571488343 -0.09302347508272461 0.9037427154698664 58 59 59 0.51 79 725 80 732 81 723 82 541 83 564 84 613 85 612 86 577 87 589 88 739 89 749 90 223 91 222 92 207 93 209 94 206 95 197 96 156 
1991 0.2735720169806789 0.011932240946641467 0.4732938448638252 108 120 54 1.18 79 726 82 542 83 565 
1992 0.6211874140901453 8.384987614665576e-05 0.6824512929668095 74 70 23 1.52 80 733 81 724 83 566 84 614 85 613 87 590 88 740 89 750 90 224 91 223 
1993 0.07383158007102092 -0.18939583346862707 0.7023938817845519 155 157 116 1.08 79 727 82 543 83 567 88 741 89 751 90 225 91 224 92 208 93 210 94 207 95 198 96 157 
1994 0.5103030377646093 -0.06825843098325214 0.9314129671922483 100 102 111 0.85 79 728 80 734 81 725 82 544 85 614 86 578 87 591 88 742 89 752 90 226 91 225 92 209 93 211 94 208 95 199 96 158 
1995 0.36422007593895994 -0.020920864155299777 0.8342669175303864 135 133 136 1.05 79 729 80 735 81 726 82 545 83 568 84 615 91 226 92 210 93 212 
1996 0.26496308492681575 -0.2334813120141156 0.8264319874705885 58 60 64 0.54 79 730 80 736 81 727 82 546 83 569 84 616 85 615 86 579 87 592 88 743 89 753 90 227 91 227 92 211 93 213 94 209 95 200 96 159 
1997 0.13481582188870053 -0.021933878973469764 0.7087706374245262 125 112 107 0.42 79 731 80 737 82 547 83 570 
1998 0.49914222147263304 0.10323001346517546 0.9060168330150473 132 140 152 0.9 79 732 80 738 81 728 82 548 83 571 84 617 87 593 
1999 0.33838763977740705 0.08622557794252 0.8130465339193491 60 59 50 0.63 79 733 80 739 81 729 82 549 83 572 84 618 85 616 86 580 87 594 
2000 0.23871049897648852 -0.027509067509469156 0.4948701443023396 81 89 29 1.41 79 734 82 550 83 573 
2001 0.14405312581804525 -0.1842052509975406 0.7538449275971331 160 182 205 0.62 79 735 80 740 81 730 82 551 83 574 88 744 89 754 90 228 91 228 92 212 93 214 94 210 95 201 96 160 
2002 0.1776952762049139 -0.024956271820323086 0.7302180779195127 143 144 147 0.31 79 736 80 741 81 731 82 552 83 575 
2003 0.1502577758846256 0.08803951122801812 0.7157753858331518 122 141 158 1.01 79 737 80 742 81 732 82 553 83 576 88 745 89 755 
2004 0.23430235677790015 -0.10750871332206718 0.781624932889542 79 84 93 0.46 79 738 80 743 81 733 82 554 83 577 84 619 85 617 86 581 88 746 90 229 91 229 92 213 93 215 94 211 95 202 96 161 
2005 0.259608312037401 0.12456611340758271 0.7353629134329072 128 131 122 1.11 79 739 80 744 81 734 82 555 83 578 84 620 85 618 86 582 88 747 
2006 0.47773550632438355 0.06683358897359039 0.900365327729474 125 140 156 1.13 79 740 80 745 88 748 89 756 
2007 0.7449690470999718 0.08751316900359173 0.819817285281988 33 45 25 1.35 80 746 81 735 84 621 87 595 88 749 90 230 91 230 
2008 0.4718347478961943 -0.09732892896507715 0.9302683597452557 77 107 124 0.52 79 741 80 747 81 736 82 556 84 622 86 583 87 596 88 750 89 757 90 231 91 231 92 214 93 216 94 212 95 203 96 162 
2009 0.29230248287525734 0.05489601249398243 0.8045987635104661 154 172 187 0.12 79 742 80 748 81 737 82 557 83 579 84 623 85 619 
2010 0.09085536588609723 -0.16079695998579457 0.710550794433133 138 135 129 1.42 79 743 82 558 83 580 88 751 89 758 90 232 91 232 92 215 93 217 94 213 95 204 96 163 
2011 0.24342385835858651 -0.06904188442533356 0.7767651575230267 159 157 151 0.6 79 744 80 749 81 738 82 559 83 581 84 624 85 620 86 584 93 218 94 214 95 205 
2012 0.4893053683205319 -0.0955983759058868 0.9396385159730489 72 94 107 0.52 79 745 80 750 81 739 82 560 84 625 85 621 86 585 87 597 88 752 89 759 90 233 91 233 92 216 93 219 94 215 95 206 96 164 
2013 0.33155542670047605 0.06847009220529113 0.8184385784417776 77 95 94 0.31 79 746 80 751 81 740 82 561 83 582 84 626 85 622 86 586 
2014 0.45479065408627256 -0.08843254305181697 0.9165473539264808 166 186 209 0.39 79 747 80 752 81 741 82 562 85 623 87 598 88 753 89 760 90 234 91 234 92 217 93 220 94 216 95 207 
2015 0.5663072410724014 0.06561810942959961 0.7387964889191904 139 138 140 0.6 79 748 80 753 81 742 84 627 93 221 
2016 0.7066642416626807 0.12753591926097713 0.7372507374054355 63 89 55 1.57 80 754 81 743 84 628 85 624 89 761 90 235 
2017 0.3142095174305477 0.05600094994294221 0.8101626939304096 153 172 187 0.19 79 749 80 755 81 744 82 563 83 583 84 629 85 625 
2018 0.3365520732547363 -0.08001849271939217 0.8298731095984458 95 94 98 0.66 79 750 80 756 81 745 82 564 83 584 84 630 85 626 87 599 88 754 89 762 90 236 91 235 92 218 93 222 94 217 95 208 
2019 0.12246520568277816 -0.11613771233675663 0.7362460935698526 198 222 232 1.09 79 751 80 757 81 746 82 565 83 585 89 763 91 236 92 219 93 223 94 218 95 209 
2020 0.2173318770472942 0.12404076867181744 0.5281471546140086 30 38 18 1.02 79 752 82 566 83 586 
2021 0.21124085560567588 0.1189755590460819 0.7097417584283625 123 120 109 0.67 79 753 80 758 81 747 82 567 83 587 88 755 
2022 0.650361178231498 0.004785924727465353 0.6922855499568198 31 41 20 0.69 81 748 88 756 89 764 90 237 91 237 
2023 0.10351669022209413 -0.21597518614458067 0.727324262952881 48 48 52 0.61 79 754 80 759 82 568 83 588 88 757 89 765 90 238 91 238 92 220 93 224 94 219 95 210 96 165 
2024 0.10696700789143149 0.06967456654071878 0.6721941345270681 101 93 91 0.86 79 755 82 569 83 589 88 758 89 766 90 239 
2025 0.4418236580571305 -0.22127598048172042 0.9288784482373751 46 41 45 0.45 79 756 80 760 81 749 82 570 83 590 84 631 85 627 86 587 87 600 88 759 89 767 90 240 91 239 92 221 93 225 94 220 95 211 96 166 
2026 0.283900578202837 -0.15102757202857256 0.8289749227807359 85 99 113 0.47 79 757 80 761 81 750 82 571 83 591 84 632 85 628 86 588 87 601 88 760 89 768 90 241 91 240 92 222 93 226 94 221 95 212 
2027 0.5841899241469003 0.04092638276218475 0.7119436433785371 51 61 44 1.22 79 758 80 762 81 751 83 592 84 633 85 629 88 761 91 241 94 222 
2028 0.3091777111094305 0.03314742171784566 0.817524086868289 77 93 99 0.28 79 759 80 763 81 752 82 572 83 593 84 634 85 630 86 589 
2029 0.10757829876275776 -0.21196316645415095 0.7376294593749296 77 104 122 0.97 79 760 80 764 82 573 83 594 88 762 89 769 90 242 91 242 92 223 93 227 94 223 95 213 96 167 
2030 0.11067952873186883 0.09532446230666422 0.6936279718975275 115 142 168 0.6 79 761 80 765 82 574 83 595 88 763 89 770 90 243 
2031 0.2737247527411191 -0.09292917104068767 0.7991417307279632 94 95 112 0.54 79 762 80 766 81 753 82 575 83 596 84 635 85 631 86 590 89 771 90 244 91 243 92 224 93 228 94 224 95 214 96 168 
2032 0.21271977534122707 0.11918144792314948 0.7044448061348143 61 85 37 0.73 79 763 80 767 81 754 82 576 83 597 88 764 
2033 0.4736387704414778 -0.13938155732854543 0.938371009440782 154 177 200 0.55 79 764 80 768 81 755 82 577 83 598 84 636 85 632 86 591 87 602 88 765 89 772 90 245 91 244 92 225 93 229 94 225 95 215 96 169 
2034 0.6002077859661413 0.05536283284561715 0.6936743164167972 52 51 44 0.58 79 765 80 769 81 756 83 599 84 637 85 633 88 766 89 773 90 246 91 245 
2035 0.5572204750529137 0.07125018386858796 0.7437085903573274 96 93 84 1.26 79 766 80 770 81 757 82 578 83 600 85 634 87 603 88 767 89 774 91 246 92 226 
2036 0.24164352313666523 -0.008529296999660764 0.7637789156355976 143 143 142 0.43 79 767 80 771 81 758 82 579 83 601 84 638 85 635 86 592 
2037 0.2361372799691129 -0.041555660890716266 0.4941022398365652 74 97 56 1.34 79 768 82 580 83 602 
2038 0.5380571232995246 0.14679697932222796 0.6154110003231078 20 26 23 1.42 79 769 80 772 81 759 83 603 
2039 0.07856192578234981 -0.1543199302356503 0.7060446797024272 57 54 62 1.54 79 770 82 581 83 604 88 768 89 775 90 247 91 247 92 227 93 230 94 226 95 216 96 170 
2040 0.12324213153604573 -0.186296591962643 0.7446303610979785 108 122 135 0.81 79 771 80 773 81 760 82 582 83 605 88 769 89 776 90 248 91 248 92 228 93 231 94 227 95 217 
2041 0.6221956906079552 0.11142031665571056 0.7433374931093677 36 39 33 1.04 79 772 80 774 81 761 83 606 84 639 86 593 87 604 88 770 
2042 0.3254949001296594 -0.10493641737337477 0.8416343120532954 108 160 190 0.58 79 773 80 775 81 762 82 583 83 607 84 640 85 636 86 594 87 605 88 771 89 777 90 249 91 249 92 229 93 232 94 228 95 218 
2043 0.20978651384689503 -0.2740490414127026 0.7936470226689221 36 30 31 0.73 79 774 80 776 81 763 82 584 83 608 84 641 85 637 86 595 87 606 88 772 89 778 90 250 91 250 92 230 93 233 94 229 95 219 96 171 
2044 0.6833008764627418 -0.18251525562130588 1.063864465138714 156 155 159 0.62 79 775 80 777 81 764 84 642 85 638 86 596 87 607 88 773 89 779 90 251 91 251 92 231 93 234 94 230 95 220 96 172 
2045 0.5358810502344071 0.14441281613535922 0.6132014496744805 43 56 55 1.6 79 776 80 778 81 765 83 609 
2046 0.49547599202737413 0.0674571107455368 0.9099524237751317 97 105 118 0.59 79 777 80 779 88 774 
2047 0.2304588600232795 -0.043520292437527676 0.7652253280633416 147 143 139 0.32 79 778 80 780 81 766 82 585 83 610 84 643 85 639 86 597 93 235 
2048 0.1287791220437077 -0.02792828208821424 0.7060425290159535 126 118 119 0.42 79 779 80 781 82 586 83 611 
2049 0.458829347694394 0.013502669222698263 0.8934246004726446 44 40 34 0.88 79 780 80 782 81 767 82 587 87 608 88 775 89 780 90 252 92 232 
2050 0.4403419629054884 -0.16336966218737645 0.9230855753459978 55 69 81 0.48 79 781 80 783 81 768 82 588 83 612 84 644 85 640 86 598 87 609 88 776 89 781 90 253 91 252 92 233 93 236 94 231 95 221 96 173 
2051 0.21505329860761904 0.12309728769063728 0.5227721665778717 31 39 18 0.81 79 782 82 589 83 613 
2052 0.37308884112324486 0.012781550984279043 0.8380557956540994 153 147 146 0.33 79 783 80 784 81 769 82 590 83 614 84 645 85 641 
2053 0.31446456710993154 0.09672021404291394 0.8061322086687334 129 149 162 0.44 79 784 80 785 81 770 82 591 83 615 84 646 85 642 86 599 87 610 
2054 0.31922365923277374 -0.02578710816011759 0.8108568272610646 113 100 104 0.77 79 785 80 786 81 771 82 592 83 616 84 647 85 643 92 234 93 237 
2055 0.10838481146005524 0.036855440589801614 0.6991678613497835 138 154 178 0.3 79 786 80 787 82 593 83 617 88 777 
2056 0.13484291549762178 0.0986678680757984 0.7108612225231143 123 138 154 0.57 79 787 80 788 82 594 83 618 88 778 
2057 0.8800278975407485 0.004538985065416195 1.1388019073192766 149 144 146 1.12 79 788 80 789 81 772 84 648 85 644 86 600 87 611 88 779 89 782 90 254 91 253 92 235 93 238 94 232 95 222 96 174 
2058 0.25073879150744266 -0.02254747269889394 0.7733482387767069 156 155 155 0.28 79 789 80 790 81 773 82 595 83 619 84 649 85 645 86 601 
2059 0.13308950933735733 -0.033495016343916974 0.7094647844262763 116 103 102 0.28 79 790 80 791 82 596 83 620 
2060 0.495909865908417 -0.21847130494740155 0.958008051728029 40 37 43 0.54 79 791 80 792 81 774 82 597 83 621 84 650 85 646 86 602 87 612 88 780 89 783 90 255 91 254 92 236 93 239 94 233 95 223 96 175 
2061 0.7112820302843746 0.09292449813429769 0.7704045508162726 70 64 60 1.12 80 793 81 775 84 651 85 647 89 784 90 256 
2062 0.6315239699685599 0.07230129225480209 0.7246819749080169 113 125 117 1.21 79 792 85 648 86 603 87 613 88 781 89 785 90 257 91 255 92 237 93 240 
2063 0.8321965255557254 -0.20392391661951648 1.1559160958817685 87 74 78 0.28 79 793 80 794 81 776 84 652 85 649 86 604 87 614 88 782 89 786 90 258 91 256 92 238 93 241 94 234 95 224 96 176 
2064 0.9896825205058758 0.16764490585101627 0.9609679169165054 43 55 39 0.68 88 783 89 787 90 259 91 257 92 239 93 242 94 235 95 225 
2065 0.03971001098025746 -0.028206716462784304 0.6041852163081037 96 93 94 0.76 88 784 89 788 90 260 93 243 
2066 0.6444208808442239 -0.12783723289195034 1.0381920135180993 75 84 98 0.31 79 794 80 795 81 777 84 653 85 650 86 605 87 615 88 785 89 789 90 261 91 258 92 240 93 244 94 236 95 226 
2067 0.21224741246130058 -0.18908933090300875 0.7859282199881258 157 159 156 0.59 79 795 80 796 81 778 82 598 83 622 84 654 85 651 86 606 87 616 88 786 89 790 90 262 91 259 92 241 93 245 94 237 95 227 96 177 
2068 0.9067719092236134 0.03387343427619214 1.1530640517396566 125 125 131 0.72 80 797 81 779 84 655 85 652 86 607 87 617 88 787 89 791 90 263 91 260 92 242 93 246 94 238 95 228 96 178 97 23 99 5 
2069 0.8101394328472632 0.1713518349440031 0.7271926747892284 26 36 26 0.12 89 792 90 264 91 261 
2070 0.6968139806263596 -0.20812857916061275 1.0744736969185034 152 154 155 0.32 79 796 80 798 81 780 84 656 85 653 86 608 87 618 88 788 89 793 90 265 91 262 92 243 93 247 94 239 95 229 96 179 
2071 0.8871541970236646 -0.03214288899692766 1.1538827452886988 138 134 133 0.44 79 797 80 799 81 781 84 657 85 654 86 609 87 619 88 789 89 794 90 266 91 263 92 244 93 248 94 240 95 230 96 180 97 24 
2072 0.8691447132005958 0.05882471705461414 1.12185343800756 72 73 79 0.45 87 620 88 790 89 795 90 267 91 264 92 245 93 249 94 241 95 231 96 181 97 25 
2073 0.5074552344776576 -0.23591233154502345 0.9661601651254411 128 121 115 0.34 79 798 80 800 81 782 82 599 84 658 85 655 86 610 87 621 88 791 89 796 90 268 91 265 92 246 93 250 94 242 95 232 96 182 
2074 0.8561305433865857 0.18063858706717317 0.7719081191079828 24 39 31 0.75 89 797 90 269 91 266 92 247 
2075 0.5602673402851722 -0.17447344339660992 0.9826587200034014 45 45 58 0.37 79 799 80 801 81 783 83 623 84 659 85 656 86 611 87 622 88 792 89 798 90 270 91 267 92 248 93 251 94 243 95 233 96 183 
2076 0.6718325185642751 0.08578025603615216 0.7387026843377228 80 68 54 0.74 86 612 87 623 88 793 89 799 90 271 91 268 92 249 
2077 1.0015741154939979 0.18401513289365937 0.9463241253008935 28 31 19 0.98 88 794 89 800 90 272 91 269 92 250 93 252 94 244 95 234 
2078 0.5994988902851012 -0.13300264973636308 1.011446619555313 49 46 54 0.37 79 800 80 802 81 784 84 660 85 657 86 613 87 624 88 795 89 801 90 273 91 270 92 251 93 253 94 245 95 235 96 184 97 26 
2079 0.8286344908295041 -0.2116719276357002 1.4280480868798608 104 124 112 0.99 88 796 89 802 90 274 91 271 92 252 93 254 
2080 0.6629683640724701 0.03111077018698163 0.7573792526478603 71 64 44 0.61 87 625 88 797 89 803 90 275 91 272 92 253 93 255 94 246 
2081 0.8918078014380311 -0.13762223292161307 1.4655392399514853 83 93 76 0.91 87 626 89 804 92 254 93 256 
2082 0.8899571747581559 -0.0025087813116812002 1.148391657769222 127 123 121 0.51 79 801 80 803 81 785 84 661 85 658 86 614 87 627 88 798 89 805 90 276 91 273 92 255 93 257 94 247 95 236 96 185 97 27 99 6 
2083 0.9148601663836718 0.06951670331369901 1.1499352213322391 119 119 121 0.65 86 615 87 628 88 799 89 806 90 277 91 274 92 256 93 258 94 248 95 237 96 186 
2084 0.6461124205359566 0.04588717519608263 0.6884887223733196 44 50 30 1.56 79 802 84 662 85 659 86 616 87 629 88 800 89 807 90 278 91 275 
2085 0.8429546493153627 0.08885169780424348 1.1057694992776044 111 126 149 0.39 88 801 89 808 90 279 91 276 92 257 93 259 94 249 95 238 
2086 0.7294583366184898 0.12211246202130374 0.7466593858240056 32 44 29 1.24 85 660 86 617 87 630 88 802 89 809 90 280 91 277 
2087 0.9098068805783338 0.05344073561041997 1.1474888124380718 131 133 140 0.44 86 618 87 631 88 803 89 810 90 281 91 278 92 258 93 260 94 250 95 239 96 187 
2088 0.8934225814157262 0.062438709420967894 1.1370125984650024 139 137 136 0.33 87 632 88 804 89 811 90 282 91 279 92 259 93 261 94 251 95 240 96 188 
2089 0.6421309846746727 -0.08706275496137499 1.0298888638439254 164 205 235 0.4 79 803 81 786 84 663 85 661 86 619 87 633 88 805 89 812 90 283 91 280 92 260 93 262 94 252 95 241 96 189 
2090 0.5320980709646393 0.024524021691975508 0.9277097841354228 142 145 142 0.73 79 804 80 804 86 620 87 634 88 806 89 813 90 284 92 261 96 190 
2091 0.9123297909320109 0.0033362317079557594 1.162734406853919 133 130 129 0.53 79 805 80 805 81 787 84 664 85 662 86 621 87 635 88 807 89 814 90 285 91 281 92 262 93 263 94 253 95 242 96 191 97 28 99 7 
2092 0.6655393290264784 0.06899036275510816 0.7486489802853667 40 43 42 0.7 86 622 87 636 88 808 89 815 90 286 91 282 92 263 93 264 94 254 
2093 0.946340740258374 0.1020281388960137 0.8708524790697512 27 34 33 0.48 87 637 88 809 89 816 90 287 91 283 92 264 93 265 94 255 
2094 0.7340362759806003 -0.19872982883269086 1.0951822988275828 151 150 152 0.24 79 806 80 806 81 788 84 665 85 663 86 623 87 638 88 810 89 817 90 288 91 284 92 265 93 266 94 256 95 243 
2095 0.8813955257949374 -0.15051589465629178 1.1749069981710674 145 141 139 0.37 79 807 80 807 81 789 84 666 85 664 86 624 87 639 88 811 89 818 90 289 91 285 92 266 93 267 94 257 95 244 96 192 
2096 0.8647916106490383 -0.07711275218219774 1.1501802985038745 97 95 102 0.27 79 808 80 808 81 790 84 667 85 665 86 625 87 640 88 812 89 819 90 290 91 286 92 267 93 268 94 258 95 245 96 193 
2097 0.5636367075886255 -0.11785574508498475 0.971593085904512 49 52 66 0.49 79 809 80 809 81 791 83 624 84 668 85 666 86 626 87 641 88 813 89 820 90 291 91 287 92 268 93 269 94 259 95 246 96 194 97 29 
2098 0.62925014898487 -0.01696329846717028 0.8189697576840292 109 125 109 1.14 85 667 86 627 87 642 88 814 89 821 90 292 91 288 92 269 93 270 94 260 95 247 
2099 0.6216748895179766 -0.23626761310091515 1.0342098005891 101 94 97 0.28 79 810 80 810 81 792 84 669 85 668 86 628 87 643 88 815 89 822 90 293 91 289 92 270 93 271 94 261 95 248 
2100 0.6008266870735469 -0.18148615723783257 1.0256780608793536 122 142 159 0.33 79 811 80 811 81 793 84 670 85 669 86 629 87 644 88 816 89 823 90 294 91 290 92 271 93 272 94 262 95 249 96 195 
2101 0.6777556134715332 -0.059497867192474886 1.0310286128930728 105 104 110 0.3 81 794 84 671 85 670 86 630 87 645 88 817 89 824 90 295 91 291 92 272 93 273 94 263 95 250 96 196 
2102 0.7665638939947909 -0.17179075828675205 1.1197598353757343 135 149 166 0.4 79 812 80 812 81 795 84 672 85 671 86 631 87 646 88 818 89 825 90 296 91 292 92 273 93 274 94 264 95 251 96 197 
2103 0.3349197263783602 -0.12003154864737324 0.8426268507139569 132 147 156 0.77 79 813 80 813 81 796 82 600 83 625 84 673 85 672 86 632 87 647 88 819 89 826 90 297 91 293 92 274 93 275 94 265 95 252 96 198 
2104 0.6673572424843972 -0.23051749985948658 1.059763209154344 133 134 136 0.32 79 814 80 814 81 797 84 674 85 673 86 633 87 648 88 820 89 827 90 298 91 294 92 275 93 276 94 266 95 253 96 199 
2105 0.7318415146438764 0.022678839791423874 1.0509985419302237 123 114 112 0.78 81 798 84 675 85 674 86 634 87 649 88 821 89 828 90 299 91 295 92 276 93 277 94 267 95 254 96 200 
2106 0.6831122655866205 -0.16046842450845705 1.0570034713458194 79 78 89 0.27 79 815 80 815 81 799 84 676 85 675 86 635 87 650 88 822 89 829 90 300 91 296 92 277 93 278 94 268 95 255 96 201 
2107 0.4391040258731453 -0.0856037379312622 0.9037655662823283 103 104 116 0.75 79 816 80 816 81 800 82 601 83 626 84 677 85 676 86 636 87 651 88 823 89 830 90 301 91 297 92 278 93 279 94 269 95 256 96 202 
2108 0.6288538973862147 -0.13287286005926457 1.0331705285391062 171 191 207 0.38 79 817 80 817 81 801 84 678 85 677 86 637 87 652 88 824 89 831 90 302 91 298 92 279 93 280 94 270 95 257 
2109 0.8404470095845493 0.18019883425318078 0.7617894635266474 16 25 16 0.49 89 832 90 303 91 299 92 280 
2110 0.44423353002587757 -0.19122818664107394 0.9364452587950182 85 106 109 0.55 79 818 80 818 81 802 82 602 83 627 84 679 85 678 86 638 87 653 88 825 89 833 90 304 91 300 92 281 93 281 94 271 95 258 
2111 -0.1167205604773721 -0.10901506403210497 0.54319421325575 76 80 86 1.45 89 834 90 305 91 301 93 282 95 259 
2112 0.6114242139339708 -0.15797356329382123 1.0332985495517824 116 143 148 0.36 79 819 80 819 81 803 84 680 85 679 86 639 87 654 88 826 89 835 90 306 91 302 92 282 93 283 94 272 95 260 
2113 0.15979212667086243 -0.0822274989160888 0.5213966717270074 56 81 43 1.18 89 836 91 303 94 273 
2114 0.8576874989029465 0.10750096819924616 1.2721172077842418 151 157 134 1.03 88 827 89 837 90 307 91 304 
