# 3D point list with one line of data per point:
#   POINT3D_ID, X, Y, Z, R, G, B, ERROR, TRACK[] as (IMAGE_ID, POINT2D_IDX)
# Number of points: 218, mean track length: 18.84
261 -0.39313068985939026 0.17571522295475006 0.579559326171875 128 111 103 3.82 21 261 22 258 24 225 26 219 28 205 36 147 38 195 41 187 
262 -0.1827247440814972 -0.14235752820968628 0.7768465280532837 197 216 228 2.78 21 262 22 259 23 237 24 226 25 183 26 220 27 135 30 212 32 215 34 203 36 148 37 95 38 196 40 202 41 188 42 182 45 128 47 141 48 201 
263 -0.04052969068288803 -0.24492408335208893 0.6444814205169678 139 150 156 2.77 21 263 22 260 23 238 24 227 25 184 26 221 28 206 30 213 32 216 36 149 38 197 39 191 40 203 41 189 42 183 43 164 44 172 45 129 46 107 47 142 48 202 
264 0.620530903339386 -0.14432214200496674 1.1231768131256104 33 29 33 3.17 21 264 22 261 23 239 25 185 27 136 29 99 33 72 35 82 37 96 
265 -0.14402636885643005 -0.1096508800983429 0.7859514355659485 170 181 188 2.11 21 265 22 262 23 240 24 228 25 186 28 207 29 100 30 214 32 217 34 204 36 150 37 97 39 192 40 204 41 190 44 173 45 130 47 143 48 203 
266 -0.3321574032306671 -0.07787375897169113 0.6939588189125061 128 125 128 3.22 21 266 22 263 23 241 24 229 26 222 28 208 30 215 32 218 34 205 39 193 40 205 41 191 42 184 43 165 44 174 48 204 
267 -0.3922480642795563 -0.18960385024547577 0.679695725440979 111 103 98 2.48 21 267 22 264 23 242 24 230 26 223 28 209 30 216 34 206 38 198 40 206 41 192 
268 -0.2626851797103882 0.016653748229146004 0.6811316013336182 129 116 108 1.82 21 268 22 265 23 243 24 231 25 187 26 224 28 210 30 217 32 219 34 207 38 199 39 194 40 207 42 185 43 166 44 175 48 205 
269 -0.13465718924999237 0.13840307295322418 0.723897397518158 180 189 194 2.21 21 269 22 266 23 244 24 232 28 211 29 101 30 218 32 220 34 208 36 151 37 98 39 195 40 208 41 193 42 186 44 176 47 144 48 206 
270 -0.3864104449748993 0.07811461389064789 0.6089460253715515 123 110 100 3.9 21 270 22 267 24 233 26 225 28 212 30 219 32 221 34 209 36 152 38 200 40 209 41 194 44 177 48 207 
271 0.46076175570487976 -0.1312539130449295 0.8728793859481812 66 64 67 1.91 21 271 22 268 23 245 24 234 25 188 26 226 27 137 28 213 29 102 31 66 33 73 34 210 35 83 36 153 37 99 38 201 39 196 40 210 41 195 42 187 43 167 44 178 45 131 46 108 47 145 48 208 
272 -0.17109711468219757 0.041172485798597336 0.7189850211143494 15 9 9 1.95 21 272 22 269 23 246 24 235 25 189 26 227 27 138 32 222 34 211 36 154 37 100 38 202 41 196 42 188 43 168 45 132 48 209 
273 -0.1954738050699234 -0.029692096635699272 0.7218855023384094 42 31 25 2.7 21 273 22 270 23 247 24 236 25 190 26 228 27 139 28 214 30 220 32 223 34 212 36 155 37 101 38 203 39 197 41 197 42 189 43 169 45 133 47 146 48 210 
274 -0.3322347104549408 -0.09932835400104523 0.6981126666069031 182 198 211 3.44 21 274 22 271 23 248 24 237 26 229 28 215 30 221 32 224 34 213 39 198 40 211 41 198 42 190 43 170 44 179 48 211 
275 -0.3457171618938446 -0.10451250523328781 0.6945121884346008 19 22 26 3.25 21 275 22 272 23 249 24 238 26 230 28 216 30 222 32 225 34 214 39 199 40 212 41 199 42 191 43 171 44 180 48 212 
276 -0.33600032329559326 0.010552642866969109 0.6499770879745483 136 114 100 3.77 21 276 22 273 23 250 24 239 26 231 28 217 30 223 32 226 34 215 36 156 39 200 40 213 41 200 43 172 44 181 48 213 
277 0.015209636650979519 0.1500224769115448 0.7959488034248352 91 96 96 4.01 21 277 22 274 23 251 24 240 25 191 26 232 27 140 28 218 29 103 32 227 33 74 34 216 35 84 36 157 37 102 38 204 39 201 41 201 42 192 43 173 44 182 46 109 47 147 48 214 
278 -0.3607238233089447 0.043009478598833084 0.6310262084007263 141 129 120 4.26 21 278 22 275 23 252 24 241 26 233 28 219 30 224 32 228 34 217 36 158 38 205 39 202 40 214 41 202 43 174 44 183 48 215 
279 0.2909916639328003 0.2127573937177658 0.6488401293754578 50 43 45 3.3 21 279 22 276 23 253 24 242 25 192 26 234 27 141 28 220 29 104 43 175 46 110 
280 -0.1570209115743637 0.16221699118614197 0.4948435127735138 73 74 70 6.3 21 280 22 277 23 254 24 243 26 235 28 221 30 225 32 229 34 218 
281 0.3106367886066437 0.17818006873130798 0.7011788487434387 50 47 52 6.03 21 281 22 278 23 255 24 244 25 193 26 236 27 142 28 222 29 105 30 226 31 67 32 230 33 75 34 219 35 85 36 159 39 203 40 215 41 203 42 193 43 176 44 184 45 134 46 111 
282 -0.31803765892982483 -0.1183210089802742 0.7090327143669128 48 56 61 3.38 21 282 22 279 23 256 24 245 25 194 26 237 28 223 30 227 32 231 34 220 38 206 39 204 40 216 42 194 43 177 48 216 
283 0.2602072060108185 -0.33178839087486267 0.8200734257698059 67 81 82 3.32 21 283 22 280 23 257 37 103 38 207 39 205 40 217 41 204 42 195 43 178 44 185 45 135 46 112 47 148 48 217 
284 0.2772176265716553 0.12308402359485626 0.7508822679519653 84 85 84 67.24 21 284 22 281 23 258 24 246 25 195 26 238 27 143 28 224 29 106 30 228 31 68 32 232 33 76 35 86 39 206 41 205 42 196 43 179 44 186 45 136 46 113 47 149 48 218 
285 0.5434123277664185 -0.1234581470489502 1.003463625907898 70 69 72 8.99 21 285 22 282 23 259 25 196 27 144 
286 -0.174937441945076 0.06743994355201721 0.7267612218856812 113 121 128 2.96 21 286 22 283 23 260 24 247 25 197 26 239 27 145 30 229 32 233 34 221 36 160 37 104 38 208 40 218 41 206 42 197 44 187 45 137 47 150 48 219 
287 -0.280029296875 -0.03578566387295723 0.6871305108070374 110 94 87 2.92 21 287 22 284 23 261 24 248 25 198 26 240 28 225 30 230 32 234 34 222 38 209 39 207 40 219 41 207 42 198 43 180 44 188 48 220 
288 0.3814034163951874 0.23190948367118835 0.6578712463378906 21 17 21 4.62 21 288 22 285 23 262 24 249 25 199 26 241 27 146 28 226 29 107 
289 0.01957235299050808 0.13702328503131866 0.796254575252533 145 150 151 2.78 21 289 22 286 23 263 24 250 25 200 26 242 27 147 32 235 33 77 34 223 35 87 36 161 37 105 38 210 39 208 41 208 42 199 43 181 46 114 47 151 48 221 
290 -0.03441048413515091 0.16078823804855347 0.5714150667190552 140 137 136 1.89 21 290 22 287 23 264 24 251 25 201 26 243 27 148 28 227 30 231 32 236 34 224 36 162 38 211 39 209 40 220 41 209 42 200 43 182 44 189 45 138 46 115 47 152 48 222 
291 -0.18847374618053436 0.10724835842847824 0.6890309453010559 36 29 32 2.56 21 291 22 288 23 265 24 252 25 202 26 244 27 149 28 228 32 237 34 225 36 163 38 212 41 210 42 201 43 183 48 223 
292 0.3127439618110657 0.18899157643318176 0.684802234172821 62 60 63 4.1 21 292 22 289 23 266 24 253 25 203 26 245 27 150 28 229 29 108 30 232 31 69 41 211 42 202 43 184 44 190 
293 -0.2917969822883606 0.13857096433639526 0.6504905819892883 17 17 17 2.74 21 293 22 290 23 267 24 254 25 204 26 246 28 230 30 233 32 238 34 226 38 213 39 210 40 221 42 203 48 224 
294 -0.15687213838100433 0.13705198466777802 0.7168446779251099 109 120 118 2.55 21 294 22 291 23 268 24 255 25 205 26 247 30 234 32 239 34 227 36 164 37 106 38 214 39 211 40 222 41 212 42 204 44 191 47 153 48 225 
295 -0.2949035167694092 -0.09898477792739868 0.7093586325645447 188 203 216 2.52 21 295 22 292 23 269 24 256 25 206 26 248 28 231 30 235 32 240 34 228 38 215 39 212 40 223 42 205 43 185 44 192 48 226 
296 -0.05510585755109787 0.16110123693943024 0.7192044854164124 90 84 79 4.44 21 296 22 293 23 270 24 257 25 207 26 249 27 151 28 232 29 109 30 236 32 241 33 78 34 229 35 88 38 216 39 213 40 224 41 213 47 154 48 227 
297 0.32248160243034363 0.12627671658992767 0.9433547854423523 52 54 56 1.35 21 297 22 294 24 258 25 208 26 250 27 152 28 233 29 110 30 237 31 70 32 242 33 79 34 230 35 89 38 217 39 214 40 225 41 214 42 206 43 186 44 193 45 139 46 116 47 155 48 228 
298 0.11796197295188904 0.062344443053007126 0.8458364009857178 21 15 15 1.41 21 298 22 295 24 259 25 209 26 251 27 153 28 234 29 111 30 238 31 71 32 243 33 80 34 231 35 90 39 215 40 226 41 215 42 207 44 194 45 140 46 117 47 156 48 229 
299 -0.11804474145174026 -0.19742554426193237 0.7847681045532227 58 56 52 2.86 21 299 22 296 23 271 32 244 37 107 38 218 39 216 40 227 41 216 42 208 43 187 48 230 
300 -0.3157651424407959 -0.09823448210954666 0.7039631009101868 195 206 216 3.69 21 300 22 297 23 272 24 260 25 210 26 252 28 235 30 239 32 245 34 232 38 219 39 217 40 228 41 217 42 209 43 188 48 231 
301 -0.2826008200645447 0.14814773201942444 0.6457363367080688 128 132 140 2.7 21 301 22 298 23 273 24 261 25 211 26 253 28 236 30 240 32 246 34 233 38 220 39 218 40 229 42 210 48 232 
302 0.4147518575191498 -0.13191872835159302 0.8616094589233398 39 34 31 2.3 21 302 22 299 23 274 24 262 25 212 27 154 28 237 29 112 30 241 34 234 35 91 36 165 37 108 38 221 39 219 40 230 41 218 42 211 43 189 44 195 45 141 46 118 47 157 48 233 
303 -0.08036685734987259 0.12669780850410461 0.5153620839118958 55 55 36 3.11 21 303 22 300 23 275 24 263 25 213 26 254 28 238 30 242 32 247 34 235 36 166 40 231 41 219 43 190 44 196 45 142 46 119 
304 -0.34857144951820374 -0.1212688535451889 0.692637026309967 134 144 165 2.35 21 304 22 301 23 276 24 264 26 255 28 239 30 243 32 248 34 236 38 222 39 220 40 232 41 220 43 191 44 197 48 234 
305 0.4548158347606659 -0.16685129702091217 0.8845210075378418 102 114 126 1.81 21 305 22 302 23 277 24 265 25 214 26 256 27 155 28 240 29 113 32 249 33 81 34 237 35 92 36 167 37 109 38 223 39 221 40 233 41 221 42 212 43 192 44 198 45 143 46 120 47 158 48 235 
306 -0.06695276498794556 -0.14728160202503204 0.6994370818138123 164 180 190 3.53 21 306 22 303 23 278 24 266 25 215 26 257 27 156 28 241 30 244 32 250 34 238 38 224 39 222 40 234 41 222 42 213 44 199 
307 0.12197080999612808 -0.15096624195575714 0.7078433632850647 118 125 128 2.64 21 307 22 304 23 279 24 267 25 216 26 258 27 157 28 242 30 245 32 251 33 82 36 168 37 110 38 225 39 223 40 235 41 223 42 214 43 193 44 200 45 144 46 121 47 159 48 236 
308 -0.17757323384284973 -0.08777738362550735 0.7638066411018372 166 179 189 2.73 21 308 22 305 23 280 24 268 25 217 26 259 27 158 30 246 32 252 34 239 36 169 37 111 38 226 40 236 41 224 42 215 44 201 47 160 48 237 
309 0.3162592649459839 -0.005419253837317228 0.9799845218658447 31 30 28 2.26 21 309 22 306 24 269 25 218 26 260 27 159 28 243 29 114 30 247 31 72 33 83 34 240 35 93 38 227 39 224 40 237 41 225 42 216 43 194 44 202 45 145 46 122 47 161 48 238 
310 -0.39657291769981384 0.191785991191864 0.5708229541778564 85 50 44 2.73 21 310 22 307 24 270 26 261 28 244 36 170 
311 -0.29737088084220886 0.03841550275683403 0.6711173057556152 7 8 8 2.24 21 311 22 308 23 281 24 271 25 219 26 262 28 245 30 248 32 253 34 241 38 228 39 225 40 238 43 195 48 239 
312 -0.20000171661376953 0.038336075842380524 0.7030782103538513 114 105 96 2.74 21 312 22 309 23 282 24 272 25 220 26 263 28 246 30 249 34 242 36 171 38 229 39 226 41 226 42 217 43 196 45 146 48 240 
313 -0.12017164379358292 0.11407012492418289 0.7201553583145142 130 119 107 2.08 21 313 22 310 23 283 24 273 28 247 29 115 30 250 32 254 34 243 36 172 37 112 39 227 40 239 41 227 42 218 44 203 45 147 47 162 48 241 
314 -0.03954876586794853 0.19606748223304749 0.4816267490386963 78 70 73 3.34 21 314 22 311 23 284 24 274 25 221 26 264 28 248 30 251 32 255 34 244 36 173 40 240 41 228 43 197 44 204 45 148 47 163 
315 -0.3397752344608307 0.14079339802265167 0.621114194393158 67 67 76 2.43 21 315 22 312 23 285 24 275 26 265 28 249 30 252 32 256 34 245 36 174 39 228 40 241 41 229 44 205 48 242 
316 -0.10998255014419556 -0.19621311128139496 0.7885196805000305 74 65 57 3.03 21 316 22 313 23 286 24 276 32 257 37 113 38 230 39 229 40 242 41 230 42 219 43 198 48 243 
317 0.06163051351904869 0.16836559772491455 0.5009997487068176 22 22 27 3.31 21 317 22 314 23 287 24 277 25 222 26 266 28 250 30 253 32 258 34 246 36 175 44 206 45 149 47 164 
318 0.5938510894775391 0.2380988448858261 0.894814670085907 75 65 65 3.4 35 94 36 176 37 114 38 231 39 230 40 243 41 231 42 220 43 199 44 207 45 150 46 123 47 165 48 244 
319 0.5823147892951965 0.018581317737698555 1.1182583570480347 168 179 191 1.83 22 315 23 288 24 278 25 223 27 160 29 116 31 73 33 84 35 95 36 177 37 115 38 232 39 231 40 244 41 232 42 221 43 200 44 208 45 151 46 124 47 166 48 245 
320 0.37741997838020325 0.19528867304325104 0.633711576461792 18 21 25 7.41 34 247 36 178 38 233 39 232 40 245 41 233 42 222 
321 0.5308616757392883 0.055180247873067856 1.0611932277679443 99 93 89 1.81 21 318 24 279 25 224 26 267 27 161 28 251 29 117 32 259 33 85 34 248 35 96 36 179 37 116 38 234 39 233 40 246 41 234 42 223 43 201 44 209 45 152 46 125 47 167 48 246 
322 0.357931524515152 0.2057400345802307 0.6532615423202515 24 24 26 2.26 30 254 31 74 32 260 33 86 34 249 35 97 36 180 38 235 39 234 40 247 41 235 42 224 43 202 44 210 45 153 
323 0.4872570335865021 -0.03123108483850956 1.064510703086853 137 119 104 1.48 21 319 22 316 26 268 27 162 28 252 29 118 32 261 33 87 34 250 35 98 36 181 37 117 38 236 39 235 40 248 41 236 42 225 43 203 44 211 45 154 46 126 47 168 48 247 
324 0.4528571367263794 0.1282045543193817 1.0221524238586426 96 109 121 1.62 21 320 22 317 23 289 24 280 25 225 28 253 29 119 30 255 31 75 32 262 33 88 34 251 35 99 36 182 37 118 38 237 39 236 40 249 41 237 42 226 43 204 44 212 45 155 46 127 47 169 48 248 
325 0.3908262550830841 -0.11953338980674744 1.0248377323150635 41 40 44 1.19 21 321 22 318 23 290 24 281 34 252 35 100 36 183 37 119 38 238 39 237 40 250 41 238 42 227 43 205 44 213 45 156 46 128 47 170 48 249 
326 0.49424976110458374 -0.04140210151672363 1.0716214179992676 125 118 109 1.49 21 322 22 319 25 226 26 269 27 163 28 254 29 120 32 263 33 89 34 253 35 101 36 184 37 120 38 239 39 238 40 251 41 239 42 228 43 206 44 214 45 157 46 129 47 171 48 250 
327 0.6943677663803101 0.09771787375211716 1.1418635845184326 125 115 112 2.04 21 323 22 320 23 291 25 227 27 164 29 121 31 76 33 90 35 102 37 121 38 240 39 239 40 252 41 240 42 229 43 207 44 215 45 158 46 130 47 172 48 251 
328 0.6942803859710693 0.22376206517219543 1.1031888723373413 117 111 109 1.33 21 324 22 321 23 292 25 228 27 165 29 122 31 77 33 91 35 103 37 122 38 241 39 240 40 253 41 241 42 230 43 208 44 216 45 159 46 131 47 173 48 252 
329 0.27735984325408936 0.05344033241271973 0.9270199537277222 59 48 43 1.49 21 325 22 322 23 293 24 282 27 166 28 255 29 123 30 256 31 78 32 264 33 92 34 254 35 104 36 185 37 123 38 242 40 254 41 242 42 231 43 209 44 217 45 160 46 132 47 174 48 253 
330 0.4378674030303955 0.2239404320716858 0.7442975640296936 48 42 42 2.84 21 326 22 323 23 294 24 283 25 229 26 270 27 167 28 256 29 124 30 257 31 79 32 265 33 93 34 255 35 105 36 186 38 243 39 241 40 255 41 243 42 232 43 210 44 218 
331 0.5660902261734009 -0.012678633444011211 1.12013578414917 171 199 208 1.8 22 324 23 295 24 284 25 230 27 168 28 257 29 125 33 94 35 106 36 187 37 124 38 244 39 242 40 256 41 244 42 233 43 211 44 219 45 161 46 133 47 175 48 254 
332 0.7039451599121094 -0.13800667226314545 1.1832692623138428 29 24 27 3.27 21 327 22 325 23 296 25 231 27 169 29 126 31 80 33 95 35 107 37 125 38 245 39 243 40 257 41 245 42 234 43 212 44 220 45 162 46 134 47 176 48 255 
333 0.4601815640926361 0.19410163164138794 0.6789938807487488 16 18 24 19.43 34 256 35 108 36 188 38 246 39 244 40 258 41 246 42 235 43 213 44 221 
334 0.7159810066223145 0.26097893714904785 0.8730663657188416 40 45 20 1.33 29 127 31 81 33 96 35 109 38 247 39 245 40 259 41 247 
335 0.5798410773277283 0.20498377084732056 0.9199084639549255 52 43 42 3.46 21 328 22 326 31 82 33 97 34 257 35 110 36 189 37 126 38 248 39 246 40 260 41 248 42 236 43 214 44 222 45 163 46 135 47 177 48 256 
336 0.43741604685783386 0.18668533861637115 0.9984917640686035 104 112 124 1.55 21 329 22 327 23 297 24 285 25 232 26 271 30 258 31 83 32 266 33 98 34 258 35 111 36 190 37 127 38 249 39 247 40 261 41 249 42 237 43 215 44 223 45 164 46 136 47 178 48 257 
337 0.4626670777797699 0.17499972879886627 0.8219974637031555 44 32 32 2.36 21 330 22 328 23 298 24 286 25 233 26 272 27 170 28 258 29 128 30 259 31 84 32 267 33 99 34 259 35 112 36 191 37 128 38 250 39 248 40 262 41 250 42 238 43 216 44 224 45 165 46 137 47 179 48 258 
338 0.40535035729408264 0.22764651477336884 0.6815072894096375 104 89 88 3.07 21 331 22 329 23 299 24 287 25 234 26 273 27 171 28 259 29 129 30 260 31 85 32 268 33 100 34 260 35 113 36 192 38 251 39 249 40 263 41 251 42 239 43 217 44 225 45 166 46 138 47 180 
339 0.5460264682769775 0.11052501946687698 1.0529786348342896 120 110 102 1.44 21 332 23 300 24 288 25 235 27 172 28 260 29 130 31 86 32 269 33 101 34 261 35 114 36 193 37 129 38 252 39 250 40 264 41 252 42 240 43 218 44 226 45 167 46 139 47 181 48 259 
340 0.5897243022918701 0.220438152551651 1.0687651634216309 125 135 153 1.13 22 330 23 301 25 236 27 173 29 131 31 87 33 102 35 115 36 194 37 130 38 253 39 251 40 265 41 253 42 241 43 219 44 227 45 168 46 140 47 182 48 260 
341 0.7337369322776794 0.25060465931892395 0.9320172667503357 30 28 28 2.25 29 132 31 88 33 103 35 116 37 131 38 254 39 252 40 266 41 254 42 242 43 220 44 228 45 169 46 141 47 183 48 261 
342 0.4755948781967163 0.19081157445907593 0.8597989678382874 27 26 30 7.05 21 333 22 331 23 302 25 237 27 174 28 261 29 133 30 261 31 89 32 270 33 104 34 262 35 117 36 195 37 132 38 255 39 253 40 267 41 255 42 243 43 221 44 229 45 170 46 142 47 184 
343 -0.02302747219800949 0.0796794444322586 0.7949431538581848 63 66 67 2.3 22 332 23 303 24 289 25 238 26 274 27 175 28 262 29 134 30 262 31 90 34 263 35 118 36 196 37 133 38 256 39 254 40 268 42 244 43 222 44 230 46 143 47 185 48 262 
344 0.6439388394355774 0.21848982572555542 1.0747963190078735 129 121 118 1.21 21 334 22 333 23 304 25 239 27 176 29 135 31 91 33 105 35 119 37 134 38 257 39 255 40 269 41 256 42 245 43 223 44 231 45 171 46 144 47 186 48 263 
345 0.45864203572273254 -0.15417294204235077 0.886391818523407 185 199 211 1.42 21 335 22 334 23 305 24 290 25 240 26 275 27 177 28 263 29 136 32 271 33 106 34 264 35 120 36 197 37 135 38 258 39 256 40 270 41 257 42 246 43 224 44 232 45 172 46 145 47 187 48 264 
346 0.1406906694173813 -0.10762433707714081 0.9238137006759644 36 29 25 1.36 21 336 23 306 24 291 25 241 26 276 27 178 28 264 30 263 31 92 32 272 36 198 37 136 38 259 39 257 40 271 41 258 43 225 44 233 45 173 46 146 47 188 48 265 
347 0.38426148891448975 0.034855831414461136 0.9760150909423828 71 67 64 1.32 22 335 23 307 24 292 25 242 26 277 27 179 28 265 29 137 30 264 34 265 35 121 36 199 37 137 38 260 39 258 40 272 41 259 42 247 43 226 44 234 45 174 46 147 47 189 48 266 
348 0.6778126358985901 0.25193458795547485 1.0794163942337036 92 82 81 2.71 21 337 27 180 29 138 31 93 33 107 35 122 37 138 38 261 39 259 40 273 41 260 42 248 43 227 44 235 45 175 46 148 47 190 48 267 
349 0.631410539150238 0.2258753478527069 1.0782719850540161 100 88 86 1.17 21 338 22 336 23 308 25 243 27 181 29 139 31 94 33 108 35 123 37 139 38 262 39 260 40 274 41 261 42 249 43 228 44 236 45 176 46 149 47 191 48 268 
350 -0.1836758553981781 0.16861824691295624 0.6693134903907776 112 97 86 24.65 26 278 28 266 30 265 32 273 34 266 36 200 38 263 39 261 40 275 41 262 42 250 43 229 44 237 45 177 46 150 47 192 
351 0.20816616714000702 0.22246567904949188 0.808831512928009 17 15 17 8.58 22 337 23 309 24 293 25 244 26 279 27 182 28 267 29 140 30 266 31 95 32 274 33 109 35 124 36 201 37 140 38 264 39 262 40 276 46 151 
352 0.2202850878238678 0.18308258056640625 0.5645734071731567 29 23 26 2.34 21 339 22 338 23 310 24 294 25 245 26 280 27 183 28 268 29 141 30 267 31 96 32 275 33 110 34 267 36 202 38 265 39 263 40 277 41 263 42 251 43 230 44 238 45 178 46 152 47 193 
353 0.43396902084350586 0.14227156341075897 1.0100197792053223 90 103 114 1.24 21 340 22 339 23 311 24 295 25 246 30 268 31 97 32 276 33 111 34 268 35 125 36 203 37 141 38 266 39 264 40 278 41 264 42 252 43 231 44 239 45 179 46 153 47 194 48 269 
354 0.6708303689956665 0.2530549168586731 0.875076174736023 53 52 34 1.61 27 184 29 142 31 98 33 112 35 126 38 267 39 265 40 279 41 265 42 253 43 232 44 240 45 180 46 154 47 195 48 270 
355 0.3077664077281952 0.19489337503910065 0.6162974834442139 35 26 28 3.91 28 269 30 269 31 99 32 277 33 113 34 269 35 127 36 204 38 268 39 266 40 280 41 266 42 254 43 233 44 241 45 181 46 155 47 196 
356 0.004336799029260874 0.10472915321588516 0.7991729378700256 62 66 65 2.18 21 341 22 340 23 312 24 296 25 247 26 281 27 185 28 270 29 143 32 278 33 114 34 270 35 128 36 205 37 142 38 269 39 267 42 255 43 234 44 242 46 156 47 197 48 271 
357 0.41780683398246765 0.11742618680000305 0.9998928308486938 83 91 106 1.25 21 342 22 341 23 313 24 297 25 248 26 282 27 186 30 270 31 100 32 279 33 115 34 271 35 129 36 206 37 143 38 270 39 268 40 281 41 267 42 256 43 235 44 243 45 182 46 157 47 198 48 272 
358 0.4161361753940582 -0.0072766621597111225 1.0195411443710327 82 76 73 1.2 21 343 22 342 23 314 24 298 25 249 26 283 27 187 34 272 35 130 36 207 37 144 38 271 39 269 40 282 41 268 42 257 43 236 44 244 45 183 46 158 47 199 48 273 
359 0.7236080169677734 0.26033836603164673 0.8833381533622742 72 79 45 1.41 29 144 31 101 33 116 35 131 38 272 39 270 40 283 41 269 
360 0.4107930362224579 0.04204973205924034 1.0023940801620483 85 79 76 1.36 21 344 22 343 23 315 24 299 25 250 26 284 27 188 32 280 33 117 34 273 35 132 36 208 37 145 38 273 39 271 40 284 41 270 42 258 43 237 44 245 45 184 46 159 47 200 48 274 
361 0.6405786275863647 0.12069449573755264 1.1040481328964233 122 104 100 1.0 21 345 22 344 23 316 25 251 27 189 29 145 31 102 33 118 35 133 37 146 38 274 39 272 40 285 41 271 42 259 43 238 44 246 45 185 46 160 47 201 48 275 
362 -0.010757507756352425 -0.0783228948712349 0.6633524298667908 81 80 78 1.88 21 346 22 345 23 317 24 300 25 252 26 285 27 190 28 271 29 146 30 271 32 281 34 274 36 209 38 275 39 273 40 286 41 272 42 260 43 239 44 247 45 186 46 161 47 202 48 276 
363 0.1507190614938736 0.1587069034576416 0.8450825214385986 28 19 18 1.63 21 347 23 318 24 301 25 253 26 286 27 191 28 272 29 147 30 272 31 103 32 282 33 119 36 210 37 147 38 276 39 274 40 287 41 273 44 248 45 187 46 162 47 203 48 277 
364 0.1648789793252945 -0.12883342802524567 0.9313794374465942 25 18 16 1.45 22 346 23 319 24 302 25 254 26 287 27 192 29 148 30 273 31 104 36 211 37 148 38 277 39 275 40 288 41 274 43 240 44 249 45 188 46 163 47 204 48 278 
365 -0.020461952313780785 -0.15094362199306488 0.8512375950813293 24 15 11 1.98 21 348 22 347 23 320 24 303 25 255 26 288 27 193 28 273 29 149 30 274 31 105 32 283 34 275 36 212 37 149 38 278 39 276 40 289 42 261 43 241 44 250 46 164 47 205 48 279 
366 -0.17786623537540436 -0.04762746021151543 0.7622348070144653 30 37 36 4.05 21 349 22 348 23 321 24 304 25 256 26 289 27 194 28 274 30 275 32 284 34 276 36 213 37 150 38 279 39 277 40 290 41 275 42 262 43 242 48 280 
367 0.44513776898384094 0.09017901867628098 1.0099153518676758 14 11 10 1.35 21 350 22 349 23 322 24 305 25 257 28 275 30 276 31 106 32 285 33 120 34 277 35 134 36 214 37 151 38 280 39 278 40 291 41 276 42 263 43 243 44 251 45 189 46 165 47 206 48 281 
368 0.6238157749176025 0.02543366327881813 1.1271848678588867 146 138 141 1.46 21 351 22 350 23 323 25 258 27 195 29 150 31 107 33 121 35 135 37 152 38 281 39 279 40 292 41 277 42 264 43 244 44 252 45 190 46 166 47 207 48 282 
369 0.12150495499372482 0.20340022444725037 0.5550764799118042 46 46 49 3.31 26 290 28 276 30 277 32 286 34 278 36 215 38 282 39 280 40 293 41 278 42 265 43 245 44 253 45 191 46 167 47 208 
370 0.45067185163497925 0.008418027311563492 1.0497328042984009 121 138 154 1.37 21 352 22 351 23 324 24 306 25 259 28 277 29 151 32 287 33 122 34 279 35 136 36 216 37 153 38 283 39 281 40 294 41 279 42 266 43 246 44 254 45 192 46 168 47 209 48 283 
371 0.6699568033218384 0.1854468733072281 1.0973149538040161 125 112 103 1.29 21 353 22 352 23 325 25 260 27 196 29 152 31 108 33 123 35 137 37 154 38 284 39 282 40 295 41 280 42 267 43 247 44 255 45 193 46 169 47 210 48 284 
372 0.64378821849823 -0.0466013066470623 1.154620885848999 143 138 135 1.45 21 354 22 353 23 326 27 197 29 153 33 124 35 138 37 155 38 285 39 283 40 296 41 281 42 268 43 248 44 256 45 194 46 170 47 211 48 285 
373 0.36955076456069946 0.09845663607120514 0.9483202695846558 75 66 61 1.56 22 354 23 327 24 307 25 261 26 291 27 198 28 278 29 154 30 278 31 109 32 288 36 217 37 156 38 286 39 284 40 297 41 282 42 269 43 249 44 257 45 195 46 171 47 212 48 286 
374 0.41532912850379944 0.003839485812932253 1.03229558467865 143 159 174 1.76 21 355 22 355 23 328 24 308 25 262 26 292 27 199 30 279 32 289 34 280 35 139 36 218 37 157 38 287 39 285 40 298 41 283 42 270 43 250 44 258 45 196 46 172 47 213 48 287 
375 0.14042262732982635 -0.06599830836057663 0.7333826422691345 70 71 73 1.88 21 356 22 356 23 329 24 309 25 263 26 293 27 200 28 279 29 155 30 280 31 110 32 290 33 125 34 281 35 140 36 219 37 158 38 288 39 286 40 299 41 284 42 271 43 251 44 259 45 197 46 173 47 214 48 288 
376 0.659207820892334 0.24936780333518982 0.8315673470497131 32 42 21 1.57 27 201 29 156 31 111 33 126 35 141 38 289 39 287 40 300 41 285 42 272 
377 0.42609065771102905 -0.06308583915233612 1.058631420135498 83 94 105 1.33 21 357 22 357 23 330 24 310 25 264 26 294 34 282 35 142 36 220 37 159 38 290 39 288 40 301 41 286 42 273 43 252 44 260 45 198 46 174 47 215 48 289 
378 0.483682245016098 0.09144116193056107 1.0258525609970093 79 76 76 1.41 21 358 22 358 23 331 26 295 27 202 28 280 29 157 30 281 31 112 32 291 33 127 34 283 35 143 36 221 37 160 38 291 39 289 40 302 41 287 42 274 43 253 44 261 45 199 46 175 47 216 48 290 
379 -0.049382321536540985 -0.02130313031375408 0.7829809188842773 51 33 23 5.1 21 359 22 359 24 311 25 265 26 296 27 203 28 281 29 158 30 282 31 113 32 292 33 128 34 284 36 222 37 161 38 292 39 290 40 303 41 288 47 217 48 291 
380 0.5763782262802124 0.21933811902999878 1.036294937133789 72 59 57 1.87 22 360 23 332 25 266 27 204 29 159 31 114 33 129 35 144 36 223 37 162 38 293 39 291 40 304 41 289 42 275 43 254 44 262 45 200 46 176 47 218 48 292 
381 0.44387584924697876 0.11359868943691254 1.0222610235214233 89 105 113 1.36 21 360 22 361 23 333 24 312 25 267 28 282 29 160 30 283 31 115 32 293 33 130 34 285 35 145 36 224 37 163 38 294 39 292 40 305 41 290 42 276 43 255 44 263 45 201 46 177 47 219 48 293 
382 0.7018880248069763 0.2578553557395935 1.06759774684906 47 33 38 1.84 25 268 27 205 29 161 31 116 33 131 35 146 37 164 38 295 39 293 40 306 41 291 42 277 43 256 44 264 45 202 46 178 47 220 48 294 
383 0.6618379354476929 0.13771280646324158 1.110024094581604 117 105 98 1.12 21 361 22 362 23 334 25 269 27 206 29 162 31 117 33 132 35 147 37 165 38 296 39 294 40 307 41 292 42 278 43 257 44 265 45 203 46 179 47 221 48 295 
384 0.6308330297470093 -0.007512166630476713 1.135878562927246 148 141 137 1.64 21 362 22 363 23 335 25 270 27 207 29 163 33 133 35 148 37 166 38 297 39 295 40 308 41 293 42 279 43 258 44 266 45 204 46 180 47 222 48 296 
385 0.46215102076530457 0.07367674261331558 0.8405380249023438 152 157 161 1.11 21 363 22 364 23 336 24 313 25 271 26 297 27 208 28 283 29 164 30 284 31 118 32 294 33 134 34 286 35 149 36 225 37 167 38 298 39 296 40 309 41 294 42 280 43 259 44 267 45 205 46 181 47 223 48 297 
386 0.6072826981544495 0.1765100210905075 1.0858798027038574 138 143 157 0.89 22 365 23 337 25 272 27 209 29 165 31 119 33 135 35 150 37 168 38 299 39 297 40 310 41 295 42 281 43 260 44 268 45 206 46 182 47 224 48 298 
387 0.3022068440914154 0.2075563371181488 0.642852783203125 70 61 61 2.08 30 285 32 295 33 136 34 287 35 151 36 226 38 300 39 298 40 311 41 296 42 282 43 261 44 269 45 207 46 183 
388 0.6828051805496216 0.19976569712162018 1.1021050214767456 37 38 40 1.36 21 364 22 366 23 338 25 273 27 210 29 166 31 120 33 137 35 152 37 169 38 301 39 299 40 312 41 297 42 283 43 262 44 270 45 208 46 184 47 225 48 299 
389 0.18034958839416504 0.06605636328458786 0.874741792678833 46 29 23 1.24 22 367 23 339 24 314 25 274 26 298 27 211 28 284 29 167 30 286 31 121 34 288 35 153 36 227 37 170 38 302 39 300 40 313 41 298 44 271 45 209 46 185 47 226 48 300 
390 0.3157024383544922 0.2204182893037796 0.5927224159240723 80 55 49 2.28 21 365 22 368 23 340 24 315 25 275 26 299 27 212 28 285 29 168 30 287 31 122 32 296 33 138 34 289 35 154 36 228 38 303 39 301 40 314 41 299 42 284 43 263 44 272 45 210 46 186 47 227 
391 -0.19580450654029846 -0.04838987812399864 0.7533177733421326 4 5 4 1.98 21 366 22 369 23 341 24 316 25 276 26 300 27 213 28 286 30 288 32 297 34 290 36 229 37 171 38 304 41 300 42 285 47 228 48 301 
392 0.41040316224098206 0.06181992590427399 0.9972766041755676 94 90 86 1.18 21 367 22 370 23 342 24 317 25 277 26 301 27 214 32 298 33 139 34 291 35 155 36 230 37 172 38 305 39 302 40 315 41 301 42 286 43 264 44 273 45 211 46 187 47 229 48 302 
393 0.6533576250076294 0.05063119903206825 1.1305148601531982 161 156 155 1.39 21 368 22 371 23 343 25 278 27 215 29 169 33 140 35 156 37 173 38 306 39 303 40 316 41 302 42 287 43 265 44 274 45 212 46 188 47 230 48 303 
394 0.6070786118507385 -0.05720524117350578 1.1537002325057983 225 234 238 1.95 21 369 22 372 23 344 25 279 27 216 29 170 33 141 35 157 36 231 37 174 38 307 39 304 40 317 41 303 42 288 43 266 44 275 45 213 46 189 47 231 48 304 
395 0.6878458261489868 -0.11944428086280823 1.1977201700210571 60 65 70 2.68 21 370 22 373 23 345 25 280 27 217 29 171 31 123 33 142 35 158 37 175 38 308 39 305 40 318 41 304 42 289 43 267 44 276 45 214 46 190 47 232 48 305 
396 0.7076922655105591 0.24677860736846924 0.9184888601303101 63 59 65 1.37 27 218 29 172 31 124 33 143 35 159 37 176 38 309 39 306 40 319 41 305 42 290 43 268 44 277 45 215 46 191 47 233 48 306 
397 0.6794137954711914 -0.0687994435429573 1.1819030046463013 146 138 133 2.24 21 371 22 374 23 346 25 281 27 219 29 173 31 125 33 144 35 160 37 177 38 310 39 307 40 320 41 306 42 291 43 269 44 278 45 216 46 192 47 234 48 307 
398 0.35790714621543884 0.22336623072624207 0.6579751372337341 46 43 48 2.75 21 372 22 375 23 347 25 282 26 302 27 220 28 287 29 174 30 289 31 126 32 299 33 145 34 292 35 161 36 232 38 311 39 308 40 321 41 307 42 292 43 270 44 279 45 217 46 193 47 235 
399 0.471137136220932 -0.10722187161445618 1.080281138420105 14 12 12 1.51 21 373 22 376 23 348 26 303 27 221 28 288 29 175 30 290 32 300 33 146 34 293 35 162 36 233 37 178 38 312 39 309 40 322 41 308 42 293 43 271 44 280 45 218 46 194 47 236 48 308 
400 0.626915454864502 0.2236272543668747 1.0824553966522217 135 137 143 1.43 21 374 22 377 23 349 25 283 27 222 29 176 31 127 33 147 35 163 37 179 38 313 39 310 40 323 41 309 42 294 43 272 44 281 45 219 46 195 47 237 48 309 
401 0.4521164000034332 -0.1154787540435791 0.866888165473938 59 59 62 1.81 21 375 22 378 23 350 24 318 25 284 26 304 27 223 28 289 29 177 30 291 33 148 34 294 35 164 36 234 37 180 38 314 39 311 40 324 41 310 42 295 43 273 44 282 45 220 46 196 47 238 48 310 
402 0.4260309338569641 -0.10471436381340027 1.0677486658096313 49 53 54 1.49 21 376 22 379 23 351 24 319 32 301 34 295 35 165 36 235 37 181 38 315 39 312 40 325 41 311 42 296 43 274 44 283 45 221 46 197 47 239 48 311 
403 -0.1681496649980545 -0.08548229932785034 0.7730483412742615 87 92 98 61.49 21 377 22 380 23 352 24 320 25 285 26 305 27 224 28 290 29 178 30 292 31 128 32 302 33 149 34 296 35 166 36 236 37 182 38 316 39 313 40 326 41 312 42 297 43 275 44 284 45 222 46 198 47 240 48 312 
404 -0.023374123498797417 0.16964787244796753 0.7589274048805237 38 39 41 2.8 23 353 24 321 25 286 26 306 27 225 28 291 29 179 30 293 31 129 36 237 37 183 38 317 39 314 40 327 43 276 44 285 46 199 47 241 48 313 
405 0.6588740348815918 -0.12246345728635788 1.1795207262039185 81 84 88 2.24 21 378 22 381 23 354 25 287 27 226 33 150 35 167 37 184 38 318 39 315 40 328 41 313 42 298 43 277 44 286 45 223 46 200 47 242 48 314 
406 0.1947433203458786 0.191987544298172 0.8477972745895386 98 92 88 1.89 22 382 23 355 24 322 25 288 26 307 27 227 28 292 29 180 30 294 31 130 32 303 33 151 34 297 35 168 36 238 37 185 38 319 39 316 40 329 41 314 43 278 44 287 45 224 46 201 47 243 48 315 
407 0.4206518828868866 0.16057462990283966 0.9872392416000366 106 111 123 1.09 21 379 22 383 23 356 24 323 25 289 26 308 27 228 30 295 31 131 32 304 33 152 34 298 35 169 36 239 37 186 38 320 39 317 40 330 41 315 42 299 43 279 44 288 45 225 46 202 47 244 48 316 
408 0.3049428462982178 0.20124389231204987 0.5991824865341187 26 32 36 12.7 30 296 32 305 33 153 34 299 35 170 36 240 38 321 39 318 40 331 41 316 42 300 43 280 44 289 45 226 46 203 47 245 
409 0.21701638400554657 0.19492095708847046 0.5608419179916382 21 24 29 2.07 25 290 28 293 30 297 32 306 34 300 36 241 38 322 39 319 40 332 41 317 42 301 43 281 44 290 45 227 46 204 
410 0.6177310347557068 -0.043804511427879333 1.1494673490524292 163 169 175 1.67 21 380 22 384 23 357 25 291 27 229 29 181 33 154 35 171 37 187 38 323 39 320 40 333 41 318 42 302 43 282 44 291 45 228 46 205 47 246 48 317 
411 0.32184267044067383 0.17676417529582977 0.7024052143096924 133 134 133 5.5 21 381 22 385 23 358 24 324 25 292 26 309 27 230 28 294 29 182 30 298 31 132 32 307 33 155 34 301 35 172 36 242 37 188 38 324 39 321 40 334 41 319 42 303 43 283 44 292 45 229 46 206 47 247 
412 0.6780736446380615 0.25317466259002686 0.8470426201820374 65 71 29 1.61 27 231 29 183 31 133 33 156 35 173 38 325 39 322 40 335 41 320 42 304 
413 0.5662248730659485 0.01742284931242466 1.0934460163116455 121 102 95 1.75 22 386 23 359 24 325 25 293 27 232 28 295 29 184 31 134 33 157 35 174 36 243 37 189 38 326 39 323 40 336 41 321 42 305 43 284 44 293 45 230 46 207 47 248 48 318 
414 0.41948550939559937 0.206876739859581 0.6954345107078552 39 38 40 13.15 29 185 30 299 31 135 32 308 33 158 34 302 35 175 36 244 38 327 39 324 40 337 41 322 42 306 43 285 44 294 45 231 
415 0.49509361386299133 0.22172369062900543 0.7785718441009521 42 51 51 2.89 21 382 22 387 23 360 25 294 27 233 28 296 29 186 30 300 31 136 32 309 33 159 34 303 35 176 36 245 38 328 39 325 40 338 41 323 
416 0.5681279301643372 0.05467773601412773 1.0820951461791992 102 86 81 1.52 22 388 23 361 24 326 25 295 27 234 28 297 29 187 31 137 33 160 35 177 36 246 37 190 38 329 39 326 40 339 41 324 42 307 43 286 44 295 45 232 46 208 47 249 48 319 
417 0.6171786189079285 0.0836954414844513 1.1018834114074707 141 126 114 1.24 21 383 22 389 23 362 25 296 27 235 29 188 31 138 33 161 35 178 37 191 38 330 39 327 40 340 41 325 42 308 43 287 44 296 45 233 46 209 47 250 48 320 
418 0.3931582272052765 -0.011804959736764431 0.9940648078918457 98 91 86 1.71 21 384 22 390 23 363 24 327 25 297 26 310 27 236 28 298 29 189 34 304 35 179 36 247 37 192 38 331 39 328 40 341 41 326 42 309 43 288 44 297 45 234 46 210 47 251 48 321 
419 0.5750144124031067 0.19494909048080444 1.0559762716293335 138 154 172 1.03 22 391 23 364 25 298 27 237 29 190 31 139 33 162 35 180 36 248 37 193 38 332 39 329 40 342 41 327 42 310 43 289 44 298 45 235 46 211 47 252 48 322 
420 0.37769439816474915 0.20651964843273163 0.630527913570404 21 26 30 1.98 21 385 22 392 23 365 24 328 25 299 26 311 27 238 28 299 29 191 30 301 31 140 32 310 33 163 34 305 35 181 36 249 38 333 39 330 40 343 41 328 42 311 43 290 44 299 45 236 46 212 47 253 
421 0.491131067276001 0.2164050042629242 0.7867555022239685 59 75 75 2.25 21 386 22 393 23 366 25 300 27 239 28 300 29 192 30 302 31 141 32 311 33 164 34 306 35 182 36 250 37 194 38 334 39 331 40 344 
422 0.6153436303138733 0.0012363387504592538 1.1410592794418335 167 180 188 1.78 21 387 22 394 23 367 25 301 27 240 29 193 33 165 35 183 37 195 38 335 39 332 40 345 41 329 42 312 43 291 44 300 45 237 46 213 47 254 48 323 
423 0.5693581104278564 0.029143787920475006 1.0868637561798096 82 60 55 1.91 22 395 23 368 24 329 25 302 27 241 28 301 29 194 31 142 33 166 35 184 36 251 37 196 38 336 39 333 40 346 41 330 42 313 43 292 44 301 45 238 46 214 47 255 48 324 
424 0.7058370113372803 0.2583858370780945 0.8913884162902832 72 83 42 1.65 27 242 29 195 31 143 33 167 35 185 38 337 39 334 40 347 41 331 42 314 44 302 
425 0.6665245890617371 0.02432161383330822 1.145301342010498 100 90 91 1.63 21 388 22 396 23 369 25 303 27 243 29 196 33 168 35 186 37 197 38 338 39 335 40 348 41 332 42 315 43 293 44 303 45 239 46 215 47 256 48 325 
426 0.48621463775634766 0.18669664859771729 1.0032706260681152 82 78 79 1.33 21 389 22 397 23 370 26 312 27 244 28 302 29 197 30 303 31 144 32 312 33 169 34 307 35 187 36 252 37 198 38 339 39 336 40 349 41 333 42 316 43 294 44 304 45 240 46 216 47 257 48 326 
427 0.6665410995483398 0.09955497086048126 1.1236525774002075 130 118 112 1.32 21 390 22 398 23 371 25 304 27 245 29 198 31 145 33 170 35 188 37 199 38 340 39 337 40 350 41 334 42 317 43 295 44 305 45 241 46 217 47 258 48 327 
428 0.619810938835144 0.04926234483718872 1.1127407550811768 130 118 108 1.34 21 391 22 399 23 372 25 305 27 246 29 199 31 146 33 171 35 189 37 200 38 341 39 338 40 351 41 335 42 318 43 296 44 306 45 242 46 218 47 259 48 328 
429 -0.23879745602607727 -0.07360626757144928 0.7181622385978699 124 109 98 1.56 22 400 23 373 24 330 25 306 26 313 28 303 30 304 32 313 34 308 36 253 38 342 39 339 40 352 43 297 44 307 48 329 
430 0.14148934185504913 0.20937877893447876 0.5400819182395935 28 18 19 2.11 28 304 30 305 32 314 34 309 36 254 38 343 39 340 40 353 41 336 42 319 43 298 44 308 45 243 46 219 47 260 
431 0.2106172889471054 0.1903049498796463 0.5782217383384705 73 67 69 1.91 30 306 32 315 34 310 36 255 38 344 39 341 40 354 41 337 42 320 43 299 44 309 45 244 46 220 47 261 
432 -0.0016173534095287323 -0.15616407990455627 0.7015368342399597 43 32 24 2.01 21 392 22 401 23 374 24 331 25 307 26 314 27 247 28 305 29 200 30 307 32 316 34 311 36 256 37 201 38 345 39 342 40 355 41 338 42 321 43 300 44 310 45 245 46 221 47 262 48 330 
433 0.46552735567092896 0.21600641310214996 0.6709160208702087 34 35 39 9.04 33 172 34 312 35 190 36 257 38 346 39 343 40 356 41 339 42 322 43 301 44 311 45 246 
434 0.6197554469108582 -0.09380550682544708 1.1568008661270142 19 17 19 1.84 21 393 22 402 23 375 25 308 27 248 29 201 33 173 35 191 36 258 37 202 38 347 39 344 40 357 41 340 42 323 43 302 44 312 45 247 46 222 47 263 48 331 
435 0.6243560314178467 0.23638156056404114 0.8942083716392517 94 83 85 3.4 29 202 31 147 33 174 35 192 36 259 37 203 38 348 39 345 40 358 41 341 42 324 43 303 44 313 45 248 46 223 47 264 48 332 
436 0.4734027087688446 -0.20260678231716156 0.8884182572364807 106 114 120 1.45 21 394 22 403 23 376 24 332 25 309 27 249 28 306 33 175 35 193 37 204 38 349 39 346 40 359 41 342 42 325 43 304 44 314 45 249 46 224 47 265 48 333 
437 0.2636202871799469 -0.150330051779747 0.7833344340324402 145 159 166 1.41 21 395 22 404 23 377 24 333 25 310 26 315 27 250 28 307 29 203 30 308 31 148 32 317 33 176 36 260 37 205 38 350 39 347 40 360 41 343 42 326 43 305 44 315 45 250 46 225 47 266 48 334 
438 0.14397504925727844 -0.09648099541664124 0.7182355523109436 124 128 133 0.99 21 396 22 405 23 378 24 334 25 311 26 316 27 251 28 308 29 204 30 309 31 149 32 318 33 177 34 313 35 194 36 261 37 206 38 351 39 348 40 361 41 344 42 327 43 306 44 316 45 251 46 226 47 267 48 335 
439 0.6351611018180847 0.08931504189968109 1.109371542930603 117 89 86 1.15 21 397 22 406 23 379 25 312 27 252 29 205 31 150 33 178 35 195 37 207 38 352 39 349 40 362 41 345 42 328 43 307 44 317 45 252 46 227 47 268 48 336 
440 0.6786410212516785 -0.08814369142055511 1.1860204935073853 134 129 123 2.49 21 398 22 407 23 380 25 313 27 253 29 206 31 151 33 179 35 196 37 208 38 353 39 350 40 363 41 346 42 329 43 308 44 318 45 253 46 228 47 269 48 337 
441 0.32693061232566833 0.18929745256900787 0.7353013753890991 47 47 47 0.91 21 399 22 408 30 310 31 152 32 319 33 180 34 314 35 197 36 262 37 209 38 354 39 351 40 364 41 347 42 330 43 309 44 319 45 254 
442 0.19410771131515503 0.19655165076255798 0.5863204002380371 47 43 45 2.58 30 311 32 320 34 315 35 198 36 263 38 355 39 352 40 365 41 348 42 331 43 310 44 320 45 255 46 229 47 270 
443 0.21209749579429626 0.18896308541297913 0.5796027183532715 18 24 26 2.42 30 312 32 321 34 316 35 199 36 264 38 356 39 353 40 366 41 349 42 332 43 311 44 321 45 256 46 230 47 271 
444 0.4471234977245331 0.23082725703716278 0.7387319803237915 61 63 63 1.4 21 400 22 409 23 381 24 335 25 314 26 317 27 254 28 309 29 207 30 313 31 153 32 322 33 181 34 317 35 200 36 265 38 357 39 354 40 367 41 350 42 333 43 312 44 322 45 257 
445 0.18007557094097137 -0.01021494809538126 0.897330105304718 42 31 24 1.51 22 410 23 382 24 336 25 315 26 318 27 255 28 310 29 208 30 314 31 154 36 266 37 210 38 358 39 355 40 368 41 351 43 313 44 323 45 258 46 231 47 272 48 338 
446 0.1420496255159378 -0.06501971930265427 0.9122589826583862 42 36 29 1.39 21 401 23 383 24 337 25 316 26 319 27 256 28 311 29 209 30 315 31 155 32 323 33 182 36 267 37 211 38 359 39 356 40 369 41 352 44 324 45 259 46 232 47 273 48 339 
447 0.5740678906440735 0.01090548187494278 1.12184739112854 214 230 229 2.2 22 411 23 384 24 338 25 317 27 257 28 312 29 210 31 156 33 183 35 201 36 268 37 212 38 360 39 357 40 370 41 353 42 334 43 314 44 325 45 260 46 233 47 274 48 340 
448 0.2582545876502991 0.054279156029224396 0.9186760187149048 70 58 49 1.4 21 402 22 412 23 385 24 339 25 318 28 313 29 211 30 316 31 157 32 324 33 184 34 318 35 202 36 269 37 213 38 361 41 354 42 335 43 315 44 326 45 261 46 234 47 275 48 341 
449 0.5622527003288269 -0.06938954442739487 1.12415611743927 126 147 168 1.77 22 413 23 386 24 340 25 319 27 258 28 314 29 212 32 325 33 185 34 319 35 203 36 270 37 214 38 362 39 358 40 371 41 355 42 336 43 316 44 327 45 262 46 235 47 276 48 342 
450 0.47546976804733276 -0.20355874300003052 0.8892494440078735 122 133 140 1.64 21 403 22 414 23 387 24 341 25 320 27 259 28 315 33 186 35 204 37 215 38 363 39 359 40 372 41 356 42 337 43 317 44 328 45 263 46 236 47 277 48 343 
451 0.5346753001213074 -0.07187861204147339 1.1019600629806519 116 108 99 1.55 21 404 23 388 24 342 25 321 27 260 28 316 29 213 32 326 33 187 34 320 35 205 36 271 37 216 38 364 39 360 40 373 41 357 42 338 43 318 44 329 45 264 46 237 47 278 48 344 
452 0.5175974369049072 -0.07733559608459473 1.0948679447174072 137 124 114 1.58 21 405 23 389 24 343 27 261 28 317 29 214 32 327 33 188 34 321 35 206 36 272 37 217 38 365 39 361 40 374 41 358 42 339 43 319 44 330 45 265 46 238 47 279 48 345 
453 0.5916064977645874 0.08149884641170502 1.0881088972091675 118 102 93 1.31 22 415 23 390 25 322 27 262 29 215 31 158 33 189 35 207 36 273 37 218 38 366 39 362 40 375 41 359 42 340 43 320 44 331 45 266 46 239 47 280 48 346 
454 0.4616906940937042 -0.13387438654899597 0.8748002052307129 63 56 54 1.6 21 406 22 416 23 391 24 344 25 323 26 320 27 263 28 318 29 216 30 317 32 328 33 190 34 322 35 208 36 274 37 219 38 367 39 363 40 376 41 360 42 341 43 321 44 332 45 267 46 240 47 281 48 347 
455 -0.19684818387031555 -0.08944761753082275 0.7537184953689575 71 63 66 1.81 21 407 22 417 23 392 24 345 25 324 26 321 27 264 28 319 30 318 32 329 34 323 36 275 37 220 38 368 39 364 41 361 42 342 43 322 47 282 48 348 
456 0.5661726593971252 0.2026033252477646 0.7625464200973511 23 26 21 2.27 25 325 27 265 29 217 31 159 32 330 33 191 34 324 35 209 36 276 37 221 38 369 39 365 40 377 41 362 42 343 43 323 44 333 45 268 46 241 47 283 48 349 
457 0.13368570804595947 -0.1207457110285759 0.7184996604919434 144 148 152 1.21 21 408 22 418 23 393 24 346 25 326 26 322 27 266 28 320 29 218 30 319 31 160 32 331 33 192 34 325 35 210 36 277 37 222 38 370 39 366 40 378 41 363 42 344 43 324 44 334 45 269 46 242 47 284 48 350 
458 0.6619258522987366 -0.10390372574329376 1.1796010732650757 105 104 101 2.3 21 409 22 419 23 394 25 327 27 267 29 219 33 193 35 211 37 223 38 371 39 367 40 379 41 364 42 345 43 325 44 335 45 270 46 243 47 285 48 351 
459 0.6659685969352722 0.2523350715637207 0.8678027987480164 71 79 41 2.24 27 268 29 220 31 161 33 194 35 212 38 372 39 368 40 380 41 365 42 346 43 326 44 336 45 271 46 244 47 286 48 352 
460 0.4170531630516052 0.0005122581496834755 1.0406017303466797 24 23 23 1.91 21 410 22 420 23 395 24 347 25 328 26 323 27 269 30 320 34 326 35 213 36 278 37 224 38 373 39 369 40 381 41 366 42 347 43 327 44 337 45 272 46 245 47 287 48 353 
461 0.14112648367881775 0.19514182209968567 0.5431708097457886 20 19 22 9.38 26 324 28 321 30 321 32 332 34 327 36 279 38 374 39 370 40 382 41 367 42 348 43 328 44 338 45 273 46 246 47 288 
462 0.448963463306427 0.20453056693077087 0.7641187310218811 140 145 145 2.66 21 411 22 421 23 396 24 348 25 329 26 325 27 270 28 322 29 221 30 322 31 162 32 333 33 195 34 328 35 214 36 280 37 225 38 375 39 371 40 383 41 368 42 349 43 329 
463 0.41097864508628845 0.03206970542669296 1.0049889087677002 92 87 83 1.32 21 412 22 422 23 397 24 349 25 330 26 326 27 271 32 334 33 196 34 329 35 215 36 281 37 226 38 376 39 372 40 384 41 369 42 350 43 330 44 339 45 274 46 247 47 289 48 354 
464 0.41849562525749207 0.088497094810009 0.9929189085960388 97 94 91 1.03 21 413 22 423 23 398 24 350 25 331 26 327 27 272 31 163 32 335 33 197 34 330 35 216 36 282 37 227 38 377 39 373 40 385 41 370 42 351 43 331 44 340 45 275 46 248 47 290 48 355 
465 0.48344236612319946 0.005654335953295231 1.051019310951233 108 103 98 1.84 21 414 22 424 23 399 26 328 27 273 28 323 29 222 32 336 33 198 34 331 35 217 36 283 37 228 38 378 39 374 40 386 41 371 42 352 43 332 44 341 45 276 46 249 47 291 48 356 
466 0.2719138264656067 -0.1313270628452301 0.7787269353866577 135 137 138 1.13 21 415 22 425 23 400 24 351 25 332 26 329 27 274 28 324 29 223 30 323 31 164 32 337 33 199 34 332 35 218 36 284 37 229 38 379 39 375 40 387 41 372 42 353 43 333 44 342 45 277 46 250 47 292 48 357 
467 0.43024179339408875 -0.03837034851312637 1.052996277809143 53 57 65 1.23 21 416 22 426 23 401 24 352 25 333 34 333 35 219 36 285 37 230 38 380 39 376 40 388 41 373 42 354 43 334 44 343 45 278 46 251 47 293 48 358 
468 0.5938082933425903 -0.11719001829624176 1.1477279663085938 87 67 60 1.95 21 417 22 427 23 402 24 353 25 334 27 275 29 224 33 200 35 220 36 286 37 231 38 381 39 377 40 389 41 374 42 355 43 335 44 344 45 279 46 252 47 294 48 359 
469 0.4388584792613983 -0.11099786311388016 0.8625943064689636 84 85 88 1.62 21 418 22 428 23 403 24 354 25 335 26 330 27 276 28 325 29 225 30 324 32 338 34 334 35 221 36 287 37 232 38 382 39 378 40 390 41 375 42 356 43 336 44 345 45 280 46 253 47 295 48 360 
470 0.1611340045928955 -0.14556854963302612 0.764129102230072 45 36 30 1.57 21 419 22 429 23 404 24 355 25 336 26 331 27 277 28 326 30 325 31 165 32 339 33 201 34 335 36 288 37 233 38 383 39 379 40 391 41 376 42 357 43 337 44 346 45 281 46 254 47 296 48 361 
471 0.5873870849609375 0.11095765978097916 1.097630500793457 73 96 108 2.06 22 430 23 405 25 337 27 278 29 226 31 166 33 202 35 222 36 289 37 234 38 384 39 380 40 392 41 377 42 358 43 338 44 347 45 282 46 255 47 297 48 362 
472 0.6113670468330383 -0.04793021082878113 1.1526027917861938 170 184 194 2.1 21 420 22 431 23 406 25 338 27 279 29 227 33 203 35 223 36 290 37 235 38 385 39 381 40 393 41 378 42 359 43 339 44 348 45 283 46 256 47 298 48 363 
473 0.21552596986293793 0.196236714720726 0.5595005750656128 52 43 45 2.43 32 340 34 336 36 291 38 386 39 382 40 394 41 379 42 360 43 340 44 349 45 284 
474 0.020771989598870277 0.16090428829193115 0.5919716358184814 58 62 67 3.34 21 421 22 432 23 407 24 356 25 339 26 332 27 280 28 327 30 326 32 341 34 337 36 292 38 387 39 383 40 395 41 380 42 361 43 341 44 350 45 285 46 257 47 299 48 364 
475 0.023860443383455276 0.18769186735153198 0.7597847580909729 65 57 51 21.0 34 338 35 224 36 293 37 236 38 388 39 384 
476 0.42952433228492737 -0.017328815534710884 1.0506892204284668 99 109 121 1.5 21 422 22 433 23 408 24 357 25 340 26 333 30 327 34 339 35 225 36 294 37 237 38 389 39 385 40 396 41 381 42 362 43 342 44 351 45 286 46 258 47 300 48 365 
477 0.19835186004638672 -0.12430203706026077 0.941845715045929 29 18 14 1.17 21 423 22 434 23 409 24 358 25 341 26 334 27 281 28 328 29 228 34 340 35 226 36 295 37 238 38 390 39 386 40 397 42 363 43 343 44 352 45 287 46 259 47 301 48 366 
478 0.7055657505989075 0.2442198097705841 1.1055235862731934 52 35 36 1.91 21 424 25 342 27 282 29 229 31 167 33 204 35 227 37 239 38 391 39 387 40 398 41 382 42 364 43 344 44 353 45 288 46 260 47 302 48 367 
