# 3D point list with one line of data per point:
#   POINT3D_ID, X, Y, Z, R, G, B, ERROR, TRACK[] as (IMAGE_ID, POINT2D_IDX)
# Number of points: 397, mean track length: 6.69
1474 0.5263497888984434 0.3161166827094861 0.8931414239607844 0 0 0 0.18 43 941 77 471 85 145 
1475 0.2054454582110685 0.3794382739828517 1.0047279619161593 0 0 0 0.17 43 942 50 773 96 453 
1476 0.3401256489783999 0.35103429132637587 0.9505407142997856 0 0 0 0.13 43 943 53 461 97 212 190 114 
1477 0.49775169189508417 0.1078675988036293 1.0377239681112043 0 0 0 0.46 43 944 71 345 81 163 
1478 0.49910504045187204 0.10359417614511757 0.9860793417976548 0 0 0 0.34 43 945 71 346 81 164 190 115 
1479 0.4420293104102409 0.11375376927338372 1.0023343824098434 0 0 0 0.52 43 946 54 186 71 347 110 146 162 147 164 265 185 75 
1480 0.5777617560396108 0.10529089345179853 1.0158507844458777 0 0 0 0.76 43 947 54 187 63 163 71 348 77 472 81 165 147 199 163 73 185 76 
1481 0.617205426626657 0.10494712682245902 0.9514447060168599 0 0 0 0.41 43 948 54 188 63 164 
1482 0.344941297437505 0.15106900410770233 1.0254786012477293 0 0 0 0.39 43 949 96 454 110 147 
1483 0.41576080066455967 0.1545268054763462 0.9997076746594128 0 0 0 0.37 43 950 53 462 103 201 
1484 0.24316942505350184 0.18430559254964435 1.0665908201685939 0 0 0 0.15 43 951 61 491 81 166 152 42 
1485 0.2473918306801216 0.18720260062975222 1.0672080040724123 0 0 0 0.24 43 952 61 492 81 167 128 308 152 43 190 116 
1486 0.615927107323495 0.13006217638805018 0.9418983433490974 0 0 0 0.3 43 953 60 256 162 148 
1487 0.12161381018151814 0.17826166209841254 0.9375897876478289 0 0 0 0.53 43 954 67 155 88 116 96 455 103 202 111 355 
1488 0.24745375493541302 0.19430758477881957 1.0630509831486703 0 0 0 0.18 43 955 60 257 111 356 179 26 
1489 0.1652035213517005 0.2120005537921414 1.1000173532371882 0 0 0 0.68 43 956 81 168 92 374 96 456 113 114 118 573 176 172 
1490 0.4107390864731797 0.18357744929855524 0.9862619033305843 0 0 0 0.25 43 957 63 165 88 117 92 375 136 95 147 200 159 78 172 203 194 68 
1491 0.3611426379137217 0.19648173456401696 1.0002400858403715 0 0 0 0.44 43 958 44 370 60 258 128 309 164 266 185 77 194 69 
1492 0.5632299208987526 0.17003013876878098 0.9522567729624646 0 0 0 0.42 43 959 54 189 111 357 164 267 185 78 
1493 0.09512101509253461 0.18684541211885805 0.8438829358793127 0 0 0 0.56 43 960 96 457 118 574 
1494 0.4419792972650725 0.19069064629713872 0.9789249950545977 0 0 0 0.25 43 961 88 118 128 310 190 117 
1495 0.44270905793370946 0.19087203852450468 0.9803740643357902 0 0 0 0.13 43 962 128 311 190 118 
1496 0.6229721464582305 0.16570054382556876 0.9298453509232886 0 0 0 0.54 43 963 54 190 73 254 91 129 111 358 159 79 184 69 
1497 0.44228923187188723 0.19763865326486987 0.9765162772297061 0 0 0 0.48 43 964 61 493 118 575 157 59 
1498 0.19775674745528385 0.2402236073122783 1.066985992596168 0 0 0 0.14 43 965 110 148 113 115 
1499 0.21257884097585295 0.2369371918978215 1.0575114124480063 0 0 0 0.48 43 966 113 116 127 136 
1500 0.16898316736605887 0.24836847696511746 1.0775109423498042 0 0 0 0.26 43 967 53 463 65 156 81 169 88 119 92 376 96 458 103 203 113 117 
1501 0.667149261492315 0.1672665731133482 0.9138120131471682 0 0 0 0.33 50 774 53 464 118 576 127 137 
1502 0.7095107524859817 0.12700203424697748 0.7583330989114065 0 0 0 0.71 43 968 53 465 54 191 190 119 
1503 0.19762340654343058 0.24647136372144737 1.0647892284927984 0 0 0 0.19 43 969 110 149 113 118 157 60 190 120 
1504 0.16474676587765072 0.2525537440644078 1.0769345900828966 0 0 0 0.35 43 970 96 459 176 173 
1505 0.1020892253838168 0.20514014569484768 0.8558611771970601 0 0 0 0.39 43 971 96 460 118 577 
1506 0.6979542431785373 0.1463734830100901 0.7851885265059719 0 0 0 1.98 43 972 53 466 97 213 141 15 
1507 0.6986644638596405 0.1463776733315586 0.7849963105590158 0 0 0 2.14 43 973 53 467 97 214 118 578 141 16 
1508 0.7075288168135281 0.14701128390402216 0.7877487482066069 0 0 0 1.76 54 192 103 204 141 17 
1509 0.26511906505122007 0.24666641556074587 1.0277049116162535 0 0 0 0.13 43 974 60 259 92 377 
1510 0.3314493143080577 0.23528067369441208 0.9985199298825613 0 0 0 0.12 43 975 81 170 92 378 
1511 0.30658392425513803 0.24463974972467611 1.0138872890883757 0 0 0 0.1 43 976 65 157 96 461 
1512 0.48071084002266884 0.21504559657837555 0.9506977537455455 0 0 0 0.3 1 372 43 977 44 371 50 775 53 468 60 260 61 494 63 166 69 214 73 255 77 473 88 120 91 130 92 379 111 359 118 579 129 129 135 36 164 268 176 174 190 121 
1513 0.33728455210423086 0.24006155875262408 0.9957544001230192 0 0 0 0.25 43 978 60 261 65 158 67 156 85 146 92 380 96 462 110 150 113 119 126 103 127 138 135 37 148 138 164 269 194 70 
1514 0.70302954727411 0.18973109827048576 0.9066624654275002 0 0 0 0.61 44 372 60 262 73 256 91 131 92 381 136 96 184 70 
1515 0.3682714488092226 0.23747257992422532 0.9825850416061088 0 0 0 0.34 43 979 50 776 89 167 103 205 111 360 157 61 
1516 0.2759537590095576 0.25555370155751855 1.0199473977853444 0 0 0 0.42 43 980 60 263 61 495 67 157 92 382 96 463 97 215 157 62 176 175 
1517 0.18254807720873603 0.2755213033763827 1.0579206364161335 0 0 0 0.23 43 981 53 469 71 349 110 151 118 580 
1518 0.2800303382378423 0.25799234122245523 1.018976144871569 0 0 0 0.39 43 982 44 373 50 777 53 470 60 264 63 167 81 171 92 383 111 361 146 149 157 63 
1519 0.10308914171145489 0.2292792436564557 0.8503110884463632 0 0 0 0.36 43 983 96 464 128 312 
1520 0.26999497372681386 0.2622235979358315 1.0189003639698726 0 0 0 0.35 43 984 44 374 53 471 60 265 92 384 96 465 97 216 148 139 172 204 176 176 
1521 0.1381392437108253 0.2569436099514182 0.9496641965610415 0 0 0 0.2 43 985 81 172 96 466 
1522 0.13820431841462438 0.25666975601091746 0.9485725062629863 0 0 0 0.29 43 986 81 173 96 467 118 581 128 313 
1523 0.571383425615116 0.21638821909950468 0.9213602871215687 0 0 0 0.16 43 987 53 472 147 201 
1524 0.16869671890820698 0.2939667783140238 1.0571425282060933 0 0 0 0.25 43 988 92 385 110 152 113 120 
1525 0.6857298235131719 0.21137930910226826 0.8929408641990041 0 0 0 0.27 43 989 77 474 118 582 147 202 165 121 184 71 
1526 0.6959845440292814 0.21209325174262678 0.8961099848318625 0 0 0 0.3 43 990 54 193 65 159 67 158 77 475 91 132 103 206 110 153 136 97 164 270 165 122 190 122 
1527 0.7089392606199583 0.21188805525463225 0.8970777913748554 0 0 0 0.54 43 991 44 375 50 778 73 257 92 386 105 88 164 271 165 123 
1528 0.7195585532131772 0.21250838296551264 0.9015429497409561 0 0 0 0.43 43 992 54 194 89 168 164 272 165 124 
1529 0.16021965564166982 0.29855943146476344 1.0564549801644332 0 0 0 0.15 43 993 77 476 110 154 
1530 0.6548130550984373 0.2167713854414137 0.8958222366690362 0 0 0 0.17 43 994 53 473 164 273 
1531 0.19388985430038347 0.294871907537449 1.043119946609991 0 0 0 0.22 43 995 67 159 81 174 92 387 190 123 
1532 0.6957127189644845 0.21780874185159765 0.8927810332453262 0 0 0 0.58 43 996 54 195 63 168 71 350 77 477 85 147 92 388 110 155 164 274 165 125 184 72 190 124 
1533 0.5475706964991552 0.23751115016241045 0.9206730525886497 0 0 0 0.32 43 997 44 376 181 38 
1534 0.7092184343123048 0.21846861583108668 0.8942853150135562 0 0 0 0.5 63 169 73 258 85 148 105 89 110 156 136 98 164 275 
1535 0.7112704833291698 0.16689914431599182 0.7209073749107515 0 0 0 0.63 43 998 184 73 190 125 
1536 0.2200028139189258 0.2962307341469078 1.0297338298159966 0 0 0 0.16 43 999 44 377 92 389 
1537 0.05690751622665837 0.20978852680858348 0.6996509076269385 0 0 0 1.13 43 1000 73 259 96 468 
1538 0.646719167484003 0.22822610423738066 0.8897175279703491 0 0 0 0.15 43 1001 92 390 164 276 
1539 0.24913407053986006 0.29474973465264603 1.0171330639720684 0 0 0 0.13 43 1002 60 266 92 391 
1540 0.32477330755380046 0.2795122914217421 0.9819254059911579 0 0 0 0.3 43 1003 92 392 96 469 
1541 0.3208417521966625 0.2825292480778149 0.9836020496955636 0 0 0 0.27 43 1004 92 393 164 277 
1542 0.3610772987601576 0.27675009982023757 0.968096398734245 0 0 0 0.18 43 1005 92 394 136 99 185 79 
1543 0.1397624112139165 0.28336237926127844 0.936635463378394 0 0 0 0.58 43 1006 53 474 96 470 118 583 
1544 0.30533969451217224 0.2894757153115685 0.9889141187797873 0 0 0 0.29 43 1007 44 378 81 175 88 121 96 471 126 104 129 130 164 278 176 177 
1545 0.7086820851663221 0.1763700785145073 0.7134423848130168 0 0 0 0.57 43 1008 65 160 184 74 
1546 0.3334080929603465 0.2888034022804 0.9768305731434156 0 0 0 0.18 43 1009 63 170 92 395 126 105 
1547 0.663530362326552 0.23728072925910562 0.8773430189010512 0 0 0 0.5 43 1010 73 260 163 74 
1548 0.14739036942897255 0.29740628022309573 0.952993210508128 0 0 0 0.2 43 1011 73 261 96 472 
1549 0.26722655959789093 0.30405978390435384 0.995505834941492 0 0 0 0.38 43 1012 60 267 92 396 
1550 0.5614999890793148 0.2599442050511189 0.9039952295490584 0 0 0 0.36 43 1013 54 196 71 351 88 122 92 397 165 126 
1551 0.08385307092156269 0.24519295567679467 0.7548050179734914 0 0 0 0.65 43 1014 61 496 96 473 
1552 0.3258153414296464 0.30422003826467586 0.9731938610096872 0 0 0 0.15 43 1015 88 123 92 398 96 474 
1553 0.13756882005269652 0.30018750751099005 0.92082258172802 0 0 0 0.46 43 1016 53 475 65 161 96 475 118 584 128 314 
1554 0.6590417414100436 0.2530987435544472 0.8755003534808737 0 0 0 0.28 43 1017 71 352 73 262 85 149 91 133 105 90 111 362 129 131 164 279 165 127 
1555 0.6101268988747899 0.26044484690211 0.8857417939005221 0 0 0 0.18 43 1018 71 353 77 478 165 128 
1556 0.637304270721813 0.25788165297694643 0.8850564320433263 0 0 0 0.38 43 1019 81 176 91 134 
1557 0.195390966658961 0.3347108485733121 1.0252476418151604 0 0 0 0.49 43 1020 50 779 77 479 88 124 148 140 159 80 162 149 164 280 176 178 190 126 
1558 0.4585178193905371 0.285760811274849 0.9278360682351455 0 0 0 0.31 43 1021 81 177 96 476 190 127 
1559 0.14459396255382104 0.30821663564217094 0.9328640148410542 0 0 0 0.45 43 1022 96 477 103 207 118 585 
1560 0.5907501401033737 0.26783921320196724 0.8908861981706218 0 0 0 0.3 43 1023 71 354 88 125 96 478 105 91 127 139 162 150 
1561 0.4796185350753754 0.2871107721630511 0.9196180482515209 0 0 0 0.12 43 1024 50 780 61 497 69 215 
1562 0.43367171700220875 0.2947122373682944 0.9327081072552658 0 0 0 0.34 43 1025 53 476 77 480 158 79 172 205 
1563 0.6919297750169771 0.2599026082071319 0.8781000602004588 0 0 0 0.77 43 1026 73 263 111 363 162 151 165 129 
1564 0.7357689639841273 0.25988549780013975 0.8831978121686258 0 0 0 0.28 43 1027 54 197 103 208 
1565 0.3463615272859244 0.31096746457180025 0.960858721195533 0 0 0 0.38 43 1028 88 126 92 399 96 479 118 586 146 150 
1566 0.4581086308801227 0.29150882873325923 0.9238839237011723 0 0 0 0.56 43 1029 126 106 127 140 
1567 0.3517179732360565 0.31410886042818636 0.9598999573519663 0 0 0 0.3 43 1030 60 268 96 480 113 121 185 80 
1568 0.5761328222934957 0.2793738038882598 0.8977579198593211 0 0 0 0.23 43 1031 65 162 81 178 
1569 0.6440927684142111 0.26911386569255774 0.8760503801416946 0 0 0 0.56 43 1032 54 198 111 364 146 151 147 203 162 152 163 75 164 281 172 206 
1570 0.1768831916156697 0.3517932771349804 1.0287168904759023 0 0 0 0.18 43 1033 92 400 96 481 
1571 0.39665335451869516 0.3092724418616709 0.9411937822664533 0 0 0 0.34 43 1034 92 401 96 482 103 209 110 157 
1572 0.34725515430114373 0.31800765496657957 0.9552680503994813 0 0 0 0.32 43 1035 53 477 92 402 97 217 128 315 
1573 0.6364423001861367 0.2729605081379476 0.8743463359131788 0 0 0 0.32 50 781 54 199 69 216 71 355 100 69 147 204 148 141 159 81 162 153 164 282 
1574 0.6796995145353695 0.2692530969114304 0.8658715705976149 0 0 0 0.39 43 1036 60 269 85 150 118 587 129 132 147 205 148 142 163 76 164 283 165 130 
1575 0.46304960316420846 0.3012318598407349 0.9198980943269421 0 0 0 0.31 43 1037 44 379 60 270 77 481 96 483 103 210 147 206 172 207 
1576 0.4641113656433639 0.3017331152197142 0.9223797808344494 0 0 0 0.19 43 1038 146 152 147 207 
1577 0.6322504068659579 0.2750167987576731 0.8745805503358464 0 0 0 0.52 43 1039 44 380 50 782 53 478 61 498 71 356 73 264 85 151 105 92 110 158 136 100 146 153 159 82 163 77 164 284 165 131 172 208 
1578 0.35043027734487636 0.321827515954639 0.954705984432461 0 0 0 0.34 43 1040 92 403 96 484 128 316 146 154 176 179 
1579 0.24267887878933153 0.3448356957601112 0.9960324525972453 0 0 0 0.5 43 1041 44 381 50 783 71 357 96 485 110 159 111 365 129 133 164 285 
1580 0.5881348767442487 0.28744834106444167 0.8843429195102732 0 0 0 0.33 43 1042 54 200 71 358 77 482 81 179 91 135 111 366 164 286 
1581 0.5387972491164905 0.2961562071894213 0.8970483435481172 0 0 0 0.4 43 1043 44 382 164 287 
1582 0.5344644390451904 0.2970633669528062 0.8968579256439584 0 0 0 0.39 43 1044 50 784 60 271 61 499 88 127 100 70 111 367 129 134 162 154 
1583 0.2942447121825842 0.3398405678424863 0.9712395539265447 0 0 0 0.59 43 1045 92 404 96 486 113 122 164 288 176 180 
1584 0.37704291366649234 0.3244510207180778 0.9412749114706891 0 0 0 0.09 43 1046 53 479 96 487 
1585 0.39991011696359763 0.31956355287502564 0.9324778145996476 0 0 0 0.51 43 1047 92 405 103 211 
1586 0.3400631829221086 0.3330471571214378 0.9583721916435425 0 0 0 0.39 43 1048 53 480 92 406 176 181 
1587 0.3238250094042995 0.33402455661178626 0.9575800988591175 0 0 0 0.42 43 1049 53 481 92 407 176 182 
1588 0.676218169967076 0.2819872700029932 0.8624576397077998 0 0 0 0.45 43 1050 54 201 71 359 73 265 85 152 105 93 110 160 147 208 164 289 165 132 184 75 
1589 0.4849105914382557 0.31103339843847 0.9085368011075596 0 0 0 0.5 43 1051 50 785 69 217 77 483 88 128 89 169 96 488 135 38 146 155 158 80 
1590 0.6712557566869173 0.291129690511808 0.8516676862249237 0 0 0 0.21 43 1052 71 360 165 133 
1591 0.4766465151992575 0.32535279581441373 0.910428642188019 0 0 0 0.37 43 1053 96 489 146 156 
1592 0.3030009447377962 0.35756712612545566 0.9669836805592463 0 0 0 0.28 43 1054 96 490 146 157 
1593 0.4506290228433486 0.11233431710101109 1.0021191658389637 0 0 0 0.47 43 1055 81 180 96 491 147 209 181 39 
1594 0.6011435345354318 0.10881306495736778 0.9570517660557558 0 0 0 0.09 43 1056 89 170 96 492 
1595 0.11503927350966421 0.16336041399745957 0.9229404034043881 0 0 0 0.46 67 160 81 181 96 493 103 212 111 368 
1596 0.6012101074791855 0.11966626827469465 0.9479799958615244 0 0 0 0.17 43 1057 61 500 89 171 92 408 111 369 129 135 176 183 
1597 0.06254609425523651 0.14133312569659157 0.7610457791398403 0 0 0 0.35 67 161 96 494 118 588 
1598 0.12183127748961757 0.1710859884804619 0.9445602179075611 0 0 0 0.54 43 1058 67 162 73 266 81 182 96 495 103 213 111 370 
1599 0.15534882957732227 0.19857383620393018 1.105210539713617 0 0 0 0.47 43 1059 73 267 77 484 81 183 85 153 88 129 111 371 126 107 127 141 148 143 159 83 
1600 0.1552243852303162 0.19867554805572646 1.1056422010225668 0 0 0 0.3 43 1060 81 184 88 130 111 372 148 144 
1601 0.5931097947182876 0.12882761767970902 0.9506102846398831 0 0 0 0.48 43 1061 50 786 61 501 69 218 73 268 81 185 85 154 89 172 126 108 129 136 148 145 162 155 163 78 
1602 0.5304030941395802 0.1445393868555443 0.9630860106080092 0 0 0 0.35 43 1062 50 787 53 482 60 272 61 502 73 269 96 496 128 317 129 137 147 210 159 84 164 290 165 134 182 51 190 128 
1603 0.2689741657688604 0.18947152143027274 1.0510627751818027 0 0 0 0.35 43 1063 88 131 179 27 
1604 0.12485130947835944 0.1820350397536785 0.9417284637470349 0 0 0 0.38 43 1064 96 497 103 214 111 373 
1605 0.16086744557452243 0.21648070482747467 1.0945121575488213 0 0 0 0.55 43 1065 44 383 92 409 96 498 
1606 0.15540297525552613 0.2192211713100842 1.0944476150533373 0 0 0 0.38 43 1066 44 384 67 163 71 361 73 270 77 485 81 186 88 132 92 410 96 499 110 161 
1607 0.5368410051627786 0.1620204002707413 0.9530073724232213 0 0 0 0.47 14 227 43 1067 44 385 50 788 53 483 54 202 60 273 61 503 63 171 71 362 77 486 85 155 89 173 91 136 110 162 118 589 129 138 136 101 159 85 185 81 
1608 0.1643046783363413 0.226831321641035 1.093014876331222 0 0 0 0.54 43 1068 44 386 92 411 
1609 0.48909759090728505 0.1765046305751865 0.9718570590976855 0 0 0 0.17 43 1069 111 374 164 291 
1610 0.709528930783273 0.1506395116700289 0.9281087080521551 0 0 0 0.38 43 1070 53 484 89 174 
1611 0.18526537545778463 0.2310519385598898 1.0751210270924234 0 0 0 0.35 43 1071 71 363 88 133 
1612 0.5502608542614256 0.17014936014105403 0.9447217968699451 0 0 0 0.37 43 1072 63 172 91 137 159 86 
1613 0.20439555945230534 0.22689282485839757 1.0629179339172365 0 0 0 0.28 43 1073 60 274 110 163 
1614 0.10997615631498853 0.1977368972994303 0.8861227828211572 0 0 0 0.36 43 1074 67 164 96 500 
1615 0.6667129467612879 0.16706055175425247 0.9137130878998568 0 0 0 0.28 43 1075 69 219 97 218 128 318 158 81 
1616 0.10549915087516487 0.2058485114525695 0.8664398240241326 0 0 0 0.52 43 1076 65 163 67 165 96 501 
1617 0.6421768472122725 0.17759759557662538 0.9163620582285725 0 0 0 0.34 81 187 114 56 172 209 190 129 
1618 0.6850943404270836 0.14547593721433247 0.7738583667912813 0 0 0 1.67 43 1077 103 215 118 590 184 76 
1619 0.3458474832890063 0.23779797076849601 0.990613532612229 0 0 0 0.44 43 1078 60 275 81 188 147 211 
1620 0.5708981443475778 0.20414173455338716 0.9280536077219507 0 0 0 0.38 43 1079 44 387 50 789 53 485 54 203 61 504 65 164 69 220 71 364 77 487 88 134 92 412 96 502 105 94 118 591 128 319 129 139 148 146 159 87 162 156 163 79 164 292 165 135 182 52 
1621 0.0853005144782697 0.2063374539150525 0.7874491969612838 0 0 0 0.25 43 1080 81 189 96 503 
1622 0.5154190918383502 0.2177899625754602 0.9413444099179731 0 0 0 0.45 43 1081 44 388 63 173 92 413 185 82 190 130 
1623 0.2141939504182218 0.27176589015094704 1.0413939606367462 0 0 0 0.21 43 1082 96 504 97 219 158 82 
1624 0.7022700648330572 0.19882564775749456 0.9016828885074596 0 0 0 0.29 44 389 61 505 89 175 164 293 
1625 0.668125868850092 0.21503723327787122 0.892926822957891 0 0 0 0.29 43 1083 44 390 50 790 53 486 54 204 61 506 69 221 77 488 91 138 92 414 100 71 111 375 118 592 128 320 163 80 165 136 
1626 0.6750888538212324 0.2360615179150758 0.877069651085528 0 0 0 0.46 43 1084 60 276 111 376 127 142 163 81 
1627 0.4586715548414634 0.2917969292505333 0.9255665378767606 0 0 0 0.25 43 1085 50 791 96 505 158 83 
1628 0.19051169481004682 0.34406266831770405 1.0203415872904291 0 0 0 0.38 43 1086 50 792 53 487 60 277 61 507 71 365 77 489 81 190 88 135 92 415 96 506 111 377 118 593 129 140 176 184 
1629 0.6169974838249737 0.2723201440975701 0.8809782113638216 0 0 0 0.59 43 1087 50 793 53 488 61 508 69 222 81 191 105 95 111 378 129 141 162 157 181 40 182 53 190 131 
1630 0.6071499659141489 0.27483317310431604 0.88146740267586 0 0 0 0.51 43 1088 54 205 71 366 85 156 97 220 118 594 136 102 141 18 147 212 164 294 184 77 
1631 0.6070998474678877 0.27469574742632447 0.8814964437265544 0 0 0 0.51 43 1089 50 794 53 489 54 206 61 509 69 223 71 367 77 490 85 157 91 139 111 379 118 595 136 103 141 19 164 295 184 78 190 132 
1632 0.5620573754664054 0.2847329226941778 0.8975415387933595 0 0 0 0.33 43 1090 65 165 71 368 91 140 
1633 0.3193499189847896 0.3247923930230876 0.9693556376015736 0 0 0 0.43 43 1091 92 416 96 507 97 221 128 321 172 210 176 185 
1634 0.6691017338857226 0.2683124997770695 0.8660637597696006 0 0 0 0.58 43 1092 60 278 85 158 164 296 
1635 0.5180170163070605 0.29461378887347267 0.901291203627829 0 0 0 0.45 43 1093 53 490 65 166 111 380 190 133 
1636 0.2083079953340278 0.3561256632125736 1.0167113616140921 0 0 0 0.27 43 1094 71 369 81 192 103 216 113 123 
1637 0.37172787493715526 0.3209813128005527 0.944274086206332 0 0 0 0.84 43 1095 96 508 103 217 
1638 0.39476544571974315 0.31774347520377305 0.9397605213307136 0 0 0 0.49 43 1096 92 417 96 509 110 164 
1639 0.436635879543357 0.3144351536080997 0.9346140248137887 0 0 0 0.44 43 1097 81 193 92 418 
1640 0.5776893504688817 0.29346353089893773 0.8966415770627935 0 0 0 0.21 43 1098 54 207 71 370 
1641 0.5613724846687926 0.2927810577628066 0.8900732025752554 0 0 0 0.29 43 1099 162 158 163 82 
1642 0.6526282715537234 0.2917565379503389 0.8779102666594224 0 0 0 0.45 43 1100 162 159 165 137 
1643 0.3350695115992411 0.34075737584151633 0.9539532122849131 0 0 0 0.24 43 1101 53 491 77 491 96 510 148 147 172 211 176 186 
1644 0.5572485147973694 0.3104976493206285 0.8905547008521675 0 0 0 0.33 43 1102 71 371 111 381 164 297 
1645 0.39593298611155536 0.11470029827299953 1.020407435820556 0 0 0 0.37 43 1103 63 174 71 372 
1646 0.6610347592375733 0.09779849144439091 0.9992243912676991 0 0 0 0.45 43 1104 54 208 71 373 
1647 0.5986024805427537 0.13603599224209637 0.9468160086871039 0 0 0 0.4 43 1105 60 279 111 382 136 104 162 160 163 83 
1648 0.372075617156053 0.17600184149046874 1.0041781642273053 0 0 0 0.4 43 1106 81 194 92 419 100 72 158 84 176 187 194 71 
1649 0.3343751156747115 0.18608654108599335 1.0147125027540311 0 0 0 0.5 43 1107 44 391 50 795 60 280 61 510 65 167 77 492 81 195 88 136 92 420 111 383 162 161 164 298 
1650 0.28659601942500884 0.19655898608610622 1.0436090117456736 0 0 0 0.96 43 1108 88 137 111 384 
1651 0.4777509172692513 0.16478334549820614 0.972175884965867 0 0 0 0.54 43 1109 44 392 50 796 53 492 61 511 73 271 85 159 92 421 96 511 111 385 158 85 162 162 
1652 0.16038231979980735 0.22460475880386926 1.0886824643958388 0 0 0 0.45 43 1110 71 374 73 272 77 493 88 138 
1653 0.16043712090196513 0.22492172386544035 1.0932061086866274 0 0 0 0.55 43 1111 44 393 92 422 
1654 0.40277219242646156 0.18560398316968524 0.9878853770627025 0 0 0 0.39 43 1112 44 394 50 797 61 512 69 224 88 139 111 386 129 142 135 39 152 44 157 64 162 163 164 299 
1655 0.3448990394631212 0.2007544043173326 1.0026874331308364 0 0 0 0.58 43 1113 85 160 162 164 164 300 
1656 0.34491013159455597 0.20047694240311803 1.0035292590012 0 0 0 0.54 43 1114 53 493 113 124 
1657 0.7117021114555047 0.11391980667255068 0.7570793853449712 0 0 0 0.58 43 1115 54 209 184 79 
1658 0.7117021114555047 0.11391980667255068 0.7570793853449712 0 0 0 0.58 43 1116 54 210 184 80 
1659 0.7009548123440527 0.14047751013234322 0.7881617352887803 0 0 0 0.55 97 222 103 218 
1660 0.2102086332852921 0.2666938606057381 1.0486094433697255 0 0 0 0.27 43 1117 92 423 158 86 
1661 0.5416056824765753 0.21492395152159496 0.9348233063785539 0 0 0 0.57 43 1118 60 281 85 161 162 165 163 84 
1662 0.5406321941892617 0.21405482443861432 0.9321336015495231 0 0 0 0.5 43 1119 60 282 91 141 111 387 194 72 
1663 0.6888981161655306 0.20525992306814544 0.9036798055043942 0 0 0 0.62 43 1120 85 162 105 96 162 166 
1664 0.7605414690000314 0.2011339668264338 0.8490371424459356 0 0 0 1.0 65 168 147 213 172 212 
1665 0.7039361060077943 0.2210271559421091 0.8945145386478502 0 0 0 0.44 43 1121 54 211 103 219 164 301 165 138 
1666 0.7039361060077943 0.2210271559421091 0.8945145386478502 0 0 0 0.44 43 1122 54 212 103 220 164 302 165 139 
1667 0.6827268178943152 0.1942972295175035 0.7682145537764086 0 0 0 1.39 43 1123 77 494 118 596 190 134 
1668 0.20090709414085528 0.3119949213383397 1.0338404815742586 0 0 0 0.52 43 1124 92 424 96 512 164 303 
1669 0.5771269379399766 0.24598025200941617 0.8971695540246355 0 0 0 0.35 43 1125 63 175 65 169 71 375 91 142 118 597 164 304 190 135 
1670 0.372835267606935 0.27898838010834354 0.9564050447007022 0 0 0 0.31 43 1126 88 140 103 221 
1671 0.5679495120473068 0.2540666974003532 0.9050187180868293 0 0 0 0.32 43 1127 44 395 50 798 53 494 54 213 60 283 61 513 71 376 73 273 77 495 92 425 96 513 111 388 118 598 147 214 148 148 163 85 164 305 165 140 172 213 
1672 0.5177152363400969 0.2624584778951113 0.9188148633176438 0 0 0 0.56 43 1128 92 426 136 105 
1673 0.3933451997816441 0.2829828675984919 0.9518010557236408 0 0 0 0.32 43 1129 50 799 81 196 88 141 96 514 118 599 147 215 194 73 
1674 0.3175958515338198 0.2980159641211833 0.977954601854815 0 0 0 0.6 43 1130 50 800 53 495 92 427 96 515 111 389 118 600 126 109 176 188 
1675 0.18237132984618495 0.35582972069326047 1.0259692806310452 0 0 0 0.34 43 1131 71 377 88 142 
1676 0.18237132984618493 0.3558297206932605 1.0259692806310452 0 0 0 0.34 43 1132 71 378 88 143 
1677 0.44061552135868925 0.30691890827909185 0.9270662195736273 0 0 0 0.34 43 1133 152 45 158 87 
1678 0.44061552135868925 0.30691890827909185 0.9270662195736273 0 0 0 0.34 43 1134 152 46 158 88 
1679 0.0458710183730006 0.08151940482428877 0.7390872935552627 0 0 0 0.79 53 496 65 170 67 166 88 144 
1680 0.503067053196044 0.10277006379484958 0.9827616810021353 0 0 0 0.32 43 1135 81 197 110 165 179 28 
1681 0.5909653105031937 0.12001684923949325 0.9558020757089514 0 0 0 0.75 43 1136 53 497 127 143 162 167 181 41 
1682 0.5054564937235272 0.13315804827347447 0.9754653984655495 0 0 0 0.36 43 1137 88 145 127 144 179 29 181 42 
1683 0.5989579412554169 0.12654837473236935 0.9495880683862579 0 0 0 0.55 43 1138 60 284 136 106 162 168 163 86 
1684 0.19384743653936212 0.19433326027273046 1.101332907652656 0 0 0 0.46 43 1139 111 390 114 57 
1685 0.5260478521684403 0.13930446057539544 0.9679792808181402 0 0 0 0.63 43 1140 60 285 92 428 162 169 163 87 179 30 
1686 0.14726082152497963 0.1969760743036081 1.0739706322901477 0 0 0 0.22 43 1141 103 222 111 391 
1687 0.2202389366436272 0.19411041604221033 1.0796582193187751 0 0 0 0.14 43 1142 96 516 113 125 
1688 0.3220900538481138 0.17733934629285433 1.0339835738276861 0 0 0 0.42 43 1143 53 498 89 176 
1689 0.240752080545967 0.19478595164165585 1.0626763436140847 0 0 0 0.23 43 1144 60 286 103 223 111 392 162 170 179 31 
1690 0.7116521865789148 0.1762055364063378 0.9121859761955009 0 0 0 0.87 65 171 71 379 73 274 91 143 100 73 103 224 111 393 129 143 136 107 164 306 181 43 190 136 
1691 0.724468696177786 0.18721111909289967 0.91219671064748 0 0 0 0.64 43 1145 54 214 67 167 71 380 77 496 103 225 164 307 
1692 0.67238473130662 0.19037742599997964 0.9007841472372938 0 0 0 0.57 50 801 60 287 77 497 128 322 
1693 0.5032671697510338 0.25803958627589035 0.917316276779877 0 0 0 0.37 43 1146 111 394 164 308 
1694 0.6424143920015428 0.2669048818572566 0.8779223979826363 0 0 0 0.32 43 1147 54 215 63 176 136 108 148 149 
1695 0.6174652384646876 0.27022254994728206 0.8827338703775571 0 0 0 0.33 43 1148 54 216 77 498 110 166 147 216 164 309 165 141 
1696 0.719892638835196 0.26789250147937516 0.8795105858107684 0 0 0 0.69 43 1149 53 499 73 275 147 217 
1697 0.20927499915651857 0.3456663968701317 1.0139265817031107 0 0 0 0.51 43 1150 50 802 77 499 81 198 96 517 111 395 118 601 128 323 129 144 
1698 0.6948495653788104 0.27391578983711884 0.8691952333377386 0 0 0 0.52 43 1151 44 396 50 803 69 225 82 86 100 74 111 396 164 310 165 142 
1699 0.7168627546230667 0.2741883515705559 0.8724477807714794 0 0 0 0.77 43 1152 44 397 50 804 53 500 61 514 65 172 69 226 82 87 100 75 147 218 164 311 165 143 184 81 
1700 0.716286792685544 0.27433616925148907 0.8717825385828281 0 0 0 0.58 43 1153 44 398 65 173 165 144 
1701 0.43102150054463645 0.3107444342033684 0.9267246532480382 0 0 0 0.43 43 1154 61 515 65 174 85 163 103 226 146 158 
1702 0.5552396275731789 0.2949395940992227 0.8932577174821695 0 0 0 0.6 43 1155 60 288 65 175 69 227 96 518 162 171 163 88 
1703 0.7055079655340883 0.2801790393970256 0.8669625798488348 0 0 0 0.29 43 1156 54 217 110 167 164 312 165 145 
1704 0.6873055596101338 0.28320210404759555 0.850784532961978 0 0 0 0.29 43 1157 54 218 164 313 
1705 0.6964856503269171 0.28803245123872945 0.8653048408428438 0 0 0 0.55 43 1158 164 314 165 146 184 82 
1706 0.682846946729985 0.28770150263650984 0.860283480498383 0 0 0 0.23 43 1159 53 501 54 219 77 500 184 83 
1707 0.407904100407382 0.33059720560064865 0.929451270084138 0 0 0 0.62 43 1160 65 176 92 429 96 519 
1708 0.5356504680024772 0.11841946484214429 0.9725333105490673 0 0 0 0.23 43 1161 53 502 63 177 88 146 
1709 0.3087552171661935 0.17780808882394544 1.0327887987075814 0 0 0 0.47 43 1162 53 503 67 168 179 32 
1710 0.5285577670835763 0.1539376200170634 0.9723414958339467 0 0 0 0.69 43 1163 96 520 147 219 163 89 
1711 0.7214783549554887 0.13700359498744877 0.9340517330425621 0 0 0 0.54 43 1164 89 177 92 430 97 223 152 47 
1712 0.5153389554329207 0.16354954489398654 0.959484270242893 0 0 0 0.44 43 1165 53 504 65 177 73 276 92 431 96 521 176 189 185 83 194 74 
1713 0.6249884141049338 0.16991231045466804 0.9244168340190316 0 0 0 0.51 43 1166 44 399 50 805 60 289 63 178 69 228 81 199 89 178 97 224 105 97 111 397 129 145 162 172 165 147 
1714 0.37887700666432234 0.2101552738239775 0.9900974916679168 0 0 0 0.83 43 1167 88 147 89 179 
1715 0.4253098034272398 0.20150491113122998 0.9749221881630521 0 0 0 0.53 43 1168 44 400 50 806 60 290 63 179 65 178 69 229 89 180 111 398 127 145 129 146 152 48 162 173 
1716 0.5013584423110821 0.1904964957666788 0.9549830269889282 0 0 0 0.19 43 1169 89 181 111 399 157 65 
1717 0.4501032278503733 0.1984544012885177 0.9668821366986691 0 0 0 0.51 43 1170 44 401 50 807 65 179 89 182 111 400 127 146 129 147 185 84 
1718 0.39052176554493534 0.21292413038989375 0.9834422960248903 0 0 0 0.33 43 1171 53 505 136 109 162 174 172 214 
1719 0.39052176554493534 0.21292413038989375 0.9834422960248903 0 0 0 0.33 43 1172 53 506 136 110 162 175 172 215 
1720 0.7236034372928274 0.17043063126428032 0.91636664463502 0 0 0 0.49 43 1173 50 808 53 507 61 516 67 169 82 88 89 183 92 432 111 401 134 40 147 220 181 44 182 54 
1721 0.47722758863144127 0.21165734125185914 0.9535376092500701 0 0 0 0.33 43 1174 63 180 81 200 111 402 126 110 185 85 
1722 0.4513764640902186 0.21754429747322543 0.9602793942897484 0 0 0 0.39 43 1175 63 181 89 184 92 433 126 111 185 86 
1723 0.451248350367895 0.21739015388265812 0.9594609142954634 0 0 0 0.27 43 1176 63 182 185 87 
1724 0.41474019765572995 0.22957867496168274 0.9681668540316012 0 0 0 0.34 43 1177 44 402 50 809 63 183 92 434 111 403 118 602 129 148 172 216 
1725 0.44014044292406823 0.22547806842126275 0.9624563092493974 0 0 0 0.21 43 1178 172 217 185 88 
1726 0.3683009518402083 0.2382684030747252 0.9822728646934277 0 0 0 0.5 43 1179 50 810 63 184 67 170 77 501 103 227 129 149 164 315 172 218 
1727 0.5282535555726168 0.21627763488521926 0.9349952870354145 0 0 0 0.27 43 1180 63 185 103 228 
1728 0.5282535555726168 0.21627763488521926 0.9349952870354145 0 0 0 0.27 43 1181 63 186 103 229 
1729 0.42925945405911425 0.23346644963752095 0.9681734855887328 0 0 0 0.5 43 1182 89 185 103 230 
1730 0.3799771304763968 0.24291209688679627 0.9717254902777909 0 0 0 0.73 43 1183 63 187 89 186 
1731 0.3799771304763968 0.24291209688679627 0.9717254902777909 0 0 0 0.73 43 1184 63 188 89 187 
1732 0.15930480817888368 0.27735521083813824 1.0333048997016139 0 0 0 0.47 43 1185 50 811 96 522 
1733 0.7178799485425041 0.2086827351044814 0.9073490536115983 0 0 0 0.69 43 1186 165 148 181 45 
1734 0.7155358472824516 0.20818227391342936 0.9039450898240897 0 0 0 0.81 43 1187 85 164 89 188 147 221 165 149 181 46 
1735 0.6751882092472975 0.2098180645225821 0.8932807790492993 0 0 0 0.54 43 1188 53 508 54 220 63 189 67 171 73 277 77 502 89 189 92 435 103 231 162 176 163 90 190 137 
1736 0.6752504751723337 0.20984770830805122 0.8934978687361665 0 0 0 0.45 43 1189 53 509 60 291 63 190 73 278 77 503 92 436 190 138 
1737 0.2742730763069539 0.28017524135330396 1.0096476690653986 0 0 0 0.32 43 1190 44 403 60 292 81 201 88 148 92 437 129 150 
1738 0.2743001867620524 0.2802149524051069 1.0098764466917418 0 0 0 0.3 43 1191 44 404 60 293 81 202 88 149 92 438 129 151 164 316 
1739 0.6902666311861134 0.22049947203316705 0.890494355554566 0 0 0 0.54 43 1192 67 172 89 190 97 225 111 404 118 603 127 147 129 152 
1740 0.7156378644255951 0.22244350846665317 0.8967409336051204 0 0 0 0.38 43 1193 54 221 103 232 184 84 
1741 0.18036695966470928 0.30724202139842083 1.0464398345395076 0 0 0 0.38 43 1194 60 294 92 439 96 523 110 168 148 150 176 190 
1742 0.16079435150583712 0.3056447734809207 1.030112536662793 0 0 0 0.79 43 1195 50 812 65 180 71 381 88 150 96 524 
1743 0.4183048366855075 0.27059377879529634 0.9530172783280635 0 0 0 0.41 43 1196 89 191 190 139 
1744 0.38231107483259136 0.27940828101400017 0.9549518190441509 0 0 0 0.44 43 1197 44 405 50 813 92 440 176 191 185 89 
1745 0.6043123318033556 0.2583903980239331 0.8919878025518123 0 0 0 0.33 43 1198 44 406 50 814 53 510 54 222 61 517 63 191 65 181 69 230 71 382 73 279 77 504 81 203 89 192 91 144 105 98 110 169 111 405 118 604 128 324 129 153 147 222 148 151 162 177 163 91 164 317 165 150 172 219 182 55 
1746 0.5561033820722706 0.26625323929785083 0.9050265246255631 0 0 0 0.54 43 1199 44 407 50 815 53 511 60 295 61 518 65 182 69 231 81 204 91 145 96 525 110 170 111 406 118 605 129 154 146 159 148 152 162 178 163 92 164 318 181 47 
1747 0.5806603029736382 0.26255059142386855 0.8982730013302457 0 0 0 0.48 43 1200 44 408 50 816 53 512 54 223 61 519 65 183 69 232 71 383 77 505 81 205 91 146 96 526 110 171 118 606 128 325 129 155 146 160 147 223 164 319 165 151 190 140 
1748 0.22447667231204976 0.3304271366691003 1.0147719885935556 0 0 0 0.37 43 1201 50 817 65 184 67 173 118 607 129 156 
1749 0.6175640686559296 0.2697261857293676 0.8828249777889108 0 0 0 0.18 43 1202 54 224 65 185 
1750 0.7041665863560055 0.2636409714526523 0.8680670632171917 0 0 0 0.69 43 1203 65 186 105 99 111 407 162 179 164 320 
1751 0.664877795447801 0.2713839289352235 0.8677064895046227 0 0 0 0.41 43 1204 44 409 50 818 53 513 54 225 61 520 63 192 69 233 71 384 73 280 77 506 85 165 100 76 105 100 111 408 120 27 127 148 129 157 141 20 148 153 158 89 163 93 165 152 184 85 190 141 
1752 0.496413737553699 0.28890276653393815 0.8804129746629156 0 0 0 0.34 43 1205 77 507 111 409 
1753 0.481505596519166 0.30241587624078714 0.9135915632041917 0 0 0 0.45 43 1206 96 527 146 161 164 321 
1754 0.4820687999444974 0.3026798619295503 0.9145897317816705 0 0 0 0.48 43 1207 96 528 146 162 
1755 0.6533400109858116 0.27768690532236956 0.8679897467110151 0 0 0 0.4 43 1208 53 514 54 226 61 521 63 193 69 234 71 385 73 281 77 508 81 206 85 166 88 151 110 172 118 608 127 149 129 158 158 90 162 180 163 94 165 153 181 48 
1756 0.2500411190026279 0.35496500670958747 0.9900722756351027 0 0 0 0.29 43 1209 53 515 65 187 71 386 118 609 
1757 0.24963114358153748 0.35423633493968054 0.9875376176680231 0 0 0 0.48 43 1210 53 516 92 441 118 610 181 49 
1758 0.05278826625302972 0.11247720970049158 0.7278433566641064 0 0 0 0.4 67 174 73 282 96 529 
1759 0.4512657396509518 0.1500790524653 0.9883635228849673 0 0 0 0.48 43 1211 53 517 63 194 97 226 147 224 185 90 
1760 0.29426989063756204 0.20597903721029295 1.0291939619760202 0 0 0 0.64 43 1212 81 207 88 152 111 410 162 181 164 322 
1761 0.41134661851164966 0.18989045048631956 0.9812826232420677 0 0 0 0.71 43 1213 44 410 50 819 64 23 88 153 92 442 100 77 111 411 118 611 157 66 158 91 162 182 172 220 
1762 0.5877412441061732 0.1647532162190252 0.9364879718124305 0 0 0 0.49 43 1214 53 518 63 195 96 530 147 225 159 88 162 183 
1763 0.6817546472615067 0.1509235277396178 0.9148370014811047 0 0 0 0.57 43 1215 54 227 71 387 111 412 
1764 0.38815693694102327 0.19473327013987035 0.9885004001957014 0 0 0 0.91 43 1216 44 411 50 820 88 154 89 193 92 443 100 78 111 413 129 159 136 111 146 163 148 154 157 67 158 92 172 221 
1765 0.28449101215477623 0.2183857852315745 1.0311358597812437 0 0 0 0.47 43 1217 92 444 172 222 
1766 0.32686018332556244 0.21975721962658762 1.0088076479360375 0 0 0 0.37 43 1218 136 112 172 223 
1767 0.29851292502467425 0.22672985407616683 1.0221012179842424 0 0 0 0.49 43 1219 146 164 172 224 
1768 0.29833399551559175 0.22669188833748619 1.0211021603727453 0 0 0 0.48 43 1220 67 175 146 165 172 225 
1769 0.5895661307843003 0.1812088019562251 0.932805686765123 0 0 0 0.56 43 1221 54 228 60 296 73 283 162 184 
1770 0.6835187520990708 0.16838719767917587 0.9118408039787678 0 0 0 1.17 43 1222 92 445 111 414 147 226 164 323 165 154 
1771 0.6836527455582807 0.16835912991069946 0.9120703295618756 0 0 0 1.12 43 1223 92 446 111 415 129 160 147 227 164 324 165 155 
1772 0.4141920748556583 0.2102665163031883 0.9765734016225548 0 0 0 0.85 43 1224 63 196 89 194 92 447 103 233 111 416 158 93 162 185 
1773 0.2853167407466125 0.23676337654334484 1.0227764246914675 0 0 0 0.93 43 1225 50 821 67 176 77 509 96 531 127 150 128 326 146 166 157 68 172 226 179 33 
1774 0.2850720574271529 0.2368451519781899 1.0226168874886272 0 0 0 0.7 43 1226 50 822 67 177 118 612 127 151 128 327 146 167 172 227 179 34 
1775 0.25923445656855976 0.24369700673869746 1.034747622408807 0 0 0 0.78 43 1227 50 823 53 519 65 188 96 532 111 417 114 58 118 613 127 152 128 328 146 168 157 69 164 325 172 228 
1776 0.5535457873362424 0.19983136660953824 0.9339672891305446 0 0 0 0.15 43 1228 92 448 96 533 
1777 0.426623323760365 0.21826349273107862 0.9686781721156091 0 0 0 0.47 43 1229 61 522 89 195 111 418 172 229 
1778 0.5023377868206252 0.20694287468485761 0.9462877629832035 0 0 0 0.39 43 1230 81 208 88 155 
1779 0.29858947056030527 0.24456377522366027 1.0129754307260865 0 0 0 0.29 43 1231 65 189 146 169 
1780 0.35465667366303194 0.23193918713412115 0.9805240672414838 0 0 0 0.5 43 1232 60 297 127 153 136 113 181 50 
1781 0.272711000143976 0.2524595103149085 1.0229090504120346 0 0 0 0.43 43 1233 50 824 53 520 61 523 67 178 96 534 111 419 128 329 146 170 172 230 
1782 0.3917252334158482 0.23118318783712888 0.976427332688374 0 0 0 0.52 43 1234 81 209 88 156 89 196 158 94 172 231 
1783 0.4632799516693953 0.2178262322166817 0.9526320377749726 0 0 0 0.73 43 1235 89 197 111 420 162 186 
1784 0.6317590671900087 0.19907337672026248 0.8939546575758788 0 0 0 0.21 43 1236 73 284 91 147 164 326 
1785 0.6363795955885886 0.2004336346996805 0.9029987074004875 0 0 0 0.53 73 285 91 148 163 95 164 327 
1786 0.6615234388961961 0.19681978446462195 0.9007207789770372 0 0 0 0.45 43 1237 73 286 91 149 92 449 111 421 147 228 148 155 162 187 164 328 165 156 184 86 
1787 0.26175867440404416 0.2802560937707452 1.015800571172213 0 0 0 0.64 43 1238 88 157 92 450 96 535 
1788 0.26175867440404416 0.2802560937707452 1.015800571172213 0 0 0 0.64 43 1239 88 158 92 451 96 536 
1789 0.663440010957862 0.21789572486844783 0.892275765525067 0 0 0 0.71 43 1240 67 179 73 287 89 198 105 101 127 154 136 114 162 188 163 96 164 329 165 157 181 51 184 87 
1790 0.67606584779399 0.22556343179678873 0.8864372338654095 0 0 0 0.74 43 1241 63 197 71 388 103 234 105 102 127 155 136 115 148 156 164 330 
1791 0.6508098199320728 0.23014505286062395 0.8896877793920045 0 0 0 0.58 43 1242 128 330 165 158 
1792 0.370330183660194 0.2773974845888194 0.9605167870310692 0 0 0 0.49 43 1243 92 452 158 95 
1793 0.3705396938527945 0.27743935583769297 0.9612811243349171 0 0 0 0.71 43 1244 89 199 92 453 147 229 158 96 190 142 
1794 0.5670407972647462 0.26330200057377207 0.9012196185094624 0 0 0 0.65 43 1245 44 412 50 825 53 521 54 229 61 524 65 190 69 235 71 389 77 510 81 210 88 159 89 200 96 537 111 422 118 614 127 156 129 161 147 230 158 97 162 189 163 97 164 331 165 159 181 52 182 56 
1795 0.5669028709140564 0.263226864819516 0.9011142815601714 0 0 0 0.63 43 1246 44 413 50 826 53 522 54 230 61 525 65 191 69 236 71 390 81 211 88 160 89 201 96 538 111 423 118 615 127 157 129 162 147 231 158 98 162 190 163 98 164 332 181 53 182 57 
1796 0.5920428915806932 0.259386011886067 0.8948526281484576 0 0 0 0.56 43 1247 44 414 50 827 54 231 61 526 65 192 69 237 71 391 73 288 81 212 88 161 89 202 97 227 105 103 110 173 111 424 118 616 127 158 129 163 147 232 148 157 164 333 165 160 181 54 190 143 
1797 0.5920735845742768 0.2592781115206525 0.894927953894356 0 0 0 0.5 43 1248 44 415 50 828 54 232 61 527 65 193 69 238 71 392 81 213 88 162 89 203 97 228 105 104 110 174 111 425 118 617 128 331 129 164 147 233 148 158 164 334 165 161 172 232 181 55 190 144 
1798 0.6160639744196661 0.25574200053948537 0.8885522432239433 0 0 0 0.48 43 1249 44 416 50 829 53 523 54 233 61 528 62 37 65 194 71 393 73 289 77 511 81 214 89 204 91 150 110 175 111 426 118 618 129 165 141 21 162 191 163 99 164 335 165 162 172 233 184 88 
1799 0.6402274238478604 0.25175885605499776 0.8829151665928066 0 0 0 0.46 43 1250 44 417 50 830 53 524 54 234 61 529 69 239 81 215 88 163 100 79 111 427 129 166 162 192 164 336 165 163 190 145 
1800 0.6627963654005465 0.24792834228340266 0.8755912322281117 0 0 0 0.72 43 1251 54 235 65 195 71 394 73 290 105 105 110 176 111 428 129 167 136 116 162 193 163 100 164 337 165 164 190 146 
1801 0.5172034445604092 0.27345838678123136 0.915527475214915 0 0 0 0.34 43 1252 162 194 163 101 
1802 0.4181907618306333 0.29062912688644804 0.9423326982259689 0 0 0 0.87 43 1253 50 831 65 196 81 216 89 205 111 429 190 147 
1803 0.41826586946374517 0.29068430404335555 0.9425622603151833 0 0 0 0.85 43 1254 50 832 53 525 65 197 89 206 111 430 190 148 
1804 0.289575647169492 0.31579289812527245 0.9888260955605993 0 0 0 0.24 43 1255 53 526 92 454 96 539 
1805 0.3716182294307357 0.29920545498812084 0.9585943018249621 0 0 0 0.54 43 1256 65 198 147 234 172 234 176 192 
1806 0.39334229719841673 0.2934355904083153 0.9456674451521236 0 0 0 0.41 43 1257 53 527 103 235 111 431 158 99 172 235 
1807 0.3940650748081619 0.293918404478289 0.9470515888776038 0 0 0 0.53 43 1258 50 833 81 217 88 164 89 207 96 540 97 229 147 235 158 100 190 149 
1808 0.27643966060580055 0.32831204585705054 0.9866019289852069 0 0 0 0.59 43 1259 53 528 126 112 146 171 148 159 
1809 0.48040731093422995 0.29422731441206773 0.9148631574829373 0 0 0 0.36 43 1260 77 512 88 165 194 75 
1810 0.4804245605025217 0.2941893189336584 0.9148699345720829 0 0 0 0.22 43 1261 77 513 110 177 194 76 
1811 0.49267155155715564 0.2985856617369693 0.9070671079400471 0 0 0 0.52 43 1262 96 541 111 432 162 195 164 338 
1812 0.6415347940081308 0.27675496105527675 0.872933144054307 0 0 0 0.6 43 1263 53 529 54 236 63 198 65 199 69 240 71 395 81 218 97 230 100 80 110 178 111 433 127 159 129 168 162 196 163 102 165 165 
1813 0.641449267714854 0.2766818416176088 0.87257305438692 0 0 0 0.59 43 1264 53 530 54 237 63 199 65 200 69 241 71 396 81 219 110 179 111 434 127 160 129 169 162 197 163 103 164 339 165 166 
1814 0.594623408936708 0.2894592085218381 0.8822871625430068 0 0 0 0.33 43 1265 69 242 111 435 
1815 0.5933465800301 0.2882031472439205 0.879816434270078 0 0 0 0.56 43 1266 81 220 111 436 127 161 
1816 0.6297506970524116 0.28510888344078705 0.8731360941761138 0 0 0 0.48 43 1267 53 531 54 238 63 200 65 201 71 397 77 514 148 160 165 167 
1817 0.6297506970524116 0.285108883440787 0.8731360941761138 0 0 0 0.48 43 1268 53 532 54 239 63 201 65 202 71 398 77 515 148 161 165 168 
1818 0.41905362246370464 0.31853664305918217 0.9286305856712125 0 0 0 0.93 43 1269 65 203 85 167 110 180 164 340 
1819 0.519928468291109 0.30406331173376255 0.8993090283394445 0 0 0 0.42 43 1270 50 834 81 221 88 166 111 437 135 40 162 198 164 341 
1820 0.13723785530408533 0.19061363412246635 1.0111519117558514 0 0 0 0.56 43 1271 67 180 81 222 
1821 0.13723785530408533 0.19061363412246635 1.0111519117558514 0 0 0 0.56 43 1272 67 181 81 223 
1822 0.26798717695541224 0.2112385148579603 1.039772590779959 0 0 0 0.25 43 1273 60 298 81 224 
1823 0.26714518026538564 0.21058894119965177 1.0365803746031466 0 0 0 0.62 43 1274 61 530 81 225 88 167 111 438 114 59 179 35 
1824 0.3406544644856413 0.20817064205623856 1.0100325187703385 0 0 0 0.71 43 1275 136 117 172 236 
1825 0.3142743463188874 0.23122194543014696 1.0145108605973359 0 0 0 0.58 43 1276 67 182 157 70 
1826 0.3142743463188874 0.23122194543014699 1.014510860597336 0 0 0 0.58 43 1277 67 183 157 71 
1827 0.6513055757894103 0.26215863720530874 0.8746674619694835 0 0 0 0.44 43 1278 53 533 54 240 61 531 77 516 110 181 129 170 136 118 148 162 163 104 164 342 
1828 0.6510747561702396 0.2619674984797935 0.8744340359860239 0 0 0 0.51 43 1279 53 534 54 241 61 532 65 204 71 399 73 291 77 517 110 182 118 619 127 162 129 171 148 163 162 199 163 105 164 343 165 169 
1829 0.626689965301086 0.2667407437391111 0.877451259170577 0 0 0 0.45 43 1280 136 119 148 164 165 170 
1830 0.627490616120668 0.26748483002553497 0.8792788100081288 0 0 0 0.56 43 1281 61 533 65 205 71 400 73 292 77 518 81 226 110 183 127 163 146 172 148 165 162 200 163 106 165 171 
1831 0.3043810617911472 0.32440006717223424 0.9771056061167047 0 0 0 0.46 43 1282 53 535 65 206 96 542 
1832 0.3318081676917246 0.31762966177415786 0.9664769243646812 0 0 0 0.2 43 1283 92 455 96 543 146 173 
1833 0.38321858675084725 0.3060859339642461 0.9469665499551907 0 0 0 0.49 43 1284 65 207 113 126 118 620 
1834 0.4553388381077553 0.2949174111542224 0.9204815543299025 0 0 0 0.9 43 1285 77 519 81 227 89 208 
1835 0.5082995769570338 0.2895158343383618 0.9145895554696714 0 0 0 0.43 43 1286 77 520 103 236 111 439 
1836 0.3177752037901242 0.33541455339084947 0.9634331227546473 0 0 0 0.26 43 1287 53 536 96 544 
1837 0.3177752037901242 0.33541455339084947 0.9634331227546473 0 0 0 0.26 43 1288 53 537 96 545 
1838 0.4980211446785092 0.1346544300733085 1.0011884765780754 0 0 0 0.37 43 1289 73 293 162 201 
1839 0.4718105251063506 0.1635177226116018 0.9725914374733787 0 0 0 2.04 43 1290 53 538 61 534 152 49 
1840 0.5129592961712819 0.12147720678071536 0.9785568468281056 0 0 0 0.2 43 1291 63 202 96 546 147 236 
1841 0.5371520751148278 0.10912682862426447 0.9737752551938379 0 0 0 0.19 44 418 50 835 128 332 
1842 0.5381553935587545 0.10918625707655658 0.9751986850212185 0 0 0 0.48 44 419 50 836 92 456 128 333 136 120 
1843 0.40515826165627106 0.1332117949261475 1.0105482397336985 0 0 0 0.2 44 420 50 837 112 10 
1844 0.1527464579468667 0.18042750785479567 1.112540538154321 0 0 0 0.34 44 421 50 838 77 521 
1845 0.615904585746517 0.11289026417644067 0.9460392032724046 0 0 0 0.31 44 422 50 839 96 547 
1846 0.573454716229327 0.12599852010099563 0.956714021880686 0 0 0 0.24 44 423 50 840 77 522 
1847 0.4015301653522108 0.15497913877135458 1.0009860994566804 0 0 0 0.18 44 424 50 841 61 535 112 11 
1848 0.2533732198375125 0.17877374389778322 1.081131734958099 0 0 0 0.22 44 425 50 842 77 523 
1849 0.6721776597501988 0.11082914804395261 0.9315313477506834 0 0 0 0.26 44 426 50 843 60 299 62 38 136 121 
1850 0.3217703192599373 0.16883067015114855 1.0297423869172473 0 0 0 0.19 44 427 50 844 128 334 
1851 0.1521181013523098 0.19920826489183602 1.1050153749799436 0 0 0 0.53 44 428 50 845 92 457 127 164 
1852 0.1521181013523098 0.19920826489183602 1.1050153749799436 0 0 0 0.53 44 429 50 846 92 458 127 165 
1853 0.39342727329543803 0.16017802904878853 1.0026910666885647 0 0 0 0.18 44 430 50 847 61 536 77 524 112 12 118 621 136 122 
1854 0.26856877632343784 0.18098935614639114 1.0545567190472571 0 0 0 0.39 44 431 50 848 77 525 92 459 128 335 
1855 0.2681194102414026 0.1831524202943636 1.0531421551908495 0 0 0 0.28 44 432 50 849 61 537 
1856 0.5990830154896669 0.130749897658303 0.9457892913979211 0 0 0 0.17 44 433 50 850 92 460 
1857 0.6640735700672318 0.12003181812953657 0.9317934588623334 0 0 0 0.38 44 434 50 851 77 526 
1858 0.3177964305646723 0.17826119486179023 1.0301519271511008 0 0 0 0.11 44 435 50 852 127 166 
1859 0.6712436690524708 0.12048329643767917 0.9258476400534648 0 0 0 0.22 44 436 50 853 60 300 61 538 71 401 77 527 82 89 91 151 111 440 118 622 126 113 128 336 
1860 0.42642537308271034 0.16137577299922223 0.9912102907444619 0 0 0 0.12 44 437 50 854 112 13 
1861 0.3206233929637799 0.17972318087973643 1.0277060788985817 0 0 0 0.14 44 438 50 855 77 528 118 623 127 167 
1862 0.6570327778689148 0.1243180144139667 0.924675382960754 0 0 0 0.35 44 439 50 856 128 337 
1863 0.5727364081028342 0.1384722335306783 0.949404267384692 0 0 0 0.29 44 440 50 857 54 242 61 539 96 548 118 624 
1864 0.3786698769436846 0.1707758515974692 1.0028904296839838 0 0 0 0.2 44 441 50 858 54 243 60 301 61 540 71 402 77 529 85 168 111 441 118 625 127 168 128 338 136 123 
1865 0.46915380933713446 0.15818305751162345 0.9769351179584579 0 0 0 0.17 44 442 50 859 77 530 85 169 
1866 0.4691617216284731 0.15815448607773372 0.9769449576646739 0 0 0 0.17 44 443 50 860 85 170 
1867 0.38259175275149454 0.17333780700604667 1.0008502244252617 0 0 0 0.24 44 444 50 861 61 541 85 171 92 461 112 14 136 124 
1868 0.4483704439957262 0.16284807600096363 0.982125598345131 0 0 0 0.21 44 445 50 862 85 172 
1869 0.7216425995033618 0.11849682279079837 0.9400334767233675 0 0 0 0.31 44 446 50 863 61 542 62 39 82 90 92 462 105 106 
1870 0.4965581062799426 0.15654378273107003 0.9659661685403975 0 0 0 0.47 44 447 50 864 60 302 112 15 
