# 3D point list with one line of data per point:
#   POINT3D_ID, X, Y, Z, R, G, B, ERROR, TRACK[] as (IMAGE_ID, POINT2D_IDX)
# Number of points: 282, mean track length: 10.43
2353 -0.29768026382335555 0.1800428018866603 0.6593271551879214 0 0 0 0.44 8 2095 18 364 24 729 48 222 57 912 59 898 119 530 125 840 151 872 167 450 180 691 211 532 212 422 58 457 144 887 228 777 
2354 -0.06323880892691203 0.23363156288576095 0.8305432642447699 0 0 0 0.48 8 2096 23 756 34 574 37 388 46 358 57 913 58 458 59 899 116 841 119 531 125 841 131 580 133 205 140 642 143 552 144 888 151 873 166 826 167 451 189 489 191 523 193 766 202 593 211 533 218 904 228 778 
2355 -0.024063151611249504 0.2408077221561386 0.8505970043965542 0 0 0 0.48 8 2097 23 757 57 914 58 459 59 900 116 842 119 532 125 842 133 206 143 553 144 889 151 874 166 827 167 452 173 722 177 586 178 392 189 490 191 524 193 767 202 594 218 905 228 779 
2356 -0.08075530557931054 0.23158685433592788 0.8176283779948316 0 0 0 0.84 8 2098 23 758 24 730 37 389 46 359 55 558 57 915 59 901 72 586 116 843 125 843 133 207 144 890 151 875 167 453 180 692 189 491 193 768 202 595 216 624 218 906 228 780 58 460 166 828 174 187 183 364 
2357 -0.042400054463928284 0.2402758847828425 0.8392587416839831 0 0 0 0.46 8 2099 23 759 30 371 34 575 46 360 57 916 116 844 125 844 140 643 151 876 153 271 166 829 189 492 193 769 202 596 211 534 216 625 218 907 228 781 58 461 133 208 144 891 167 454 191 525 37 390 174 188 205 380 
2358 0.03293399189996057 0.2573884610619333 0.8844568476342108 0 0 0 0.48 8 2100 140 644 193 770 116 845 151 877 177 587 30 372 174 189 
2359 -0.4238020123986633 0.15186854750475368 0.5389542892726832 0 0 0 0.51 8 2101 58 462 59 902 74 18 125 845 133 209 139 557 167 455 191 526 228 782 
2360 1.002962816914803 0.27410207106011614 0.8360313510953388 0 0 0 0.88 8 2102 23 760 24 731 57 917 72 587 78 21 140 645 168 145 191 527 
2361 -0.38313424589576806 0.17966117284238903 0.5565312214665186 0 0 0 0.32 8 2103 59 903 167 456 228 783 
2362 0.9507848184638672 0.3017171548982257 0.9011580504952971 0 0 0 0.62 8 2104 24 732 55 559 57 918 177 588 202 597 72 588 168 146 191 528 
2363 0.9925925008966916 0.28728685698340345 0.865109476420364 0 0 0 0.58 8 2105 24 733 57 919 202 598 
2364 -0.13411260883351594 0.2555150020775598 0.7211812920625551 0 0 0 0.42 8 2106 55 560 58 463 59 904 
2365 0.7689477539114116 0.40679293907417663 1.1159378673129703 0 0 0 0.74 8 2107 24 734 31 584 57 920 59 905 99 425 102 576 119 533 140 646 150 263 154 495 180 693 212 423 216 626 228 784 68 216 137 349 
2366 -0.042146076836839796 0.283780329730492 0.7788713252927068 0 0 0 0.51 8 2108 116 846 140 647 218 908 72 589 131 581 153 272 166 830 180 694 193 771 202 599 
2367 -0.00521108913790257 0.2909725207231521 0.7972250168227378 0 0 0 0.49 8 2109 46 361 116 847 140 648 171 325 180 695 193 772 202 600 218 909 
2368 0.33276626595814274 0.3726467181460449 1.0045396073201251 0 0 0 0.28 8 2110 202 601 216 627 
2369 0.031150578958084103 0.3011883641851641 0.81640659445266 0 0 0 0.4 8 2111 34 576 180 696 202 602 46 362 
2370 0.07062371201919002 0.31160513697369346 0.8497890631318488 0 0 0 0.5 8 2112 34 577 72 590 133 210 144 892 173 723 177 589 99 426 143 554 202 603 
2371 0.10692858849762686 0.32043946228459996 0.8672203432210324 0 0 0 0.64 8 2113 23 761 72 591 131 582 173 724 228 785 31 585 46 363 116 848 121 104 143 555 144 893 180 697 183 365 202 604 218 910 30 373 68 217 90 147 174 190 
2372 0.2476072252433065 0.3552545918913602 0.9487275336933519 0 0 0 0.64 8 2114 18 365 24 735 31 586 37 391 57 921 99 427 121 105 131 583 171 326 180 698 189 493 211 535 168 147 202 605 
2373 0.13380622329928885 -0.5425110483268546 1.288547233759322 0 0 0 0.78 8 2115 34 578 57 922 59 906 94 572 102 577 116 849 133 211 144 894 151 878 166 831 173 725 178 393 202 606 211 536 225 219 205 381 45 153 90 148 131 584 149 454 174 191 189 494 218 911 
2374 0.19642274656123979 -0.48787426528537803 1.264092757787833 0 0 0 0.47 8 2116 116 850 173 726 174 192 211 537 
2375 -0.2720521245852796 -0.20376078329402397 0.8322216490119405 0 0 0 0.87 8 2117 55 561 58 464 94 573 102 578 131 585 133 212 144 895 145 498 161 348 173 727 193 773 216 628 
2376 -0.3224131981505091 -0.19032508231211126 0.8942098108771194 0 0 0 0.62 8 2118 24 736 131 586 133 213 166 832 173 728 218 912 48 223 153 273 86 706 193 774 
2377 0.1884625296145697 -0.18063194478138445 1.1361674575904073 0 0 0 0.63 8 2119 23 762 24 737 94 574 116 851 125 846 131 587 133 214 144 896 151 879 166 833 173 729 212 424 218 913 225 220 
2378 -0.32727603063383026 -0.09810307583253562 0.8412577547837558 0 0 0 0.33 8 2120 86 707 167 457 
2379 -0.4851471503444886 -0.08980317130364872 0.5822977435063759 0 0 0 0.36 8 2121 58 465 86 708 167 458 
2380 -0.33993872981055917 -0.05974934716499001 0.876686861682027 0 0 0 0.44 8 2122 24 738 48 224 
2381 -0.27456822548144916 -0.060190945707203174 0.7837159698329431 0 0 0 0.72 8 2123 24 739 48 225 58 466 59 907 86 709 139 558 144 897 151 880 166 834 167 459 178 394 180 699 202 607 211 538 228 786 
2382 -0.40964391878196205 -0.008450315847176378 0.9500265059954364 0 0 0 0.68 8 2124 59 908 86 710 167 460 
2383 -0.1543308779494164 -0.019480767875828652 0.9100318515440253 0 0 0 0.57 8 2125 57 923 58 467 59 909 144 898 145 499 151 881 205 382 133 215 211 539 
2384 -0.08448898799093096 -0.0021681174210511204 0.9565691722660007 0 0 0 0.61 8 2126 116 852 161 349 205 383 
2385 -0.04982124771404642 0.005885212756728342 0.9688110552419319 0 0 0 0.39 8 2127 151 882 153 274 
2386 0.09780978630099818 0.02629211905721411 1.0472758202334171 0 0 0 0.45 8 2128 30 374 139 559 161 350 205 384 
2387 -0.40009655323757204 0.02501851679674753 0.6092713370837877 0 0 0 0.45 8 2129 24 740 59 910 86 711 167 461 178 395 125 847 
2388 -0.4629274666335487 0.022050458205152473 0.5636187123171822 0 0 0 0.65 8 2130 58 468 74 19 125 848 139 560 178 396 191 529 
2389 -0.13765966874925534 0.07566199110015735 0.8462178690709556 0 0 0 0.76 8 2131 23 763 34 579 37 392 46 364 55 562 58 469 59 911 72 592 94 575 102 579 115 80 116 853 119 534 125 849 133 216 143 556 144 899 153 275 166 835 167 462 178 397 180 700 183 366 189 495 191 530 193 775 202 608 205 385 218 914 225 221 226 465 228 787 
2390 0.838519120752854 0.09647083566166063 1.180629298373873 0 0 0 1.01 8 2132 31 587 216 629 
2391 -0.11514635225984349 0.08707567004448055 0.8436423106579466 0 0 0 0.68 8 2133 23 764 34 580 45 154 55 563 57 924 72 593 86 712 94 576 116 854 119 535 125 850 131 588 133 217 137 350 139 561 143 557 151 883 153 276 154 496 166 836 178 398 183 367 193 776 202 609 211 540 212 425 216 630 218 915 226 466 228 788 59 912 168 148 90 149 174 193 205 386 
2392 -0.21355016177559966 0.08180576062947231 0.7898911042161543 0 0 0 0.89 8 2134 24 741 34 581 37 393 48 226 55 564 57 925 58 470 59 913 72 594 86 713 94 577 102 580 116 855 125 851 131 589 133 218 139 562 143 558 144 900 151 884 153 277 166 837 167 463 171 327 173 730 180 701 189 496 191 531 193 777 202 610 211 541 218 916 226 467 228 789 168 149 
2393 -0.40923740980903245 0.057176475084341864 0.5884590940064316 0 0 0 0.6 8 2135 24 742 58 471 59 914 74 20 86 714 119 536 139 563 167 464 191 532 228 790 
2394 -0.3856263931996293 0.06225969670953108 0.6034030625606257 0 0 0 0.73 8 2136 24 743 58 472 74 21 86 715 178 399 
2395 -0.40041331926424956 0.06961601252096354 0.596033470433315 0 0 0 0.53 8 2137 74 22 86 716 102 581 133 219 
2396 -0.2386818831468603 0.12781304893460543 0.7381434463123687 0 0 0 0.43 8 2138 18 366 24 744 55 565 72 595 102 582 133 220 143 559 171 328 34 582 37 394 48 227 51 153 57 926 58 473 59 915 86 717 94 578 116 856 119 537 125 852 131 590 137 351 139 564 144 901 151 885 154 497 166 838 167 465 178 400 180 702 189 497 191 533 202 611 211 542 212 426 218 917 228 791 168 150 193 778 
2397 0.7306300588906264 0.24033193832180771 1.25277925546448 0 0 0 0.73 8 2139 24 745 31 588 57 927 59 916 86 718 99 428 119 538 131 591 137 352 144 902 150 264 171 329 178 401 180 703 202 612 216 631 225 222 228 792 68 218 
2398 -0.42181856550965324 0.10527064607346429 0.566332009189417 0 0 0 0.8 8 2140 58 474 139 565 133 221 
2399 -0.06322426739322032 0.17093420572134302 0.846582241013799 0 0 0 0.5 8 2141 23 765 24 746 30 375 34 583 37 395 46 365 55 566 57 928 58 475 59 917 72 596 90 150 94 579 102 583 116 857 119 539 125 853 133 222 137 353 139 566 140 649 143 560 144 903 149 455 151 886 153 278 161 351 166 839 167 466 173 731 178 402 180 704 183 368 189 498 191 534 193 779 202 613 205 387 210 224 212 427 216 632 218 918 225 223 226 468 228 793 233 305 168 151 171 330 
2400 -0.008009400657875584 0.18488132281201095 0.8806316151314969 0 0 0 0.7 8 2142 23 766 30 376 55 567 59 918 72 597 99 429 116 858 119 540 131 592 133 223 139 567 140 650 143 561 144 904 151 887 153 279 154 498 161 352 166 840 177 590 183 369 189 499 193 780 205 388 210 225 216 633 218 919 226 469 233 306 174 194 
2401 -0.24659521937131515 0.15606400674405776 0.7281173528982824 0 0 0 0.76 8 2143 57 929 102 584 119 541 144 905 151 888 167 467 202 614 228 794 174 195 
2402 -0.22957226537836709 0.16645975819452843 0.7367002899963729 0 0 0 0.47 8 2144 24 747 48 228 59 919 144 906 151 889 166 841 167 468 212 428 
2403 -0.04207017549488435 0.21166830356239422 0.8461460199732265 0 0 0 0.65 8 2145 30 377 55 568 57 930 116 859 119 542 125 854 133 224 137 354 140 651 144 907 151 890 189 500 191 535 218 920 228 795 23 767 37 396 72 598 131 593 153 280 173 732 177 591 193 781 233 307 
2404 0.7878462734151753 0.2777399822018171 1.120327161753168 0 0 0 0.49 8 2146 23 768 24 748 30 378 31 589 57 931 59 920 102 585 133 225 137 355 139 568 140 652 144 908 150 265 177 592 180 705 189 501 216 634 106 507 119 543 191 536 68 219 
2405 -0.21223085586739468 0.19800280468768972 0.7378066859965362 0 0 0 0.47 8 2147 72 599 102 586 119 544 133 226 143 562 151 891 166 842 218 921 168 152 
2406 -0.11677503999706541 0.21978909611475878 0.7912867453844453 0 0 0 0.79 8 2148 18 367 23 769 24 749 34 584 37 397 46 366 55 569 57 932 59 921 102 587 116 860 119 545 125 855 133 227 143 563 144 909 149 456 151 892 166 843 171 331 173 733 180 706 191 537 202 615 218 922 225 224 226 470 90 151 174 196 
2407 -0.40887497541241746 0.15446315651378462 0.5488963156173331 0 0 0 0.68 8 2149 51 154 58 476 59 922 74 23 119 546 125 856 167 469 191 538 228 796 102 588 
2408 -0.38421368902941766 0.1586718081123649 0.5588800936381187 0 0 0 0.45 8 2150 24 750 58 477 59 923 119 547 125 857 167 470 218 923 228 797 
2409 0.14855639246226754 0.29808897080776203 0.9004516908290445 0 0 0 0.85 8 2151 18 368 23 770 24 751 30 379 31 590 34 585 55 570 57 933 59 924 72 600 99 430 102 589 116 861 119 548 121 106 133 228 139 569 143 564 144 910 151 893 166 844 171 332 173 734 177 593 180 707 183 370 189 502 191 539 193 782 202 616 212 429 218 924 228 798 233 308 106 508 168 153 
2410 -0.30209151156031583 0.22011872544150912 0.6479620567641166 0 0 0 0.65 8 2152 24 752 57 934 58 478 59 925 119 549 125 858 151 894 166 845 180 708 212 430 48 229 202 617 
2411 0.3082157304753688 0.3496796110456285 0.998712761815671 0 0 0 0.83 8 2153 24 753 30 380 31 591 34 586 55 571 57 935 59 926 90 152 121 107 133 229 137 356 139 570 143 565 144 911 145 500 151 895 178 403 180 709 189 503 191 540 193 783 202 618 211 543 216 635 228 799 233 309 68 220 168 154 140 653 174 197 
2412 0.8526515034866361 0.3488509316545963 0.9994567775633231 0 0 0 0.31 8 2154 30 381 31 592 24 754 137 357 140 654 189 504 191 541 
2413 -0.15359290240444873 0.25695780204422386 0.7099796552704295 0 0 0 0.44 8 2155 59 927 116 862 151 896 166 846 218 925 228 800 
2414 -0.11503145999365617 0.2683890239079116 0.733187564570795 0 0 0 0.35 8 2156 218 926 228 801 
2415 -0.07928972156622474 0.2748998764282829 0.7522454818013975 0 0 0 0.61 8 2157 23 771 131 594 34 587 
2416 0.19863362817120284 -0.5799232226252181 1.3447357376875042 0 0 0 0.88 8 2158 37 398 45 155 116 863 131 595 133 230 144 912 173 735 205 389 218 927 34 588 90 153 174 198 
2417 -0.34796715705446424 -0.19675732010326344 0.961997812094934 0 0 0 0.54 8 2159 24 755 131 596 166 847 173 736 202 619 
2418 0.19040827315888997 -0.22891014063283724 1.189402576750874 0 0 0 1.03 8 2160 55 572 94 580 116 864 125 859 131 597 133 231 144 913 145 501 151 897 154 499 166 848 189 505 193 784 202 620 205 390 34 589 117 151 
2419 -0.3758605317133881 -0.15294923678154937 0.973462721161245 0 0 0 0.8 8 2161 125 860 131 598 151 898 166 849 173 737 
2420 0.051234966478805585 -0.2072195988805734 1.2367384005331488 0 0 0 0.9 7 488 8 2162 23 772 34 590 37 399 46 367 55 573 57 936 58 479 59 928 94 581 102 590 116 865 125 861 131 599 133 232 139 571 144 914 145 502 149 457 151 899 153 281 154 500 161 353 166 850 173 738 177 594 180 710 189 506 193 785 202 621 205 391 211 544 216 636 218 928 212 431 86 719 132 42 174 199 
2421 0.250888848910533 -0.22857095565994265 1.1979904185290733 0 0 0 0.8 7 489 8 2163 23 773 24 756 34 591 46 368 55 574 59 929 72 601 86 720 94 582 102 591 115 81 116 866 119 550 125 862 131 600 133 233 137 358 139 572 143 566 144 915 145 503 149 458 151 900 154 501 161 354 166 851 173 739 177 595 180 711 183 371 189 507 193 786 202 622 205 392 211 545 215 73 216 637 218 929 225 225 226 471 117 152 174 200 
2422 -0.3377317819281138 -0.12386774337702264 0.8613118316113731 0 0 0 0.31 8 2164 144 916 151 901 
2423 -0.2769864295782236 -0.09096659673989509 0.800512723151763 0 0 0 0.6 8 2165 24 757 59 930 116 867 144 917 151 902 180 712 
2424 0.07865587601283543 -0.035016266645617036 1.1079648147186512 0 0 0 0.44 8 2166 94 583 116 868 125 863 139 573 161 355 211 546 228 802 
2425 0.9765378526001555 0.035526152693347225 0.973880088510021 0 0 0 0.69 8 2167 23 774 24 758 31 593 99 431 55 575 106 509 140 655 177 596 202 623 72 602 150 266 168 155 
2426 -0.24892272689505543 0.07484575104263592 0.762338260227512 0 0 0 1.05 8 2168 18 369 24 759 34 592 37 400 46 369 48 230 51 155 55 576 57 937 58 480 59 931 86 721 94 584 102 592 116 869 119 551 125 864 131 601 133 234 139 574 143 567 144 918 145 504 153 282 154 502 166 852 167 471 171 333 173 740 178 404 180 713 189 508 191 542 193 787 202 624 211 547 216 638 218 930 228 803 
2427 -0.2747860581306751 0.08355100096205254 0.7038754799976974 0 0 0 0.21 8 2169 51 156 58 481 59 932 228 804 
2428 -0.43343804878544817 0.07532497447290187 0.5644029548762471 0 0 0 0.25 8 2170 58 482 228 805 
2429 -0.24755705638992662 0.19183480937730565 0.7283171660071892 0 0 0 0.92 8 2171 119 552 125 865 133 235 178 405 166 853 174 201 
2430 -0.3998521923942909 0.14384633531885702 0.5645709037045764 0 0 0 1.24 8 2172 133 236 58 483 167 472 
2431 0.1826850264103309 0.3148021407006757 0.922237149224657 0 0 0 1.02 8 2173 23 775 24 760 31 594 34 593 121 108 144 919 186 157 193 788 116 870 180 714 68 221 183 372 202 625 228 806 168 156 
2432 -0.3725606632151621 0.18555985131155775 0.5603800594242858 0 0 0 0.64 8 2174 24 761 58 484 59 933 119 553 125 866 139 575 51 157 
2433 -0.2268297154233468 0.24164035545140586 0.6673002668246689 0 0 0 0.74 8 2175 51 158 55 577 171 334 218 931 
2434 0.25403362021904796 -0.14081584999111932 1.1567895341555496 0 0 0 0.7 8 2176 23 776 131 602 145 505 173 741 
2435 -0.3182726718040683 -0.005840716273419084 0.7660994705941679 0 0 0 0.96 8 2177 24 762 166 854 180 715 59 934 178 406 
2436 -0.435670501411272 0.025042700488950548 0.5736915678537489 0 0 0 0.73 8 2178 59 935 86 722 125 867 167 473 191 543 
2437 -0.3807263617604686 0.03857362900254704 0.6160842727387668 0 0 0 0.2 8 2179 86 723 167 474 
2438 0.7255613770584166 0.16848170572422605 1.3123532961179984 0 0 0 1.03 8 2180 24 763 31 595 57 938 59 936 99 432 116 871 131 603 137 359 139 576 144 920 177 597 178 407 180 716 189 509 202 626 216 639 225 226 233 310 55 578 102 593 133 237 140 656 150 267 166 855 171 335 191 544 106 510 115 82 23 777 68 222 168 157 174 202 
2439 -0.3805109109793018 0.11603032266865955 0.5981185796838383 0 0 0 1.13 8 2181 58 485 59 937 125 868 228 807 
2440 0.12909524269350994 0.2591067729785302 0.9174522171029529 0 0 0 1.13 8 2182 30 382 59 938 90 154 116 872 131 604 171 336 177 598 180 717 189 510 202 627 218 932 23 778 31 596 34 594 37 401 55 579 57 939 72 603 102 594 119 554 125 869 133 238 139 577 143 568 144 921 151 903 166 856 173 742 178 408 183 373 191 545 193 789 211 548 212 432 228 808 174 203 
2441 0.12629495941101546 -0.11272995032853335 1.0669862165970139 0 0 0 1.13 8 2183 30 383 116 873 211 549 225 227 
2442 0.0819314800543553 -0.07978467487265363 1.1417109768469051 0 0 0 0.45 8 2184 34 595 90 155 125 870 139 578 144 922 211 550 
2443 -0.45083546437061084 0.12255825162255993 0.5303902796391494 0 0 0 0.41 8 2185 59 939 228 809 
2444 -0.2892393877410607 -0.20971873863059662 0.8262412324183013 0 0 0 1.07 8 2186 86 724 102 595 131 605 133 239 144 923 166 857 202 628 
2445 1.1220442291583261 0.035207316704408693 0.9460449018762981 0 0 0 0.75 8 2187 24 764 31 597 57 940 
2446 -0.08081383057038702 0.20694644447150726 0.8212286772979743 0 0 0 0.21 8 2188 119 555 144 924 
2447 -0.3435920134623924 -0.0889864888123768 0.9118953316471149 0 0 0 0.86 18 370 24 765 180 718 
2448 0.5434649712960199 -0.10571670137296017 1.3942945619578233 0 0 0 0.32 18 371 24 766 116 874 166 858 
2449 0.09541247244088709 0.05769027993878414 1.0125194862845948 0 0 0 0.36 18 372 31 598 151 904 154 503 193 790 205 393 106 511 166 859 177 599 
2450 0.1317047107449129 0.0721067247071216 0.9741116324255122 0 0 0 0.21 18 373 31 599 99 433 116 875 140 657 149 459 171 337 183 374 228 810 
2451 0.21860588562875932 0.09836919631587286 1.0355292359037784 0 0 0 0.27 18 374 31 600 45 156 116 876 150 268 
2452 0.5537737093441857 0.11571338435779638 1.2825756457960176 0 0 0 0.3 18 375 23 779 31 601 34 596 45 157 86 725 94 585 116 877 122 146 125 871 140 658 149 460 151 905 180 719 193 791 228 811 233 311 
2453 0.11872684395473118 0.12414140174039721 0.9584494086143786 0 0 0 0.28 18 376 31 602 94 586 99 434 116 878 149 461 154 504 171 338 183 375 193 792 205 394 106 512 180 720 
2454 0.07031929301204344 0.15242302108263647 0.9554134441305286 0 0 0 0.29 18 377 23 780 30 384 31 603 37 402 46 370 86 726 90 156 116 879 122 147 139 579 140 659 149 462 151 906 161 356 171 339 177 600 193 793 205 395 210 226 218 933 228 812 233 312 68 223 
2455 0.10844291336763294 0.15203287137601218 0.9763270314854828 0 0 0 0.25 18 378 31 604 149 463 177 601 193 794 
2456 0.2536215825562289 0.14769612064326498 1.030232668574621 0 0 0 0.28 18 379 23 781 31 605 45 158 90 157 116 880 145 506 150 269 154 505 161 357 183 376 193 795 205 396 106 513 140 660 117 153 
2457 0.3911598328833467 0.1662089931409338 1.1722704034258145 0 0 0 0.28 18 380 24 767 57 941 99 435 116 881 119 556 145 507 171 340 173 743 177 602 180 721 183 377 212 433 218 934 7 490 23 782 30 385 34 597 37 403 86 727 94 587 106 514 140 661 149 464 151 907 193 796 205 397 216 640 226 472 233 313 117 154 154 506 
2458 0.1800320754405422 0.17763096946667606 0.9767564799683149 0 0 0 0.33 18 381 31 606 37 404 46 371 57 942 116 882 125 872 154 507 166 860 177 603 183 378 210 227 86 728 106 515 119 557 
2459 0.12553458860665398 0.19649267261749198 0.9217057432837796 0 0 0 0.29 18 382 23 783 31 607 72 604 161 358 30 386 149 465 216 641 228 813 233 314 
2460 0.11532423425765802 0.21268738817463279 0.923835326883928 0 0 0 0.25 18 383 23 784 30 387 31 608 86 729 94 588 102 596 140 662 151 908 166 861 177 604 180 722 193 797 216 642 228 814 106 516 145 508 
2461 0.18068771313507215 0.21575074925589802 0.9565196082619074 0 0 0 0.65 18 384 23 785 31 609 125 873 145 509 183 379 
2462 0.2295702223108488 0.23632116229264602 0.9837148104591196 0 0 0 0.27 18 385 24 768 31 610 57 943 99 436 116 883 166 862 173 744 177 605 193 798 106 517 
2463 0.13221554836310478 0.2923004057770639 0.8930291408952066 0 0 0 0.45 23 786 31 611 166 863 177 606 193 799 106 518 180 723 
2464 -0.3023249938858365 -0.19889754227104575 0.8233011566581628 0 0 0 0.54 8 2189 18 386 24 769 34 598 55 580 57 944 116 884 125 874 143 569 161 359 180 724 
2465 -0.40612557636548713 -0.20103774125738288 1.0572865181668085 0 0 0 0.42 8 2190 18 387 24 770 55 581 
2466 -0.3994323942366955 -0.17283421281250705 1.0469491248773624 0 0 0 0.9 18 388 24 771 57 945 58 486 180 725 
2467 -0.3046119410365559 -0.11285686287331413 0.785721401318995 0 0 0 0.26 18 389 24 772 125 875 166 864 228 815 
2468 -0.29980332072852434 -0.11064182252998682 0.783475162802879 0 0 0 0.38 18 390 24 773 34 599 37 405 58 487 143 570 151 909 154 508 166 865 167 475 180 726 
2469 -0.2912087502161292 -0.11151944352519698 0.7806674924877324 0 0 0 0.4 18 391 24 774 55 582 86 730 102 597 143 571 145 510 151 910 153 283 154 509 161 360 166 866 167 476 180 727 228 816 
2470 -0.4083014897405733 -0.09990380479202957 1.0017921849969071 0 0 0 0.9 18 392 24 775 102 598 166 867 171 341 180 728 
2471 -0.22892530991458343 -0.07603413734597005 0.919938842204982 0 0 0 0.32 18 393 24 776 125 876 144 925 151 911 153 284 
2472 -0.2923369654294801 -0.043357975447309224 0.7411856043150743 0 0 0 0.33 8 2191 18 394 24 777 58 488 145 511 151 912 173 745 228 817 
2473 -0.40365539707713366 -0.031134701176992033 0.9672437859585693 0 0 0 0.5 18 395 24 778 151 913 218 935 228 818 
2474 -0.1051361179792643 -0.07825350539980266 1.0332581158216678 0 0 0 0.32 18 396 24 779 102 599 140 663 173 746 
2475 -0.34644181490780696 -0.007397107614573978 0.8340891510176898 0 0 0 0.34 18 397 24 780 193 800 
2476 -0.39762196372536646 -0.0018188427805402902 0.9587835012579031 0 0 0 0.77 18 398 24 781 34 600 48 231 58 489 86 731 153 285 154 510 167 477 171 342 173 747 180 729 202 629 211 551 228 819 
2477 0.10526832931014167 -0.07989393771852737 1.0864105577839676 0 0 0 0.35 18 399 31 612 72 605 94 589 116 885 23 787 59 940 143 572 144 926 151 914 166 868 177 607 212 434 218 936 106 519 
2478 -0.31153310694076675 -0.002778400793641357 0.7447695202619095 0 0 0 0.3 18 400 24 782 166 869 167 478 173 748 
2479 0.11050487356421919 -0.05571362452841759 1.0580886705965626 0 0 0 0.13 18 401 31 613 154 511 171 343 
2480 0.12915680691334785 -0.048330227151902064 1.0308037443038647 0 0 0 0.4 18 402 31 614 57 946 86 732 116 886 145 512 
2481 0.09694061514296216 -0.040466268248078446 1.0824589690432915 0 0 0 0.22 18 403 31 615 171 344 173 749 180 730 
2482 0.12122017752956082 -0.041740635965415836 1.0238555909085962 0 0 0 0.26 18 404 30 388 31 616 116 887 154 512 216 643 150 270 7 491 23 788 46 372 106 520 140 664 149 466 161 361 180 731 
2483 0.11185994351755828 -0.03720082313425693 1.033835925757046 0 0 0 0.15 18 405 31 617 116 888 145 513 
2484 0.12489282279225793 0.019981985401283608 1.0003523591115422 0 0 0 0.3 18 406 30 389 31 618 116 889 149 467 151 915 154 513 173 750 180 732 205 398 106 521 145 514 193 801 228 820 
2485 -0.3200158298533012 0.09394101648600453 0.724664724226158 0 0 0 0.15 18 407 24 783 180 733 
2486 -0.21615082982144662 0.09808820484320599 0.7770944743146428 0 0 0 0.25 8 2192 18 408 24 784 34 601 46 373 125 877 131 606 145 515 167 479 180 734 189 511 202 630 218 937 
2487 0.12338172335582384 0.0888492523331817 0.9697044522745243 0 0 0 0.39 18 409 23 789 31 619 140 665 7 492 106 522 
2488 0.12548937352681877 0.09951357771417886 0.9625098692373626 0 0 0 0.34 18 410 31 620 116 890 140 666 149 468 154 514 173 751 177 608 216 644 228 821 
2489 -0.28551013039577994 0.11013250477872281 0.685736128654504 0 0 0 0.24 18 411 24 785 180 735 193 802 
2490 -0.33143062426928355 0.1328572773281962 0.7440248713691352 0 0 0 0.28 18 412 24 786 153 286 173 752 
2491 0.0935986995871471 0.12639517407644985 0.9885903613390161 0 0 0 0.31 18 413 23 790 31 621 34 602 46 374 72 606 99 437 140 667 151 916 154 515 171 345 173 753 177 609 183 380 193 803 210 228 216 645 226 473 
2492 0.06825553195333373 0.1333133251416264 0.9583663424273663 0 0 0 0.29 18 414 23 791 30 390 31 622 46 375 72 607 94 590 99 438 102 600 116 891 125 878 140 668 145 516 149 469 151 917 154 516 166 870 171 346 173 754 177 610 180 736 193 804 205 399 210 229 226 474 228 822 68 224 
2493 0.12321462772971006 0.1254778587065719 0.9516669634404579 0 0 0 0.19 18 415 23 792 31 623 86 733 94 591 99 439 102 601 116 892 121 109 140 669 145 517 149 470 166 871 171 347 173 755 177 611 180 737 183 381 193 805 205 400 210 230 218 938 233 315 106 523 
2494 0.19096963764473115 0.12947232764351368 0.9926172856358032 0 0 0 0.22 18 416 23 793 30 391 31 624 72 608 94 592 149 471 150 271 154 517 161 362 171 348 173 756 180 738 210 231 216 646 218 939 226 475 228 823 233 316 106 524 
2495 -0.21257336541787894 0.1373222174940105 0.7540956594439813 0 0 0 0.52 18 417 24 787 46 376 145 518 154 518 171 349 173 757 193 806 228 824 
2496 0.5320974223166477 0.15249452548817724 1.2509211476354638 0 0 0 0.3 18 418 31 625 37 406 94 593 99 440 116 893 122 148 125 879 140 670 149 472 150 272 173 758 180 739 210 232 212 435 216 647 218 940 228 825 106 525 151 918 
2497 0.06578888642039032 0.15049831779611558 0.9539956990283188 0 0 0 0.37 18 419 31 626 57 947 72 609 94 594 99 441 102 602 116 894 125 880 140 671 173 759 177 612 193 807 210 233 211 552 216 648 218 941 228 826 151 919 
2498 0.5288943645277505 0.16869539908917544 1.2475988076331253 0 0 0 0.26 7 493 18 420 23 794 24 788 31 627 34 603 37 407 45 159 46 377 59 941 86 734 94 595 99 442 122 149 125 881 140 672 144 927 149 473 150 273 151 920 154 519 166 872 171 350 173 760 177 613 180 740 186 158 193 808 210 234 211 553 216 649 218 942 228 827 233 317 106 526 102 603 
2499 0.5462978068493473 0.1767851937104664 1.2420997845415442 0 0 0 0.29 18 421 31 628 94 596 99 443 216 650 228 828 149 474 210 235 233 318 
2500 -0.14849062313937078 0.16087478896454982 0.7933942201739322 0 0 0 0.2 18 422 24 789 34 604 37 408 51 159 57 948 119 558 125 882 143 573 144 928 183 382 211 554 218 943 228 829 
2501 0.5261690871278405 0.19161221898659359 1.2454621878250598 0 0 0 0.34 18 423 31 629 72 610 102 604 122 150 140 673 143 574 149 475 150 274 151 921 178 409 193 809 210 236 226 476 
2502 0.1818056063126723 0.18521433688270936 0.9760398980460303 0 0 0 0.44 18 424 31 630 46 378 226 477 
2503 0.5109510888909761 0.2355692765587072 1.2265146647706435 0 0 0 0.34 18 425 31 631 46 379 57 949 72 611 94 597 99 444 116 895 125 883 144 929 149 476 150 275 151 922 154 520 166 873 173 761 177 614 180 741 193 810 210 237 211 555 226 478 228 830 233 319 106 527 45 160 117 155 186 159 
2504 0.5174889183773108 0.23687876686832476 1.227412762011821 0 0 0 0.26 18 426 23 795 31 632 37 409 46 380 55 583 57 950 59 942 72 612 86 735 94 598 99 445 102 605 116 896 119 559 122 151 125 884 131 607 137 360 140 674 143 575 144 930 149 477 150 276 151 923 154 521 166 874 171 351 173 762 177 615 180 742 186 160 191 546 193 811 210 238 211 556 212 436 216 651 218 944 226 479 228 831 233 320 106 528 117 156 
2505 0.10534338881586704 0.20957832120144645 0.9493097381908334 0 0 0 0.25 18 427 23 796 31 633 72 613 116 897 140 675 154 522 171 352 106 529 
2506 0.12988043020648224 0.20021184655948374 0.9204287282250633 0 0 0 0.33 18 428 31 634 139 580 151 924 180 743 211 557 216 652 228 832 86 736 171 353 177 616 210 239 
2507 0.09807235055808095 0.2202308292167063 0.9511814779875712 0 0 0 0.31 18 429 24 790 151 925 
2508 0.10635109096499387 0.23543780957168262 0.9392572618460117 0 0 0 0.29 18 430 31 635 180 744 106 530 140 676 193 812 
2509 0.5339826023441634 0.2800759594574505 1.2080012098664696 0 0 0 0.24 18 431 31 636 72 614 99 446 116 898 122 152 140 677 149 478 171 354 173 763 216 653 226 480 
2510 0.5035504976579767 0.2834079563786604 1.2076026194891105 0 0 0 0.27 18 432 31 637 72 615 99 447 140 678 143 576 149 479 154 523 166 875 173 764 177 617 180 745 193 813 210 240 216 654 218 945 226 481 228 833 233 321 102 606 106 531 
2511 0.5596927052732117 0.28757878875213366 1.2044420136312413 0 0 0 0.3 18 433 31 638 37 410 57 951 86 737 151 926 171 355 180 746 210 241 212 437 233 322 106 532 177 618 
2512 0.11117597508151099 0.2510226243189966 0.933490688490649 0 0 0 0.33 18 434 23 797 31 639 72 616 140 679 161 363 180 747 193 814 218 946 
2513 0.24501583344087607 0.2588307963000881 0.9927065082756773 0 0 0 0.22 18 435 24 791 171 356 
2514 0.18786167608586518 0.25138494966592356 0.9426539309783202 0 0 0 0.34 18 436 23 798 31 640 72 617 140 680 151 927 180 748 226 482 228 834 102 607 106 533 
2515 0.5332771951361979 0.3143196665623982 1.1960733131518833 0 0 0 0.18 18 437 31 641 99 448 122 153 173 765 
2516 0.5394107193173272 0.32782926002544915 1.1865731000946822 0 0 0 0.2 18 438 31 642 99 449 139 581 23 799 106 534 173 766 193 815 218 947 226 483 233 323 
2517 0.22983488902236573 0.29261942664340496 0.95880218467963 0 0 0 0.46 24 792 30 392 31 643 34 605 102 608 140 681 151 928 173 767 180 749 193 816 228 835 233 324 68 225 
2518 -0.3167168398595746 -0.21351787808239023 0.836028661607044 0 0 0 0.64 18 439 24 793 173 768 
2519 -0.2987087439858907 -0.1931714098513255 0.821845430609573 0 0 0 0.56 8 2193 18 440 24 794 34 606 139 582 144 931 166 876 
2520 -0.2916502447942436 -0.19365972302867898 0.8200917703843827 0 0 0 0.49 18 441 24 795 55 584 125 885 143 577 151 929 153 287 154 524 166 877 167 480 173 769 180 750 193 817 211 558 218 948 
2521 -0.29020162519811965 -0.18655618518311215 0.8168726317867302 0 0 0 0.46 18 442 24 796 102 609 151 930 
2522 -0.2855755547107258 -0.11997472358637219 0.7811231511281044 0 0 0 0.45 18 443 24 797 48 232 57 952 58 490 116 899 145 519 151 931 154 525 161 364 166 878 193 818 211 559 
2523 -0.40068206009656854 -0.10285122840211812 0.9989925696333187 0 0 0 1.08 18 444 24 798 125 886 143 578 151 932 166 879 180 751 
2524 -0.2877134980095953 -0.09194583684042253 0.77516212006972 0 0 0 0.35 18 445 24 799 151 933 166 880 
2525 -0.38966855649031534 -0.056815857715542886 0.974417817225944 0 0 0 0.79 8 2194 18 446 24 800 37 411 51 160 58 491 102 610 139 583 151 934 153 288 161 365 166 881 167 481 173 770 180 752 211 560 218 949 228 836 
2526 -0.3049419908555486 -0.04925042682376582 0.7479441380711603 0 0 0 0.44 18 447 24 801 34 607 86 738 125 887 145 520 154 526 166 882 167 482 228 837 
2527 -0.29496497334560484 -0.04504477312685975 0.7417600375387968 0 0 0 0.27 18 448 24 802 58 492 125 888 151 935 154 527 166 883 167 483 173 771 180 753 193 819 228 838 
2528 -0.39514816065988556 -0.04071287105902001 0.9721817952722721 0 0 0 0.62 18 449 24 803 51 161 180 754 
2529 0.26561174199719917 -0.14663122561390382 1.1460580018182398 0 0 0 0.61 18 450 23 800 24 804 154 528 173 772 225 228 106 535 180 755 
2530 0.2540318163370265 -0.13825783150444862 1.1367345212447648 0 0 0 0.51 18 451 24 805 37 412 144 932 180 756 218 950 106 536 154 529 72 618 117 157 140 682 161 366 166 884 193 820 211 561 
2531 -0.39761074888738623 -0.009092868683664233 0.9623468055117117 0 0 0 0.77 18 452 24 806 57 953 59 943 125 889 
2532 0.11733722129519024 -0.09140989353875038 1.0494972914498573 0 0 0 0.19 18 453 31 644 116 900 125 890 154 530 
2533 -0.22814438863721428 -0.024523092370062564 0.8194219299465249 0 0 0 0.22 18 454 24 807 166 885 
2534 -0.3542984982846748 -0.0011298583079769747 0.8482551714880471 0 0 0 0.54 8 2195 18 455 24 808 57 954 86 739 144 933 145 521 212 438 
2535 -0.27209572238925567 -0.007372995165300962 0.7409002179661252 0 0 0 0.42 18 456 24 809 34 608 55 585 58 493 94 599 102 611 145 522 151 936 
2536 -0.27494383790388854 -0.005535038390077 0.740328445117711 0 0 0 0.33 18 457 24 810 55 586 86 740 125 891 143 579 145 523 151 937 153 289 167 484 193 821 228 839 
2537 -0.2795813396916493 -0.001856701608779718 0.7334662032320649 0 0 0 0.44 18 458 24 811 48 233 55 587 58 494 59 944 86 741 102 612 116 901 125 892 143 580 151 938 153 290 154 531 166 886 167 485 173 773 180 757 193 822 211 562 218 951 228 840 
2538 -0.23801539007481215 -0.005536163334626285 0.7995782753468371 0 0 0 0.41 18 459 24 812 86 742 212 439 154 532 193 823 218 952 226 484 
2539 -0.3185959914709833 0.025282928960959943 0.7412967525806691 0 0 0 0.17 18 460 24 813 125 893 
2540 -0.19126950019748568 0.020890335268877073 0.8146200017599046 0 0 0 0.38 8 2196 18 461 24 814 102 613 139 584 143 581 144 934 151 939 154 533 166 887 180 758 193 824 211 563 218 953 228 841 
2541 -0.19479754240770017 0.021757682393732023 0.8158997930879697 0 0 0 0.31 18 462 24 815 58 495 94 600 102 614 116 902 143 582 154 534 167 486 180 759 218 954 
2542 -0.3144084179089661 0.0435301923756431 0.7278906650549326 0 0 0 0.25 18 463 24 816 153 291 173 774 180 760 
2543 -0.2826115826742369 0.048828258015373854 0.7028196983720165 0 0 0 0.11 18 464 24 817 102 615 145 524 153 292 173 775 
2544 -0.2390280114850236 0.05275316498804004 0.7804062696085824 0 0 0 0.67 18 465 24 818 171 357 
2545 -0.35692610883886794 0.07452878782518066 0.8212166228379133 0 0 0 0.44 18 466 24 819 58 496 125 894 144 935 211 564 212 440 
2546 0.10775712910593928 0.03668621013493181 1.0328163040985094 0 0 0 0.33 18 467 23 801 30 393 31 645 55 588 57 955 86 743 94 601 99 450 116 903 125 895 139 585 140 683 149 480 151 940 166 888 171 358 173 776 177 619 183 383 218 955 228 842 212 441 
2547 -0.2661706407672961 0.06611431680104926 0.7171528743913261 0 0 0 0.35 18 468 24 820 48 234 153 293 167 487 
2548 0.11202458506863286 0.044175176161470694 1.0196936941332784 0 0 0 0.28 18 469 23 802 31 646 86 744 94 602 99 451 102 616 116 904 140 684 145 525 149 481 151 941 154 535 171 359 173 777 177 620 180 761 183 384 193 825 106 537 
2549 -0.28563696480441575 0.07342438592591632 0.703086051932945 0 0 0 0.27 18 470 24 821 154 536 
2550 -0.2801495980101657 0.0741427231380894 0.699839381800112 0 0 0 0.2 18 471 24 822 34 609 51 162 58 497 125 896 139 586 144 936 154 537 193 826 211 565 228 843 
2551 -0.3129836475319606 0.08362820925367534 0.7179524118949269 0 0 0 0.36 18 472 24 823 180 762 
2552 -0.23859787823199707 0.08075133103316659 0.7720242070684309 0 0 0 0.37 18 473 24 824 48 235 143 583 153 294 167 488 171 360 173 778 180 763 216 655 218 956 226 485 
2553 -0.1906038364382689 0.07738109670214056 0.7872429472622766 0 0 0 0.34 18 474 24 825 151 942 153 295 154 538 180 764 211 566 218 957 
2554 -0.23867660426350384 0.08595248551215179 0.7676459157737884 0 0 0 0.23 18 475 24 826 116 905 218 958 
2555 0.08646202998886539 0.07213558810725061 0.999401925551712 0 0 0 0.4 18 476 23 803 30 394 31 647 46 381 86 745 99 452 102 617 125 897 140 685 144 937 149 482 154 539 161 367 177 621 180 765 183 385 186 161 216 656 218 959 228 844 233 325 68 226 
2556 -0.3349613348459149 0.10771274487230013 0.7597275807311128 0 0 0 0.47 18 477 24 827 125 898 180 766 
2557 -0.2702681554710295 0.09366726590278436 0.699329029441756 0 0 0 0.19 18 478 24 828 37 413 46 382 58 498 86 746 116 906 125 899 143 584 151 943 167 489 171 361 173 779 180 767 186 162 193 827 218 960 
2558 0.12411732544586203 0.0834691391003479 0.9695587601377563 0 0 0 0.46 18 479 31 648 116 907 151 944 30 395 99 453 211 567 
2559 -0.26659300353205084 0.09845916717348364 0.700974726064805 0 0 0 0.33 18 480 24 829 167 490 
2560 0.10250752649407213 0.10155155812347708 0.9971567098480696 0 0 0 0.53 18 481 31 649 37 414 72 619 102 618 116 908 125 900 173 780 177 622 210 242 228 845 46 383 86 747 106 538 171 362 205 401 68 227 154 540 
2561 -0.2467573135934125 0.10738659177302656 0.743846438438232 0 0 0 0.2 18 482 24 830 37 415 94 603 143 585 166 889 167 491 171 363 228 846 
2562 -0.32569650465165934 0.11804443167157425 0.7452020666470293 0 0 0 0.14 18 483 24 831 173 781 180 768 
2563 -0.2860907393974814 0.10447081542869344 0.6882163652563497 0 0 0 0.27 18 484 24 832 51 163 57 956 125 901 151 945 154 541 166 890 171 364 173 782 180 769 193 828 218 961 228 847 
2564 -0.08981977829397916 0.11205074931042425 0.8652468220817362 0 0 0 0.36 18 485 24 833 143 586 183 386 218 962 
2565 -0.2210572898476582 0.11368472017588332 0.7585145315257007 0 0 0 0.25 18 486 24 834 116 909 125 902 153 296 166 891 171 365 173 783 180 770 191 547 228 848 34 610 58 499 
2566 -0.05472200249200824 0.12163227644293553 0.8873802218972949 0 0 0 0.36 18 487 23 804 24 835 94 604 99 454 116 910 140 686 154 542 171 366 
2567 0.1239362917956137 0.11491429863126355 0.9572060087783313 0 0 0 0.2 18 488 31 650 46 384 90 158 102 619 116 911 122 154 125 903 145 526 149 483 151 946 171 367 183 387 193 829 210 243 211 568 23 805 34 611 94 605 161 368 173 784 177 623 180 771 205 402 228 849 233 326 106 539 
2568 -0.20321723719842325 0.12367466515666392 0.7683541834154538 0 0 0 0.12 18 489 24 836 116 912 151 947 166 892 23 806 
2569 -0.33203151971530853 0.13976522654166784 0.7407056039184914 0 0 0 0.48 18 490 24 837 166 893 180 772 193 830 218 963 
2570 -0.17133741525201368 0.13500731267951896 0.7852184513371624 0 0 0 0.48 18 491 24 838 116 913 151 948 180 773 193 831 218 964 228 850 
2571 -0.1817526016630547 0.13579562921133118 0.7724516193143377 0 0 0 0.43 18 492 24 839 131 608 151 949 173 785 178 410 180 774 212 442 
2572 -0.16689294908896424 0.1378874713695703 0.789160561852919 0 0 0 0.53 18 493 24 840 94 606 154 543 166 894 173 786 180 775 
2573 0.1852585856273888 0.13680810339503796 0.995447154505874 0 0 0 0.55 18 494 31 651 72 620 94 607 102 620 122 155 143 587 151 950 171 368 177 624 216 657 218 965 226 486 106 540 116 914 131 609 
2574 0.33461671096968004 0.1480319768263967 1.1361361827299423 0 0 0 0.53 18 495 24 841 30 396 31 652 34 612 55 589 57 957 59 945 72 621 99 455 102 621 140 687 150 277 161 369 166 895 171 369 177 625 180 776 191 548 205 403 216 658 218 966 106 541 115 83 145 527 183 388 226 487 68 228 193 832 
2575 -0.15900290535029168 0.1405450927893692 0.7932620598988384 0 0 0 0.45 8 2197 18 496 23 807 24 842 48 236 55 590 94 608 116 915 125 904 149 484 151 951 153 297 166 896 171 370 180 777 183 389 228 851 
2576 -0.3391661698170705 0.15139946430951873 0.7484351500956352 0 0 0 0.39 18 497 24 843 48 237 125 905 153 298 154 544 167 492 173 787 178 411 180 778 
2577 0.35573578604145467 0.153160769756153 1.1527533462663617 0 0 0 0.3 18 498 24 844 31 653 34 613 57 958 59 946 72 622 116 916 143 588 144 938 145 528 149 485 151 952 154 545 177 626 180 779 210 244 86 748 99 456 106 542 150 278 173 788 
2578 0.4395878423349992 0.15779504273116154 1.204961558179216 0 0 0 0.3 18 499 24 845 119 560 149 486 171 371 191 549 59 947 102 622 106 543 140 688 151 953 173 789 177 627 193 833 205 404 218 967 228 852 233 327 
2579 0.18710166111640067 0.1453314171297051 0.9893994839818019 0 0 0 0.41 18 500 31 654 102 623 116 917 140 689 149 487 166 897 171 372 173 790 177 628 180 780 210 245 216 659 218 968 34 614 106 544 
2580 0.18747285028801353 0.15521443666618706 0.9847099642648132 0 0 0 0.26 18 501 31 655 72 623 99 457 102 624 116 918 140 690 149 488 154 546 171 373 173 791 180 781 193 834 210 246 216 660 226 488 106 545 
2581 -0.13415735063932507 0.1559530541048494 0.8026240665411356 0 0 0 0.4 18 502 23 808 24 846 59 948 102 625 137 361 153 299 173 792 180 782 218 969 226 489 
2582 0.49214143292528945 0.1834196703698238 1.2373502016810114 0 0 0 0.3 18 503 24 847 143 589 180 783 189 512 212 443 216 661 57 959 59 949 119 561 131 610 140 691 144 939 177 629 178 412 191 550 193 835 210 247 218 970 55 591 72 624 102 626 106 546 173 793 226 490 137 362 154 547 30 397 45 161 68 229 116 919 
2583 -0.09798085792082148 0.16006290609908205 0.829028921698671 0 0 0 0.2 18 504 24 848 131 611 144 940 151 954 212 444 37 416 45 162 86 749 125 906 174 204 193 836 205 405 228 853 
2584 -0.10579328385271593 0.16915823341089928 0.8202161256974551 0 0 0 0.61 18 505 24 849 86 750 
2585 -0.31887947247094867 0.16752558895256361 0.6892318724529993 0 0 0 0.16 18 506 24 850 180 784 
2586 -0.002338955081169209 0.18932831717243237 0.8848103990500269 0 0 0 0.37 18 507 23 809 24 851 34 615 86 751 94 609 125 907 131 612 140 692 144 941 145 529 151 955 153 300 154 548 166 898 171 374 178 413 180 785 183 390 189 513 191 551 193 837 202 631 210 248 212 445 218 971 228 854 30 398 37 417 55 592 57 960 58 500 72 625 99 458 116 920 137 363 139 587 149 489 216 662 226 491 233 328 7 494 45 163 167 493 174 205 177 630 
2587 0.5584601266396232 0.22175847751306316 1.235633819690574 0 0 0 0.3 18 508 24 852 99 459 102 627 149 490 180 786 
2588 0.1130937991262763 0.19839647538907554 0.9538070661162984 0 0 0 0.23 18 509 23 810 31 656 72 626 94 610 99 460 102 628 149 491 154 549 173 794 177 631 210 249 226 492 106 547 140 693 
2589 0.10284709434786007 0.20124086669712457 0.9555675140141388 0 0 0 0.37 18 510 23 811 24 853 31 657 34 616 46 385 55 593 57 961 86 752 116 921 125 908 140 694 143 590 144 942 149 492 151 956 154 550 161 370 171 375 177 632 205 406 210 250 211 569 216 663 218 972 228 855 
2590 -0.0017946824714309773 0.194200821901919 0.8861800519306688 0 0 0 0.4 8 2198 18 511 24 854 140 695 145 530 171 376 212 446 225 229 
2591 -0.1161621603069429 0.1850300022858547 0.798005832998615 0 0 0 0.3 18 512 23 812 24 855 51 164 58 501 102 629 149 493 153 301 161 371 171 377 173 795 180 787 193 838 218 973 140 696 205 407 211 570 226 493 
2592 -0.14396378924599143 0.18704962219326113 0.793674500318331 0 0 0 0.15 18 513 24 856 171 378 173 796 180 788 
2593 0.5558372569271534 0.2372973302834695 1.224935671225095 0 0 0 0.3 18 514 24 857 99 461 171 379 
2594 0.43994918317707804 0.23587387925565736 1.1759159925448477 0 0 0 0.36 18 515 24 858 30 399 34 617 99 462 116 922 131 613 144 943 149 494 151 957 171 380 177 633 210 251 72 627 106 548 140 697 173 797 218 974 37 418 94 611 117 158 226 494 
2595 0.10613262205896903 0.2178558544852877 0.947123040095464 0 0 0 0.22 18 516 23 813 31 658 94 612 102 630 140 698 149 495 171 381 173 798 218 975 226 495 106 549 183 391 
2596 0.11329363553628331 0.21534962916493078 0.9427914143531915 0 0 0 0.26 18 517 23 814 31 659 86 753 99 463 102 631 116 923 154 551 173 799 177 634 180 789 210 252 
2597 -0.15022392243804394 0.1980936785040325 0.7758036867916142 0 0 0 0.23 18 518 23 815 24 859 34 618 125 909 153 302 166 899 167 494 173 800 191 552 
2598 0.17668504415252878 0.2265946471458315 0.9523713494765139 0 0 0 0.56 18 519 30 400 31 660 57 962 102 632 116 924 140 699 145 531 149 496 173 801 218 976 226 496 228 856 55 594 72 628 99 464 106 550 171 382 211 571 216 664 233 329 
2599 -0.2950076427679345 0.1852206635048047 0.6555278110541176 0 0 0 0.43 18 520 24 860 166 900 173 802 180 790 
2600 0.3374368560344999 0.25577652245632243 1.0935707366036056 0 0 0 0.31 18 521 23 816 24 861 34 619 55 595 59 950 94 613 99 465 102 633 116 925 122 156 139 588 140 700 143 591 144 944 149 497 151 958 166 901 171 383 173 803 180 791 183 392 191 553 193 839 205 408 210 253 212 447 218 977 226 497 
2601 0.49475939756524406 0.2940616309448488 1.192455393060052 0 0 0 0.32 18 522 24 862 31 661 72 629 102 634 122 157 149 498 173 804 178 414 180 792 106 551 34 620 68 230 116 926 177 635 193 840 218 978 226 498 45 164 57 963 131 614 191 554 216 665 233 330 94 614 117 159 119 562 140 701 151 959 211 572 
2602 0.18491183488936475 0.24920840643675304 0.945242186333867 0 0 0 0.24 23 817 31 662 72 630 140 702 151 960 173 805 177 636 180 793 216 666 218 979 226 499 228 857 7 495 106 552 116 927 125 910 139 589 149 499 
2603 -0.22138352315273968 0.20388418275277945 0.6815134067131833 0 0 0 0.34 18 523 24 863 58 502 
2604 0.5238359998780537 0.3410842931283936 1.1822172936888884 0 0 0 0.39 24 864 34 621 59 951 94 615 140 703 144 945 150 279 154 552 166 902 178 415 180 794 191 555 193 841 212 448 218 980 226 500 228 858 
2605 0.330396232537814 0.3180980232830448 1.0746285392717716 0 0 0 0.62 24 865 30 401 31 663 37 419 59 952 72 631 102 635 119 563 137 364 140 704 144 946 151 961 166 903 177 637 178 416 180 795 191 556 193 842 212 449 216 667 225 230 106 553 
2606 0.16156838435657941 0.30069988612807214 0.9109884779300178 0 0 0 0.37 18 524 23 818 24 866 30 402 31 664 34 622 37 420 57 964 59 953 99 466 116 928 119 564 137 365 139 590 140 705 143 592 144 947 149 500 151 962 166 904 171 384 173 806 177 638 193 843 212 450 218 981 228 859 233 331 106 554 
2607 0.21767594872301188 0.3232913299123946 0.9450396959791031 0 0 0 0.3 24 867 171 385 173 807 
2608 0.2599375038815716 0.33538865757111774 0.9650535941042131 0 0 0 0.32 18 525 30 403 31 665 34 623 37 421 99 467 116 929 125 911 151 963 171 386 177 639 180 796 193 844 216 668 218 982 228 860 233 332 57 965 161 372 173 808 226 501 55 596 102 636 106 555 
2609 0.20904279886324983 -0.5992446230705601 1.3538743220718568 0 0 0 0.86 34 624 86 754 90 159 102 637 116 930 131 615 133 240 143 593 144 948 151 964 166 905 173 809 178 417 211 573 218 983 226 502 57 966 139 591 212 451 
2610 -0.2822829375070107 -0.16639739397793435 0.8117714067583599 0 0 0 0.37 18 526 24 868 173 810 
2611 -0.2855453272124313 -0.10772593945187138 0.7807801743514927 0 0 0 0.59 18 527 24 869 34 625 51 165 59 954 139 592 143 594 144 949 211 574 
2612 -0.2880545982588202 -0.09760712724633762 0.7752199518860724 0 0 0 0.4 18 528 24 870 48 238 139 593 143 595 180 797 228 861 
2613 -0.41069566583906986 -0.08808123697690659 0.9987331890601114 0 0 0 0.76 18 529 24 871 154 553 166 906 180 798 211 575 212 452 
2614 -0.4012359702041939 -0.08846829917329273 0.999074891024024 0 0 0 0.89 18 530 24 872 48 239 59 955 171 387 180 799 202 632 
2615 0.1507328043636284 -0.15626338597275372 1.0849979978522655 0 0 0 0.56 18 531 24 873 178 418 180 800 106 556 154 554 
2616 -0.4004714066056927 -0.034170908270775895 0.9716487422392435 0 0 0 0.76 18 532 24 874 34 626 59 956 151 965 189 514 202 633 211 576 
2617 0.09721846131738708 -0.07825308350635136 1.098536032756383 0 0 0 0.41 18 533 31 666 186 163 228 862 34 627 106 557 143 596 144 950 171 388 173 811 189 515 193 845 
2618 -0.22788394634331788 -0.017520875588275902 0.8141981536119977 0 0 0 0.34 18 534 24 875 166 907 
2619 -0.3047897877126547 0.011615561503524078 0.7257143373825388 0 0 0 0.35 18 535 24 876 59 957 178 419 
2620 -0.3448906048258026 0.020446408654622637 0.8267802531945272 0 0 0 0.39 8 2199 18 536 24 877 48 240 57 967 58 503 59 958 86 755 144 951 151 966 166 908 180 801 202 634 228 863 
2621 -0.24167817561058155 0.0056650155745590946 0.7955732242863548 0 0 0 0.19 18 537 24 878 37 422 51 166 57 968 58 504 59 959 86 756 94 616 116 931 125 912 143 597 144 952 145 532 154 555 167 495 178 420 189 516 216 669 218 984 228 864 
2622 -0.2655026217334055 0.020264796360307227 0.733281381543154 0 0 0 0.43 18 538 24 879 137 366 144 953 173 812 193 846 218 985 
2623 -0.2896020280090732 0.03426229145432223 0.7171007424369015 0 0 0 0.37 18 539 24 880 167 496 180 802 
2624 -0.2330692853757401 0.050263601673315825 0.7828531842082131 0 0 0 0.24 18 540 24 881 59 960 125 913 167 497 193 847 218 986 
2625 -0.3442917385124741 0.07081073611016946 0.8180513221462749 0 0 0 0.39 8 2200 18 541 24 882 48 241 166 909 180 803 
2626 -0.21936713181403494 0.0581100773560035 0.7941791406147056 0 0 0 0.31 8 2201 18 542 24 883 48 242 166 910 167 498 178 421 180 804 23 819 72 632 86 757 143 598 153 303 168 158 173 813 212 453 218 987 
2627 -0.3360935825988705 0.07586428331287255 0.7790459388567529 0 0 0 0.35 18 543 24 884 153 304 48 243 173 814 180 805 
2628 -0.31044599060294914 0.06996583176068819 0.714748749412958 0 0 0 0.33 18 544 24 885 34 628 59 961 154 556 167 499 202 635 
2629 -0.15411590237816986 0.06540428161768191 0.8288492692561307 0 0 0 0.49 18 545 24 886 125 914 171 389 191 557 211 577 225 231 
2630 -0.23863216886352273 0.07426762818994406 0.7727887599169997 0 0 0 0.29 18 546 24 887 34 629 48 244 166 911 167 500 171 390 173 815 202 636 218 988 
2631 -0.20429350805848515 0.07506283120201551 0.7987678873322323 0 0 0 0.17 18 547 24 888 37 423 94 617 151 967 180 806 216 670 218 989 226 503 
2632 0.5355329131041829 0.03504693393819583 1.324679676412175 0 0 0 0.62 18 548 31 667 86 758 151 968 178 422 180 807 212 454 
2633 0.5240441011100696 0.04579107380806915 1.4045000438643462 0 0 0 0.57 18 549 31 668 59 962 99 468 149 501 23 820 46 386 106 558 125 915 151 969 173 816 180 808 186 164 212 455 228 865 233 333 
2634 -0.19469195117891533 0.08080817791477546 0.7890766983250522 0 0 0 0.31 18 550 24 889 37 424 46 387 48 245 51 167 57 969 58 505 59 963 86 759 94 618 116 932 119 565 121 110 125 916 139 594 149 502 151 970 154 557 166 912 167 501 171 391 180 809 189 517 191 558 193 848 202 637 211 578 212 456 216 671 218 990 226 504 228 866 168 159 
