# 3D point list with one line of data per point:
#   POINT3D_ID, X, Y, Z, R, G, B, ERROR, TRACK[] as (IMAGE_ID, POINT2D_IDX)
# Number of points: 426, mean track length: 5.06
161 -0.012457407130630928 0.08005308318763636 1.0134559602075395 0 0 0 0.43 135 86 146 103 147 27 152 15 157 55 164 42 176 66 187 144 190 8 219 20 221 18 222 25 
162 -0.043601266111921916 0.09242602627377162 1.0049134789601901 0 0 0 0.36 135 87 147 28 152 16 159 18 164 43 185 25 187 145 190 9 200 59 232 34 
163 -0.09106891905626685 0.1215692157283652 0.9877407912683092 0 0 0 0.48 135 88 147 29 157 56 200 60 204 33 232 35 
164 0.039677146607558285 0.08851457704162585 1.0205475003613567 0 0 0 0.2 136 14 146 104 187 146 200 61 
165 0.010692768457633317 0.08895004588250865 1.0155011561259732 0 0 0 0.05 136 15 146 105 187 147 
166 0.026178291666326115 0.08940252757390094 1.0177669212256741 0 0 0 0.2 136 16 146 106 187 148 213 76 
167 0.07750066641547101 0.09359023035134498 1.025891253906591 0 0 0 0.14 136 17 187 149 213 77 
168 -0.025540024828802937 0.08990568097932283 1.0077642320764795 0 0 0 0.24 136 18 187 150 200 62 
169 0.0749978546905093 0.09616714416846014 1.0251810241853572 0 0 0 0.21 136 19 157 57 187 151 200 63 213 78 214 40 
170 0.07506024220712437 0.09614152578791459 1.025270468074428 0 0 0 0.22 136 20 146 107 148 24 157 58 159 19 176 67 187 152 200 64 213 79 214 41 
171 -0.0264240056105568 0.09386304065843577 1.0069467299359751 0 0 0 0.2 136 21 159 20 176 68 187 153 
172 -0.021522069367567793 0.10480597542960376 1.003341385208585 0 0 0 0.15 136 22 187 154 200 65 
173 0.008680392632856587 0.1218695579479873 1.0001862604566405 0 0 0 0.24 136 23 146 108 157 59 187 155 200 66 214 42 224 18 
174 -0.053401932607481044 0.1737955836658554 0.9702367333069147 0 0 0 0.26 136 24 187 156 200 67 
175 0.02464410639698602 0.18219305351171142 0.9807069854782263 0 0 0 0.24 136 25 187 157 213 80 
176 0.06605548314148857 0.2750275489602442 0.9477131723409786 0 0 0 0.12 136 26 146 109 187 158 
177 0.03251654798686489 0.2871123920231317 0.9368405165089844 0 0 0 0.21 136 27 146 110 175 41 187 159 213 81 214 43 231 18 
178 0.08430348034072248 0.29059411848135125 0.9485899057447135 0 0 0 0.34 136 28 187 160 214 44 
179 -0.059572939095286284 0.288307033070643 0.9220255731170295 0 0 0 0.1 136 29 146 111 176 69 213 82 214 45 
180 -0.04627272125070793 0.28913727829708813 0.9240401388838922 0 0 0 0.39 136 30 146 112 187 161 200 68 
181 0.09590716216620626 0.29325558462316625 0.945059657490281 0 0 0 0.11 136 31 146 113 187 162 214 46 
182 0.06574798986674543 0.2931628850828621 0.9397168199244731 0 0 0 0.41 136 32 146 114 187 163 194 13 234 29 
183 0.12089777489006463 0.06376181917525614 1.0447637610722365 0 0 0 0.3 136 33 157 60 187 164 
184 -0.0184715864210558 0.08757032891556224 1.0110580646179999 0 0 0 0.42 136 34 146 115 187 165 200 69 213 83 
185 0.01154958690724893 0.17729686660366697 0.9807279340108629 0 0 0 0.2 136 35 146 116 157 61 164 44 175 42 176 70 187 166 200 70 213 84 231 19 
186 0.09595930556657102 0.18551068951640437 0.991649280536213 0 0 0 0.15 136 36 146 117 175 43 176 71 187 167 194 14 200 71 213 85 223 2 231 20 234 30 
187 0.09597618293616803 0.18554772531607377 0.9916574778532594 0 0 0 0.13 136 37 146 118 148 25 157 62 159 21 164 45 175 44 176 72 185 26 187 168 196 13 213 86 214 47 223 3 234 31 
188 0.0256723048626578 0.18382847102642266 0.9797253922838265 0 0 0 0.1 136 38 148 26 157 63 159 22 164 46 175 45 176 73 187 169 213 87 214 48 
189 -0.04059154147634125 0.1826752879215556 0.9689104108772183 0 0 0 0.12 136 39 146 119 148 27 157 64 159 23 187 170 213 88 214 49 
190 0.09558213389892108 0.2859630870086048 0.9478705773173867 0 0 0 0.35 136 40 148 28 164 47 187 171 213 89 214 50 234 32 
191 0.06194652086529565 0.28855891805068556 0.9413254744992716 0 0 0 0.11 136 41 146 120 187 172 213 90 
192 0.06727004761871319 0.29111804044296574 0.941035351145625 0 0 0 0.25 136 42 146 121 164 48 175 46 187 173 196 14 200 72 213 91 214 51 231 21 234 33 
193 0.1694583023040241 0.2954024078825535 0.9582730888714704 0 0 0 0.15 136 43 146 122 187 174 213 92 
194 0.12227138605055171 0.1863398146779659 0.9970933351228092 0 0 0 0.26 136 44 146 123 147 30 172 26 176 74 187 175 204 34 213 93 219 21 222 26 234 34 
195 0.05114672156910086 0.18464619501400392 0.9861818591511995 0 0 0 0.28 136 45 146 124 157 65 158 42 159 24 164 49 172 27 175 47 176 75 187 176 213 94 214 52 219 22 232 36 
196 0.1658946875574076 0.19083769054729732 1.010866603959515 0 0 0 1.87 136 46 146 125 187 177 
197 0.06433303088924959 0.2786759930492118 0.9457261031432275 0 0 0 0.14 136 47 146 126 148 29 164 50 172 28 187 178 188 2 194 15 196 15 213 95 214 53 223 4 232 37 234 35 
198 0.06701444154785506 0.2827684967925433 0.9445001966962664 0 0 0 0.25 136 48 146 127 148 30 164 51 187 179 213 96 223 5 234 36 
199 0.16691285834375205 0.2874997181040805 0.9604767912548349 0 0 0 0.35 136 49 148 31 187 180 213 97 214 54 
200 0.16696023667768445 0.2875503069077619 0.960529513928314 0 0 0 0.34 136 50 148 32 164 52 187 181 213 98 
201 -0.10325363639176437 0.28562978775644327 0.9204125459533432 0 0 0 0.27 136 51 146 128 164 53 176 76 204 35 213 99 214 55 
202 0.0646707849711445 0.289421621290467 0.9413495893580025 0 0 0 0.2 136 52 146 129 148 33 158 43 164 54 175 48 187 182 194 16 196 16 213 100 214 56 223 6 234 37 
203 -0.12358779515818905 0.28963940787079606 0.9187553029773342 0 0 0 0.22 136 53 147 31 176 77 213 101 
204 -0.06518924863229573 0.24096760122883712 0.9374517890717682 0 0 0 0.23 136 54 146 130 148 34 158 44 164 55 176 78 185 27 187 183 190 10 213 102 214 57 219 23 221 19 222 27 
205 -0.09004873119566009 0.27621756886480137 0.926302503641947 0 0 0 0.32 136 55 146 131 164 56 176 79 190 11 213 103 214 58 232 38 
206 -0.07071649454816517 0.28168452774827285 0.9176780206922719 0 0 0 0.34 136 56 147 32 148 35 172 29 190 12 
207 0.02804160941745774 0.0621151603893262 1.0209950864940096 0 0 0 0.18 146 132 187 184 200 73 
208 0.03667810544692211 0.08396221205477918 1.0225234461916142 0 0 0 0.12 146 133 157 66 187 185 200 74 213 104 
209 -0.005192134868829937 0.08566314144710137 1.0137229391227318 0 0 0 0.41 146 134 157 67 187 186 200 75 213 105 
210 0.017985573108136865 0.08730649748191899 1.0168518828513635 0 0 0 0.18 146 135 164 57 187 187 
211 0.04054083005135005 0.09051274994309981 1.0195282057301476 0 0 0 0.23 146 136 157 68 187 188 200 76 214 59 
212 0.07964844394253083 0.09200892554737408 1.026717698627484 0 0 0 0.27 146 137 148 36 176 80 187 189 213 106 214 60 
213 -0.0012075759922850148 0.09208627301630609 1.0113838321455602 0 0 0 0.16 146 138 187 190 213 107 
214 -0.019986983610286748 0.09477472342469852 1.007919075770629 0 0 0 0.03 146 139 157 69 187 191 
215 0.014936576101849808 0.09842106524438551 1.0119534514917743 0 0 0 0.13 146 140 157 70 187 192 
216 -0.03186786389513884 0.09980656065078344 1.0030489964518576 0 0 0 0.51 146 141 157 71 159 25 187 193 200 77 213 108 224 19 
217 0.04774350795618612 0.10179008833905373 1.0167782376546362 0 0 0 0.13 146 142 176 81 187 194 
218 0.012952855764045458 0.10298581021243104 1.0095387180680238 0 0 0 0.12 146 143 157 72 187 195 200 78 213 109 
219 -0.0784508537689563 0.10197141332291132 0.9892070626110041 0 0 0 0.34 146 144 157 73 187 196 
220 0.03661813069339713 0.10363337686638321 1.0137674349261963 0 0 0 0.11 146 145 187 197 200 79 
221 0.06825952783573457 0.10449398022571983 1.020433727225998 0 0 0 0.08 146 146 187 198 213 110 
222 0.08722184789414 0.10560848767104791 1.0228662987738322 0 0 0 0.23 146 147 157 74 175 49 187 199 200 80 213 111 
223 0.08710483444473231 0.10564483201073491 1.0225749023665072 0 0 0 0.26 146 148 157 75 187 200 
224 0.057930053656185185 0.10614421926716298 1.017585466660395 0 0 0 0.2 146 149 187 201 200 81 213 112 
225 0.0829303185877059 0.10727440786993281 1.0222974583664688 0 0 0 0.26 146 150 157 76 175 50 187 202 
226 0.08285165032633461 0.10724414731949582 1.0219975620474213 0 0 0 0.33 146 151 157 77 175 51 187 203 214 61 
227 0.026760986386478527 0.1084511349558072 1.0103059584882483 0 0 0 0.23 146 152 157 78 187 204 
228 0.021380599360880968 0.1094037506955828 1.0091129038252022 0 0 0 0.14 146 153 157 79 176 82 187 205 200 82 
229 -0.009931790449167395 0.10996644203073103 1.003343599003575 0 0 0 0.11 146 154 157 80 187 206 213 113 
230 0.3037503059028204 0.11534778587450374 1.0568651288350683 0 0 0 0.35 146 155 187 207 194 17 
231 0.08265689516645228 0.1125932025728497 1.019475224562479 0 0 0 0.16 146 156 157 81 175 52 187 208 213 114 
232 0.1308919119803594 0.11345480460084302 1.023777943575478 0 0 0 0.35 146 157 175 53 187 209 214 62 
233 0.1293780316362283 0.11511692004925073 1.0232559357215603 0 0 0 0.06 146 158 175 54 187 210 
234 0.00012633379860948297 0.114488968294254 1.001895102315237 0 0 0 0.32 146 159 157 82 187 211 213 115 214 63 224 20 
235 -0.06561281052050606 0.11378963056535572 0.9915951266187273 0 0 0 0.31 146 160 157 83 187 212 213 116 
236 -0.06250142084047516 0.11388523550529621 0.992461455574362 0 0 0 0.17 146 161 157 84 176 83 187 213 213 117 214 64 
237 -0.06250907726714124 0.11388118235706696 0.9924776815700855 0 0 0 0.2 146 162 157 85 187 214 213 118 214 65 
238 -0.05966296704701772 0.1140647577272417 0.9928278720644589 0 0 0 0.17 146 163 157 86 187 215 213 119 214 66 
239 -0.05964989562796293 0.11413552329513539 0.9925460715188542 0 0 0 0.14 146 164 187 216 200 83 213 120 
240 0.07090908859821518 0.11868423940800839 1.0141163079044013 0 0 0 0.23 146 165 187 217 234 38 
241 -0.07917932851391876 0.1169252986834724 0.9895061303476164 0 0 0 0.25 146 166 213 121 214 67 
242 -0.037274843372025177 0.11761725234047911 0.9944778901929744 0 0 0 0.12 146 167 187 218 231 22 
243 0.019974922295085837 0.12190962335517115 1.002643184268885 0 0 0 0.28 146 168 164 58 187 219 194 18 200 84 213 122 224 21 231 23 
244 0.0588130440966294 0.123047843669654 1.0095823432677837 0 0 0 0.16 146 169 175 55 187 220 
245 0.13118792853015457 0.12741743392578544 1.0209713482575897 0 0 0 0.07 146 170 175 56 187 221 200 85 
246 0.08551617943308086 0.13042615369366878 1.0125822774948086 0 0 0 0.17 146 171 175 57 187 222 234 39 
247 0.32734949097136296 0.14725172838292544 1.0555543402918255 0 0 0 0.63 146 172 187 223 200 86 
248 0.024243427273086413 0.1422791529893303 0.9957196734600354 0 0 0 0.36 146 173 175 58 187 224 
249 0.12169097469516856 0.14444799602951774 1.0143937093934112 0 0 0 0.11 146 174 157 87 176 84 187 225 234 40 
250 0.12363027179696198 0.14483988267325995 1.013915328214055 0 0 0 0.12 146 175 176 85 187 226 
251 0.0870111387178179 0.1453409325148951 1.0090960626424788 0 0 0 0.12 146 176 157 88 187 227 200 87 
252 0.19377538497704502 0.1475789850578042 1.0279359646914858 0 0 0 0.23 146 177 157 89 175 59 187 228 200 88 
253 0.12985079388092952 0.1477779218432491 1.0131193713464273 0 0 0 0.24 146 178 157 90 175 60 187 229 200 89 
254 0.19489758408089222 0.14914572709840374 1.0271823878489663 0 0 0 0.11 146 179 187 230 200 90 
255 0.09064098650714428 0.15691134041631313 1.0020341806812152 0 0 0 0.2 146 180 175 61 187 231 
256 0.06191208922233061 0.16844755735032851 0.9935176379584529 0 0 0 0.23 146 181 175 62 176 86 187 232 
257 0.055957039893901175 0.17210954367266615 0.9897008944842576 0 0 0 0.28 146 182 175 63 187 233 234 41 
258 0.054163174172494236 0.17289581153870856 0.9908689224682442 0 0 0 0.16 146 183 157 91 175 64 187 234 
259 0.12476371476685175 0.1751917787039648 1.0017085544099562 0 0 0 0.29 146 184 157 92 175 65 187 235 213 123 
260 -0.015985511684291645 0.17286733995716191 0.9794403160485704 0 0 0 0.12 146 185 176 87 187 236 
261 0.01892434883931859 0.17401809759956074 0.9848737070225455 0 0 0 0.32 146 186 157 93 175 66 187 237 200 91 
262 0.04452398896008122 0.175291183093128 0.9869212888501034 0 0 0 0.13 146 187 157 94 187 238 213 124 
263 0.044610182705747584 0.1753130161714614 0.9871495597966857 0 0 0 0.17 146 188 157 95 175 67 187 239 
264 0.17257296665368613 0.1794860122543826 1.0116435773137733 0 0 0 0.26 146 189 175 68 187 240 
265 0.04265566901898412 0.17620218369799975 0.9860728724172888 0 0 0 0.23 146 190 157 96 175 69 187 241 200 92 
266 0.05613491681709558 0.17780433278436628 0.9882295926563314 0 0 0 0.25 146 191 157 97 175 70 187 242 200 93 214 68 234 42 
267 0.04973391989107429 0.17803797764297985 0.9872846361784758 0 0 0 0.23 146 192 175 71 176 88 187 243 
268 0.1093259854315792 0.18051213437036268 0.9962434610598833 0 0 0 0.23 146 193 148 37 157 98 159 26 164 59 175 72 176 89 187 244 200 94 213 125 214 69 231 24 234 43 
269 0.11595642119234245 0.18064407021560122 0.9977005924635161 0 0 0 0.2 146 194 157 99 175 73 187 245 200 95 214 70 
270 0.010486398645732536 0.17967848180180584 0.9792340991941537 0 0 0 0.38 146 195 187 246 214 71 
271 0.0917294155452229 0.18246335359574262 0.9916961475177152 0 0 0 0.34 146 196 187 247 234 44 
272 0.2136205629088287 0.18577361049534513 1.0167615712818525 0 0 0 0.08 146 197 187 248 194 19 
273 -0.02989414325095325 0.18056412408195682 0.9748341607026336 0 0 0 0.19 146 198 176 90 187 249 
274 -0.015739325149406097 0.1809389487636288 0.9756234028707156 0 0 0 0.34 146 199 157 100 176 91 187 250 213 126 
275 0.019615723714189976 0.18350881215977666 0.9812167785919403 0 0 0 0.19 146 200 157 101 175 74 187 251 213 127 
276 0.14142848124800375 0.18655316087887178 1.0010569170906691 0 0 0 0.18 146 201 157 102 187 252 
277 -0.10341697007795178 0.18135023078982798 0.96584685047734 0 0 0 0.38 146 202 187 253 213 128 
278 -0.09108592188585425 0.18241823412909564 0.9661392213269292 0 0 0 0.1 146 203 157 103 176 92 187 254 231 25 
279 0.15955978084903227 0.1921012002009744 1.0034137766733964 0 0 0 0.2 146 204 157 104 187 255 213 129 234 45 
280 0.22823055711047402 0.19431195670579693 1.0173924142492037 0 0 0 0.2 146 205 187 256 213 130 
281 0.024027841823782852 0.18868385745956873 0.9782797098743116 0 0 0 0.28 146 206 175 75 187 257 194 20 200 96 213 131 214 72 
282 0.26059342740602226 0.19598026432350485 1.0236778392121704 0 0 0 0.25 146 207 175 76 187 258 
283 0.09421380238503196 0.19179255837186276 0.989032673078992 0 0 0 0.3 146 208 157 105 159 27 175 77 187 259 213 132 214 73 
284 -0.06884829927656877 0.2305524584903272 0.9374748614836924 0 0 0 0.24 146 209 176 93 187 260 213 133 
285 -0.06743147979707122 0.23190216287961263 0.9387460834478709 0 0 0 0.15 146 210 187 261 213 134 
286 0.061987799729229486 0.23674730094996488 0.960819876311176 0 0 0 0.06 146 211 175 78 187 262 
287 0.062462968066125016 0.23857221361630926 0.9574781894468406 0 0 0 0.17 146 212 175 79 187 263 234 46 
288 -0.010700892550739718 0.23981165242152558 0.9479974647164158 0 0 0 0.26 146 213 157 106 187 264 200 97 214 74 
289 0.07794464167743582 0.2440599994590012 0.9659422904053125 0 0 0 0.15 146 214 175 80 187 265 214 75 
290 -0.020200191800933496 0.24106829313358114 0.9496108447764843 0 0 0 0.32 146 215 176 94 187 266 
291 -0.06176719243193027 0.2422134477370234 0.9421986641629462 0 0 0 0.02 146 216 187 267 214 76 
292 -0.01535918165432485 0.24521650120220587 0.9475294915151429 0 0 0 0.17 146 217 175 81 187 268 
293 0.09674824012130469 0.24826718913505683 0.9599705072252206 0 0 0 0.34 146 218 175 82 187 269 
294 -0.1366496729594346 0.24452019949328455 0.9378744952667285 0 0 0 0.19 146 219 157 107 176 95 200 98 213 135 
295 0.13280843815640458 0.2515891726939889 0.9644409605297461 0 0 0 0.35 146 220 176 96 187 270 214 77 231 26 
296 0.06270383982008082 0.24967965738002176 0.9542702290348053 0 0 0 0.13 146 221 157 108 175 83 187 271 
297 -0.010460630829102108 0.24773574728491748 0.9434605965630142 0 0 0 0.19 146 222 157 109 175 84 187 272 188 3 
298 -0.07156381004651761 0.24523997630349947 0.9295425083865926 0 0 0 0.2 146 223 157 110 176 97 187 273 231 27 
299 -0.06419487834751282 0.2459267491168939 0.9343208801757792 0 0 0 0.21 146 224 164 60 176 98 187 274 213 136 
300 -0.03857198909600347 0.24677817480243847 0.9371948117510421 0 0 0 0.27 146 225 157 111 175 85 187 275 214 78 231 28 
301 -0.03608127451176034 0.24679406196827272 0.9380265395619192 0 0 0 0.2 146 226 157 112 175 86 187 276 214 79 
302 -0.0054184290887578845 0.24785483971628372 0.9430882475811696 0 0 0 0.17 146 227 157 113 175 87 187 277 213 137 214 80 
303 0.2671107060763393 0.26481884504725944 0.9913776630660918 0 0 0 0.48 146 228 175 88 176 99 187 278 196 17 
304 0.23650290934508633 0.2642068513189101 0.9862722427963632 0 0 0 0.22 146 229 175 89 187 279 
305 0.16631576124098893 0.2609656146384789 0.9706751844202655 0 0 0 0.19 146 230 157 114 175 90 187 280 214 81 
306 0.2660545092412525 0.2664120353241447 0.9911487825706984 0 0 0 0.19 146 231 175 91 187 281 
307 -0.015042368310509077 0.2566947737622524 0.9446357571061218 0 0 0 0.23 146 232 175 92 187 282 188 4 
308 0.025642979670333924 0.2569173095593138 0.9477739705451242 0 0 0 0.18 146 233 175 93 187 283 188 5 194 21 213 138 
309 -0.07738515981399298 0.25334907462961054 0.929950539379505 0 0 0 0.14 146 234 187 284 200 99 
310 -0.038330704933985035 0.25514345615814216 0.937436855159794 0 0 0 0.21 146 235 175 94 187 285 
311 0.1731553116182106 0.2626822414075295 0.9714295059993586 0 0 0 0.16 146 236 175 95 187 286 200 100 214 82 
312 0.23855876668427572 0.26573985508317616 0.9852620696756956 0 0 0 0.23 146 237 175 96 187 287 200 101 
313 -0.00379299548045056 0.2563827639276833 0.9424736471988407 0 0 0 0.12 146 238 187 288 214 83 
314 0.10028073154241095 0.2604903191746773 0.9580732274059782 0 0 0 0.13 146 239 187 289 213 139 214 84 
315 0.16638418681841552 0.2638416921697037 0.969608815677027 0 0 0 0.12 146 240 175 97 187 290 
316 0.23621624385284432 0.26732741956847544 0.9846792531551533 0 0 0 0.16 146 241 175 98 187 291 194 22 213 140 214 85 
317 -0.03295814146238548 0.2565616867686087 0.9365403231574284 0 0 0 0.12 146 242 175 99 176 100 187 292 214 86 
318 0.2340380418258258 0.26862036459359323 0.9842106070243842 0 0 0 0.24 146 243 157 115 175 100 187 293 213 141 214 87 
319 -0.04057823876298377 0.2578071947896632 0.9353253030551825 0 0 0 0.15 146 244 157 116 187 294 
320 0.0244689420074709 0.26123178116825707 0.9456138905000804 0 0 0 0.23 146 245 157 117 187 295 
321 0.13408799997656085 0.2646694793749874 0.962606754574945 0 0 0 0.29 146 246 175 101 187 296 231 29 
322 0.03033292827328681 0.26185195232975694 0.9472408357091904 0 0 0 0.16 146 247 157 118 175 102 187 297 213 142 214 88 
323 -0.06647071089667665 0.2576694277804403 0.9284241202654571 0 0 0 0.05 146 248 187 298 214 89 
324 -0.00441178889074075 0.26058325094956736 0.9405923120071016 0 0 0 0.05 146 249 187 299 214 90 
325 -0.03952432786145389 0.25949506235686803 0.9356308239071989 0 0 0 0.3 146 250 187 300 213 143 214 91 
326 -0.03428612883495307 0.2663695337451899 0.9352284684958135 0 0 0 0.29 146 251 175 103 176 101 187 301 213 144 
327 -0.006359489642784129 0.2678139129093446 0.9382480033156306 0 0 0 0.2 146 252 187 302 188 6 213 145 
328 0.030515032290153597 0.2690567720248968 0.944422957523227 0 0 0 0.18 146 253 175 104 187 303 213 146 
329 0.03206017306072483 0.27027299804174926 0.9434706458845847 0 0 0 0.41 146 254 187 304 213 147 
330 -0.03543015625280324 0.26927112179791607 0.9323067782876544 0 0 0 0.27 146 255 187 305 214 92 
331 0.10262842721122398 0.27746544913602045 0.9524307786670289 0 0 0 0.16 146 256 187 306 213 148 214 93 
332 -0.03707360244207898 0.2729281743136426 0.9303532391575868 0 0 0 0.27 146 257 176 102 187 307 214 94 
333 0.0189034288792924 0.2781574913035969 0.9429394948982889 0 0 0 0.23 146 258 175 105 187 308 213 149 
334 0.17522453534294083 0.28406730610458747 0.963196387999856 0 0 0 0.22 146 259 175 106 187 309 
335 0.017366923059212513 0.2799144520929359 0.9431269289585874 0 0 0 0.1 146 260 175 107 187 310 213 150 214 95 
336 0.0694184167833441 0.283949668350917 0.9445000579815467 0 0 0 0.21 146 261 187 311 213 151 
337 -0.12898379857748474 0.2814718513741004 0.9260932855249375 0 0 0 0.13 146 262 176 103 213 152 
338 0.20368577305029226 0.29216120629170894 0.9673324901703548 0 0 0 0.24 146 263 175 108 187 312 213 153 
339 0.20953963994841454 0.29288581777495754 0.9685818016176978 0 0 0 0.26 146 264 175 109 187 313 
340 -0.004291065857526553 0.28443977827026795 0.9327641251150965 0 0 0 0.29 146 265 157 119 175 110 187 314 188 7 213 154 
341 0.062195712311458345 0.2865871811897006 0.942183993674592 0 0 0 0.06 146 266 187 315 214 96 
342 0.06705004175852304 0.28710062839058653 0.9427233977971415 0 0 0 0.41 146 267 148 38 187 316 214 97 223 7 234 47 
343 -0.004450149695197089 0.2867638655575993 0.930720823119237 0 0 0 0.18 146 268 157 120 187 317 213 155 214 98 224 22 
344 0.19429287702558193 0.29732896780687273 0.9674494884463597 0 0 0 0.16 146 269 175 111 187 318 
345 0.031042280892853494 0.29014108127358185 0.935696248620072 0 0 0 0.09 146 270 187 319 214 99 
346 0.20053017953565247 0.29794953311993627 0.9643774823450768 0 0 0 0.19 146 271 175 112 187 320 
347 0.13754340822386332 0.294633639622639 0.9510372887434367 0 0 0 0.13 146 272 187 321 213 156 
348 0.13754340822386332 0.294633639622639 0.9510372887434367 0 0 0 0.13 146 273 187 322 213 157 
349 -0.004305527239044555 0.28943715879827253 0.9292849302236423 0 0 0 0.37 146 274 187 323 214 100 
350 0.2024218678794117 0.29904145987014397 0.9643645457567791 0 0 0 0.22 146 275 175 113 187 324 
351 0.09902384313095043 0.2952529506693497 0.9437771145080702 0 0 0 0.22 146 276 187 325 213 158 
352 0.20435585619580038 0.303012284976904 0.9624383285825365 0 0 0 0.16 146 277 175 114 187 326 213 159 
353 -0.03718222662373177 0.29314050915366363 0.9217574760301049 0 0 0 0.14 146 278 176 104 187 327 194 23 213 160 214 101 
354 -0.03523980922475638 0.293141371514263 0.9219658079092722 0 0 0 0.16 146 279 187 328 213 161 214 102 
355 -0.03516813500758554 0.2960084762343055 0.9207678846201387 0 0 0 0.32 146 280 176 105 187 329 213 162 214 103 
356 -0.03516813500758554 0.2960084762343055 0.9207678846201387 0 0 0 0.32 146 281 176 106 187 330 213 163 214 104 
357 0.20999592804141912 0.3067757644540216 0.9616670214611668 0 0 0 0.37 146 282 158 45 187 331 213 164 
358 -0.03350047956604894 0.29803947352079213 0.9198220938477533 0 0 0 0.24 146 283 176 107 187 332 213 165 
359 0.20434649358788531 0.30909223315460366 0.9603528990847324 0 0 0 0.22 146 284 175 115 187 333 213 166 
360 -0.035255831110239916 0.2985925400117679 0.9197106942181918 0 0 0 0.13 146 285 176 108 187 334 213 167 214 105 
361 -0.03893940476259746 0.29997682678307847 0.9184969556210814 0 0 0 0.2 146 286 164 61 187 335 213 168 214 106 
362 -0.035038115738754844 0.30150084022232937 0.9189227278039951 0 0 0 0.18 146 287 187 336 213 169 214 107 
363 -0.10610399488221534 0.30055053589818903 0.9114246702508417 0 0 0 0.35 146 288 176 109 214 108 
364 0.031114817692536868 0.3064365833403934 0.9283208871925007 0 0 0 0.09 146 289 175 116 187 337 
365 -0.034613314730976265 0.3040092106278461 0.9177471877834413 0 0 0 0.27 146 290 187 338 214 109 
366 -0.03293672484706245 0.3055660156382104 0.9163280051663073 0 0 0 0.29 146 291 187 339 213 170 
367 -0.03293672484712254 0.3055660156390211 0.9163280051684676 0 0 0 0.29 146 292 187 340 213 171 
368 -0.03470099125116297 0.30746279175908864 0.9165170803512914 0 0 0 0.2 146 293 187 341 213 172 214 110 
369 0.1382580728560695 0.31562701698763157 0.942958620848323 0 0 0 0.16 146 294 187 342 194 24 
370 0.14017393089271762 0.3178074459446904 0.9425055286639825 0 0 0 0.14 146 295 187 343 223 8 
371 0.1015728957846937 0.3166251664518128 0.9369388897932946 0 0 0 0.25 146 296 187 344 200 102 
372 -0.03649611853046034 0.31407295666928425 0.9134964409754325 0 0 0 0.29 146 297 176 110 187 345 214 111 
373 0.09882312459910497 0.32020476299702205 0.9349200955395234 0 0 0 0.2 146 298 175 117 187 346 
374 -0.03287133095783222 0.3190188318321295 0.9117847591829359 0 0 0 0.22 146 299 187 347 213 173 
375 0.20509420526198965 0.33163318526044067 0.9528235444923738 0 0 0 0.26 146 300 175 118 187 348 
376 -0.10823145435299236 0.3202664351294291 0.9050258184436889 0 0 0 0.37 146 301 176 111 213 174 
377 -0.03226625155025593 0.32197547809295124 0.9091078181016206 0 0 0 0.14 146 302 187 349 213 175 
378 -0.006487471095649244 0.0828253385931669 1.014021668278872 0 0 0 0.16 146 303 158 46 176 112 185 28 187 350 213 176 214 112 222 28 
379 0.03748841995168814 0.0863598846939444 1.0214598599616382 0 0 0 0.41 146 304 157 121 187 351 
380 0.036732631433731865 0.09043310887630336 1.0183530670959744 0 0 0 0.18 146 305 157 122 187 352 213 177 
381 -0.04715873845589528 0.09699443411593314 1.0021752170083882 0 0 0 0.19 146 306 157 123 187 353 
382 0.009815815960654124 0.10329636309367254 1.0094905115044162 0 0 0 0.32 146 307 157 124 187 354 213 178 
383 -0.019472772669291327 0.10492647178402638 1.0046443952866067 0 0 0 0.36 146 308 187 355 224 23 
384 0.12620023442578304 0.10764478120962692 1.023143759287252 0 0 0 0.31 146 309 157 125 164 62 175 119 187 356 200 103 234 48 
385 -0.02784569492153845 0.10699910134710323 1.0011689578762795 0 0 0 0.18 146 310 157 126 187 357 213 179 
386 0.044071467377214346 0.1157368747727094 1.0093492051593902 0 0 0 0.37 146 311 175 120 187 358 
387 -0.02580264498867496 0.11856027399767499 0.9949852258420675 0 0 0 0.2 146 312 164 63 187 359 
388 -0.01892019283315219 0.118651896834384 0.996949513157479 0 0 0 0.23 146 313 148 39 157 127 185 29 187 360 196 18 200 104 213 180 214 113 224 24 
389 0.09948647705087872 0.12193655740129514 1.0170421728618475 0 0 0 0.17 146 314 157 128 164 64 175 121 176 113 187 361 200 105 213 181 214 114 234 49 
390 0.1052925957867246 0.12204282830347693 1.0182816729178814 0 0 0 0.18 146 315 148 40 159 28 164 65 176 114 187 362 194 25 200 106 213 182 219 24 234 50 
391 -0.060939257589210635 0.11935709415252739 0.9898415275745306 0 0 0 0.14 146 316 187 363 214 115 
392 0.11760168195504353 0.12260593761477358 1.020335395092814 0 0 0 0.36 146 317 148 41 159 29 185 30 187 364 194 26 213 183 214 116 
393 0.13182454820824815 0.12303572489952784 1.0220514970126826 0 0 0 0.2 146 318 157 129 175 122 176 115 187 365 200 107 213 184 234 51 
394 -0.025671198933830148 0.12080810635157535 0.9949822668477859 0 0 0 0.14 146 319 187 366 194 27 200 108 214 117 231 30 
395 0.0015997997868293608 0.12145944542860113 0.9996521185821828 0 0 0 0.25 146 320 176 116 187 367 231 31 
396 0.005074894296783459 0.12167210737602617 1.0000950319337274 0 0 0 0.23 146 321 164 66 176 117 185 31 187 368 213 185 214 118 224 25 231 32 
397 -0.12435895639786822 0.12030204588936094 0.9882156632233557 0 0 0 0.29 146 322 157 130 158 47 176 118 
398 0.07180433112676766 0.1231040643770577 1.0123334080214386 0 0 0 0.2 146 323 176 119 187 369 213 186 
399 0.15955564101315628 0.12471457022197237 1.029253694860034 0 0 0 0.23 146 324 175 123 187 370 221 20 234 52 
400 0.11104131862701441 0.124637177551158 1.017940547527738 0 0 0 0.1 146 325 148 42 175 124 176 120 187 371 234 53 
401 0.11104131862701441 0.124637177551158 1.017940547527738 0 0 0 0.1 146 326 148 43 175 125 176 121 187 372 234 54 
402 0.22794010570589218 0.12743829274915477 1.0419351835010704 0 0 0 0.17 146 327 187 373 234 55 
403 0.31999970325567817 0.13318150362492728 1.0588819599083807 0 0 0 0.16 146 328 187 374 213 187 227 17 
404 0.12040479854838979 0.1319095857629085 1.0172826773437018 0 0 0 0.18 146 329 187 375 234 56 
405 0.16312257829926563 0.13988295468837134 1.0237986212014045 0 0 0 0.23 146 330 175 126 187 376 213 188 
406 0.19854781627619256 0.14293900746643393 1.0290947163815458 0 0 0 0.18 146 331 175 127 187 377 234 57 
407 0.1258115332051858 0.15228222303404404 1.0111082381540721 0 0 0 0.26 146 332 157 131 187 378 
408 0.05536725727581325 0.15971514507710483 0.9951173795336665 0 0 0 0.3 146 333 175 128 187 379 200 109 
409 0.055602278719757287 0.16297657954921368 0.9939733526130409 0 0 0 0.3 146 334 157 132 175 129 187 380 200 110 
410 0.0558293003643911 0.16668599089176173 0.99207200470556 0 0 0 0.22 146 335 157 133 164 67 175 130 187 381 200 111 
411 0.0009195160217572859 0.1763855781100229 0.9793449866981653 0 0 0 0.15 146 336 175 131 176 122 187 382 213 189 231 33 
412 0.03938048583721339 0.17809424311539943 0.9853905166610674 0 0 0 0.24 146 337 157 134 158 48 175 132 176 123 187 383 200 112 213 190 231 34 
413 0.07198331933660178 0.181894009675445 0.9926633410559437 0 0 0 0.22 146 338 175 133 187 384 
414 0.08684073597336671 0.1836306460104879 0.9933131798777238 0 0 0 0.1 146 339 187 385 234 58 
415 0.047657792204689124 0.18369605461831723 0.9849629520815156 0 0 0 0.29 146 340 157 135 159 30 175 134 187 386 213 191 
416 0.01733043286807223 0.183180841974596 0.9805793954181229 0 0 0 0.15 146 341 157 136 187 387 
417 0.22688633926168209 0.19076851108951318 1.0178344505791008 0 0 0 0.34 146 342 157 137 159 31 164 68 175 135 176 124 187 388 213 192 
418 0.056551722730409176 0.19108059165729227 0.9819339276107931 0 0 0 0.29 146 343 175 136 187 389 200 113 
419 0.22893797590120496 0.2314756842358429 1.002837841614136 0 0 0 0.14 146 344 175 137 187 390 234 59 
420 -0.048258883401342975 0.23685310345214108 0.9463662334973021 0 0 0 0.18 146 345 176 125 187 391 200 114 213 193 
421 0.26633824861809396 0.24926163688129954 0.9978539974455748 0 0 0 0.2 146 346 175 138 187 392 234 60 
422 0.008702440679070287 0.240780148891265 0.9560864410015535 0 0 0 0.27 146 347 187 393 188 8 213 194 231 35 
423 0.01577379123420835 0.24154186736975256 0.9575423820384031 0 0 0 0.1 146 348 176 126 187 394 188 9 
424 -0.008226765776401222 0.24023979123579228 0.9469734929157889 0 0 0 0.1 146 349 175 139 176 127 187 395 188 10 213 195 
425 -0.036320871005510194 0.24178564295699875 0.9391491729388756 0 0 0 0.25 146 350 157 138 175 140 187 396 
426 0.02814694760184188 0.24877230308808623 0.948308334886969 0 0 0 0.19 146 351 157 139 175 141 187 397 188 11 213 196 231 36 
427 0.20004194363716193 0.2576731548513989 0.9784738977298314 0 0 0 0.1 146 352 176 128 187 398 234 61 
428 0.1917238134422367 0.25865175642616267 0.9807878919103228 0 0 0 0.18 146 353 187 399 234 62 
429 0.19754016247402373 0.2598227792608683 0.9787146464850209 0 0 0 0.32 146 354 164 69 187 400 
430 0.19722824229632757 0.2597212074200683 0.9783771892257622 0 0 0 0.32 146 355 187 401 234 63 
431 0.11523151233329212 0.257523229619608 0.9648389670937307 0 0 0 0.19 146 356 187 402 194 28 214 119 
432 0.02710131555893003 0.2542515685091601 0.947852259229734 0 0 0 0.22 146 357 148 44 157 140 159 32 175 142 187 403 188 12 194 29 196 19 213 197 214 120 223 9 231 37 
433 -0.016622197865732314 0.2542175727037162 0.9449202887260426 0 0 0 0.4 146 358 157 141 175 143 176 129 187 404 213 198 231 38 
434 -0.00904381703259156 0.25317437291167977 0.9418377154361984 0 0 0 0.16 146 359 187 405 188 13 
435 -0.009045841396469998 0.2532567809704948 0.942450903066701 0 0 0 0.16 146 360 176 130 187 406 188 14 214 121 
436 -0.04206181584678126 0.25236843143624293 0.9364721966141102 0 0 0 0.16 146 361 157 142 175 144 176 131 187 407 
437 -0.042050972940040496 0.25236649378688386 0.9365035437784631 0 0 0 0.18 146 362 157 143 176 132 187 408 
438 0.014117499397472201 0.255552099824793 0.9497476449910389 0 0 0 0.15 146 363 157 144 164 70 187 409 188 15 213 199 214 122 
439 0.19176690307494196 0.26363544273250666 0.9810168389464398 0 0 0 0.19 146 364 164 71 187 410 213 200 223 10 234 64 
440 0.09500863497799854 0.2588411809429238 0.9585223433956063 0 0 0 0.18 146 365 187 411 194 30 214 123 223 11 
441 0.09499462925390928 0.25883867455505 0.9585600766399963 0 0 0 0.16 146 366 176 133 187 412 194 31 214 124 223 12 234 65 
442 0.0982182581192989 0.2589208898063244 0.9589439868838681 0 0 0 0.14 146 367 176 134 187 413 194 32 213 201 214 125 223 13 234 66 
443 0.09820307254397148 0.25890939936266755 0.958855261795575 0 0 0 0.14 146 368 176 135 187 414 213 202 214 126 223 14 234 67 
444 0.10226583884458289 0.2589355668075384 0.9592599420446856 0 0 0 0.24 146 369 187 415 214 127 223 15 
445 0.15828969899504972 0.26217575091080964 0.9728756708554224 0 0 0 0.2 146 370 176 136 187 416 
446 0.028527029399522893 0.25679118367182857 0.9475687670731414 0 0 0 0.2 146 371 175 145 187 417 188 16 200 115 223 16 
447 -0.034582859998964134 0.25477910961764305 0.9372436312707355 0 0 0 0.14 146 372 148 45 185 32 187 418 214 128 
448 -0.034566217256915464 0.2547581137347173 0.937199801653585 0 0 0 0.17 146 373 148 46 157 145 176 137 185 33 187 419 194 33 196 20 213 203 214 129 
449 0.0320601712232564 0.25722841549666003 0.9481414235173481 0 0 0 0.27 146 374 175 146 187 420 188 17 223 17 
450 0.042721924002114706 0.258825328891651 0.9544736725215406 0 0 0 0.2 146 375 187 421 188 18 214 130 
451 -0.07319747393964403 0.2531523406429504 0.9290879233632819 0 0 0 0.22 146 376 164 72 187 422 194 34 200 116 213 204 214 131 224 26 
452 -0.06741491602629442 0.2531550924994136 0.9284943272839922 0 0 0 0.26 146 377 187 423 214 132 
453 -0.06752980496394015 0.2530220020813944 0.9285780974433119 0 0 0 0.03 146 378 176 138 214 133 
454 -0.06381865237634682 0.2535192438367002 0.9308264615047824 0 0 0 0.14 146 379 176 139 187 424 
455 -0.026458926254588813 0.2566565858923283 0.9422935058141071 0 0 0 0.06 146 380 187 425 188 19 
456 -0.019180888242059792 0.2570450351754856 0.9441949384475465 0 0 0 0.09 146 381 176 140 187 426 188 20 214 134 
457 0.009467664371441448 0.2581940625557052 0.9493773523123338 0 0 0 0.25 146 382 187 427 188 21 214 135 
458 0.012900483653683471 0.2581346584546318 0.9496499220863786 0 0 0 0.21 146 383 164 73 187 428 188 22 214 136 231 39 
459 -0.11036902917488702 0.25435415968871394 0.930412294179152 0 0 0 0.15 146 384 148 47 157 146 159 33 176 141 213 205 214 137 
460 -0.10599043191013231 0.25835928418259396 0.9290311363172353 0 0 0 0.09 146 385 176 142 185 34 213 206 
461 0.03198508586892724 0.2634569326823333 0.9468242601001448 0 0 0 0.04 146 386 187 429 213 207 
462 -0.04263358268746166 0.2682187102480087 0.9302797060328755 0 0 0 0.21 146 387 187 430 213 208 
463 0.22629330030276568 0.28535373129629826 0.9806774515206866 0 0 0 0.31 146 388 187 431 234 68 
464 0.16871099967317055 0.28172068969571906 0.9638097915902618 0 0 0 0.16 146 389 187 432 194 35 213 209 214 138 
465 -0.10403713865712333 0.27409847701850193 0.9295293402156358 0 0 0 0.39 146 390 176 143 185 35 213 210 
466 0.23783991280738245 0.28942435306793657 0.9771649706015536 0 0 0 0.16 146 391 164 74 187 433 213 211 214 139 
467 0.0320815677987545 0.28047407248306794 0.9394261814797439 0 0 0 0.1 146 392 187 434 223 18 
468 -0.1072830000277418 0.2768517625320834 0.9210837477090278 0 0 0 0.18 146 393 176 144 213 212 
469 0.018088712683033747 0.282889994726689 0.9432928375358631 0 0 0 0.25 146 394 158 49 175 147 187 435 188 23 213 213 231 40 
470 -0.033662943106390585 0.28018790459791615 0.9279708712696565 0 0 0 0.16 146 395 164 75 176 145 187 436 
471 -0.10383265545971236 0.27941852088066854 0.9231371258874125 0 0 0 0.26 146 396 148 48 157 147 164 76 176 146 213 214 214 140 
472 -0.03702115289084547 0.28044427537856953 0.9270290859683448 0 0 0 0.24 146 397 164 77 176 147 187 437 194 36 213 215 214 141 
473 0.26215687564048906 0.2970600633421438 0.9825757942982529 0 0 0 0.37 146 398 175 148 187 438 
474 0.13549639628678858 0.290052038446023 0.9526554917718852 0 0 0 0.21 146 399 148 49 164 78 187 439 194 37 213 216 214 142 223 19 234 69 
475 -0.03914384459660089 0.2839854371695866 0.9251864062338188 0 0 0 0.11 146 400 176 148 187 440 214 143 
476 -0.03691768581616123 0.2838185692485004 0.9255737093523037 0 0 0 0.22 146 401 164 79 176 149 187 441 194 38 213 217 214 144 
477 0.01218014389560654 0.2888463713359306 0.9378528521952468 0 0 0 0.25 146 402 175 149 187 442 188 24 213 218 
478 0.13724766247873182 0.29209833033470606 0.9517387939720025 0 0 0 0.26 146 403 187 443 194 39 213 219 214 145 223 20 
479 -0.09915903020031148 0.2857338143376018 0.9227985804030995 0 0 0 0.23 146 404 164 80 176 150 185 36 194 40 213 220 
480 -0.03707219166889708 0.2870818345272188 0.9240087343069523 0 0 0 0.21 146 405 164 81 176 151 187 444 213 221 214 146 
481 0.08849230432631669 0.29353606702370805 0.9467097184180353 0 0 0 0.35 146 406 187 445 204 36 222 29 223 21 234 70 
482 -0.026064279749814075 0.289798286394837 0.9281459935626681 0 0 0 0.26 146 407 176 152 187 446 213 222 214 147 
483 -0.014741753508622453 0.29061036672983076 0.9310161624420787 0 0 0 0.34 146 408 176 153 187 447 213 223 
484 -0.03924478190016908 0.28869877960949464 0.9230595502836201 0 0 0 0.22 146 409 187 448 214 148 
485 0.06250373330500734 0.2941176285639469 0.9390528109994613 0 0 0 0.46 146 410 164 82 187 449 
486 -0.036824067468975 0.2905690757351076 0.9226858341159015 0 0 0 0.13 146 411 187 450 214 149 
487 0.2171530410079389 0.30332466790529933 0.965414939318436 0 0 0 0.44 146 412 187 451 234 71 
488 0.09601564160059474 0.29801084767234676 0.9431662490571051 0 0 0 0.13 146 413 187 452 194 41 
489 -0.11285899547899063 0.2927101800628646 0.9150637794112285 0 0 0 0.03 146 414 213 224 214 150 
490 0.21349927712604172 0.3052795025135493 0.9633284545750199 0 0 0 0.23 146 415 175 150 187 453 
491 0.137743306727331 0.30285080000848036 0.9478473701498934 0 0 0 0.35 146 416 187 454 194 42 
492 0.0030199943981029276 0.29880753863504184 0.9265427020823815 0 0 0 0.41 146 417 164 83 172 30 187 455 204 37 213 225 
493 0.1332187945219199 0.3071171783712619 0.9453908140234762 0 0 0 0.27 146 418 148 50 187 456 194 43 196 21 234 72 
494 -0.10961340479635352 0.3006056543199166 0.9128721262542828 0 0 0 0.21 146 419 176 154 213 226 
495 -0.0364646003893034 0.30545190333514766 0.9168736547296005 0 0 0 0.11 146 420 187 457 194 44 213 227 214 151 
496 0.09700050618744682 0.311626009054714 0.9379948769526865 0 0 0 0.25 146 421 175 151 187 458 194 45 196 22 200 117 213 228 214 152 223 22 234 73 
497 -0.038281453329990583 0.3078151865318527 0.9155069877521311 0 0 0 0.11 146 422 187 459 213 229 214 153 
498 -0.038281453329990583 0.3078151865318527 0.9155069877521311 0 0 0 0.11 146 423 187 460 213 230 214 154 
499 0.1359652792577493 0.3155069271840369 0.9425650804948439 0 0 0 0.21 146 424 175 152 187 461 194 46 223 23 234 74 
500 0.10287857089060162 0.31468707344386343 0.937665821893144 0 0 0 0.24 146 425 148 51 164 84 187 462 194 47 213 231 214 155 223 24 
501 -0.03645860634972418 0.30906330353106864 0.9153496647058027 0 0 0 0.24 146 426 187 463 194 48 213 232 214 156 
502 -0.033135409189800846 0.30886263057892754 0.9150931252287208 0 0 0 0.16 146 427 176 155 187 464 
503 0.1361764343437819 0.3177618589343122 0.9415388256778319 0 0 0 0.22 146 428 187 465 223 25 
504 -0.03822783103483768 0.31262245778036324 0.91309906268716 0 0 0 0.27 146 429 164 85 187 466 200 118 213 233 214 157 
505 0.20320589458991017 0.32849802783066573 0.9536654122707076 0 0 0 0.39 146 430 175 153 187 467 
506 -0.10636252439867051 0.3160480576515918 0.9067083213017865 0 0 0 0.42 146 431 176 156 213 234 
507 -0.10669624495017663 0.32193128893957074 0.9073586246334656 0 0 0 0.17 146 432 176 157 213 235 
508 0.11663261017718606 0.34015935106097883 0.933737862322385 0 0 0 0.27 146 433 187 468 214 158 
509 0.13231463385484846 0.04987977218677425 1.0532262461158264 0 0 0 0.39 146 434 187 469 234 75 
510 0.09164249405855697 0.08423364528362166 1.0271699816120197 0 0 0 0.2 146 435 157 148 176 158 187 470 214 159 234 76 
511 0.09168494748101155 0.08423173085781904 1.0271772741124778 0 0 0 0.22 146 436 187 471 214 160 234 77 
512 0.1131584187512814 0.09721854652587673 1.0254349375583034 0 0 0 0.16 146 437 157 149 187 472 
513 0.055017034859958305 0.10318562540654404 1.0173062729021045 0 0 0 0.33 146 438 158 50 187 473 213 236 
514 -0.09363330359293943 0.10540485004089266 0.9901691101954505 0 0 0 0.43 146 439 159 34 164 86 185 37 196 23 213 237 214 161 219 25 
515 0.13285827180405668 0.11081112574892354 1.023479723103372 0 0 0 0.24 146 440 148 52 159 35 175 154 187 474 213 238 234 78 
516 -0.07717276853309547 0.10964363720915969 0.9911407151898525 0 0 0 0.41 146 441 157 150 158 51 176 159 185 38 187 475 196 24 213 239 214 162 
517 0.22847529088863505 0.11517999383290248 1.042606223259807 0 0 0 0.59 146 442 187 476 214 163 234 79 
518 0.1227768463741151 0.11653545889277794 1.0235102892593082 0 0 0 0.35 146 443 152 17 157 151 175 155 185 39 187 477 194 49 200 119 214 164 
519 0.2985986638527573 0.12267566954467465 1.0576350077052095 0 0 0 0.14 146 444 176 160 187 478 
520 -0.01523501586286981 0.11859434502668452 0.9974045164160859 0 0 0 0.13 146 445 157 152 176 161 187 479 213 240 
521 -0.011234393372103826 0.11882758915353311 0.9984026485409236 0 0 0 0.26 146 446 157 153 158 52 176 162 187 480 200 120 204 38 213 241 214 165 
522 0.0635949455867736 0.12108223099187534 1.0105977474221066 0 0 0 0.35 146 447 158 53 175 156 187 481 
523 0.12895594253289627 0.12522754477268228 1.020736085802365 0 0 0 0.19 146 448 187 482 200 121 234 80 
524 0.271485101220872 0.1289363242684325 1.0505489511366668 0 0 0 0.2 146 449 176 163 187 483 
525 -0.012149101506388234 0.12380341576020816 0.9964676066367161 0 0 0 0.23 146 450 187 484 214 166 231 41 
526 0.29002065063244864 0.12942906941273075 1.0540596269405875 0 0 0 0.33 146 451 187 485 213 242 
527 0.17980887989000355 0.13242036112531383 1.0300944932070801 0 0 0 0.18 146 452 187 486 234 81 
528 -0.03944247790078298 0.1725273517065106 0.9742426947754076 0 0 0 0.27 146 453 158 54 187 487 
529 0.1404964809579782 0.1812530562699288 1.001689032227368 0 0 0 0.12 146 454 175 157 187 488 
530 0.007865144733398631 0.17950654056082144 0.9793737741017602 0 0 0 0.27 146 455 157 154 159 36 187 489 194 50 200 122 213 243 224 27 
531 0.0737347714059131 0.18571937326102247 0.9906746991117187 0 0 0 0.24 146 456 158 55 176 164 187 490 194 51 222 30 
532 0.07765593105113971 0.18576880901666423 0.9913929264769119 0 0 0 0.1 146 457 187 491 234 82 
533 -0.08355336789326018 0.18458923444305028 0.966345678192815 0 0 0 0.19 146 458 157 155 172 31 187 492 
534 -0.01562711377214839 0.2380521730069316 0.9517326001903262 0 0 0 0.32 146 459 157 156 175 158 187 493 221 21 
535 -0.005685839697945799 0.23871175814649587 0.9484091299583414 0 0 0 0.25 146 460 157 157 175 159 187 494 
536 0.2333347933783624 0.24850129370132643 0.9910255176862559 0 0 0 0.05 146 461 187 495 234 83 
537 -0.07441334979886084 0.2379001326628721 0.9337191560392015 0 0 0 0.26 146 462 157 158 164 87 200 123 213 244 
538 0.19706078494322313 0.24998466713528858 0.9829398391651988 0 0 0 0.2 146 463 157 159 158 56 176 165 187 496 200 124 213 245 
539 0.024665633992221284 0.24531387510669106 0.9516011460685806 0 0 0 0.39 146 464 157 160 158 57 175 160 176 166 187 497 213 246 
540 -0.03163515357692947 0.2465925734024263 0.9405968124192987 0 0 0 0.3 146 465 158 58 175 161 187 498 231 42 
541 0.16801323339948482 0.25844915922127654 0.9717412192304559 0 0 0 0.28 146 466 157 161 175 162 176 167 187 499 204 39 213 247 234 84 
542 0.17582639344243803 0.25892748970372037 0.9741456037117575 0 0 0 0.23 146 467 175 163 176 168 187 500 231 43 234 85 
543 0.06321383750538982 0.25484872461761654 0.9535750785003176 0 0 0 0.37 146 468 147 33 175 164 176 169 187 501 188 25 213 248 231 44 232 39 234 86 
544 0.06325319758512785 0.25489167760286213 0.9538007299028103 0 0 0 0.37 146 469 175 165 176 170 187 502 188 26 213 249 214 167 231 45 232 40 234 87 
545 0.09679813720023203 0.2558895523795097 0.958733534321418 0 0 0 0.22 146 470 148 53 157 162 164 88 176 171 185 40 187 503 194 52 204 40 213 250 214 168 219 26 223 26 234 88 
546 0.024119290382108607 0.25417228671250236 0.9472567209379551 0 0 0 0.15 146 471 159 37 187 504 213 251 
547 0.024168091865622274 0.2542100460517717 0.9476730514755939 0 0 0 0.14 146 472 187 505 188 27 213 252 214 169 
548 0.030462920475441423 0.25437567673699263 0.9484165784434343 0 0 0 0.11 146 473 157 163 175 166 187 506 188 28 204 41 213 253 
549 0.030461402253043463 0.2543736027602666 0.9483531985445343 0 0 0 0.1 146 474 157 164 175 167 187 507 188 29 213 254 
550 0.08524232751059112 0.25707939901772514 0.960689993076683 0 0 0 0.36 146 475 187 508 213 255 234 89 
551 0.19443080901046303 0.26139218678243337 0.9799032947676785 0 0 0 0.09 146 476 187 509 234 90 
552 -0.03740853710179683 0.2524152207482992 0.9370175987516121 0 0 0 0.24 146 477 157 165 164 89 175 168 176 172 185 41 187 510 204 42 214 170 
553 -0.033031978817066474 0.25253306152067345 0.9385089019165858 0 0 0 0.26 146 478 158 59 164 90 175 169 176 173 187 511 231 46 
554 -0.10846582855460316 0.25151391449481536 0.9305031097446124 0 0 0 0.31 146 479 159 38 164 91 176 174 204 43 213 256 219 27 231 47 
555 -0.012947062389662966 0.25422730375222696 0.942502739512683 0 0 0 0.18 146 480 157 166 175 170 176 175 187 512 214 171 
556 -0.08814422179655243 0.25268672914767065 0.9343866414007187 0 0 0 0.25 146 481 164 92 187 513 213 257 
557 -0.1041640533054718 0.25321159535540183 0.9343173200266206 0 0 0 0.18 146 482 204 44 213 258 
558 -0.09297063346999174 0.25287244971853495 0.9337889886139527 0 0 0 0.33 146 483 164 93 176 176 185 42 213 259 214 172 
559 -0.13426772185911998 0.2534597839489056 0.932927176252916 0 0 0 0.17 146 484 159 39 164 94 176 177 
560 0.16323396385646893 0.26468035080538316 0.9688020197554497 0 0 0 0.2 146 485 158 60 187 514 213 260 
561 -0.0021878809599709323 0.26328295045776173 0.940491163717204 0 0 0 0.16 146 486 164 95 187 515 194 53 214 173 
562 -0.002184837945172381 0.2633214901349907 0.9405938491099188 0 0 0 0.15 146 487 164 96 187 516 204 45 214 174 
563 -0.039749310973017545 0.268264532286637 0.9316684922119836 0 0 0 0.29 146 488 148 54 164 97 176 178 187 517 194 54 213 261 214 175 
564 0.0957677621511455 0.2806042017997928 0.951469888403067 0 0 0 0.17 146 489 172 32 187 518 234 91 
565 0.020228898623428818 0.280400567266543 0.9425867813427317 0 0 0 0.17 146 490 147 34 152 18 172 33 187 519 190 13 204 46 213 262 222 31 
566 -0.02005440889572035 0.27915477379591797 0.935108029979214 0 0 0 0.25 146 491 164 98 187 520 213 263 214 176 
567 0.20442750252370684 0.28910626608866435 0.9693820189584302 0 0 0 0.05 146 492 187 521 234 92 
568 0.2043410247592855 0.2891363684591353 0.9691990302200811 0 0 0 0.18 146 493 172 34 187 522 
569 -0.03928304722490643 0.28071921371598924 0.9261408915558966 0 0 0 0.19 146 494 148 55 172 35 176 179 187 523 213 264 
570 0.2655177989328848 0.2960618069753399 0.9798495051530128 0 0 0 0.26 146 495 175 171 187 524 234 93 
571 0.12868629266290285 0.2890292614699455 0.9508984375548507 0 0 0 0.3 146 496 172 36 187 525 213 265 231 48 232 41 
572 -0.0022456008993406874 0.2856725010777294 0.9315719168801601 0 0 0 0.15 146 497 187 526 213 266 214 177 224 28 
573 -0.06039451481017719 0.28545969216901207 0.9212215957540394 0 0 0 0.33 146 498 176 180 187 527 213 267 
574 0.06778203693135215 0.2977627541932149 0.938445877746999 0 0 0 0.17 146 499 164 99 187 528 213 268 214 178 223 27 
575 0.13573244504407092 0.30760937783275233 0.9456050592582439 0 0 0 0.28 146 500 187 529 194 55 196 25 234 94 
576 -0.0010166078541913462 0.30242401098076155 0.9236079066303687 0 0 0 0.2 146 501 152 19 164 100 187 530 231 49 
577 -0.11272425196319111 0.3005045363998632 0.9126086889606203 0 0 0 0.2 146 502 164 101 172 37 213 269 219 28 232 42 
578 -0.03697268802756577 0.30229561355967965 0.9181150944503588 0 0 0 0.22 146 503 148 56 164 102 176 181 187 531 194 56 204 47 213 270 214 179 219 29 232 43 
579 0.0109655747817729 0.3044500550302194 0.9250574225423636 0 0 0 0.32 146 504 172 38 187 532 213 271 232 44 
580 0.1359066758684617 0.3118981283681794 0.9438915698492548 0 0 0 0.25 146 505 148 57 175 172 187 533 194 57 196 26 
581 0.13332209408072668 0.31420306583415997 0.942589122497389 0 0 0 0.1 146 506 148 58 187 534 194 58 
582 0.0653936748341243 0.3114923039007436 0.9320569616546249 0 0 0 0.09 146 507 187 535 213 272 234 95 
583 -0.11229684470123345 0.3110657893097043 0.9077288174493918 0 0 0 0.38 146 508 172 39 176 182 204 48 213 273 214 180 227 18 232 45 
584 0.06643529125011026 0.31775644336785563 0.9300270576324611 0 0 0 0.15 146 509 164 103 187 536 213 274 214 181 223 28 
585 0.130446925855734 0.04684804799975089 1.0541438341223406 0 0 0 0.14 146 510 187 537 234 96 
586 0.12950632530198503 0.1162741376459302 1.0237262810145153 0 0 0 0.3 146 511 148 59 152 20 158 61 159 40 164 104 175 173 176 183 185 43 187 538 213 275 221 22 227 19 234 97 
