# 3D point list with one line of data per point:
#   POINT3D_ID, X, Y, Z, R, G, B, ERROR, TRACK[] as (IMAGE_ID, POINT2D_IDX)
# Number of points: 278, mean track length: 10.36
6925 0.17166833601454376 -0.02962905200886373 0.17059225676641956 0 0 0 0.29 57 2028 99 1428 189 1331 191 1228 202 1333 8 1278 106 1316 
6926 0.18031355844057195 0.1490048377019654 0.5411272302142954 0 0 0 0.35 23 3154 37 1953 57 2029 72 1935 139 1250 144 1669 150 1374 151 2551 154 2109 173 2383 178 912 180 2645 193 2471 202 1334 212 1432 215 728 216 1874 218 2282 226 1491 228 2357 233 1405 7 1624 8 1279 31 1103 
6927 -0.10224037825600003 0.21211310723226712 0.654049626673584 0 0 0 0.43 57 2030 90 577 119 1146 131 1170 145 1086 189 1332 191 1229 212 1433 
6928 0.32713533626674524 0.10213703097310056 0.4347921494973146 0 0 0 0.2 57 2031 119 1147 143 1144 150 1375 186 1682 189 1333 191 1230 168 245 
6929 0.2210021323505566 0.034975241399653974 0.2836231711003932 0 0 0 0.55 57 2032 59 1497 99 1429 140 2160 150 1376 177 1785 233 1406 24 1068 68 483 72 1936 78 168 
6930 0.17197228801919798 -0.0146489274040258 0.17450022801476037 0 0 0 0.77 57 2033 140 2161 202 1335 225 570 106 1317 
6931 0.23901380299460992 0.04964822481658046 0.31614532563436204 0 0 0 0.92 57 2034 99 1430 150 1377 59 1498 68 484 233 1407 78 169 80 66 
6932 -0.42923325826748915 0.3028905440429491 0.8042918803445319 0 0 0 0.45 48 523 57 2035 59 1499 116 2371 119 1148 151 2552 154 2110 166 1863 171 1566 178 913 180 2646 202 1336 211 1519 212 1434 216 1875 218 2283 228 2358 18 1377 34 1735 144 1670 58 1097 24 1069 46 2331 167 1110 
6933 0.15106798644604044 0.18243661417232016 0.5329201033083097 0 0 0 0.32 23 3155 57 2036 59 1500 131 1171 150 1378 173 2384 180 2647 189 1334 34 1736 55 1626 125 2143 140 2162 144 1671 166 1864 168 246 191 1231 193 2472 228 2359 117 330 
6934 0.03756347668837435 0.2140151313862934 0.5661133144980107 0 0 0 0.5 57 2037 119 1149 121 158 191 1232 115 332 149 1681 
6935 0.23104490206979814 0.0966482185161526 0.2815076290735164 0 0 0 0.68 23 3156 57 2038 59 1501 72 1937 99 1431 119 1150 140 2163 189 1335 24 1070 31 1104 
6936 0.2862269330082667 0.14586003712202616 0.3554081284741005 0 0 0 0.62 57 2039 137 855 140 2164 178 914 191 1233 180 2648 189 1336 31 1105 121 159 228 2360 68 485 168 247 
6937 0.3258335297609586 0.19096017549442307 0.3989770365813727 0 0 0 0.6 57 2040 99 1432 137 856 191 1234 202 1337 24 1071 
6938 0.22383593434873242 0.12933891607617243 0.2820338279562875 0 0 0 0.52 57 2041 59 1502 119 1151 137 857 150 1379 
6939 -0.21374996812218452 0.06743295621063035 0.8839601845369736 0 0 0 0.16 57 2042 186 1683 202 1338 167 1111 
6940 -0.23749184110302454 0.07091174180646109 0.8620982568410716 0 0 0 0.35 57 2043 150 1380 228 2361 
6941 -0.32961915213392384 0.19907800477946952 1.0732758611554813 0 0 0 0.51 57 2044 186 1684 228 2362 
6942 -0.23921994502943192 0.11361093400210757 0.8213614547128305 0 0 0 0.49 57 2045 58 1098 59 1503 139 1251 225 571 228 2363 7 1625 186 1685 94 1899 167 1112 212 1435 8 1280 
6943 -0.359450568060135 0.2429962302201332 1.0136110431202814 0 0 0 0.42 57 2046 171 1567 186 1686 189 1337 
6944 0.1288387419493473 -0.2438136643433115 0.09260777391782678 0 0 0 0.54 57 2047 150 1381 189 1338 191 1235 24 1072 
6945 -0.08473163116718639 0.08633742853305526 0.704158202807008 0 0 0 0.35 34 1737 57 2048 59 1504 86 1498 94 1900 99 1433 122 664 125 2144 131 1172 140 2165 143 1145 144 1672 149 1682 151 2553 166 1865 177 1786 178 915 193 2473 202 1339 210 819 211 1520 212 1436 23 3157 30 1780 37 1954 47 415 90 578 102 1448 116 2372 132 505 139 1252 154 2111 173 2385 180 2649 205 1163 216 1876 218 2284 225 572 228 2364 55 1627 72 1938 171 1568 215 729 7 1626 46 2332 191 1236 45 547 31 1106 133 308 8 1281 106 1318 174 282 
6946 -0.3784608151385914 0.2091963623722941 0.8541729229691339 0 0 0 1.12 57 2049 86 1499 94 1901 102 1449 119 1152 144 1673 145 1087 166 1866 189 1339 202 1340 212 1437 216 1877 218 2285 225 573 226 1492 72 1939 74 14 8 1282 24 1073 115 333 168 248 
6947 0.2733807261803431 -0.05390578858540902 0.4130542518491189 0 0 0 0.44 57 2050 59 1505 72 1940 99 1434 116 2373 131 1173 137 858 139 1253 144 1674 145 1088 150 1382 178 916 180 2650 189 1340 202 1341 212 1438 216 1878 225 574 228 2365 233 1408 8 1283 24 1074 31 1107 115 334 119 1153 78 170 168 249 
6948 -0.3985738361684847 0.2325401334573342 0.8527256431948658 0 0 0 0.4 57 2051 144 1675 154 2112 37 1955 58 1099 86 1500 94 1902 116 2374 139 1254 151 2554 167 1113 171 1569 191 1237 216 1879 218 2286 228 2366 8 1284 
6949 0.08143163254082504 -0.1948253067409829 0.030582760197476213 0 0 0 0.69 57 2052 150 1383 177 1787 189 1341 
6950 0.25329421845026245 -0.053760608021755585 0.37840283980583145 0 0 0 0.66 57 2053 59 1506 119 1154 131 1174 137 859 144 1676 145 1089 177 1788 189 1342 228 2367 8 1285 24 1075 31 1108 99 1435 115 335 106 1319 
6951 0.09786222271332608 -0.20137124851101082 0.00811540067999656 0 0 0 0.7 57 2054 150 1384 177 1789 189 1343 24 1076 
6952 0.14718820044211664 -0.16966550466208735 0.09064560196222332 0 0 0 0.36 23 3158 55 1628 57 2055 72 1941 140 2166 150 1385 177 1790 189 1344 191 1238 106 1320 168 250 
6953 0.10206784315662061 -0.19045173318342568 0.029866982374382685 0 0 0 0.62 57 2056 150 1386 177 1791 189 1345 24 1077 
6954 -0.11001981177706718 0.1662331494679784 0.7169160370683269 0 0 0 0.87 57 2057 59 1507 72 1942 99 1436 132 506 154 2113 171 1570 180 2651 202 1342 215 730 31 1109 115 336 121 160 161 1322 203 630 
6955 0.3043718104224334 -0.0009964077571421243 0.42931152311978216 0 0 0 0.63 57 2058 121 161 131 1175 139 1255 150 1387 171 1571 106 1321 
6956 -0.4501436980569175 0.28020355979302847 0.857254242567431 0 0 0 0.39 57 2059 58 1100 59 1508 119 1155 125 2145 144 1677 151 2555 154 2114 180 2652 202 1343 211 1521 228 2368 18 1378 212 1439 46 2333 167 1114 24 1078 
6957 0.23178286663495015 -0.011264374919722861 0.3315059924921324 0 0 0 0.52 57 2060 59 1509 72 1943 137 860 140 2167 150 1388 180 2653 189 1346 191 1239 233 1409 24 1079 31 1110 115 337 119 1156 177 1792 106 1322 68 486 
6958 0.13046506441241199 -0.10665694564405957 0.0655130186153991 0 0 0 0.81 57 2061 72 1944 177 1793 189 1347 225 575 8 1286 24 1080 140 2168 78 171 106 1323 168 251 
6959 0.23865432898485084 0.027201433990904512 0.33783140362022973 0 0 0 0.69 57 2062 59 1510 119 1157 140 2169 144 1678 161 1323 180 2654 189 1348 24 1081 133 309 154 2115 
6960 0.2843992025551179 0.05002058204492316 0.38887526630336905 0 0 0 0.67 57 2063 59 1511 99 1437 119 1158 178 917 139 1256 140 2170 24 1082 31 1111 115 338 23 3159 106 1324 
6961 0.07285885683121297 0.16256829714551796 0.6040729529838177 0 0 0 0.34 23 3160 34 1738 57 2064 59 1512 72 1945 94 1903 102 1450 116 2375 122 665 143 1146 144 1679 145 1090 149 1683 150 1389 151 2556 173 2386 177 1794 178 918 180 2655 191 1240 205 1164 211 1522 212 1440 216 1880 226 1493 228 2369 233 1410 7 1627 37 1956 125 2146 166 1867 8 1287 24 1083 31 1112 99 1438 140 2171 218 2287 131 1176 189 1349 106 1325 168 252 
6962 0.34446707428376583 0.10594977676361539 0.455786359879047 0 0 0 0.56 57 2065 59 1513 72 1946 99 1439 119 1159 122 666 131 1177 137 861 139 1257 143 1147 150 1390 154 2116 186 1687 189 1350 191 1241 226 1494 228 2370 24 1084 31 1113 180 2656 193 2474 212 1441 233 1411 216 1881 23 3161 106 1326 173 2387 115 339 121 162 168 253 117 331 
6963 0.14525268776441466 -0.05793429428229859 0.09999879739270881 0 0 0 0.66 23 3162 30 1781 57 2066 72 1947 140 2172 189 1351 191 1242 202 1344 225 576 8 1288 24 1085 115 340 106 1327 78 172 
6964 -0.4310805642228944 0.32066683725078254 0.8667390952615666 0 0 0 0.42 57 2067 171 1572 189 1352 
6965 0.3245385941850194 0.09719882424798067 0.42881367262933673 0 0 0 0.14 57 2068 102 1451 178 919 228 2371 31 1114 
6966 0.16558969451383895 -0.013833271300734666 0.15836188446140181 0 0 0 0.3 57 2069 99 1440 80 67 
6967 -0.4244155101060069 0.3109160505867692 0.7983833876172104 0 0 0 0.69 55 1629 57 2070 102 1452 137 862 143 1148 144 1680 189 1353 59 1514 72 1948 18 1379 34 1739 216 1882 121 163 115 341 
6968 -0.21436124515576865 0.2634250125991112 0.6947817296528496 0 0 0 0.32 57 2071 99 1441 116 2376 143 1149 
6969 0.28266002506683674 0.11170323923278375 0.3605269414563554 0 0 0 0.83 57 2072 102 1453 139 1258 
6970 0.3236598055329341 0.16464804930710086 0.4490665179203934 0 0 0 0.16 57 2073 59 1515 186 1688 191 1243 
6971 0.30734618692949656 0.14403535299942444 0.4057605491536874 0 0 0 0.52 57 2074 59 1516 72 1949 99 1442 137 863 140 2173 144 1681 150 1391 166 1868 171 1573 178 920 180 2657 186 1689 189 1354 191 1244 193 2475 202 1345 212 1442 228 2372 24 1086 31 1115 121 164 68 487 
6972 -0.4115444516080958 0.04401638549941182 0.9508424442527222 0 0 0 1.12 57 2075 86 1501 137 864 161 1324 166 1869 173 2388 212 1443 218 2288 225 577 46 2334 119 1160 144 1682 167 1115 189 1355 193 2476 211 1523 8 1289 24 1087 34 1740 154 2117 
6973 -0.4257196816254131 0.06265026319753791 0.9674453144836914 0 0 0 0.4 57 2076 58 1101 186 1690 
6974 -0.208178016030366 0.056957641499037835 0.8829454310783735 0 0 0 0.19 57 2077 125 2147 166 1870 202 1346 58 1102 59 1517 151 2557 153 1053 178 921 228 2373 8 1290 140 2174 167 1116 
6975 -0.34558835674639143 0.11418788112313456 0.8804126085992824 0 0 0 0.39 57 2078 125 2148 166 1871 186 1691 94 1904 133 310 
6976 -0.43156732550120974 0.1648258506097573 0.9319293060684546 0 0 0 0.48 57 2079 178 922 180 2658 189 1356 8 1291 167 1117 
6977 -0.26915773923790454 0.11913408142413058 0.8333035439973125 0 0 0 0.7 57 2080 58 1103 94 1905 116 2377 125 2149 143 1150 144 1683 180 2659 225 578 18 1380 233 1412 
6978 -0.35989896343002226 0.2373205163084534 1.0218406812764054 0 0 0 0.66 57 2081 58 1104 171 1574 186 1692 151 2558 228 2374 
6979 0.24840753694551035 -0.03713242831728401 0.655837640372888 0 0 0 0.48 57 2082 150 1392 202 1347 
6980 -0.3459972508613711 0.17017787591249314 0.8501610357219599 0 0 0 0.45 57 2083 72 1950 102 1454 143 1151 144 1684 151 2559 178 923 180 2660 211 1524 215 731 228 2375 8 1292 24 1088 115 342 
6981 -0.04389856258413987 0.07030444503531315 0.6858983116580222 0 0 0 0.35 57 2084 125 2150 144 1685 212 1444 216 1883 233 1413 7 1628 45 548 122 667 189 1357 68 488 
6982 -0.3639049398582703 0.2816299583565326 0.9844356280100044 0 0 0 0.55 57 2085 58 1105 151 2560 171 1575 186 1693 189 1358 228 2376 
6983 -0.35080893667110974 0.21110877123320193 0.8298375139173169 0 0 0 0.45 57 2086 119 1161 125 2151 211 1525 7 1629 189 1359 23 3163 115 343 133 311 145 1091 154 2118 161 1325 183 1085 205 1165 
6984 0.22856581567370035 -0.0845996007060864 0.3352777117070338 0 0 0 0.55 57 2087 59 1518 150 1393 189 1360 191 1245 55 1630 115 344 137 865 78 173 168 254 
6985 0.2563833533584411 -0.06109808610400637 0.3867332096449865 0 0 0 0.42 55 1631 57 2088 59 1519 131 1178 140 2175 143 1152 144 1686 145 1092 150 1394 161 1326 177 1795 189 1361 191 1246 225 579 228 2377 106 1328 133 312 216 1884 168 255 
6986 0.23279981383510048 -0.08529917197252666 0.3186710644772138 0 0 0 0.19 57 2089 140 2176 150 1395 189 1362 191 1247 
6987 -0.11634865481342538 0.14834616806773746 0.7253824903093845 0 0 0 0.61 57 2090 99 1443 102 1455 131 1179 143 1153 173 2389 193 2477 205 1166 215 732 8 1293 168 256 
6988 0.27472800920761986 -0.027773756256583054 0.4107495162461799 0 0 0 0.56 57 2091 59 1520 99 1444 119 1162 131 1180 137 866 150 1396 161 1327 171 1576 178 924 189 1363 191 1248 205 1167 225 580 228 2378 8 1294 24 1089 31 1116 115 345 68 489 78 174 168 257 
6989 0.34112647989143763 0.010843307020485355 0.4920764404915711 0 0 0 0.63 57 2092 59 1521 131 1181 137 867 144 1687 151 2561 178 925 180 2661 202 1348 212 1445 215 733 216 1885 228 2379 86 1502 99 1445 119 1163 122 668 125 2152 139 1259 150 1397 166 1872 186 1694 189 1364 191 1249 211 1526 233 1414 8 1295 31 1117 115 346 24 1090 106 1329 173 2390 68 490 193 2478 
6990 0.20782087769739513 -0.07043166182236435 0.28005005164595553 0 0 0 0.35 57 2093 139 1260 140 2177 150 1398 233 1415 24 1091 
6991 0.11682574606751192 0.08725088404442927 0.6037792268789403 0 0 0 0.7 37 1957 57 2094 131 1182 186 1695 191 1250 86 1503 133 313 
6992 0.31584127471656104 0.15961638499373712 0.4135677820936327 0 0 0 0.61 57 2095 59 1522 72 1951 99 1446 119 1164 121 165 137 868 150 1399 171 1577 178 926 180 2662 189 1365 191 1251 202 1349 228 2380 24 1092 31 1118 68 491 168 258 
6993 0.2510867907840858 0.12322224268466678 0.3206934435999592 0 0 0 0.37 55 1632 57 2096 59 1523 99 1447 102 1456 119 1165 137 869 139 1261 140 2178 154 2119 171 1578 177 1796 180 2663 189 1366 191 1252 216 1886 228 2381 24 1093 31 1119 
6994 -0.40859003194286125 0.17374067066056956 0.96874757212144 0 0 0 0.39 57 2097 58 1106 139 1262 186 1696 
6995 -0.3803754825385251 0.21420578159627385 1.0044926873634414 0 0 0 0.4 57 2098 58 1107 139 1263 186 1697 228 2382 
6996 0.20267131210422315 -0.029332733001023376 0.6883312349205434 0 0 0 0.38 57 2099 144 1688 150 1400 151 2562 228 2383 
6997 0.14800051855647534 0.005775173070693772 0.6588827553808528 0 0 0 0.54 57 2100 94 1906 125 2153 144 1689 145 1093 150 1401 166 1873 177 1797 202 1350 216 1887 218 2289 228 2384 180 2664 
6998 -0.43652515971678146 0.21078991726467008 0.8583843876867214 0 0 0 0.27 57 2101 154 2120 171 1579 
6999 -0.37103926179203506 0.20791161865229277 0.8492722889988099 0 0 0 0.88 57 2102 72 1952 102 1457 154 2121 226 1495 115 347 
7000 -0.06657751792796422 0.0900505785247576 0.6852447950783545 0 0 0 1.09 34 1741 37 1958 57 2103 59 1524 86 1504 94 1907 99 1448 102 1458 116 2378 125 2154 131 1183 149 1684 166 1874 171 1580 177 1798 180 2665 183 1086 202 1351 210 820 211 1527 212 1446 215 734 216 1888 218 2290 233 1416 30 1782 72 1953 140 2179 150 1402 154 2122 161 1328 173 2391 193 2479 205 1168 228 2385 7 1630 8 1296 31 1120 115 348 133 314 143 1154 203 631 
7001 -0.12359322229415501 0.1377177103726644 0.7150236429158113 0 0 0 0.64 57 2104 59 1525 116 2379 149 1685 178 927 202 1352 212 1447 216 1889 55 1633 143 1155 193 2480 215 735 18 1381 31 1121 34 1742 133 315 173 2392 177 1799 72 1954 168 259 
7002 -0.31498178609290356 0.20927132321619146 0.8091375400535217 0 0 0 0.62 102 1459 137 870 173 2393 8 1297 
7003 0.30612035555599376 0.04349954158999602 0.4150803056131021 0 0 0 1.05 57 2105 59 1526 131 1184 139 1264 144 1690 180 2666 189 1367 191 1253 212 1448 115 349 68 492 
7004 0.259706862261082 0.03326049035365595 0.3602666191408757 0 0 0 0.69 30 1783 57 2106 99 1449 119 1166 131 1185 137 871 139 1265 140 2180 144 1691 150 1403 154 2123 161 1329 189 1368 205 1169 228 2386 8 1298 212 1449 
7005 0.22531224381745005 0.14629851437521824 0.48248774200960626 0 0 0 0.71 57 2107 119 1167 151 2563 178 928 8 1299 59 1527 115 350 191 1254 143 1156 144 1692 154 2124 168 260 
7006 0.23174022957179674 0.1107687887877732 0.30711253720223297 0 0 0 0.36 57 2108 59 1528 150 1404 
7007 0.1290840555221813 0.21572609484666372 0.501800650994128 0 0 0 0.46 57 2109 180 2667 216 1890 24 1094 116 2380 133 316 
7008 -0.04649112856090941 -0.4680783650801164 0.9844286013377214 0 0 0 0.81 57 2110 102 1460 137 872 143 1157 218 2291 225 581 34 1743 46 2335 59 1529 86 1505 94 1908 116 2381 131 1186 144 1693 149 1686 151 2564 166 1875 205 1170 211 1528 133 317 202 1353 18 1382 37 1959 132 507 212 1450 
7009 -0.1495646054719856 0.06635342118502018 0.8124861112340542 0 0 0 1.1 57 2111 86 1506 102 1461 116 2382 131 1187 151 2565 154 2125 173 2394 178 929 225 582 59 1530 205 1171 
7010 0.1790659420977415 -0.008492887205120135 0.6499280544180623 0 0 0 0.57 57 2112 116 2383 125 2155 144 1694 151 2566 166 1876 178 930 180 2668 216 1891 
7011 -0.21543225681570286 0.15330229327296818 0.781139480725232 0 0 0 0.48 57 2113 86 1507 186 1698 189 1369 99 1450 131 1188 154 2126 167 1118 177 1800 218 2292 23 3164 59 1531 94 1909 115 351 133 318 143 1158 191 1255 226 1496 
7012 -0.11864943628855718 0.11671874746684296 0.6999716624970382 0 0 0 0.72 57 2114 125 2156 145 1094 149 1687 154 2127 173 2395 178 931 215 736 228 2387 8 1300 31 1122 55 1634 106 1330 115 352 116 2384 
7013 0.13116160980000097 0.06948774691433006 0.6029280800518098 0 0 0 1.01 34 1744 47 416 55 1635 57 2115 59 1532 72 1955 86 1508 94 1910 116 2385 119 1168 125 2157 131 1189 137 873 140 2181 143 1159 144 1695 145 1095 150 1405 151 2567 154 2128 166 1877 173 2396 177 1801 178 932 189 1370 191 1256 193 2481 215 737 218 2293 225 583 226 1497 228 2388 233 1417 18 1383 171 1581 7 1631 31 1123 102 1462 115 353 133 319 24 1095 106 1331 168 261 117 332 
7014 0.2680292897738997 -0.01795108621568188 0.41783419102378716 0 0 0 0.8 57 2116 72 1956 102 1463 140 2182 144 1696 171 1582 177 1802 178 933 180 2669 202 1354 212 1451 216 1892 228 2389 59 1533 143 1160 31 1124 106 1332 137 874 55 1636 168 262 
7015 -0.11868625361393613 0.17097396486826985 0.7052069684898504 0 0 0 0.47 55 1637 57 2117 72 1957 94 1911 102 1464 116 2386 125 2158 139 1266 140 2183 143 1161 144 1697 145 1096 151 2568 173 2397 183 1087 193 2482 205 1172 212 1452 215 738 226 1498 18 1384 225 584 8 1301 31 1125 216 1893 115 354 133 320 137 875 174 283 
7016 0.2716681955929235 0.007904155530700662 0.3890458523281842 0 0 0 0.54 57 2118 99 1451 131 1190 139 1267 140 2184 144 1698 145 1097 150 1406 161 1330 171 1583 177 1803 180 2670 189 1371 191 1257 202 1355 205 1173 212 1453 216 1894 225 585 228 2390 24 1096 106 1333 68 493 143 1162 72 1958 168 263 
7017 0.21936028260088275 0.006461931404722036 0.2914415523652598 0 0 0 0.99 57 2119 137 876 150 1407 171 1584 189 1372 233 1418 24 1097 59 1534 140 2185 180 2671 191 1258 106 1334 23 3165 68 494 168 264 
7018 0.22832023958203232 0.019815264769580426 0.31741659965476454 0 0 0 0.78 57 2120 140 2186 150 1408 177 1804 180 2672 24 1098 106 1335 233 1419 
7019 0.24590356473718736 0.0331341492953746 0.3435137949670797 0 0 0 0.72 23 3166 57 2121 59 1535 99 1452 102 1465 137 877 139 1268 140 2187 144 1699 150 1409 161 1331 180 2673 189 1373 191 1259 216 1895 8 1302 24 1099 30 1784 31 1126 115 355 133 321 177 1805 106 1336 119 1169 68 495 
7020 0.23240105917376722 0.07153295448337837 0.27344691286043693 0 0 0 0.67 57 2122 72 1959 137 878 140 2188 150 1410 177 1806 189 1374 191 1260 59 1536 106 1337 68 496 
7021 0.26468896299057193 0.12952199766687275 0.3300614815266564 0 0 0 0.73 57 2123 59 1537 99 1453 102 1466 119 1170 140 2189 150 1411 180 2674 212 1454 216 1896 228 2391 137 879 8 1303 24 1100 31 1127 154 2129 68 497 78 175 
7022 0.2712332148985137 0.15071487459743024 0.3325326263073318 0 0 0 0.34 57 2124 99 1454 119 1171 150 1412 59 1538 228 2392 24 1101 140 2190 
7023 -0.05698762755759352 -0.3856448845269972 0.9604303981431052 0 0 0 0.81 34 1745 46 2336 57 2125 59 1539 86 1509 94 1912 102 1467 116 2387 131 1191 132 508 144 1700 149 1688 151 2569 166 1878 173 2398 178 934 186 1699 189 1375 202 1356 205 1174 211 1529 212 1455 218 2294 225 586 8 1304 133 322 45 549 90 579 174 284 
7024 0.03377294897971312 -0.18768593301261924 0.7831736306800592 0 0 0 0.94 57 2126 177 1807 225 587 
7025 -0.08584140267148477 0.046372429086488906 0.7247140891928048 0 0 0 1.21 23 3167 57 2127 59 1540 116 2388 131 1192 139 1269 145 1098 151 2570 154 2130 173 2399 177 1808 178 935 193 2483 202 1357 211 1530 216 1897 218 2295 225 588 228 2393 149 1689 144 1701 8 1305 31 1128 133 323 86 1510 106 1338 137 880 174 285 
7026 0.15346577559517627 -0.27247303932479744 0.095600814806752 0 0 0 0.79 57 2128 150 1413 189 1376 24 1102 23 3168 55 1638 106 1339 177 1809 78 176 
7027 0.13987203254615463 -0.25402946038701985 0.06489036167439984 0 0 0 0.8 57 2129 150 1414 189 1377 24 1103 55 1639 106 1340 177 1810 
7028 -0.3044361085372889 0.19706101911858467 0.814595763087222 0 0 0 0.87 57 2130 102 1468 144 1702 151 2571 153 1054 228 2394 7 1632 58 1108 90 580 154 2131 161 1332 115 356 137 881 
7029 0.30345025044749885 -0.011489352714443886 0.43933548272786727 0 0 0 0.99 57 2131 99 1455 137 882 166 1879 78 177 
7030 0.3035425852990978 0.010026675240484924 0.43918184402504423 0 0 0 0.9 57 2132 59 1541 99 1456 116 2389 119 1172 121 166 131 1193 137 883 144 1703 150 1415 171 1585 178 936 180 2675 191 1261 202 1358 210 821 216 1898 225 589 228 2395 8 1306 24 1104 31 1129 115 357 68 498 
7031 0.09593084136712299 0.2063789634489675 0.53281250608645 0 0 0 0.89 55 1640 57 2133 121 167 144 1704 151 2572 180 2676 193 2484 133 324 143 1163 68 499 
7032 -0.4249959318945735 0.14273213375955587 0.8845172744564254 0 0 0 0.84 57 2134 86 1511 94 1913 125 2159 139 1270 166 1880 180 2677 212 1456 167 1119 218 2296 
7033 -0.16817245313048265 0.16952171683747008 0.7501383722283333 0 0 0 0.71 57 2135 86 1512 94 1914 116 2390 139 1271 178 937 
7034 -0.09483732435524476 -0.1365162767527205 0.8603257381386726 0 0 0 0.68 57 2136 173 2400 177 1811 205 1175 
7035 -0.12955915351982658 0.1301090785414324 0.7372964746778456 0 0 0 0.7 57 2137 59 1542 178 938 55 1641 115 358 133 325 144 1705 218 2297 139 1272 
7036 -0.06670316820713465 0.02607360108826204 0.7900077729588924 0 0 0 1.0 57 2138 186 1700 189 1378 
7037 -0.038410687163817535 -0.15442774247013064 0.9368592996351042 0 0 0 0.36 58 1109 116 2391 180 2678 205 1176 18 1385 216 1899 7 1633 144 1706 167 1120 
7038 -0.049765072578963905 -0.11478081034517597 0.9214971892668257 0 0 0 0.22 58 1110 94 1915 116 2392 154 2132 180 2679 193 2485 
7039 -0.40291735692279296 0.0021608422270483004 0.9630218585212283 0 0 0 0.58 58 1111 94 1916 116 2393 145 1099 153 1055 154 2133 161 1333 173 2401 180 2680 183 1088 193 2486 216 1900 226 1499 18 1386 24 1105 59 1543 
7040 -0.4160660164060282 0.007769655611998482 0.9646485327709485 0 0 0 0.24 58 1112 145 1100 154 2134 218 2298 
7041 -0.36099495532940257 0.027907837579128233 1.0569035702843532 0 0 0 0.6 58 1113 86 1513 151 2573 180 2681 59 1544 125 2160 153 1056 202 1359 212 1457 166 1881 167 1121 24 1106 
7042 -0.5887341553010512 0.1039108389474729 1.044221816525933 0 0 0 0.84 58 1114 125 2161 139 1273 153 1057 178 939 8 1307 48 524 
7043 -0.43611704100679655 0.07368147056959591 0.9330101488210084 0 0 0 0.37 58 1115 161 1334 180 2682 
7044 -0.4257620266246454 0.07353306950026729 0.9295893834124769 0 0 0 0.43 58 1116 116 2394 161 1335 180 2683 55 1642 145 1101 153 1058 154 2135 171 1586 173 2402 193 2487 216 1901 218 2299 18 1387 228 2396 
7045 -0.43540758525534096 0.0794618600401195 0.9396240555674843 0 0 0 0.81 58 1117 102 1469 153 1059 216 1902 18 1388 161 1336 218 2300 145 1102 166 1882 
7046 -0.43483699360058337 0.08186472391352313 0.9393444413654858 0 0 0 0.39 58 1118 94 1917 116 2395 151 2574 153 1060 154 2136 171 1587 173 2403 193 2488 216 1903 218 2301 145 1103 161 1337 180 2684 167 1122 228 2397 8 1308 18 1389 24 1107 45 550 
7047 -0.3320331114326402 0.09294470671026239 1.0902105603440815 0 0 0 0.73 58 1119 125 2162 151 2575 154 2137 171 1588 180 2685 186 1701 193 2489 228 2398 18 1390 167 1123 
7048 -0.3329733141764061 0.09762300394963065 1.0884549168519426 0 0 0 0.45 46 2337 58 1120 86 1514 171 1589 180 2686 186 1702 228 2399 18 1391 167 1124 
7049 -0.570600272558136 0.12307807508616168 0.9794274358890677 0 0 0 0.56 58 1121 102 1470 125 2163 193 2490 
7050 -0.42305625236380007 0.0927376923265264 0.9200173289169373 0 0 0 0.37 34 1746 55 1643 58 1122 72 1960 94 1918 102 1471 151 2576 153 1061 154 2138 161 1338 166 1883 171 1590 180 2687 193 2491 218 2302 228 2400 18 1392 
7051 -0.34151253399267195 0.10841342174258412 1.0615522934715909 0 0 0 0.35 58 1123 166 1884 171 1591 167 1125 
7052 -0.3669912159985111 0.10612209324113396 1.022019714385484 0 0 0 0.43 58 1124 153 1062 180 2688 193 2492 
7053 -0.42607740819305756 0.09597409529235354 0.9196755129745277 0 0 0 0.33 48 525 58 1125 94 1919 116 2396 151 2577 154 2139 161 1339 171 1592 180 2689 193 2493 218 2303 18 1393 
7054 -0.3698693936483369 0.10185076056646432 0.9334454410386386 0 0 0 0.46 58 1126 116 2397 125 2164 154 2140 186 1703 
7055 -0.34095259283566615 0.12586124362144838 1.0694517704158732 0 0 0 0.68 34 1747 46 2338 57 2139 58 1127 102 1472 125 2165 139 1274 143 1164 151 2578 153 1063 154 2141 166 1885 171 1593 173 2404 186 1704 189 1379 193 2494 218 2304 228 2401 18 1394 86 1515 167 1126 8 1309 24 1108 37 1960 
7056 -0.22857591399672708 0.06915527847245262 0.8681623599172256 0 0 0 0.17 58 1128 116 2398 150 1416 161 1340 183 1089 228 2402 
7057 -0.3030051517527844 0.09088461344953087 0.9036989156224833 0 0 0 0.42 51 483 58 1129 94 1920 180 2690 186 1705 218 2305 228 2403 
7058 -0.3415712769063189 0.13319032549967813 1.058767517263615 0 0 0 0.53 37 1961 58 1130 125 2166 154 2142 161 1341 166 1886 180 2691 186 1706 193 2495 228 2404 
7059 -0.23332617510437628 0.08087373519126659 0.8709153720407438 0 0 0 0.25 58 1131 151 2579 173 2405 
7060 -0.14363803051005725 0.056788563899547506 0.8166987533579245 0 0 0 0.22 58 1132 90 581 150 1417 154 2143 
7061 -0.4462076273350779 0.12197945879932824 0.9089878979662117 0 0 0 0.25 58 1133 173 2406 193 2496 228 2405 
7062 -0.4360925181043607 0.12295938108169908 0.8990895006178944 0 0 0 0.21 58 1134 94 1921 180 2692 
7063 -0.4449820934612702 0.1289576639108966 0.9105164754353986 0 0 0 0.5 58 1135 94 1922 102 1473 116 2399 151 2580 154 2144 173 2407 180 2693 193 2497 216 1904 228 2406 18 1395 7 1634 171 1594 8 1310 24 1109 145 1104 
7064 -0.27480970514913344 0.09748014800760875 0.8466178732188031 0 0 0 0.33 23 3169 58 1136 116 2400 140 2191 150 1418 153 1064 154 2145 173 2408 18 1396 
7065 -0.2476820170222935 0.096578950200574 0.8328551618554786 0 0 0 0.43 58 1137 86 1516 94 1923 150 1419 193 2498 153 1065 
7066 -0.16236418709387293 0.18978858500111334 1.2462502490517668 0 0 0 0.87 58 1138 151 2581 154 2146 180 2694 193 2499 228 2407 
7067 -0.6110510568060843 0.1933172276428649 0.9605912504949269 0 0 0 0.31 58 1139 178 940 191 1262 167 1127 8 1311 
7068 -0.5919021484990514 0.19015158927325063 0.9528256395019387 0 0 0 0.39 58 1140 59 1545 102 1474 139 1275 191 1263 86 1517 167 1128 8 1312 
7069 -0.31581168019409916 0.1342653663309816 0.8540785312711197 0 0 0 0.27 23 3170 58 1141 72 1961 102 1475 193 2500 226 1500 228 2408 
7070 -0.3496458725928331 0.14220790114047943 0.8685243082799656 0 0 0 0.35 58 1142 86 1518 94 1924 171 1595 18 1397 102 1476 116 2401 143 1165 180 2695 37 1962 167 1129 24 1110 154 2147 218 2306 
7071 -0.5784380370218157 0.19163418939124413 0.9554010491241567 0 0 0 0.68 58 1143 102 1477 119 1173 139 1276 
7072 -0.2303746850690167 0.1160183876579794 0.8079046086317341 0 0 0 0.41 58 1144 94 1925 99 1457 149 1690 154 2148 171 1596 203 632 210 822 
7073 -0.5865315899238153 0.1949260998539485 0.9560298780774836 0 0 0 0.47 58 1145 86 1519 102 1478 125 2167 228 2409 
7074 -0.3743962943784634 0.15171763466116867 0.8781572828413355 0 0 0 0.25 58 1146 161 1342 180 2696 
7075 -0.3534518024115408 0.1479954287534368 0.8703255415337239 0 0 0 0.35 58 1147 125 2168 166 1887 171 1597 228 2410 
7076 -0.40034421774101875 0.17743797173466175 0.9611952434993977 0 0 0 0.19 58 1148 154 2149 166 1888 180 2697 
7077 -0.29440127186983167 0.1513881849994392 0.8243449560721872 0 0 0 0.17 23 3171 58 1149 72 1962 140 2192 150 1420 153 1066 154 2150 161 1343 180 2698 193 2501 226 1501 228 2411 18 1398 171 1598 
7078 -0.2912768372822374 0.15083695843433026 0.8225270538953461 0 0 0 0.35 23 3172 58 1150 116 2402 150 1421 151 2582 161 1344 193 2502 205 1177 216 1905 218 2307 226 1502 228 2412 149 1691 203 633 
7079 -0.23207144274664307 0.13989710541235814 0.7914159174533066 0 0 0 0.37 58 1151 99 1458 210 823 
7080 -0.18453320953166147 0.13209245559001775 0.7802911917025848 0 0 0 0.59 58 1152 94 1926 99 1459 149 1692 150 1422 154 2151 193 2503 233 1420 7 1635 161 1345 205 1178 203 634 
7081 -0.2340584574837867 0.14310951349756665 0.7945058850910699 0 0 0 0.2 23 3173 57 2140 58 1153 72 1963 86 1520 94 1927 99 1460 116 2403 125 2169 140 2193 149 1693 151 2583 153 1067 154 2152 171 1599 177 1812 180 2699 193 2504 210 824 216 1906 218 2308 226 1503 228 2413 161 1346 18 1399 7 1636 37 1963 167 1130 8 1313 203 635 
7082 -0.417248956856595 0.20211986719955205 0.9394865445368417 0 0 0 0.14 58 1154 186 1707 228 2414 
7083 -0.39644480341895877 0.21114508217764538 0.9638032656227226 0 0 0 0.38 58 1155 125 2170 153 1068 171 1600 180 2700 18 1400 86 1521 167 1131 228 2415 
7084 -0.4435829136515674 0.19193419704388964 0.880129202560574 0 0 0 0.43 46 2339 58 1156 171 1601 186 1708 119 1174 139 1277 211 1531 
7085 -0.37998748744877753 0.1885921901722701 0.8674008407307692 0 0 0 0.35 58 1157 125 2171 180 2701 228 2416 
7086 -0.39467972292321585 0.21938037912353964 0.9602647920898004 0 0 0 0.31 58 1158 154 2153 171 1602 180 2702 
7087 -0.572384407074342 0.22966191481778644 0.9275971922395045 0 0 0 0.12 58 1159 102 1479 228 2417 
7088 -0.2925682336150288 0.1792056215807621 0.816677102799743 0 0 0 0.35 58 1160 72 1964 86 1522 94 1928 171 1603 216 1907 226 1504 228 2418 18 1401 7 1637 149 1694 210 825 203 636 
7089 -0.44204282302216263 0.2129293271018339 0.8670438440196556 0 0 0 0.52 58 1161 94 1929 151 2584 154 2154 171 1604 180 2703 193 2505 216 1908 18 1402 
7090 -0.5262318445547713 0.22804092203484128 0.8938825897134688 0 0 0 0.73 58 1162 59 1546 166 1889 225 590 
7091 -0.23823180544558933 0.18090306203640547 0.78811045941868 0 0 0 0.46 58 1163 99 1461 116 2404 46 2340 94 1930 125 2172 167 1132 
7092 -0.23347384649071456 0.17951943165332765 0.7802387892930333 0 0 0 0.39 58 1164 99 1462 149 1695 171 1605 210 826 7 1638 193 2506 177 1813 203 637 
7093 -0.3769717687973488 0.21487811091878406 0.8479495076286722 0 0 0 0.17 58 1165 102 1480 171 1606 228 2419 
7094 -0.3883445774412986 0.2178071691199141 0.8537903200482391 0 0 0 0.21 58 1166 171 1607 180 2704 193 2507 
7095 -0.43495500115626085 0.22368405195578075 0.8544553445508009 0 0 0 0.23 37 1964 46 2341 55 1644 58 1167 86 1523 102 1481 116 2405 125 2173 143 1166 145 1105 151 2585 153 1069 154 2155 166 1890 171 1608 173 2409 180 2705 186 1709 193 2508 211 1532 218 2309 228 2420 121 168 161 1347 18 1403 34 1748 57 2141 94 1931 167 1133 24 1111 
7096 -0.43161654285361284 0.22582126790051174 0.8518118253318051 0 0 0 0.55 58 1168 116 2406 151 2586 171 1609 180 2706 211 1533 48 526 72 1965 86 1524 102 1482 125 2174 131 1194 145 1106 153 1070 154 2156 189 1380 193 2509 212 1458 218 2310 228 2421 18 1404 94 1932 167 1134 24 1112 8 1314 
7097 -0.3521977163682021 0.21462860898441158 0.8270412767201121 0 0 0 0.29 58 1169 72 1966 102 1483 153 1071 171 1610 173 2410 216 1909 226 1505 228 2422 18 1405 23 3174 46 2342 116 2407 154 2157 161 1348 205 1179 7 1639 74 15 149 1696 203 638 
7098 -0.36429649006211173 0.2210460292649828 0.8384884034968173 0 0 0 0.29 23 3175 154 2158 171 1611 211 1534 228 2423 7 1640 46 2343 
7099 -0.3794477967841176 0.22353312646268228 0.8450211255508163 0 0 0 0.17 58 1170 171 1612 180 2707 226 1506 23 3176 72 1967 154 2159 161 1349 193 2510 18 1406 116 2408 151 2587 166 1891 228 2424 
7100 -0.3816209548107027 0.22455279382116708 0.8464952118390217 0 0 0 0.11 58 1171 86 1525 166 1892 180 2708 193 2511 211 1535 216 1910 116 2409 167 1135 228 2425 
7101 -0.20690053983571097 0.1908221730035231 0.7580054796633369 0 0 0 0.22 58 1172 94 1933 99 1463 149 1697 161 1350 210 827 7 1641 203 639 
7102 -0.41471446058798506 0.2514418168380888 0.9152370008343417 0 0 0 0.22 58 1173 151 2588 180 2709 86 1526 125 2175 167 1136 218 2311 24 1113 
7103 -0.3618109117802776 0.2240577109091713 0.8365802668183461 0 0 0 0.39 58 1174 72 1968 94 1934 116 2410 166 1893 171 1613 193 2512 226 1507 228 2426 154 2160 18 1407 143 1167 7 1642 
7104 -0.2617357066417491 0.20436491762538916 0.7853971242855975 0 0 0 0.2 58 1175 94 1935 99 1464 149 1698 151 2589 171 1614 226 1508 228 2427 72 1969 102 1484 153 1072 183 1090 18 1408 7 1643 210 828 203 640 
7105 -0.26737992978646297 0.2079087519046919 0.7854427938258445 0 0 0 0.31 23 3177 58 1176 72 1970 94 1936 99 1465 125 2176 140 2194 149 1699 150 1423 151 2590 153 1073 154 2161 161 1351 171 1615 173 2411 180 2710 193 2513 211 1536 216 1911 228 2428 233 1421 18 1409 7 1644 210 829 167 1137 205 1180 174 286 203 641 
7106 -0.2564120270486409 0.20948491511117376 0.7785699651069437 0 0 0 0.45 46 2344 58 1177 72 1971 99 1466 149 1700 151 2591 154 2162 161 1352 171 1616 177 1814 180 2711 183 1091 193 2514 205 1181 218 2312 226 1509 228 2429 233 1422 18 1410 94 1937 7 1645 57 2142 116 2411 167 1138 
7107 -0.21013687609396214 0.2023152885688025 0.7548449642332612 0 0 0 0.37 23 3178 46 2345 57 2143 58 1178 94 1938 99 1467 102 1485 116 2412 125 2177 131 1195 140 2195 153 1074 154 2163 171 1617 177 1815 180 2712 189 1381 193 2515 218 2313 18 1411 7 1646 210 830 233 1423 34 1749 59 1547 86 1527 145 1107 167 1139 8 1315 24 1114 
7108 -0.36497127533275564 0.23375700677406283 0.8290478183171196 0 0 0 0.57 58 1179 154 2164 171 1618 173 2412 180 2713 218 2314 226 1510 
7109 -0.32171986443875217 0.22804589822724583 0.8104088272445102 0 0 0 0.83 58 1180 151 2592 171 1619 167 1140 183 1092 216 1912 228 2430 24 1115 161 1353 
7110 -0.38859448316732614 0.2420011617209852 0.84334513106983 0 0 0 0.32 58 1181 125 2178 143 1168 151 2593 218 2315 228 2431 7 1647 193 2516 
7111 -0.3764852655309583 0.24156244279841724 0.8355512681472888 0 0 0 0.32 23 3179 58 1182 94 1939 116 2413 145 1108 154 2165 161 1354 171 1620 216 1913 226 1511 228 2432 18 1412 7 1648 74 16 
7112 -0.4438032144028758 0.2497808470069901 0.8480326251717255 0 0 0 0.25 58 1183 180 2714 228 2433 
7113 -0.3847825874917785 0.24531774994232622 0.8386268272942474 0 0 0 0.27 58 1184 102 1486 166 1894 193 2517 226 1512 
7114 -0.3562138138842452 0.23989504620808544 0.8247268928525485 0 0 0 0.24 58 1185 72 1972 86 1528 116 2414 143 1169 154 2166 171 1621 173 2413 211 1537 218 2316 226 1513 7 1649 34 1750 37 1965 139 1278 161 1355 57 2144 191 1264 46 2346 149 1701 203 642 
7115 -0.4465346778325111 0.2561518054325541 0.8522838167981696 0 0 0 0.42 37 1966 46 2347 58 1186 153 1075 154 2167 171 1622 180 2715 228 2434 18 1413 166 1895 
7116 -0.3570456982613864 0.24737965761587435 0.825661665878986 0 0 0 0.16 58 1187 121 169 151 2594 
7117 -0.29704736432983997 0.23568346784101113 0.7954108239802272 0 0 0 0.3 23 3180 57 2145 58 1188 72 1973 151 2595 153 1076 173 2414 178 941 180 2716 191 1265 193 2518 218 2317 7 1650 94 1940 149 1702 154 2168 167 1141 8 1316 226 1514 
7118 -0.38204221252812404 0.2696738515778912 0.823078717840379 0 0 0 0.14 58 1189 102 1487 216 1914 
7119 -0.44728404910530883 0.2907115113790235 0.8304513506063207 0 0 0 0.28 46 2348 58 1190 102 1488 125 2179 151 2596 153 1077 154 2169 166 1896 180 2717 211 1538 228 2435 
7120 -0.44220063385930003 0.2887485611920658 0.824229745933224 0 0 0 0.32 58 1191 171 1623 216 1915 153 1078 
7121 -0.4564279661414463 0.29367673008744677 0.8255738916587831 0 0 0 0.23 58 1192 125 2180 151 2597 154 2170 171 1624 180 2718 212 1459 228 2436 
7122 -0.44959559385735426 0.3072168055520762 0.8343150610831132 0 0 0 0.12 58 1193 180 2719 211 1539 167 1142 
7123 -0.3946428095348339 0.2936085846856914 0.7877201430678354 0 0 0 0.31 23 3181 57 2146 58 1194 72 1974 102 1489 151 2598 154 2171 171 1625 180 2720 216 1916 218 2318 
7124 -0.43901861357250843 0.30488446882764175 0.8111889723175371 0 0 0 0.47 46 2349 58 1195 102 1490 116 2415 151 2599 153 1079 154 2172 166 1897 171 1626 189 1382 216 1917 218 2319 228 2437 8 1317 72 1975 
7125 -0.3422907019962379 0.29227563208777935 0.7597365531647697 0 0 0 0.22 58 1196 153 1080 173 2415 
7126 -0.2475316997616268 0.27962690256766015 0.704230858704561 0 0 0 0.39 58 1197 99 1468 140 2196 233 1424 7 1651 149 1703 171 1627 193 2519 205 1182 
7127 -0.4572543715756809 0.3189712791922699 0.8155886194451594 0 0 0 0.43 34 1751 58 1198 151 2600 153 1081 173 2416 180 2721 228 2438 18 1414 
7128 -0.3980725873379236 0.306341135410636 0.7799348351100767 0 0 0 0.34 58 1199 102 1491 116 2416 151 2601 154 2173 171 1628 180 2722 216 1918 7 1652 226 1515 
7129 -0.4575564140964789 0.32131390801354337 0.811500888829876 0 0 0 0.37 58 1200 121 170 228 2439 18 1415 144 1707 216 1919 24 1116 57 2147 
7130 -0.42309953308414927 0.3234984230569095 0.7890443415258253 0 0 0 0.33 58 1201 171 1629 180 2723 218 2320 
7131 -0.3968060197189701 0.3211446898463589 0.7740439320111556 0 0 0 0.23 23 3182 58 1202 151 2602 171 1630 216 1920 218 2321 
7132 -0.3107012261051772 0.32602787923992366 0.7254389304139301 0 0 0 0.35 58 1203 186 1710 218 2322 228 2440 
7133 -0.07713318510695412 -0.23844108666761943 0.9378635981117532 0 0 0 0.27 58 1204 86 1529 116 2417 125 2181 173 2417 186 1711 7 1653 
7134 -0.04641902369780112 -0.18384615445837385 0.9703367248480039 0 0 0 0.3 58 1205 94 1941 116 2418 173 2418 193 2520 218 2323 
7135 -0.06076566360132546 -0.12882256499980263 0.9313332341548209 0 0 0 0.16 58 1206 116 2419 131 1196 154 2174 161 1356 205 1183 
7136 -0.4082937000383376 -0.0020798694982816484 0.960574772870517 0 0 0 0.45 58 1207 125 2182 137 884 166 1898 186 1712 191 1266 212 1460 226 1516 
7137 -0.4188847238722234 0.0040780404072359375 0.9612394633001631 0 0 0 0.43 58 1208 86 1530 151 2603 180 2724 218 2324 
7138 -0.42909136420399774 0.01687740288209852 0.9632690359326083 0 0 0 0.69 58 1209 102 1492 180 2725 218 2325 
7139 -0.4071818652907657 0.011666848026720035 0.9628531841912735 0 0 0 0.31 58 1210 86 1531 94 1942 125 2183 151 2604 180 2726 193 2521 226 1517 
7140 -0.3623467016753505 0.0509777376928471 1.0583632416717994 0 0 0 0.36 58 1211 151 2605 173 2419 8 1318 144 1708 
7141 -0.1524129969490438 0.004111790120744076 0.9221299831784483 0 0 0 0.26 58 1212 125 2184 150 1424 
7142 -0.2624210538986716 0.048172192138977846 0.9410275569747334 0 0 0 0.13 58 1213 173 2420 193 2522 218 2326 
7143 -0.18631412597359243 0.030411824731903358 0.9087763062392714 0 0 0 0.22 58 1214 102 1493 119 1175 161 1357 193 2523 
7144 -0.4347193512596568 0.08088887651107644 0.9362856592494864 0 0 0 0.52 48 527 55 1645 58 1215 59 1548 86 1532 116 2420 125 2185 131 1197 139 1279 143 1170 144 1709 145 1109 161 1358 166 1899 189 1383 202 1360 211 1540 212 1461 218 2327 225 591 18 1416 151 2606 37 1967 153 1082 167 1143 173 2421 193 2524 228 2441 8 1319 24 1117 51 484 
7145 -0.43670651368375074 0.08927623838011504 0.941437646136737 0 0 0 0.46 46 2350 58 1216 86 1533 125 2186 154 2175 166 1900 180 2727 186 1713 167 1144 171 1631 202 1361 228 2442 24 1118 
7146 -0.33517749019420084 0.10228122458645261 1.0925342675534133 0 0 0 0.73 37 1968 46 2351 51 485 58 1217 59 1549 86 1534 102 1494 125 2187 139 1280 144 1710 151 2607 153 1083 154 2176 161 1359 166 1901 173 2422 178 942 180 2728 189 1384 193 2525 202 1362 171 1632 167 1145 191 1267 
7147 -0.23564339888448868 0.05240365625142022 0.9049482806606323 0 0 0 0.15 58 1218 144 1711 150 1425 
7148 -0.5939559356613416 0.138599190331029 0.9904123113694588 0 0 0 0.62 58 1219 59 1550 102 1495 125 2188 167 1146 191 1268 8 1320 
7149 -0.6254729265673157 0.14877982321879088 0.9757489214973587 0 0 0 0.36 58 1220 125 2189 178 943 191 1269 139 1281 167 1147 8 1321 
7150 -0.34290758663612686 0.1293184436483565 1.070420568775147 0 0 0 0.61 48 528 51 486 57 2148 58 1221 59 1551 86 1535 102 1496 125 2190 139 1282 144 1712 145 1110 151 2608 153 1084 166 1902 173 2423 178 944 186 1714 193 2526 202 1363 211 1541 212 1462 218 2328 228 2443 167 1148 8 1322 24 1119 
7151 -0.5934904452317296 0.15539372280345087 0.9653511101020099 0 0 0 0.6 58 1222 59 1552 102 1497 178 945 228 2444 86 1536 167 1149 8 1323 
7152 -0.5709106333959536 0.1516890593970752 0.9592957994435684 0 0 0 0.54 58 1223 119 1176 139 1283 178 946 
7153 -0.6141844667005735 0.16142429124747318 0.9731456701645823 0 0 0 0.42 58 1224 86 1537 139 1284 178 947 59 1553 125 2191 167 1150 8 1324 
7154 -0.3085681401962095 0.1001788013943141 0.8698439361492589 0 0 0 0.34 58 1225 116 2421 186 1715 
7155 -0.3741564400476764 0.1204978803192388 0.8989796354443442 0 0 0 0.37 58 1226 154 2177 186 1716 
7156 -0.3826761510461929 0.13252590461163036 0.8913450368952773 0 0 0 0.17 58 1227 116 2422 186 1717 
7157 -0.44695472631780186 0.15072979878413284 0.9073872600992242 0 0 0 0.76 58 1228 86 1538 173 2424 189 1385 193 2527 216 1921 
7158 -0.5847571081538271 0.19360839520205908 0.9616723313831622 0 0 0 0.39 58 1229 102 1498 228 2445 
7159 -0.37640506787473393 0.18131511463976388 1.004890948078405 0 0 0 0.37 58 1230 59 1554 151 2609 178 948 180 2729 189 1386 202 1364 167 1151 228 2446 
7160 -0.5757248507983851 0.20800713959333186 0.9478923392988192 0 0 0 0.35 58 1231 102 1499 119 1177 228 2447 
7161 -0.5484949673637022 0.20427200178151983 0.9197642024603049 0 0 0 0.57 58 1232 59 1555 139 1285 211 1542 225 592 24 1120 180 2730 228 2448 
7162 -0.337230998216183 0.23052325966778275 1.06545596256185 0 0 0 0.31 58 1233 139 1286 186 1718 228 2449 
7163 -0.36499284651555397 0.18154325363147786 0.8678122708906677 0 0 0 0.37 58 1234 102 1500 193 2528 
7164 -0.5884328729734251 0.22132582243608587 0.9358304949095935 0 0 0 0.26 58 1235 59 1556 102 1501 125 2192 191 1270 167 1152 170 0 228 2450 8 1325 74 17 
7165 -0.25798532827076254 0.17669947233935854 0.7990851837171231 0 0 0 0.44 23 3183 30 1785 37 1969 46 2352 58 1236 72 1976 94 1943 99 1469 102 1502 119 1178 125 2193 132 509 140 2197 144 1713 149 1704 150 1426 151 2610 154 2178 161 1360 166 1903 180 2731 183 1093 191 1271 193 2529 211 1543 216 1922 218 2329 226 1518 228 2451 233 1425 18 1417 7 1654 86 1539 167 1153 210 831 203 643 
7166 -0.5740920221797856 0.2362219415115514 0.9203881529070561 0 0 0 0.39 58 1237 59 1557 86 1540 178 949 228 2452 125 2194 167 1154 119 1179 8 1326 
7167 -0.6174448371763817 0.24399406776469723 0.9305978429673609 0 0 0 0.33 58 1238 86 1541 125 2195 139 1287 178 950 191 1272 167 1155 8 1327 
7168 -0.2352045827837994 0.179443681454335 0.7825209025609159 0 0 0 0.36 23 3184 45 551 58 1239 72 1977 94 1944 102 1503 116 2423 125 2196 140 2198 149 1705 151 2611 153 1085 154 2179 161 1361 166 1904 171 1633 177 1816 180 2732 193 2530 216 1923 218 2330 226 1519 228 2453 18 1418 7 1655 46 2353 210 832 167 1156 
7169 -0.5461272331358576 0.2380628224414324 0.8987939958946215 0 0 0 0.42 58 1240 119 1180 125 2197 139 1288 178 951 218 2331 228 2454 154 2180 167 1157 189 1387 191 1273 211 1544 24 1121 
7170 -0.540269275171647 0.23747293415466472 0.8978899394695921 0 0 0 0.53 58 1241 154 2181 178 952 202 1365 59 1558 167 1158 211 1545 24 1122 139 1289 
7171 -0.585837696683148 0.2485697275673237 0.9206171180680401 0 0 0 0.28 58 1242 178 953 228 2455 74 18 125 2198 167 1159 
7172 -0.5461496083527231 0.24200111146615946 0.8970515295462337 0 0 0 0.39 58 1243 102 1504 125 2199 139 1290 154 2182 211 1546 218 2332 24 1123 119 1181 189 1388 228 2456 
7173 -0.3673642912165897 0.21770349126521485 0.8417176404332484 0 0 0 0.1 58 1244 166 1905 171 1634 191 1274 
7174 -0.2952749570142835 0.21066520545072337 0.7966775265746553 0 0 0 0.53 23 3185 45 552 57 2149 58 1245 72 1978 94 1945 102 1505 116 2424 131 1198 140 2199 149 1706 151 2612 153 1086 154 2183 161 1362 180 2733 205 1184 216 1924 218 2333 226 1520 228 2457 18 1419 7 1656 37 1970 86 1542 167 1160 203 644 
7175 -0.5384261628550902 0.25172731774765333 0.8882348924073021 0 0 0 0.51 58 1246 125 2200 225 593 228 2458 51 487 167 1161 
7176 -0.3527822977221397 0.23483936564188723 0.8178401945532577 0 0 0 0.75 48 529 58 1247 59 1559 72 1979 125 2201 131 1199 151 2613 166 1906 173 2425 178 954 180 2734 212 1463 225 594 
7177 -0.5524003137922884 0.2899698847744605 0.8823781675113606 0 0 0 0.47 58 1248 173 2426 180 2735 153 1087 193 2531 
7178 -0.3237999614190544 0.2610591371866012 0.8027187526280596 0 0 0 0.23 58 1249 72 1980 151 2614 153 1088 171 1635 180 2736 193 2532 226 1521 228 2459 24 1124 203 645 
7179 -0.38078218163771504 0.2807998619934385 0.8311134422634233 0 0 0 0.22 58 1250 186 1719 228 2460 
7180 -0.3814042881110159 0.2868777088583624 0.8133968836421716 0 0 0 0.36 58 1251 102 1506 178 955 8 1328 116 2425 180 2737 
7181 -0.41270371795159416 0.29008356698684024 0.8043958693749043 0 0 0 0.24 58 1252 125 2202 137 885 154 2184 171 1636 173 2427 178 956 180 2738 167 1162 
7182 -0.37867780697597136 0.2832822663800973 0.7865659210324152 0 0 0 0.3 48 530 58 1253 153 1089 171 1637 180 2739 167 1163 
7183 -0.34580257877692794 0.29076509030822417 0.7616472562828562 0 0 0 0.42 23 3186 34 1752 55 1646 58 1254 72 1981 102 1507 116 2426 119 1182 125 2203 131 1200 137 886 143 1171 151 2615 153 1090 154 2185 166 1907 173 2428 180 2740 183 1094 215 739 218 2334 228 2461 8 1329 144 1714 
7184 -0.5322833308578785 0.32611110198791604 0.8444061228707828 0 0 0 0.27 58 1255 178 957 211 1547 228 2462 
7185 -0.42918399434399324 0.3188808363768845 0.7940868186352225 0 0 0 0.53 48 531 58 1256 59 1560 119 1183 125 2204 171 1638 178 958 189 1389 191 1275 202 1366 211 1548 218 2335 228 2463 7 1657 121 171 
7186 -0.28244138005085384 0.32002216301980163 0.7048245290983388 0 0 0 0.4 58 1257 125 2205 173 2429 
7187 -0.2786347554151388 0.32220443919363545 0.7083177148699067 0 0 0 0.75 58 1258 153 1091 173 2430 233 1426 24 1125 125 2206 
7188 -0.048411433949662776 -0.1426059525404722 0.9364598974844134 0 0 0 0.33 58 1259 131 1201 145 1111 161 1363 86 1543 94 1946 116 2427 154 2186 167 1164 212 1464 
7189 -0.2752673584882826 0.03215134877584159 0.9715639450363118 0 0 0 0.45 58 1260 145 1112 151 2616 178 959 125 2207 167 1165 211 1549 
7190 -0.18483067516038182 0.026680343060537234 0.913102911070075 0 0 0 0.37 58 1261 59 1561 154 2187 178 960 
7191 -0.5728190086137817 0.12879064132840462 0.981790418963528 0 0 0 1.1 58 1262 102 1508 218 2336 
7192 -0.3379741500394011 0.10959665678888644 1.0843197986540332 0 0 0 0.62 34 1753 37 1971 51 488 58 1263 59 1562 86 1544 102 1509 125 2208 139 1291 144 1715 151 2617 153 1092 173 2431 178 961 186 1720 189 1390 191 1276 193 2533 202 1367 218 2337 228 2464 8 1330 
7193 -0.2551252573933369 0.0653729525079807 0.9119026061003367 0 0 0 0.35 58 1264 59 1563 154 2188 178 962 18 1420 167 1166 
7194 -0.3870402211632562 0.11880541731642014 0.8943022937089637 0 0 0 0.27 58 1265 151 2618 186 1721 
7195 -0.4458873505750074 0.13455334657671153 0.9201473571201039 0 0 0 0.37 58 1266 59 1564 86 1545 125 2209 144 1716 145 1113 151 2619 154 2189 178 963 211 1550 212 1465 225 595 228 2465 167 1167 8 1331 24 1126 
7196 -0.4468352691040326 0.1370339687932966 0.909638711457779 0 0 0 0.39 34 1754 46 2354 48 532 58 1267 59 1565 86 1546 125 2210 139 1292 144 1717 145 1114 151 2620 154 2190 166 1908 178 964 180 2741 183 1095 193 2534 202 1368 212 1466 216 1925 225 596 228 2466 18 1421 167 1168 24 1127 
7197 -0.3576297157573121 0.1249190201894991 0.8906469141373025 0 0 0 0.55 58 1268 202 1369 225 597 
7198 -0.3921808398780618 0.1338021961463788 0.8991231203901512 0 0 0 0.32 37 1972 46 2355 48 533 55 1647 57 2150 58 1269 59 1566 72 1982 86 1547 94 1947 116 2428 119 1184 125 2211 131 1202 137 887 143 1172 145 1115 151 2621 153 1093 161 1364 166 1909 173 2432 186 1722 189 1391 191 1277 193 2535 212 1467 218 2338 226 1522 228 2467 144 1718 167 1169 211 1551 8 1332 183 1096 216 1926 
7199 -0.4553517713244022 0.16136579522029465 0.9144268974235684 0 0 0 0.53 58 1270 186 1723 228 2468 
7200 -0.2699762174762716 0.12493228997803812 0.8323718794782177 0 0 0 0.28 23 3187 34 1755 57 2151 58 1271 72 1983 102 1510 116 2429 119 1185 125 2212 131 1203 137 888 140 2200 143 1173 144 1719 145 1116 150 1427 151 2622 154 2191 161 1365 166 1910 173 2433 178 965 180 2742 193 2536 218 2339 225 598 226 1523 228 2469 233 1427 7 1658 37 1973 46 2356 132 510 59 1567 94 1948 167 1170 202 1370 86 1548 8 1333 168 265 
7201 -0.3759760191227385 0.15148696649177706 0.8810212445893962 0 0 0 0.48 23 3188 48 534 51 489 57 2152 58 1272 59 1568 86 1549 94 1949 102 1511 116 2430 119 1186 125 2213 143 1174 144 1720 151 2623 153 1094 154 2192 161 1366 166 1911 171 1639 173 2434 191 1278 193 2537 212 1468 215 740 218 2340 225 599 226 1524 228 2470 18 1422 37 1974 167 1171 202 1371 8 1334 24 1128 115 359 139 1293 145 1117 183 1097 189 1392 
7202 -0.34753283460693674 0.21675042271806275 1.042506617938297 0 0 0 0.17 58 1273 154 2193 186 1724 191 1279 
