# 3D point list with one line of data per point:
#   POINT3D_ID, X, Y, Z, R, G, B, ERROR, TRACK[] as (IMAGE_ID, POINT2D_IDX)
# Number of points: 412, mean track length: 7.67
489 0.07513148486777915 0.09059639109495281 0.9863335494324512 0 0 0 0.43 25 37 27 139 42 366 127 50 196 246 
490 -0.31611611195167955 0.08805740988119698 1.0366370810694157 0 0 0 0.49 25 38 26 47 42 367 73 56 159 93 1 8 9 73 27 140 44 90 71 72 85 247 96 50 142 98 148 223 162 94 164 196 196 247 217 19 220 39 221 17 224 15 
491 0.26990755245670184 -0.03784068742975174 1.0060493237389234 0 0 0 0.59 42 368 63 84 73 57 110 60 126 91 148 224 185 80 196 248 
492 -0.19004825604793274 0.0918080366030993 1.0164813378304423 0 0 0 0.54 25 39 42 369 126 92 148 225 142 99 229 39 
493 -0.30451880440289325 -0.12455223850278586 1.0782116959150383 0 0 0 0.22 26 48 40 170 42 370 60 102 196 249 
494 0.031391733197154055 -0.07419181138478058 1.0173673631319957 0 0 0 0.36 26 49 42 371 85 248 109 80 159 94 164 197 185 81 196 250 40 171 52 133 127 51 142 100 148 226 229 40 
495 0.1904019257322211 -0.04931636078610406 1.012846573264342 0 0 0 0.46 26 50 42 372 73 58 165 112 185 82 
496 0.2229116730234857 0.06416256731324974 0.9856463959692288 0 0 0 0.22 26 51 42 373 85 249 109 81 148 227 196 251 
497 0.20761005417231645 0.06343955582496409 0.9850013558801984 0 0 0 0.27 26 52 42 374 126 93 148 228 40 172 63 85 71 73 194 61 196 252 142 101 
498 0.1875447269448647 0.06377447352209162 0.987238556713305 0 0 0 0.36 26 53 42 375 52 134 91 94 126 94 148 229 73 59 142 102 
499 0.11610776058415766 0.06297340405562989 0.9895237389799533 0 0 0 0.29 26 54 40 173 42 376 196 253 
500 0.10032823266046718 0.09185335860580676 0.9835676233378641 0 0 0 0.32 26 55 42 377 43 59 172 42 196 254 
501 -0.041368828480060474 -0.10563105870417565 1.0287306071507685 0 0 0 0.78 26 56 40 174 42 378 127 52 136 144 3 64 29 53 44 91 88 10 96 51 111 61 142 103 152 6 162 95 164 198 172 43 190 13 198 28 200 38 222 21 227 8 232 20 
502 -0.35895158364003527 -0.1390119960036202 1.092252955969676 0 0 0 0.47 26 57 42 379 60 103 73 60 111 62 126 95 148 230 25 40 27 141 43 60 50 36 103 12 142 104 196 255 220 40 224 16 
503 0.06768163673372303 -0.009214155780046276 1.0062091018064023 0 0 0 0.29 26 58 42 380 63 86 85 250 
504 -0.2602895983421328 0.05482938477623539 1.0346719954210717 0 0 0 0.29 26 59 42 381 164 199 196 256 
505 -0.11508430195368176 0.10561600613158939 1.0001788757879266 0 0 0 0.48 26 60 27 142 42 382 77 190 85 251 118 70 176 56 
506 -0.3528707306969994 -0.11883446138541899 1.0873027816064984 0 0 0 0.64 26 61 42 383 85 252 148 231 159 95 142 105 126 96 196 257 229 41 
507 0.18204149568516306 -0.045912919810689255 1.0084794160304094 0 0 0 0.47 26 62 42 384 63 87 159 96 185 83 197 27 198 29 213 137 92 71 
508 0.12753736488469491 -0.03827221349853896 1.007167377004688 0 0 0 0.57 26 63 40 175 42 385 109 82 148 232 194 62 198 30 
509 0.1337211701301186 -0.09198295227041743 1.0159843933462682 0 0 0 0.34 27 143 42 386 164 200 
510 0.11287927416305968 -0.08997806769506748 1.01671070460797 0 0 0 0.31 27 144 42 387 77 191 127 53 
511 0.18324724883898083 -0.06849887972392883 1.0105851531935917 0 0 0 0.35 27 145 42 388 126 97 162 96 
512 0.018721031497461994 -0.01948819097130784 1.0110356225105892 0 0 0 0.33 27 146 42 389 85 253 109 83 196 258 127 54 148 233 223 13 229 42 
513 0.332886468506537 -0.011773341761698726 0.9987025399962772 0 0 0 0.29 42 390 148 234 196 259 
514 0.33874002423826677 0.06490223949864614 0.9847016231303765 0 0 0 0.22 27 147 42 391 85 254 213 138 
515 0.3495942706982158 0.06655676845073336 0.980226552386957 0 0 0 0.22 27 148 42 392 148 235 
516 0.14108770878384697 0.07276857373304568 0.9848256318509729 0 0 0 0.39 27 149 38 40 42 393 77 192 92 72 96 52 136 145 148 236 
517 0.17821605369244975 0.08201390819994567 0.9824229686900384 0 0 0 0.51 27 150 42 394 77 193 96 53 118 71 
518 -0.03462934916128146 0.11487006918710047 0.987008527451946 0 0 0 0.32 27 151 42 395 52 135 93 48 118 72 147 30 164 201 204 39 213 139 4 206 11 119 16 36 17 89 77 194 85 255 92 73 110 61 146 72 148 237 176 57 214 11 223 14 229 43 232 21 
519 0.1031966557494297 -0.1312798270557724 1.0187557088672141 0 0 0 0.74 27 152 42 396 50 37 159 97 185 84 196 260 
520 0.3832175796088375 -0.06825367862045474 1.008008586841361 0 0 0 0.38 33 133 42 397 52 136 85 256 105 88 136 146 
521 0.17201539406659874 -0.021216474448402724 1.0047438697097124 0 0 0 0.35 27 153 42 398 54 64 96 54 162 97 
522 0.11141845342219031 -0.12700264039062184 1.0158530315384944 0 0 0 0.33 27 154 42 399 50 38 54 65 73 61 92 74 164 202 196 261 
523 0.025555642900987923 -0.12659718919180507 1.0274348848754828 0 0 0 0.38 27 155 40 176 42 400 96 55 126 98 159 98 162 98 185 85 53 46 77 195 85 257 142 106 146 73 148 238 164 203 196 262 217 20 222 22 63 88 229 44 232 22 
524 0.40983517847413864 0.12875179018820712 0.9852227373216488 0 0 0 0.33 43 61 71 74 148 239 196 263 
525 -0.02008022094495375 -0.09608363331614478 1.0243869118919635 0 0 0 0.47 27 156 40 177 42 401 148 240 159 99 1 9 2 99 4 207 11 120 15 53 16 37 17 90 26 64 29 54 33 134 38 41 50 39 52 137 63 89 71 75 111 63 142 107 118 73 136 147 147 31 152 7 164 204 196 264 198 31 200 39 220 41 222 23 127 55 229 45 232 23 
526 0.032617008052046356 0.11846872151969724 0.9815155337647637 0 0 0 0.61 27 157 42 402 52 138 85 258 92 75 126 99 194 63 196 265 15 54 19 211 142 108 213 140 214 12 217 21 220 42 223 15 
527 0.001839900934765297 -0.12429406865706626 1.0273635823680267 0 0 0 0.38 27 158 42 403 52 139 
528 0.1965707576534268 0.09660579572623361 0.9800798343334506 0 0 0 0.55 42 404 52 140 127 56 196 266 
529 0.3380646868858607 -0.06141331208168238 1.0060292722776687 0 0 0 0.37 27 159 29 55 63 90 91 95 146 74 148 241 
530 0.26751471188424264 0.11932617106234047 0.9722356581709877 0 0 0 0.76 27 160 42 405 53 47 77 196 196 267 
531 0.4534147329674746 -0.10252908108620233 1.0431507998551452 0 0 0 0.39 28 21 40 178 50 40 105 89 196 268 
532 0.35116085661633994 0.062058027147526534 0.9777812009302426 0 0 0 0.31 28 22 42 406 176 58 
533 0.1369815205787003 0.06532443712837163 0.9856831620816736 0 0 0 0.26 28 23 42 407 127 57 194 64 196 269 
534 0.14248207010189132 0.12110977360204406 0.9755023643867393 0 0 0 0.35 28 24 40 179 42 408 52 141 85 259 109 84 146 75 148 242 196 270 
535 0.14240663256443328 0.1249469742427355 0.9748028676223901 0 0 0 0.29 28 25 42 409 52 142 85 260 146 76 148 243 194 65 
536 0.07039190679406802 0.12235777433613258 0.9805618471243605 0 0 0 0.29 28 26 42 410 92 76 146 77 213 141 
537 -0.14267727647047398 0.06253812453344167 1.0151210111109947 0 0 0 0.09 42 411 164 205 196 271 
538 -0.14747856778415322 0.048088544699437415 1.0147439678035368 0 0 0 0.21 42 412 52 143 148 244 40 180 159 100 229 46 
539 0.3191435930986224 -0.08485328368724285 1.0098764998075507 0 0 0 0.68 29 56 42 413 52 144 77 197 
540 0.1991303514274465 -0.0017976402640499326 1.002004625789833 0 0 0 0.59 29 57 42 414 60 104 85 261 111 64 126 100 200 40 
541 0.32883477130483 -0.026654564594837737 1.0030750238366297 0 0 0 0.11 33 135 42 415 148 245 
542 0.4037970977096918 -0.01732255350120343 1.0071499102334842 0 0 0 0.3 33 136 52 145 60 105 85 262 136 148 148 246 213 142 
543 0.39181274727046783 -0.007012216574890714 0.999812713364649 0 0 0 0.34 33 137 60 106 127 58 136 149 148 247 164 206 
544 0.40849878319430755 0.032619699190519415 1.0020992017290005 0 0 0 0.22 33 138 52 146 136 150 
545 0.39336826964274985 0.03555511686204061 0.9933001414523701 0 0 0 0.23 33 139 42 416 85 263 
546 0.38711261075234976 0.04060568714972478 0.988911039356838 0 0 0 0.2 33 140 42 417 136 151 
547 0.32176385410858865 0.04362711814840872 0.9848252095071561 0 0 0 0.16 33 141 42 418 105 90 
548 0.35612343000846436 0.05371461063282574 0.9815622038385606 0 0 0 0.29 33 142 42 419 196 272 
549 0.3510882725721148 0.05895189345689762 0.9781639314286059 0 0 0 0.22 33 143 42 420 85 264 196 273 
550 0.3798772857960885 0.06332786942757042 0.9807196553948986 0 0 0 0.19 33 144 42 421 60 107 105 91 148 248 196 274 
551 0.2634014464037479 0.09595581795898078 0.9811939075075814 0 0 0 0.41 33 145 42 422 52 147 60 108 109 85 136 152 165 113 184 41 194 66 196 275 
552 0.284807493688278 0.10137656467102311 0.9767729469114518 0 0 0 0.26 33 146 42 423 60 109 105 92 148 249 164 207 194 67 196 276 213 143 
553 0.2838663201396259 0.10307488536701138 0.9762892088174212 0 0 0 0.27 33 147 42 424 105 93 127 59 136 153 194 68 
554 0.38660145869834794 0.10962815885831552 0.9783427334361074 0 0 0 0.17 33 148 85 265 136 154 
555 0.10400749016323835 -0.10072357811596253 1.020238573775676 0 0 0 0.28 33 149 42 425 52 148 127 60 159 101 
556 0.3819991635342186 -0.02705809539868687 1.0014421560244293 0 0 0 0.39 33 150 42 426 91 96 164 208 196 277 
557 0.4061834909250057 -0.01181721006188861 1.007191422058112 0 0 0 0.39 33 151 40 181 52 149 60 110 85 266 136 155 148 250 
558 0.2670982087608973 -0.0072811387227482245 1.0037637553792003 0 0 0 0.13 33 152 40 182 42 427 165 114 
559 0.31287289375682226 0.04374965727188304 0.984962516986298 0 0 0 0.07 33 153 42 428 148 251 
560 0.28006560727637375 0.06371085120339443 0.9812411215392062 0 0 0 0.7 33 154 42 429 148 252 194 69 105 94 109 86 110 62 
561 0.3924525755877683 0.0797427844064747 0.9825680899141643 0 0 0 0.17 33 155 40 183 148 253 196 278 42 430 
562 0.26704893552500114 0.10358377720996303 0.9750107005168108 0 0 0 0.16 33 156 42 431 148 254 196 279 194 70 142 109 220 43 
563 0.28944212902645267 0.10342545051787537 0.9761297132125195 0 0 0 0.31 33 157 42 432 52 150 85 267 148 255 196 280 
564 0.36745622682087375 0.11874791960220173 0.9716556285060162 0 0 0 0.22 33 158 40 184 42 433 85 268 105 95 110 63 148 256 196 281 91 97 127 61 136 156 184 42 
565 0.3801750056858629 -0.16238952681744812 1.101324366850169 0 0 0 0.68 33 159 42 434 60 111 148 257 196 282 
566 -0.06677375821787554 -0.0972251707746461 1.0235992492791066 0 0 0 0.73 33 160 42 435 148 258 196 283 44 92 164 209 224 17 229 47 
567 0.3895872452103424 -0.021517911423434868 1.0009141555373495 0 0 0 0.49 33 161 40 185 52 151 60 112 73 62 165 115 196 284 
568 0.11720892706132618 -0.015196303524103866 1.0063960448398896 0 0 0 0.24 33 162 42 436 136 157 164 210 185 86 196 285 
569 0.3884627782426049 0.09788752278539266 0.981199075687983 0 0 0 0.2 33 163 52 152 85 269 110 64 136 158 148 259 196 286 
570 0.2268799860021915 0.10321666136348899 0.9753489796327011 0 0 0 0.53 33 164 42 437 164 211 196 287 
571 0.38256662327365853 0.1118598601376577 0.9756976359373601 0 0 0 0.41 33 165 42 438 136 159 
572 0.3822014989930839 0.14170568955797333 0.9703091049144087 0 0 0 0.28 33 166 42 439 148 260 196 288 
573 0.3045973495108637 -0.12558488726152622 1.0178186321622875 0 0 0 0.51 33 167 40 186 42 440 52 153 85 270 148 261 164 212 
574 0.20597699212526785 0.05851006357725083 0.9870450532228852 0 0 0 0.35 33 168 42 441 43 62 52 154 53 48 73 63 85 271 92 77 93 49 148 262 164 213 194 71 196 289 25 41 26 65 142 110 159 102 185 87 213 144 
575 0.2722021823037617 0.10450346495305325 0.9757758479602446 0 0 0 0.65 33 169 40 187 42 442 52 155 73 64 105 96 127 62 136 160 148 263 184 43 194 72 196 290 
576 0.27416779309410105 0.11133820278046704 0.9742298932950769 0 0 0 0.32 33 170 42 443 60 113 109 87 163 36 184 44 
577 0.3859484129834021 -0.07293176636902075 1.0077292820555386 0 0 0 0.53 33 171 40 188 42 444 73 65 85 272 127 63 196 291 
578 0.403522298503031 -0.01374627667116503 1.0072330990354876 0 0 0 0.39 33 172 52 156 54 66 60 114 63 91 71 76 85 273 105 97 126 101 136 161 148 264 164 214 196 292 
579 0.17996013230122632 0.04158410055791886 0.9881904340516564 0 0 0 0.38 33 173 42 445 109 88 196 293 11 121 26 66 27 161 44 93 96 56 142 111 126 102 147 32 148 265 159 103 164 215 165 116 190 14 213 145 217 22 232 24 235 16 
580 0.29560382919483486 -0.03979728405414386 1.0078680042438388 0 0 0 0.13 33 174 42 446 136 162 148 266 
581 0.3973903014827159 -0.008872903202621742 1.002111142653159 0 0 0 0.47 33 175 54 67 63 92 71 77 85 274 136 163 148 267 162 99 163 37 196 294 
582 0.3189617234869886 0.04640794159171773 0.9843802715088679 0 0 0 0.26 33 176 42 447 127 64 148 268 196 295 
583 0.2559845673437431 0.10452456275750943 0.9775623260254843 0 0 0 0.33 33 177 40 189 42 448 148 269 194 73 196 296 
584 0.010465599296217081 0.10490088215236291 0.9906215142572018 0 0 0 0.78 33 178 42 449 196 297 52 157 109 89 142 112 126 103 148 270 220 44 19 212 162 100 229 48 
585 0.016898590341889615 0.06133014600248462 0.9957297001423705 0 0 0 0.47 33 179 42 450 196 298 142 113 148 271 220 45 26 67 126 104 127 65 229 49 
586 0.37391747701716194 0.11040622398396402 0.973348646797761 0 0 0 0.45 33 180 52 158 71 78 85 275 110 65 127 66 148 272 196 299 198 32 
587 0.15209142047668023 -0.09268224437903923 1.0149573906651141 0 0 0 0.67 33 181 40 190 42 451 52 159 73 66 85 276 93 50 148 273 159 104 164 216 196 300 198 33 4 208 15 55 19 213 25 42 26 68 27 162 38 42 44 94 50 41 54 68 63 93 71 79 77 198 142 114 128 10 152 8 181 2 185 88 199 6 200 41 
588 0.443785407210872 -0.08227551624922609 1.0346818655758132 0 0 0 0.17 60 115 136 164 184 45 
589 0.3528741362347776 -0.05450325743334142 1.004667762540766 0 0 0 0.27 42 452 52 160 91 98 136 165 148 274 164 217 196 301 
590 0.4171679382245434 -0.020945665039620025 1.0143330510507 0 0 0 0.23 40 191 42 453 77 199 85 277 91 99 165 117 196 302 
591 0.40935446842592765 0.019586076398767128 1.0048106225094726 0 0 0 0.25 85 278 105 98 148 275 
592 0.4196562339953417 0.03711895181321894 1.005768146949068 0 0 0 0.35 60 116 85 279 91 100 105 99 110 66 127 67 136 166 164 218 184 46 
593 0.26585189464692743 0.061968848714155714 0.9855809820925817 0 0 0 0.4 42 454 148 276 157 24 164 219 165 118 185 89 
594 0.026007858774189967 0.10261797813099613 0.9846728326792996 0 0 0 0.49 38 43 42 455 52 161 142 115 126 105 148 277 
595 -0.03477237447164434 -0.12066484264557385 1.025513411589187 0 0 0 0.26 42 456 50 42 85 280 92 78 
596 0.38393830250981653 -0.07132018779506127 1.0083558580737408 0 0 0 0.14 40 192 44 95 92 79 
597 0.2428962384284544 -0.019987290617772935 1.0031171971569948 0 0 0 0.21 42 457 44 96 196 303 
598 0.3172754263333443 0.0638619884598509 0.9797402176992402 0 0 0 0.33 42 458 85 281 91 101 110 67 148 278 164 220 196 304 213 146 
599 0.4188751541729924 0.11225554276894592 0.9907946813589291 0 0 0 0.47 40 193 60 117 85 282 127 68 136 167 162 101 196 305 
600 -0.22682097718410738 -0.09009732066280514 1.0564845624695913 0 0 0 0.66 42 459 109 90 176 59 
601 -0.3358856743559954 -0.04567567638802583 1.0725369310929385 0 0 0 0.39 40 194 42 460 52 162 85 283 164 221 196 306 3 65 4 209 77 200 111 65 142 116 19 214 229 50 
602 0.27574139475183845 0.1150135356418998 0.9726810388528848 0 0 0 0.46 40 195 42 461 43 63 52 163 196 307 
603 0.30773829598503155 -0.1681872847690884 1.027452822070227 0 0 0 0.36 40 196 42 462 50 43 60 118 105 100 148 279 165 119 196 308 
604 0.14388279781204685 -0.1607760531219489 1.0306769080229263 0 0 0 0.06 40 197 42 463 52 164 
605 0.3075804670136782 -0.11971625054619565 1.0207368099869347 0 0 0 0.3 40 198 42 464 85 284 105 101 118 74 159 105 196 309 
606 0.2986442189483116 -0.11091174255658119 1.018189856180886 0 0 0 0.43 40 199 42 465 85 285 148 280 
607 0.4483910213114089 -0.09289665510690365 1.036315117139749 0 0 0 0.18 40 200 42 466 60 119 
608 0.4361806489352501 -0.08839154077927217 1.0275316488676853 0 0 0 0.52 40 201 42 467 196 310 
609 -0.34763068158317706 -0.16411006629032968 0.8949781849441157 0 0 0 0.48 40 202 42 468 196 311 
610 0.0718914659501249 -0.12869030936307563 1.0255814553787648 0 0 0 0.32 40 203 42 469 162 102 
611 0.43332970601993626 -0.07790801908961151 1.0300306191876658 0 0 0 0.37 40 204 42 470 196 312 
612 -0.34632786738967003 -0.13296366657546851 0.9056064737372297 0 0 0 0.47 40 205 42 471 126 106 159 106 
613 -0.019180280143222917 -0.10126151903195058 1.0257372709717678 0 0 0 0.18 40 206 42 472 159 107 96 57 126 107 142 117 128 11 
614 0.42845627835992794 -0.0488865131936985 1.017674533396383 0 0 0 0.45 40 207 85 286 105 102 196 313 
615 0.42576066217519826 -0.047213850702127594 1.0130561622595815 0 0 0 0.29 40 208 42 473 196 314 
616 0.4311798103730324 -0.046903168663516286 1.0196799106885464 0 0 0 0.27 40 209 105 103 196 315 
617 0.10548027712338943 -0.07837309163482971 1.0150558043425042 0 0 0 0.43 40 210 42 474 52 165 63 94 126 108 159 108 185 90 
618 0.15067455763253085 -0.06505305431179235 1.0109229209407364 0 0 0 0.26 40 211 42 475 85 287 126 109 
619 -0.2004212082200395 -0.09041153183738772 1.0508813707992009 0 0 0 0.34 40 212 42 476 164 222 
620 0.390322290094033 -0.028271356080522756 0.9991578227017175 0 0 0 0.14 40 213 42 477 196 316 
621 -0.24076239187697085 -0.0855960204989669 1.0598231175741086 0 0 0 0.34 40 214 42 478 85 288 110 68 148 281 2 100 4 210 17 91 19 215 50 44 71 80 77 201 118 75 128 12 164 223 229 51 232 25 
622 0.44306779313983724 -0.015246070010943526 1.0228889819829419 0 0 0 0.23 40 215 42 479 196 317 
623 0.07682268139668867 -0.04551075635723604 1.0121165825318097 0 0 0 0.23 40 216 42 480 196 318 
624 0.33897045179251306 -0.011766567421029044 0.9997532182324026 0 0 0 0.17 40 217 42 481 52 166 105 104 
625 0.34489845126899815 -0.01152833795899428 0.9986465309150886 0 0 0 0.1 40 218 42 482 148 282 
626 -0.34199763133662825 -0.06241170609225237 1.0744854231395409 0 0 0 0.39 40 219 42 483 126 110 25 43 224 18 229 52 
627 0.1843668143967386 -0.012990016871559476 1.0021379846277803 0 0 0 0.1 40 220 42 484 136 168 
628 0.4443333224189173 0.008675762485459145 1.0144556345483764 0 0 0 0.42 40 221 110 69 196 319 
629 0.15339950592553006 -0.014483066508587585 1.004269512454001 0 0 0 0.39 40 222 42 485 196 320 26 69 33 182 43 64 52 167 91 102 109 91 142 118 126 111 164 224 213 147 
630 0.4235026575485799 0.008334147673981223 1.0077970456534369 0 0 0 0.46 40 223 127 69 136 169 
631 0.45394840291766086 0.009993420533769615 1.0270330593050228 0 0 0 0.28 40 224 85 289 105 105 
632 0.1541346916817858 -0.01089240297767774 1.0049535024573752 0 0 0 0.09 40 225 42 486 162 103 
633 0.4148604824886568 0.010257298520711031 1.0068226143514207 0 0 0 0.39 40 226 85 290 148 283 
634 0.13609403445143584 -0.011229625585393989 1.003326865666752 0 0 0 0.6 40 227 42 487 85 291 148 284 196 321 77 202 142 119 159 109 223 16 
635 0.434655436465983 0.016332428551757584 1.0124190580886723 0 0 0 0.32 40 228 42 488 136 170 196 322 
636 0.06392750062014317 -0.011840181306004794 1.0081899396113856 0 0 0 0.22 40 229 42 489 109 92 126 112 196 323 
637 0.4414708821615057 0.016612851631709107 1.0215262830883 0 0 0 0.58 40 230 91 103 164 225 
638 0.15351797508302242 0.001361651322933109 1.004063940820195 0 0 0 0.21 40 231 42 490 185 91 
639 -0.2570054540353777 -0.027714363541217393 1.05378837395306 0 0 0 0.28 40 232 42 491 196 324 200 42 
640 0.35439756652197857 0.04851890998361831 0.9815946816832487 0 0 0 0.24 40 233 42 492 148 285 196 325 
641 0.18402004838253888 0.04845106676886707 0.9866371058143144 0 0 0 0.26 40 234 42 493 91 104 196 326 
642 0.14691057624912376 0.0489331545574334 0.9873801283056112 0 0 0 0.28 40 235 42 494 126 113 148 286 196 327 
643 0.18550111689796356 0.05086322085381023 0.9876001546951904 0 0 0 0.28 40 236 42 495 148 287 165 120 185 92 142 120 
644 0.07774271881740441 0.04984776810173199 0.9921424898674356 0 0 0 0.21 40 237 42 496 52 168 126 114 196 328 
645 0.08016626632192458 0.050900434926382056 0.9946294125362072 0 0 0 0.18 40 238 42 497 60 120 93 51 136 171 185 93 196 329 
646 0.2568646653528823 0.06663878996529424 0.9837942385718014 0 0 0 0.24 40 239 42 498 85 292 96 58 148 288 164 226 165 121 196 330 
647 -0.2749621064927056 0.0638526849050967 1.0336741442128394 0 0 0 0.33 40 240 42 499 109 93 
648 0.11401253856904335 0.07668796222821117 0.9857127604147808 0 0 0 0.19 40 241 42 500 196 331 142 121 194 74 
649 0.1874345279220124 0.08919582246272222 0.980231500691845 0 0 0 0.36 40 242 42 501 162 104 
650 0.36494311640445426 0.11863525142207565 0.9724272991972162 0 0 0 0.34 40 243 42 502 136 172 
651 0.20952576154831098 -0.11344857402296922 1.0198183517227126 0 0 0 0.37 40 244 42 503 196 332 
652 -0.020597165486602804 -0.13333672845462138 1.023997157805694 0 0 0 0.13 40 245 42 504 159 110 176 60 
653 -0.2978563110544235 -0.12316160821321392 1.0808732192954267 0 0 0 0.36 40 246 42 505 85 293 196 333 229 53 
654 0.43828262799736856 -0.040596690329788514 1.0226857314582165 0 0 0 0.58 40 247 42 506 85 294 110 70 196 334 
655 0.3795872919443411 -0.03885234687670137 1.003730452103044 0 0 0 0.21 40 248 42 507 148 289 
656 0.434492922258098 -0.027078429848635364 1.0197068932309676 0 0 0 0.27 40 249 42 508 105 106 196 335 
657 -0.2003383962956785 -0.08616759978776514 1.0520458887912396 0 0 0 0.31 40 250 42 509 109 94 159 111 2 101 19 216 26 70 33 183 53 49 71 81 85 295 110 71 142 122 164 227 217 23 220 46 224 19 
658 0.4147256756764407 -0.02320262386528971 1.0135870521532888 0 0 0 0.34 40 251 42 510 52 169 85 296 105 107 136 173 165 122 196 336 
659 -0.2488125510935467 -0.08532377439104173 1.0598521685568998 0 0 0 0.29 40 252 42 511 44 97 109 95 196 337 52 170 60 121 71 82 77 203 85 297 110 72 148 290 159 112 176 61 11 122 27 163 33 184 61 36 96 59 142 123 164 228 118 76 127 70 217 24 221 18 224 20 2 102 213 148 229 54 
660 0.3491654732175284 -0.019004520826865812 0.9959789449106803 0 0 0 0.41 40 253 42 512 136 174 
661 -0.3364213583124232 -0.0702404436743857 1.0761482509274367 0 0 0 0.25 40 254 42 513 109 96 85 298 159 113 196 338 224 21 229 55 
662 -0.4018729295192669 -0.07183552993072952 1.0879203198675804 0 0 0 0.33 40 255 42 514 109 97 
663 0.2471603661668382 -0.009484540065715969 1.0001401899823619 0 0 0 0.37 40 256 42 515 148 291 
664 0.2794774184037207 0.008996199062163047 0.9993882960914725 0 0 0 0.54 40 257 42 516 148 292 
665 0.1946176066927608 0.007666047077696662 1.0037901317823175 0 0 0 0.17 40 258 42 517 52 171 85 299 136 175 148 293 196 339 
666 -0.4010002908868895 -0.034553363615221176 1.0799602523314475 0 0 0 0.34 40 259 42 518 52 172 159 114 44 98 85 300 109 98 142 124 196 340 224 22 229 56 
667 0.43242941815379415 0.038858075457111625 1.0122949865044735 0 0 0 0.39 40 260 85 301 164 229 
668 0.44437455673807663 0.040538786853775655 1.0148959738941585 0 0 0 0.36 40 261 85 302 107 53 110 73 136 176 164 230 184 47 196 341 
669 0.34635029805369244 0.043816312427776026 0.9861662692682863 0 0 0 0.47 40 262 42 519 71 83 77 204 85 303 127 71 148 294 159 115 
670 0.19019438936854258 0.04673612437680001 0.992250673962807 0 0 0 0.21 40 263 42 520 85 304 148 295 196 342 
671 0.07503998509793129 0.04780554593524738 0.991481777984444 0 0 0 0.21 40 264 42 521 52 173 126 115 148 296 196 343 
672 0.24266081552873897 0.06410704357931925 0.9849805113344694 0 0 0 0.12 40 265 42 522 196 344 
673 0.2416485790365965 0.06909118122769692 0.9844233687432403 0 0 0 0.18 40 266 42 523 105 108 109 99 
674 0.35286906873485296 0.09427018940926953 0.9761014159492227 0 0 0 0.39 40 267 71 84 85 305 
675 0.15151356343790073 0.09226714900877238 0.9808764150426033 0 0 0 0.25 40 268 42 524 111 66 196 345 
676 0.3644419563901368 0.1070300087083772 0.9667144086394927 0 0 0 0.24 40 269 148 297 162 105 
677 0.38756957922129215 0.1318551792603945 0.971356468966275 0 0 0 0.23 40 270 105 109 107 54 164 231 196 346 
678 0.3058215459450288 -0.16010422631458984 1.0237580088502185 0 0 0 0.21 40 271 42 525 196 347 
679 0.4517860414201406 -0.10490450349758432 1.0452247870705615 0 0 0 0.49 40 272 85 306 105 110 165 123 
680 0.43418112234447787 -0.09364798406998781 1.0297787740502777 0 0 0 0.53 40 273 91 105 105 111 126 116 136 177 196 348 
681 0.41757274493684726 -0.06628661163095177 1.0218529334697972 0 0 0 0.4 40 274 42 526 52 174 196 349 
682 0.37965869234708016 -0.06795380999023987 1.007538747074796 0 0 0 0.37 40 275 42 527 52 175 126 117 
683 -0.0698892767095719 -0.09211299245932189 1.0273832312381626 0 0 0 0.33 40 276 42 528 44 99 93 52 109 100 196 350 3 66 63 95 96 60 142 125 147 33 200 43 217 25 220 47 25 44 229 57 
684 -0.4482889634698719 -0.11148383409068509 1.1026434108208667 0 0 0 0.36 40 277 42 529 109 101 196 351 52 176 142 126 229 58 
685 -0.3382419659703627 -0.05849703335328151 1.0727508156849708 0 0 0 0.4 40 278 42 530 52 177 224 23 229 59 
686 0.42037044505120463 0.022277811723376464 1.007503875852578 0 0 0 0.4 40 279 85 307 127 72 196 352 
687 0.18859010586217548 0.0432467634086569 0.9954905773734454 0 0 0 0.47 40 280 42 531 136 178 52 178 63 96 142 127 159 116 196 353 220 48 
688 0.3525081428782331 0.10324485716029927 0.9728645393162566 0 0 0 0.43 40 281 42 532 148 298 110 74 136 179 196 354 
689 0.36352610440787164 0.10441483637940174 0.9747400459661573 0 0 0 0.17 40 282 42 533 52 179 136 180 148 299 
690 0.2420658696719798 0.10698217768930753 0.9743995934032617 0 0 0 0.11 40 283 42 534 196 355 
691 -0.06452395230529825 -0.17826364274459325 1.0483288195818978 0 0 0 0.29 40 284 42 535 52 180 109 102 196 356 
692 0.35994867049766405 -0.0538279006616455 1.0057782199323124 0 0 0 0.35 40 285 42 536 196 357 
693 0.16035907393085877 -0.05126800931180131 1.0134204383489964 0 0 0 0.27 40 286 42 537 109 103 
694 -0.24761273193707448 -0.07650301748969486 1.0564045292911002 0 0 0 0.41 40 287 42 538 85 308 109 104 148 300 159 117 196 358 229 60 
695 -0.3937692492802964 -0.06971443542977257 1.087536115901571 0 0 0 0.42 40 288 42 539 109 105 19 217 85 309 142 128 229 61 
696 -0.43504398132394834 -0.026234122884629868 1.0854894604609546 0 0 0 0.45 40 289 42 540 109 106 196 359 52 181 85 310 142 129 
697 0.19365463170648783 0.033817412468798616 0.9980465475482687 0 0 0 0.48 40 290 42 541 126 118 194 75 142 130 220 49 
698 -0.34775123548814035 -0.14472410069573657 0.9026051289115494 0 0 0 0.31 40 291 42 542 196 360 
699 -0.3539619583042089 -0.13499155436321128 1.0929326001546302 0 0 0 0.58 40 292 42 543 73 67 109 107 127 73 196 361 43 65 142 131 148 301 198 34 199 7 19 218 27 164 126 119 229 62 52 182 
700 0.43509012986802037 -0.03782071525683648 1.0257186005860321 0 0 0 0.79 40 293 60 122 73 68 85 311 105 112 162 106 163 38 196 362 
701 -0.34674293879646956 -0.09771295134211662 0.8856937888891458 0 0 0 0.34 40 294 42 544 159 118 
702 -0.42796125821619935 -0.08006406230836317 1.0955744124592381 0 0 0 0.3 40 295 42 545 85 312 109 108 
703 -0.3838085242930924 -0.06693715498763876 1.0851712687879338 0 0 0 0.31 40 296 42 546 196 363 142 132 148 302 224 24 85 313 229 63 
704 0.3668538302188144 0.10333437379295751 0.9659309524311394 0 0 0 0.47 40 297 127 74 163 39 
705 0.3852066890591613 -0.06593470214287277 1.0084434044919524 0 0 0 0.51 40 298 42 547 52 183 85 314 105 113 126 120 148 303 196 364 
706 -0.3655247372763895 -0.12990568196636237 1.089527656812983 0 0 0 0.53 40 299 42 548 85 315 196 365 88 11 110 75 142 133 159 119 19 219 21 0 73 69 109 109 148 304 199 8 229 64 
707 0.43167186228295173 -0.0308858030539241 1.0181276721299062 0 0 0 0.28 40 300 73 70 196 366 
708 -0.4313170351624177 -0.11823597358376135 1.103103601392377 0 0 0 0.55 40 301 42 549 196 367 109 110 142 134 229 65 
709 0.4120906381710034 0.029923122453201667 1.0012649227034756 0 0 0 0.59 40 302 63 97 73 71 110 76 126 121 136 181 
710 -0.42142481692275846 -0.02287856069806182 1.083710534607622 0 0 0 0.65 40 303 42 550 109 111 52 184 142 135 229 66 
711 -0.14123354984065264 -0.09762944035295519 1.0422958695319466 0 0 0 0.65 40 304 42 551 109 112 3 67 26 71 44 100 63 98 77 205 85 316 142 136 9 74 33 185 159 120 164 232 185 94 196 368 220 50 224 25 229 67 
712 -0.04665521081013807 -0.07036247120888633 1.0214079827908025 0 0 0 0.78 40 305 42 552 44 101 109 113 159 121 162 107 2 103 77 206 85 317 93 53 196 369 229 68 
713 0.40060744269223447 0.03937641536641401 0.9955860268239772 0 0 0 0.41 40 306 53 50 63 99 71 85 136 182 148 305 
714 0.3929870101500947 0.05435576243797295 0.9869716027550737 0 0 0 0.21 40 307 136 183 198 35 
715 -0.013297569346191307 -0.06926466006064641 1.0198334320342 0 0 0 0.66 40 308 42 553 109 114 196 370 
716 -0.1899176390200294 -0.07841430968756195 1.0440108822818692 0 0 0 0.27 40 309 42 554 109 115 
717 0.20037362259561914 -0.03945920273356777 1.0048624716234829 0 0 0 0.68 40 310 42 555 126 122 159 122 185 95 148 306 
718 0.3798770048849647 -0.16703419806360953 1.0999733305893273 0 0 0 0.14 42 556 148 307 196 371 60 123 
719 0.3113343686203319 -0.13321771008010527 1.0184601676338934 0 0 0 0.19 42 557 85 318 136 184 
720 0.2082991089242551 -0.1506081841523818 1.022384756372019 0 0 0 0.36 42 558 52 185 77 207 165 124 
721 0.4635365476850306 -0.09230636749891631 1.0523778080285593 0 0 0 0.19 85 319 91 106 164 233 165 125 
722 0.2937508854543049 -0.12344383190690184 1.0162783211965936 0 0 0 0.33 42 559 148 308 185 96 
723 0.39419790097718665 -0.09318126221171055 1.0112032265751953 0 0 0 0.54 42 560 50 45 184 48 197 28 
724 0.32645709315626736 -0.1073797114065074 1.0146232290149864 0 0 0 0.29 42 561 105 114 136 185 
725 0.3874540391511599 -0.08229283609990681 1.0070663180691386 0 0 0 0.62 42 562 85 320 148 309 
726 0.3267072351394931 -0.09558097418666732 1.0057279250688582 0 0 0 0.15 42 563 146 78 164 234 165 126 176 62 
727 0.1894675476755301 -0.1236224304939452 1.0205311916853947 0 0 0 0.23 42 564 159 123 165 127 185 97 196 372 
728 0.45453146687347484 -0.061414216056191656 1.0302550039796885 0 0 0 0.54 85 321 105 115 196 373 
729 0.3403905506016808 -0.0808252078505322 1.0084348523963511 0 0 0 0.17 42 565 85 322 136 186 165 128 
730 0.31519365658615006 -0.078477133509741 1.009162379124209 0 0 0 0.31 42 566 85 323 92 80 165 129 148 310 
731 0.4148751878937032 -0.05588588729611176 1.020651193075703 0 0 0 0.57 42 567 52 186 196 374 
732 0.07729320903819899 -0.12734026208609361 1.0253768955300069 0 0 0 0.3 42 568 136 187 148 311 196 375 40 311 52 187 142 137 162 108 217 26 
733 0.03899522689726544 -0.13416491278246753 1.0272385976669582 0 0 0 0.88 42 569 110 77 111 67 185 98 
734 0.2606023266193688 -0.07868392331649832 1.0115023200753854 0 0 0 0.37 42 570 127 75 136 188 
735 0.3265363412540841 -0.0629303632863999 1.0053252357788893 0 0 0 0.26 42 571 52 188 148 312 196 376 
736 0.32727703833491045 -0.057700406798368055 1.0056116705559393 0 0 0 0.28 42 572 52 189 148 313 
737 0.21288516549309047 -0.07910258762460445 1.011506338526838 0 0 0 0.29 42 573 50 46 185 99 
738 0.07880093283598058 -0.10800433311673477 1.0232078097019581 0 0 0 0.18 42 574 63 100 85 324 159 124 
739 0.2820256116022115 -0.06037622504928819 1.008127522462105 0 0 0 0.35 42 575 52 190 136 189 
740 -0.026666252799764024 -0.12429693577509394 1.0248564153973623 0 0 0 0.26 42 576 85 325 93 54 
741 0.06721636193329507 -0.10306724468106554 1.023422217823381 0 0 0 0.45 42 577 60 124 63 101 126 123 146 79 147 34 148 314 162 109 196 377 
742 0.19884699872825273 -0.07486817991119714 1.0131256542295335 0 0 0 0.29 42 578 162 110 164 235 172 44 
743 0.28478867806207386 -0.054885842685355936 1.0062796528556834 0 0 0 0.14 42 579 52 191 148 315 136 190 
744 0.08166128610022358 -0.08895578411883222 1.0192849387315865 0 0 0 0.29 42 580 107 55 159 125 200 44 
745 0.2301440368623601 -0.05877392413075067 1.0143321951706281 0 0 0 0.23 42 581 52 192 105 116 
746 0.42894976406869906 -0.019964409332063542 1.0185119478308793 0 0 0 0.24 105 117 136 191 196 378 
747 0.2613711098890176 -0.04558571186489285 1.0093137012641007 0 0 0 0.06 42 582 91 107 105 118 
748 0.4003778417679502 -0.014680301505076779 1.0036703690189086 0 0 0 0.12 42 583 52 193 136 192 
749 0.15311369585531817 -0.05364240636197748 1.0118725060156983 0 0 0 0.21 42 584 52 194 196 379 
750 0.010589229531231667 -0.07433846781016923 1.0173903572109488 0 0 0 0.23 42 585 85 326 126 124 
751 0.4039198261369045 -0.0004812346775832612 1.0052972835378398 0 0 0 0.36 85 327 91 108 164 236 136 193 165 130 
752 0.43184774594226477 0.008158454370649602 1.0141167259988193 0 0 0 0.29 42 586 136 194 196 380 
753 0.3148237007158725 -0.008516980072261324 0.9988455748022582 0 0 0 0.43 42 587 163 40 196 381 
754 0.19892406258000747 -0.025964158632397226 1.0104862698157138 0 0 0 0.22 42 588 77 208 92 81 
755 -0.11194773338135824 -0.07825176070962152 1.0320745362301627 0 0 0 0.55 42 589 52 195 63 102 110 78 172 45 196 382 4 211 61 37 111 68 142 138 176 63 219 12 
756 0.17251614241948443 -0.027810820650326928 1.008060678674132 0 0 0 0.24 42 590 111 69 126 125 
757 -0.18363905535068437 -0.08666301151949889 1.0502541636600236 0 0 0 0.54 42 591 61 38 85 328 164 237 176 64 
758 0.4464866743729191 0.017426390772026273 1.0180194992983544 0 0 0 0.3 105 119 136 195 196 383 
759 0.23065632969373553 -0.015394965215831342 1.0023388650326082 0 0 0 0.27 42 592 105 120 109 116 
760 0.44516941969736473 0.023146445147753415 1.021340403032949 0 0 0 0.27 85 329 110 79 136 196 
761 0.1674317695179896 -0.015935100009653123 1.0036138776430499 0 0 0 0.49 42 593 85 330 165 131 
762 -0.3438515979766232 -0.08664997360833089 0.9012537682561799 0 0 0 0.73 42 594 77 209 118 77 159 126 21 1 142 139 148 316 196 384 229 69 
763 -0.056741086362515986 -0.04629537916993987 1.0195953735295988 0 0 0 0.28 42 595 93 55 196 385 52 196 229 70 
764 -0.05733424446892279 -0.0347786049836461 1.018081898247363 0 0 0 0.16 42 596 93 56 196 386 
765 0.1533871859876067 -0.00261776443431931 1.004579598082395 0 0 0 0.1 42 597 159 127 185 100 
766 -0.056524133519382826 -0.026740175877689672 1.0153457345435974 0 0 0 0.21 42 598 93 57 196 387 
767 -0.037467798326611144 -0.01894748856365402 1.0122240525230741 0 0 0 0.14 42 599 77 210 92 82 159 128 164 238 
768 -0.17757997812139525 -0.017741609962191842 1.0391606042414234 0 0 0 0.56 42 600 85 331 159 129 2 104 9 75 33 186 44 102 92 83 126 126 127 76 148 317 164 239 224 26 229 71 
769 0.21982713152218117 0.03891991537286771 0.9896095711638878 0 0 0 0.19 42 601 148 318 165 132 
770 0.2787003318619055 0.05050863766368746 0.9842509922927255 0 0 0 0.38 42 602 109 117 185 101 
771 0.39583564598590987 0.06496120631223208 0.9890455727133178 0 0 0 0.29 42 603 136 197 148 319 196 388 
772 0.2323506401016148 0.047198882554609814 0.9975788907436757 0 0 0 0.39 42 604 164 240 165 133 
773 0.21360922865635537 0.04512144598646702 0.9858154155231266 0 0 0 0.18 42 605 136 198 196 389 
774 0.20983074672538374 0.046011458989018775 0.9872467949683824 0 0 0 0.2 42 606 52 197 196 390 
775 0.33534050560584383 0.06256247125014562 0.9834827297879818 0 0 0 0.81 42 607 92 84 159 130 164 241 
776 0.2071700726304536 0.05024849647349029 0.9875528873500097 0 0 0 0.3 42 608 85 332 164 242 
777 0.2854233715642564 0.05821917632525854 0.9805881077099977 0 0 0 0.23 42 609 91 109 148 320 184 49 85 333 165 134 
778 0.3357201127917392 0.064702655023545 0.9830232215070238 0 0 0 0.19 42 610 85 334 91 110 110 80 148 321 164 243 
779 0.35273289246572925 0.0680823992164701 0.9776292463211577 0 0 0 0.28 148 322 164 244 213 149 
780 0.14168159671569588 0.047610044177295315 0.9871328753356807 0 0 0 0.18 42 611 52 198 196 391 
781 0.28905755239190795 0.06379281824003949 0.9819657040969603 0 0 0 0.22 42 612 110 81 164 245 194 76 
782 0.3152960385519172 0.06631642350993025 0.9798349859542075 0 0 0 0.31 42 613 110 82 196 392 
783 0.2624644635127296 0.06217655958471404 0.9852031251137741 0 0 0 0.22 42 614 91 111 148 323 165 135 184 50 196 393 
784 0.30139391838794244 0.06677154760640112 0.9857537328385907 0 0 0 0.23 42 615 85 335 105 121 136 199 148 324 196 394 
785 0.24533999897858802 0.06134278325151874 0.9834363031705241 0 0 0 0.5 42 616 52 199 91 112 
786 0.20105612943476914 0.05721271494272594 0.9898603845093209 0 0 0 0.26 42 617 85 336 110 83 194 77 
787 0.2782961572402982 0.0663240783179814 0.9821809668371749 0 0 0 0.22 42 618 105 122 196 395 
788 0.19076039415182827 0.05815956118323118 0.9901596816172596 0 0 0 0.34 42 619 52 200 60 125 85 337 
789 0.19126968503436298 0.06086692218517983 0.9881835771693014 0 0 0 0.26 42 620 52 201 148 325 194 78 196 396 
790 0.19597374333472395 0.06124884715701433 0.9879654894040321 0 0 0 0.1 42 621 92 85 194 79 
791 0.0055725773513103285 0.04716952385647781 0.995119157112266 0 0 0 0.23 42 622 159 131 196 397 229 72 
792 0.04030815087033219 0.05156052301806524 0.9906352730419531 0 0 0 0.4 42 623 52 202 196 398 
793 0.1249373163899404 0.06257282690505954 0.9896008024483632 0 0 0 0.19 42 624 146 80 213 150 
794 0.1054356757150818 0.061884635107724344 0.9869165547926774 0 0 0 0.4 42 625 85 338 109 118 148 326 158 22 194 80 
795 -0.026744071808207457 0.054623911866536666 0.9964732671061586 0 0 0 0.31 42 626 52 203 93 58 148 327 
796 0.041091343125929894 0.061947752302429264 0.9911324232266732 0 0 0 0.07 42 627 127 77 148 328 
797 0.03324815599001518 0.06412385757595337 0.9907070178512518 0 0 0 0.15 42 628 148 329 196 399 
798 0.2801145775293035 0.08522350099047771 0.9788474161761065 0 0 0 0.21 42 629 52 204 85 339 148 330 194 81 
799 0.2757763722925628 0.08677555352035132 0.9799018806462989 0 0 0 0.16 42 630 52 205 194 82 
800 -0.22457462851801308 0.048451799656576124 1.0277263469543845 0 0 0 0.12 42 631 52 206 85 340 40 312 159 132 196 400 229 73 
801 0.34745034089319277 0.09387801194861414 0.976159863139149 0 0 0 0.36 42 632 85 341 148 331 
802 0.31333608008697444 0.09222148454002997 0.9773490750693791 0 0 0 0.3 42 633 52 207 136 200 194 83 
803 -0.22259613012262133 0.05581636320555754 1.0279840830132785 0 0 0 0.44 42 634 148 332 196 401 
804 0.289522958995881 0.09588328677845391 0.9783458220664568 0 0 0 0.17 42 635 136 201 194 84 
805 -0.06551926224332438 0.07030302916983634 0.9946744480373043 0 0 0 0.31 42 636 52 208 85 342 109 119 196 402 
806 0.17847818002542273 0.08757586609435133 0.9815799701287568 0 0 0 0.49 42 637 85 343 91 113 164 246 165 136 
807 0.0679509753997788 0.08427920955379122 0.9875197174874886 0 0 0 0.28 42 638 127 78 164 247 
808 0.28637734696465 0.0998316385828205 0.9772593126067401 0 0 0 0.14 42 639 136 202 194 85 213 151 
809 0.22612118012070967 0.09659687420453268 0.9833206361256354 0 0 0 0.12 42 640 52 209 110 84 148 333 
810 0.271418317592545 0.10213424016593865 0.9799515178925389 0 0 0 0.15 42 641 52 210 148 334 194 86 196 403 
811 0.21905879305097856 0.10161908115883267 0.9799473692914966 0 0 0 0.78 42 642 85 344 109 120 196 404 
812 0.26991927854798026 0.10605311365600094 0.974780697434357 0 0 0 0.53 42 643 127 79 136 203 148 335 196 405 
813 0.10054198316943541 0.09762414170393095 0.9828058991903218 0 0 0 0.2 42 644 85 345 110 85 194 87 
814 0.23294339673948244 0.10936768616010181 0.9744763004740005 0 0 0 0.36 42 645 52 211 107 56 148 336 213 152 
815 -0.061932205903680926 0.09360335828253433 0.9888502364764592 0 0 0 0.42 42 646 52 212 196 406 229 74 
816 0.2764274714878488 0.11423994880887112 0.9734763777447245 0 0 0 0.23 42 647 52 213 105 123 110 86 136 204 196 407 
817 0.248547783656157 0.11288418271234868 0.9769636491837009 0 0 0 0.13 42 648 148 337 194 88 
818 0.04137763149220498 0.1010808410290461 0.9863091312251205 0 0 0 0.33 42 649 127 80 196 408 
819 0.09999070643889438 0.10549769817190337 0.9817704687886546 0 0 0 0.09 42 650 194 89 196 409 
820 0.17786393840998124 0.11117326756947651 0.9775615643158279 0 0 0 0.17 42 651 118 78 165 137 
821 0.01394391037467146 0.10307609582749536 0.991413114432507 0 0 0 0.47 42 652 85 346 148 338 
822 0.06999606192556203 0.10699237186124291 0.9836355533426603 0 0 0 0.47 42 653 136 205 196 410 
823 -0.1812036943624234 0.09750699225450739 1.016751022592938 0 0 0 0.27 42 654 52 214 148 339 196 411 2 105 33 187 44 103 77 211 126 127 164 248 220 51 229 75 
824 0.06456309325778255 0.11090994857749542 0.9813106130729993 0 0 0 0.25 42 655 85 347 194 90 196 412 
825 0.1760129615040033 0.11882828355926471 0.9757003783207464 0 0 0 0.45 42 656 77 212 146 81 164 249 
826 0.09966008051372953 0.12107790986138492 0.9789427940543582 0 0 0 0.09 42 657 194 91 196 413 
827 0.2863144907573609 0.13041925361021506 0.9719907606813952 0 0 0 0.23 42 658 60 126 85 348 148 340 
828 0.10008944636818638 0.12512992457861796 0.9774888592090324 0 0 0 0.16 42 659 107 57 196 414 
829 0.039254965427313444 0.1266859547563433 0.9809606725731158 0 0 0 0.42 42 660 148 341 158 23 196 415 
830 0.14148049900833135 0.13183465994046015 0.9756479611065805 0 0 0 0.28 42 661 194 92 196 416 
831 0.17536030750592674 0.13364395927887815 0.9736836453515992 0 0 0 0.14 42 662 194 93 196 417 
832 0.28616640497705453 0.1384288191778569 0.9702300926781048 0 0 0 0.08 42 663 148 342 194 94 196 418 
833 0.31540510844709757 -0.13254074245699096 1.020685701862793 0 0 0 0.52 42 664 77 213 85 349 107 58 
834 0.3054876005372764 -0.13139338964487027 1.0160812480596715 0 0 0 0.17 42 665 52 215 126 128 136 206 
835 0.20119720218539053 -0.15503871795633573 1.0258195567041335 0 0 0 0.27 42 666 159 133 196 419 
836 0.009689139334168137 -0.19101643540220317 1.0414379455629952 0 0 0 0.1 42 667 61 39 118 79 
837 0.31025461335962534 -0.10354264573078648 1.014543213790018 0 0 0 0.39 42 668 44 104 85 350 
838 0.46071841867041935 -0.06398807547954735 1.03708347617028 0 0 0 0.87 105 124 162 111 196 420 
839 0.3150063593444983 -0.08883957978546178 1.010603896008273 0 0 0 0.36 42 669 85 351 176 65 196 421 213 153 
840 0.30709742549732566 -0.0809874258424039 1.0094640859601447 0 0 0 0.23 42 670 85 352 91 114 165 138 
841 -0.34778756197031296 -0.19327124067215298 0.879424644274829 0 0 0 0.45 42 671 73 72 118 80 196 422 25 45 142 140 232 26 
842 0.2660942922483677 -0.08134090049614015 1.0109489580983169 0 0 0 0.22 42 672 96 61 176 66 164 250 172 46 
843 0.282578167576439 -0.0757988059047059 1.009343593068188 0 0 0 0.48 42 673 43 66 52 216 60 127 109 121 110 87 159 134 165 139 172 47 176 67 
844 0.4471965895304589 -0.04094323821647156 1.0295172634096574 0 0 0 0.39 42 674 107 59 136 207 196 423 
845 -0.011434256131727376 -0.13663440692909873 1.0235929740447536 0 0 0 0.33 42 675 77 214 146 82 2 106 3 68 4 212 11 123 15 56 16 38 17 92 19 220 25 46 26 72 27 165 29 58 33 188 38 44 40 313 43 67 50 47 53 51 63 103 71 86 96 62 97 9 103 13 111 70 142 141 118 81 126 129 127 81 128 13 136 208 147 35 152 9 159 135 162 112 164 251 172 48 176 68 185 102 190 15 196 424 204 40 213 154 217 27 219 13 220 52 221 19 222 24 227 9 232 27 229 76 
846 0.19792498998595007 -0.0793309460168614 1.0130079312044475 0 0 0 0.37 42 676 77 215 85 353 93 59 148 343 162 113 165 140 196 425 3 69 11 124 29 59 38 45 54 69 142 142 118 82 128 14 136 209 219 14 235 17 
847 0.42328690171440775 -0.03252054375814645 1.0161384013075332 0 0 0 0.41 42 677 136 210 196 426 
848 0.43174038669634096 -0.01960936978648675 1.0227400619882663 0 0 0 0.59 85 354 136 211 164 252 
849 -0.05303272958097184 -0.10238245209404385 1.0268234065941637 0 0 0 1.06 42 678 52 217 71 87 172 49 176 69 200 45 9 76 164 253 213 155 229 77 
850 0.3724103548780206 -0.011122209859510101 0.9983621892100054 0 0 0 0.25 42 679 52 218 196 427 
851 0.372198631389749 -0.008615620505742815 0.9989012771781005 0 0 0 0.17 42 680 91 115 196 428 
852 0.3418675681492682 -0.011784986937711883 0.9996714859339825 0 0 0 0.18 42 681 148 344 196 429 
853 0.33575470121930173 -0.011996781435340215 1.000367909880445 0 0 0 0.31 42 682 105 125 159 136 164 254 196 430 
854 0.2430630380118897 -0.023890175953142533 1.0039683225712372 0 0 0 0.24 42 683 63 104 126 130 162 114 163 41 196 431 
855 0.23499794104834185 -0.024916955146719145 1.0072676040367676 0 0 0 0.26 42 684 148 345 194 95 
856 0.26784980985746754 -0.01226102576522295 1.002641055900472 0 0 0 0.21 42 685 148 346 165 141 
857 0.22413850113806638 -0.013964562480517773 1.002330186067242 0 0 0 0.17 42 686 96 63 127 82 159 137 
858 0.4039799681681552 0.015103013819457667 1.0006033615963956 0 0 0 0.19 42 687 91 116 136 212 148 347 
859 0.20087306600931323 -0.01335237319641326 1.0041147268121697 0 0 0 0.14 42 688 126 131 176 70 
860 0.41380368809006907 0.020037879211377122 1.0045350568639646 0 0 0 0.19 60 128 107 60 184 51 
861 0.42765103300836455 0.021745850831265054 1.0117889653307819 0 0 0 0.55 60 129 85 355 110 88 136 213 164 255 
862 0.20803011631380913 0.0025324368934403685 1.0000810802165065 0 0 0 0.34 42 689 126 132 159 138 194 96 
863 0.38747048870518275 0.029723009433337687 0.9901894231172249 0 0 0 0.12 42 690 136 214 148 348 196 432 
864 0.19257289767936345 0.004637616222094873 1.0038191978807998 0 0 0 0.4 42 691 54 70 71 88 136 215 194 97 
865 0.4364271379147232 0.03904126825779849 1.0097714650689809 0 0 0 0.24 42 692 110 89 136 216 
866 0.17306422562562973 0.0022078298476000194 1.0000133767233843 0 0 0 0.37 42 693 159 139 196 433 
867 0.4172487582529539 0.05059796266945554 0.9988828445019778 0 0 0 0.34 105 126 136 217 184 52 196 434 
868 0.2794159224036371 0.036821255975105764 0.9865999358818319 0 0 0 0.28 42 694 85 356 109 122 
869 0.28795550300394307 0.049590780734002936 0.9832322574891929 0 0 0 0.34 42 695 148 349 196 435 
870 0.32755744271047893 0.05600162218369899 0.9823468164079219 0 0 0 0.4 42 696 196 436 213 156 
871 -0.4113752223820971 -0.028977574819213838 1.0760020899647942 0 0 0 0.87 42 697 52 219 109 123 40 314 142 143 159 140 229 78 
872 0.25477217242476896 0.049645892227759766 0.9849803992623333 0 0 0 0.16 42 698 148 350 196 437 
873 0.3709391102961728 0.06296235720401204 0.9803336844805185 0 0 0 0.47 42 699 148 351 164 256 165 142 196 438 
874 0.27036515385521415 0.0618879991283076 0.983872008272692 0 0 0 0.27 42 700 148 352 194 98 
875 0.2464079690935915 0.06371622264893238 0.9827769468990897 0 0 0 0.33 42 701 85 357 148 353 164 257 
876 0.2115022081184058 0.06093059308979522 0.9831570348338218 0 0 0 0.26 42 702 52 220 85 358 194 99 126 133 148 354 176 71 
877 -0.3467950896976828 0.016265641383001878 1.0583184395177847 0 0 0 0.28 42 703 52 221 126 134 
878 0.07755132465356235 0.0645335197348109 0.9894163875574867 0 0 0 0.46 42 704 43 68 148 355 194 100 196 439 
879 0.4145816717457104 0.10009071566117005 0.9916660662325871 0 0 0 0.35 136 218 148 356 164 258 
880 0.3455796453529333 0.0964215500180244 0.9752436620306815 0 0 0 0.42 42 705 136 219 148 357 213 157 
881 0.29184321470141844 0.09413527755136597 0.9775521520142728 0 0 0 0.27 42 706 148 358 194 101 
882 -0.154509010501363 0.06140755672430931 1.0137845496397673 0 0 0 0.37 42 707 126 135 148 359 
883 0.22899948525583944 0.09055214567440845 0.9878956918976383 0 0 0 0.09 42 708 85 359 107 61 
884 0.3090586197375277 0.10131931763201224 0.9775466452165568 0 0 0 0.48 42 709 85 360 148 360 194 102 196 440 
885 0.25553143249294513 0.10021952585774445 0.9784433707094861 0 0 0 0.38 42 710 105 127 148 361 194 103 196 441 
886 0.265045446485205 0.10582737496334593 0.9743505932940324 0 0 0 0.17 42 711 148 362 194 104 196 442 
887 0.2508731708679303 0.11486149121399834 0.9754183731215015 0 0 0 0.35 42 712 194 105 196 443 
888 -0.003977210014826963 0.10418055070903051 0.9877109280881414 0 0 0 0.48 42 713 93 60 196 444 4 213 15 57 25 47 27 166 52 222 85 361 92 86 109 124 110 90 111 71 142 144 146 83 164 259 214 13 223 17 229 79 
889 -0.22062344110823587 0.09705000666761032 1.0235101304416023 0 0 0 0.43 42 714 52 223 196 445 17 93 27 167 43 69 71 89 142 145 126 136 
890 -0.19216571924663134 0.10540942320296932 1.0103577317860588 0 0 0 0.36 42 715 52 224 148 363 196 446 229 80 
891 0.28592977824463256 0.1353334592512007 0.9710327313006915 0 0 0 0.25 42 716 52 225 60 130 85 362 148 364 194 106 
892 0.3259697298035988 0.1437630254518921 0.9695404280312321 0 0 0 0.33 42 717 91 117 164 260 
893 0.3773578615903058 -0.0826028556092105 1.0090970952451865 0 0 0 0.53 42 718 54 71 110 91 
894 0.32989506446090544 -0.05404109733650997 1.0082572152790443 0 0 0 0.41 42 719 52 226 105 128 126 137 
895 0.43969111417875134 -0.026595472063787283 1.0265149393560624 0 0 0 0.26 85 363 136 220 162 115 
896 0.10385430970563578 -0.07362028798987139 1.013076918260107 0 0 0 0.37 42 720 91 118 185 103 
897 0.37914947030963536 -0.008374671164026333 0.9961424321906076 0 0 0 0.21 42 721 136 221 148 365 
898 0.3453987245754498 -0.008884232342583398 0.9985524071146615 0 0 0 0.22 42 722 91 119 148 366 196 447 
899 -0.33329373512663996 -0.11823862952597046 1.0841164781394637 0 0 0 0.45 42 723 85 364 196 448 109 125 142 146 
900 0.4420300090525446 0.0232233149967434 1.0167275198803365 0 0 0 0.57 107 62 136 222 163 42 164 261 
