# 3D point list with one line of data per point:
#   POINT3D_ID, X, Y, Z, R, G, B, ERROR, TRACK[] as (IMAGE_ID, POINT2D_IDX)
# Number of points: 351, mean track length: 6.66
1589 -0.4366346049964478 0.24125866112453503 0.8568612528793169 0 0 0 0.21 18 1554 154 281 171 596 173 190 180 578 193 328 218 197 
1590 -0.3909811520005911 0.23147090343238688 0.857229060190402 0 0 0 0.26 18 1555 58 120 86 123 151 241 154 282 166 185 171 597 173 191 180 579 193 329 211 106 218 198 228 155 
1591 -0.2573318351506328 0.17905979239168535 0.8075336359618497 0 0 0 0.27 18 1556 72 213 99 288 102 143 140 209 166 186 180 580 193 330 218 199 
1592 -0.234132961809406 0.1710272546778398 0.8014385025222014 0 0 0 0.19 18 1557 58 121 72 214 140 210 171 598 180 581 226 158 
1593 -0.12209397939032302 0.11094608560376308 0.724531340402285 0 0 0 0.13 18 1558 125 153 140 211 
1594 -0.1132588493265077 0.11834106207354679 0.7442801098729401 0 0 0 0.34 18 1559 23 292 72 215 86 124 145 37 171 599 177 112 218 200 
1595 -0.4001004843993595 0.27638982337846374 0.9459647102179108 0 0 0 0.35 18 1560 58 122 151 242 171 600 180 582 211 107 228 156 
1596 -0.12546655412059726 0.11182669944346103 0.7204153770585825 0 0 0 0.18 18 1561 46 91 99 289 102 144 116 315 125 154 149 374 151 243 171 601 193 331 210 245 211 108 
1597 -0.38847779641959523 0.2320006452009365 0.8541669152760639 0 0 0 0.43 18 1562 86 125 153 135 154 283 226 159 
1598 -0.37902302569528395 0.22868914298517184 0.8491598714570109 0 0 0 0.24 18 1563 143 36 166 187 180 583 
1599 -0.3714542997428643 0.22705117973119293 0.8488882101658708 0 0 0 0.16 18 1564 116 316 154 284 
1600 -0.3631038375342061 0.22337219503930977 0.8443626948619348 0 0 0 0.16 18 1565 72 216 151 244 154 285 
1601 -0.3640119006897445 0.22337163286658368 0.8439896002494611 0 0 0 0.09 18 1566 58 123 72 217 
1602 -0.173247828901251 0.15032218506134187 0.7743042569588379 0 0 0 0.13 18 1567 143 37 171 602 
1603 -0.11217078291645864 0.12211073975591402 0.7413962817299498 0 0 0 0.2 18 1568 23 293 99 290 116 317 145 38 151 245 166 188 171 603 183 41 205 79 210 246 
1604 -0.35577064413533893 0.21985635434608047 0.8361254457540855 0 0 0 0.18 18 1569 23 294 45 15 58 124 72 218 116 318 145 39 151 246 153 136 154 286 171 604 183 42 193 332 216 165 218 201 228 157 
1605 -0.37259750528543584 0.2294370660394671 0.8474371534246689 0 0 0 0.26 18 1570 23 295 58 125 116 319 125 155 166 189 171 605 180 584 193 333 218 202 228 158 
1606 -0.15193836822362772 0.14231946647133212 0.7606099800142505 0 0 0 0.27 18 1571 102 145 171 606 173 192 180 585 
1607 -0.3853230027381184 0.23487964420766855 0.8518966224708989 0 0 0 0.26 18 1572 23 296 86 126 102 146 116 320 125 156 151 247 153 137 154 287 173 193 180 586 193 334 215 26 216 166 218 203 226 160 228 159 
1608 -0.38489392413473866 0.23485595880485652 0.8520356730075452 0 0 0 0.25 18 1573 37 71 46 92 58 126 86 127 116 321 125 157 139 32 143 38 151 248 154 288 171 607 180 587 215 27 226 161 228 160 
1609 -0.4219124380074555 0.2722908170187128 0.9110423000889776 0 0 0 0.53 18 1574 166 190 171 608 180 588 
1610 -0.396832771162283 0.2408083726347507 0.853448377051516 0 0 0 0.36 18 1575 46 93 102 147 125 158 144 32 151 249 154 289 166 191 171 609 180 589 215 28 216 167 
1611 -0.3951792759522952 0.2408857908357646 0.8543261674490413 0 0 0 0.22 18 1576 34 79 58 127 86 128 102 148 125 159 143 39 144 33 151 250 166 192 171 610 180 590 
1612 -0.3701256573812161 0.2317526000980118 0.8449728466332755 0 0 0 0.25 18 1577 23 297 37 72 46 94 51 18 57 34 72 219 116 322 125 160 145 40 151 251 153 138 154 290 166 193 171 611 180 591 193 335 216 168 228 161 
1613 -0.1221954698579612 0.11699454378086273 0.7073561116090671 0 0 0 0.25 18 1578 86 129 171 612 180 592 
1614 -0.32908282414389695 0.21678196875770694 0.8287000850449682 0 0 0 0.04 18 1579 23 298 72 220 
1615 -0.20372942563668867 0.17069085533051845 0.7816015932122342 0 0 0 0.34 18 1580 99 291 171 613 177 113 180 593 
1616 -0.07044774300061753 0.09858430699018991 0.6858370698144794 0 0 0 0.17 18 1581 171 614 210 247 
1617 -0.1221535931659953 0.12011383324863009 0.7092269828960848 0 0 0 0.27 18 1582 23 299 94 372 99 292 102 149 149 375 154 291 171 615 173 194 180 594 193 336 218 204 
1618 -0.40847649436411315 0.2818497268025909 0.9294224785016861 0 0 0 0.47 18 1583 171 616 180 595 
1619 -0.336882731864918 0.22098924380512674 0.8301840904911139 0 0 0 0.1 18 1584 180 596 218 205 
1620 -0.34876183344716205 0.225635167029991 0.8311365692236644 0 0 0 0.14 18 1585 178 23 180 597 
1621 -0.4495935291423686 0.2590719827755587 0.8609897082117779 0 0 0 0.28 18 1586 58 128 166 194 171 617 228 162 
1622 -0.33363304897294793 0.22155309960281713 0.827711953031025 0 0 0 0.86 18 1587 173 195 180 598 215 29 
1623 -0.07553545427134561 0.10798816648666262 0.6935066700486375 0 0 0 0.46 18 1588 94 373 151 252 171 618 177 114 215 30 
1624 0.07487409302189833 0.061843233521746206 0.6571543957837201 0 0 0 0.15 18 1589 102 150 210 248 
1625 -0.40025729395323856 0.24863761112432894 0.8555467652784496 0 0 0 0.21 18 1590 37 73 46 95 58 129 116 323 125 161 171 619 173 196 186 41 
1626 -0.24780291743439373 0.18992321682144828 0.7926389460763412 0 0 0 0.31 18 1591 59 40 171 620 202 18 
1627 -0.07597014860068922 0.10617467220926294 0.6853872972398846 0 0 0 0.22 18 1592 72 221 102 151 
1628 -0.07503132469941218 0.10601632894527825 0.685399704607115 0 0 0 0.25 18 1593 72 222 99 293 102 152 
1629 -0.3272998099159854 0.22089232986997492 0.8241148680378952 0 0 0 0.31 18 1594 23 300 55 35 125 162 139 33 151 253 153 139 154 292 173 197 180 599 183 43 193 337 218 206 
1630 -0.4190266194494814 0.281308512976967 0.9154320137578411 0 0 0 0.39 18 1595 125 163 171 621 180 600 
1631 -0.41972915167441516 0.28118350161236 0.9148902766571891 0 0 0 0.36 18 1596 125 164 171 622 
1632 0.09099662662174621 0.05899004510954307 0.6495648492872156 0 0 0 0.19 18 1597 99 294 210 249 
1633 -0.0344068947500357 0.09508726871818565 0.6741009359973245 0 0 0 0.18 18 1598 23 301 37 74 46 96 59 41 72 223 94 374 102 153 116 324 119 9 122 83 125 165 139 34 140 212 150 36 151 254 171 623 173 198 177 115 180 601 189 12 191 8 193 338 210 250 211 109 212 42 216 169 218 207 226 162 233 63 
1634 0.15782658522246543 0.03455768514479022 0.618184052930022 0 0 0 0.29 18 1599 23 302 59 42 116 325 122 84 140 213 149 376 151 255 173 199 180 602 193 339 216 170 218 208 233 64 
1635 -0.39087219027612935 0.24606914281004674 0.8480421854220568 0 0 0 0.19 18 1600 34 80 51 19 57 35 58 130 116 326 119 10 139 35 143 40 144 34 151 256 153 140 166 195 180 603 193 340 211 110 216 171 218 209 228 163 
1636 -0.36787073538177884 0.23837473215335442 0.8390485781126968 0 0 0 0.29 18 1601 23 303 51 20 72 224 171 624 173 200 180 604 193 341 215 31 228 164 
1637 -0.368288082104889 0.2383970562031151 0.8389831062560703 0 0 0 0.2 18 1602 23 304 55 36 58 131 72 225 125 166 144 35 154 293 166 196 171 625 173 201 193 342 226 163 228 165 
1638 -0.39500382324800537 0.24939604573651292 0.8508996530378841 0 0 0 0.23 18 1603 37 75 46 97 116 327 151 257 153 141 186 42 193 343 216 172 228 166 
1639 -0.17260947803521562 0.16365468364364266 0.7568416303737625 0 0 0 0.15 18 1604 23 305 30 40 57 36 72 226 99 295 102 154 153 142 171 626 180 605 211 111 
1640 -0.4065144356095872 0.29332644152008264 0.9388735645329785 0 0 0 0.54 18 1605 151 258 154 294 166 197 180 606 
1641 -0.0753425405237476 0.11355688084584259 0.6887315820046586 0 0 0 0.35 18 1606 34 81 47 92 94 375 102 155 125 167 140 214 171 627 173 202 177 116 180 607 210 251 218 210 
1642 -0.3630597449947195 0.23746262450907304 0.8360952937059078 0 0 0 0.16 18 1607 23 306 72 227 143 41 153 143 154 295 171 628 173 203 180 608 193 344 218 211 
1643 -0.362967618171296 0.23749976657282187 0.8361431448677333 0 0 0 0.21 18 1608 23 307 58 132 72 228 86 130 102 156 116 328 139 36 151 259 153 144 154 296 161 90 171 629 180 609 193 345 216 173 218 212 228 167 
1644 -0.3990022534583758 0.2533120152469295 0.8542098595402842 0 0 0 0.05 18 1609 116 329 143 42 151 260 171 630 
1645 -0.3982805144091344 0.25330190256418644 0.8543889065406065 0 0 0 0.21 18 1610 102 157 153 145 
1646 0.1637346353101719 0.03476378736730147 0.610320579161077 0 0 0 0.23 18 1611 99 296 149 377 218 213 
1647 -0.37164576483650974 0.2431996363680531 0.8414163705107034 0 0 0 0.25 18 1612 23 308 58 133 86 131 116 330 125 168 154 297 166 198 173 204 211 112 216 174 
1648 -0.3637677100975781 0.24000718580920335 0.8368656281715526 0 0 0 0.24 18 1613 23 309 34 82 37 76 72 229 102 158 116 331 143 43 153 146 161 91 180 610 216 175 218 214 226 164 228 168 
1649 -0.39127528562221603 0.2519276192706486 0.8509110400039589 0 0 0 0.33 18 1614 37 77 46 98 72 230 116 332 143 44 180 611 218 215 228 169 
1650 0.19801937581283877 0.028150053812675966 0.5984769794153534 0 0 0 0.26 18 1615 99 297 149 378 
1651 0.22073205815721136 0.01143319752326888 0.572288192406163 0 0 0 0.26 18 1616 23 310 34 83 37 78 45 16 46 99 55 37 59 43 86 132 94 376 99 298 102 159 122 85 125 169 137 5 140 215 144 36 149 379 150 37 151 261 166 199 173 205 177 117 180 612 191 9 193 346 210 252 211 113 212 43 216 176 218 216 228 170 233 65 
1652 -0.11889357276701591 0.14264916560347696 0.7203551375020623 0 0 0 0.08 18 1617 99 299 171 631 
1653 -0.36322684491559315 0.2407108579626004 0.8334985285547938 0 0 0 0.28 18 1618 23 311 58 134 102 160 116 333 151 262 153 147 154 298 180 613 193 347 215 32 216 177 218 217 228 171 
1654 -0.27938341313308185 0.20963911438595006 0.7986081569941607 0 0 0 0.21 18 1619 72 231 173 206 
1655 -0.2790337963464572 0.2096967819968663 0.7986631920676048 0 0 0 0.35 18 1620 166 200 218 218 
1656 -0.44944063507642223 0.2673291951284181 0.8574912737705968 0 0 0 0.22 18 1621 102 161 166 201 
1657 -0.4496121039060857 0.26725340467743636 0.8574601945434489 0 0 0 0.24 18 1622 102 162 166 202 171 632 180 614 
1658 -0.0766352667278832 0.12067504881094407 0.6847205761540213 0 0 0 0.17 18 1623 102 163 173 207 193 348 
1659 -0.07646320502316518 0.12086721172890771 0.6847756255462603 0 0 0 0.28 18 1624 72 232 102 164 171 633 173 208 210 253 
1660 -0.14219175123289718 0.16123473747775952 0.7446880978180821 0 0 0 0.15 18 1625 99 300 171 634 
1661 -0.12460984975198364 0.13932835631662796 0.7061156889077864 0 0 0 0.25 18 1626 30 41 34 84 46 100 55 38 57 37 72 233 86 133 94 377 99 301 102 165 116 334 119 11 125 170 131 23 132 14 139 37 140 216 143 45 144 37 149 380 151 263 154 299 166 203 171 635 173 209 177 118 183 44 186 43 193 349 205 80 210 254 211 114 212 44 215 33 216 178 218 219 226 165 228 172 233 66 
1662 -0.1077064151401854 0.13251615777155978 0.6976762467879326 0 0 0 0.31 18 1627 99 302 171 636 210 255 
1663 -0.029455495242937783 0.10307164021055755 0.6614561801648597 0 0 0 0.26 18 1628 72 234 102 166 140 217 150 38 151 264 154 300 173 210 178 24 193 350 202 19 228 173 
1664 -0.3367573286428662 0.23455878905714142 0.8245950149062643 0 0 0 0.45 18 1629 58 135 72 235 119 12 125 171 143 46 151 265 153 148 154 301 166 204 171 637 211 115 215 34 228 174 
1665 -0.34242357148888003 0.23682322138514514 0.8245917283092816 0 0 0 0.31 18 1630 23 312 34 85 51 21 55 39 58 136 72 236 86 134 102 167 116 335 125 172 139 38 143 47 144 38 151 266 153 149 154 302 166 205 171 638 173 211 180 615 183 45 193 351 211 116 212 45 215 35 216 179 218 220 226 166 228 175 
1666 -0.3115521459966867 0.22438521755477772 0.8089603455130603 0 0 0 0.33 18 1631 23 313 72 237 153 150 173 212 180 616 218 221 
1667 -0.31177252609809714 0.2243587597723792 0.8089212556589337 0 0 0 0.4 18 1632 23 314 180 617 218 222 
1668 -0.24155995455969786 0.2004728311549987 0.7831244461997481 0 0 0 0.19 18 1633 116 336 233 67 
1669 -0.36510878463568053 0.2465923565466936 0.8363623742016861 0 0 0 0.24 18 1634 125 173 143 48 154 303 166 206 180 618 
1670 -0.3652715100711671 0.24654896044750507 0.8364700888793168 0 0 0 0.16 18 1635 116 337 151 267 
1671 0.1466240536510031 0.05636203121288485 0.6180149198759325 0 0 0 0.31 18 1636 99 303 210 256 
1672 -0.11423676754449043 0.15625552693790845 0.7350846476913089 0 0 0 0.34 18 1637 23 315 37 79 99 304 102 168 116 338 119 13 140 218 149 381 171 639 193 352 
1673 0.20280846681472026 0.03562980337837823 0.5940831461937239 0 0 0 0.15 18 1638 131 24 143 49 178 25 189 13 210 257 216 180 218 223 
1674 0.22684388317760168 0.020535545971736267 0.5696086614992392 0 0 0 0.53 18 1639 45 17 55 40 149 382 151 268 193 353 210 258 233 68 
1675 -0.07946481757346494 0.129604622625359 0.6897402319842614 0 0 0 0.31 18 1640 72 238 102 169 171 640 
1676 -0.3382514205145601 0.23583807178581168 0.82048654162933 0 0 0 0.31 18 1641 116 339 125 174 131 25 143 50 153 151 166 207 183 46 193 354 218 224 228 176 
1677 -0.2785441249214903 0.2153906058075783 0.7972808976461233 0 0 0 0.24 18 1642 37 80 58 137 86 135 125 175 151 269 154 304 166 208 171 641 193 355 218 225 228 177 
1678 0.2277786987881757 0.01683376352903375 0.5595611903823687 0 0 0 0.29 18 1643 23 316 102 170 122 86 
1679 -0.2266618331964094 0.19612744055260697 0.7724653892559422 0 0 0 0.22 18 1644 23 317 72 239 153 152 171 642 173 213 225 11 
1680 0.22559850143178561 0.025858240914012304 0.5703599796170822 0 0 0 0.48 18 1645 34 86 37 81 46 101 47 93 59 44 122 87 149 383 150 39 151 270 171 643 180 619 193 356 211 117 228 178 
1681 0.22414781951549057 0.022329504727125093 0.56231628627783 0 0 0 0.25 18 1646 99 305 102 171 149 384 210 259 
1682 -0.07794958718899395 0.13245518673912812 0.6885310721044717 0 0 0 0.14 18 1647 72 240 171 644 210 260 
1683 -0.4485428300355657 0.2763389800868416 0.8601159775048012 0 0 0 0.22 18 1648 171 645 180 620 
1684 -0.2401744288641841 0.20542319529779848 0.779689547038134 0 0 0 0.27 18 1649 140 219 173 214 228 179 
1685 -0.20728891006766695 0.19400093883937453 0.7669415959312069 0 0 0 0.28 18 1650 102 172 140 220 226 167 
1686 -0.17139494364568014 0.17790007813492134 0.7458026148626938 0 0 0 0.23 18 1651 34 87 37 82 86 136 94 378 99 306 116 340 125 176 140 221 143 51 145 41 151 271 161 92 166 209 171 646 180 621 210 261 211 118 216 181 226 168 228 180 
1687 -0.2726114891847602 0.21639966781179545 0.7918642579827299 0 0 0 0.23 18 1652 37 83 151 272 180 622 218 226 
1688 -0.27237563181356145 0.21637425933372262 0.7919787657579843 0 0 0 0.2 18 1653 37 84 86 137 151 273 180 623 183 47 
1689 -0.23612647519086905 0.20222699973417604 0.773849354960093 0 0 0 0.24 18 1654 23 318 30 42 55 41 58 138 72 241 94 379 99 307 102 173 116 341 119 14 140 222 153 153 161 93 166 210 171 647 173 215 178 26 180 624 193 357 216 182 218 227 226 169 228 181 
1690 0.20128097314457488 0.0453726629266125 0.5885808614357309 0 0 0 0.25 18 1655 99 308 210 262 
1691 -0.3080423093241698 0.23013771503395195 0.8069331261763967 0 0 0 0.19 18 1656 23 319 59 45 143 52 153 154 173 216 178 27 180 625 218 228 
1692 -0.20041856637129032 0.19287511329041815 0.7633023352399437 0 0 0 0.24 18 1657 72 242 132 15 149 385 151 274 153 155 166 211 193 358 202 20 211 119 216 183 226 170 228 182 
1693 -0.19729907497194402 0.19156918745285442 0.7589678203475113 0 0 0 0.07 18 1658 99 309 171 648 
1694 -0.3963436659980341 0.2657904123593551 0.8493350313670914 0 0 0 0.34 18 1659 153 156 171 649 
1695 -0.3814292863228506 0.2586838734804698 0.8378847190312505 0 0 0 0.17 18 1660 23 320 131 26 173 217 180 626 218 229 
1696 -0.2545646340028103 0.21343563417400915 0.7836572250821744 0 0 0 0.3 18 1661 23 321 72 243 86 138 94 380 102 174 116 342 119 15 125 177 132 16 137 6 140 223 143 53 151 275 153 157 154 305 161 94 166 212 171 650 173 218 177 119 180 627 183 48 193 359 215 36 216 184 218 230 226 171 
1697 -0.18443951365823674 0.18996012231215467 0.7563498173083609 0 0 0 0.11 18 1662 72 244 180 628 
1698 0.07498562718267852 0.09569453832566475 0.6443631404993677 0 0 0 0.22 18 1663 102 175 171 651 210 263 
1699 -0.21337401853202703 0.199696633322101 0.7670955420015819 0 0 0 0.16 18 1664 23 322 171 652 
1700 -0.023235786902464188 0.11455240593226408 0.6513944976554522 0 0 0 0.2 18 1665 34 88 46 102 72 245 94 381 102 176 116 343 140 224 144 39 149 386 154 306 177 120 216 185 218 231 226 172 
1701 -0.30482403109613004 0.23234077189658847 0.8054326341500557 0 0 0 0.23 18 1666 23 323 140 225 151 276 154 307 166 213 171 653 173 219 180 629 218 232 226 173 
1702 -0.24167259739495664 0.21012121301750622 0.7766919615059057 0 0 0 0.14 18 1667 23 324 72 246 102 177 166 214 171 654 
1703 -0.24162666798398297 0.21017541018099425 0.7766505840801049 0 0 0 0.19 18 1668 23 325 72 247 102 178 140 226 166 215 171 655 180 630 
1704 -0.17375701110111577 0.18505072916124077 0.7453281764676232 0 0 0 0.15 18 1669 72 248 102 179 171 656 215 37 
1705 -0.07670872659071117 0.1387006204234237 0.6790601959430171 0 0 0 0.37 18 1670 37 85 57 38 94 382 102 180 116 344 122 88 140 227 144 40 151 277 166 216 180 631 193 360 211 120 
1706 -0.07660840777459324 0.13836147280575725 0.6792369671591311 0 0 0 0.13 18 1671 57 39 116 345 
1707 -0.20073434880288435 0.19782136220576668 0.7590046854531147 0 0 0 0.36 18 1672 55 42 125 178 180 632 216 186 
1708 -0.04125418453445701 0.12843060679934235 0.6654019813006198 0 0 0 0.41 18 1673 102 181 171 657 
1709 -0.3509176965799346 0.24875990995373415 0.8184936010106616 0 0 0 0.25 18 1674 23 326 153 158 173 220 180 633 
1710 -0.1900285093578459 0.19506478616610268 0.755962062288689 0 0 0 0.35 18 1675 59 46 171 658 225 12 
1711 -0.03476260573023511 0.12384692893342059 0.6571137993263338 0 0 0 0.32 18 1676 72 249 102 182 
1712 -0.031427601875757036 0.12313850364036819 0.6571645487133151 0 0 0 0.46 18 1677 30 43 37 86 94 383 99 310 102 183 149 387 150 40 171 659 210 264 225 13 233 69 
1713 -0.02468279670826744 0.11958185621162946 0.6512624111900779 0 0 0 0.4 18 1678 99 311 102 184 122 89 150 41 
1714 -0.40303843237883796 0.27053085058623655 0.846822693263466 0 0 0 0.53 18 1679 102 185 153 159 173 221 
1715 -0.2696860782388341 0.22242101423245433 0.7875046093186526 0 0 0 0.31 18 1680 23 327 30 44 58 139 72 250 86 139 99 312 102 186 143 54 153 160 166 217 171 660 173 222 180 634 193 361 215 38 
1716 -0.24978718748237597 0.21560266897378724 0.7786326687575241 0 0 0 0.3 18 1681 102 187 153 161 
1717 -0.25828585923457614 0.2207708335075827 0.7846511075613853 0 0 0 0.29 18 1682 59 47 72 251 144 41 154 308 180 635 
1718 0.2131950398650337 0.05554169091505137 0.578157030129643 0 0 0 0.34 18 1683 94 384 102 188 166 218 171 661 210 265 
1719 -0.14093031895906277 0.1810058197766129 0.7322020132028303 0 0 0 0.13 18 1684 23 328 72 252 94 385 125 179 140 228 145 42 171 662 177 121 189 14 210 266 216 187 
1720 -0.14130871729749392 0.18108052030645289 0.7320910599065483 0 0 0 0.19 18 1685 72 253 210 267 218 233 
1721 -0.32964818256733663 0.2487877149988691 0.8158936050085255 0 0 0 0.2 18 1686 171 663 180 636 
1722 -0.2977508185735295 0.23368951516968767 0.7948860437232331 0 0 0 0.31 18 1687 72 254 171 664 
1723 -0.027194496909339262 0.12890673290141336 0.652168426678499 0 0 0 0.41 18 1688 34 89 45 18 47 94 57 40 59 48 72 255 94 386 99 313 102 189 116 346 122 90 125 180 139 39 140 229 143 55 149 388 150 42 151 278 154 309 166 219 173 223 177 122 180 637 193 362 202 21 211 121 215 39 226 174 228 183 
1724 -0.027064571541392458 0.12885337294798008 0.6521639119018372 0 0 0 0.42 18 1689 34 90 37 87 46 103 47 95 57 41 59 49 72 256 86 140 94 387 99 314 102 190 116 347 122 91 125 181 139 40 140 230 143 56 149 389 150 43 151 279 154 310 166 220 171 665 173 224 177 123 180 638 183 49 189 15 193 363 202 22 210 268 211 122 212 46 215 40 226 175 228 184 233 70 
1725 -0.3216858824451907 0.2457481678714635 0.8087062090923921 0 0 0 0.63 18 1690 166 221 180 639 
1726 -0.18090092192176283 0.19437360484243957 0.7430977360831178 0 0 0 0.43 18 1691 23 329 161 95 205 81 
1727 -0.32567320940401373 0.249193816507933 0.8119697947885417 0 0 0 0.17 18 1692 102 191 151 280 180 640 228 185 
1728 -0.20055786408006304 0.20533038796824896 0.7557436083561734 0 0 0 0.36 18 1693 23 330 34 91 55 43 72 257 86 141 94 388 102 192 131 27 132 17 137 7 140 231 144 42 145 43 149 390 151 281 153 162 154 311 161 96 166 222 171 666 173 225 178 28 180 641 183 50 193 364 205 82 212 47 215 41 216 188 218 234 226 176 228 186 
1729 -0.13698485929786033 0.18454093746727937 0.7294085007381401 0 0 0 0.15 18 1694 23 331 72 258 151 282 171 667 
1730 -0.11780418656670706 0.1774567586549429 0.7211518344481653 0 0 0 0.13 18 1695 59 50 180 642 
1731 -0.1276460010878442 0.16772085989948385 0.6977194748298607 0 0 0 0.34 18 1696 30 45 57 42 94 389 99 315 140 232 154 312 171 668 173 226 177 124 205 83 216 189 218 235 226 177 233 71 
1732 -0.2976053342389673 0.2388308231795555 0.7941577502014516 0 0 0 0.28 18 1697 23 332 37 88 116 348 140 233 149 391 151 283 153 163 161 97 166 223 171 669 173 227 180 643 193 365 205 84 211 123 216 190 226 178 228 187 
1733 -0.11456155981028943 0.1743396673194851 0.7102351768993319 0 0 0 0.33 18 1698 23 333 72 259 99 316 102 193 171 670 173 228 177 125 
1734 -0.10693964648665522 0.16087380102436788 0.6844238973964749 0 0 0 0.2 18 1699 99 317 171 671 180 644 
1735 -0.20789606373254282 0.21111217102948268 0.7578579689955502 0 0 0 0.44 18 1700 34 92 37 89 55 44 86 142 99 318 116 349 119 16 137 8 144 43 145 44 149 392 151 284 153 164 171 672 193 366 212 48 216 191 218 236 226 179 
1736 -0.11502230442404653 0.1790604819891241 0.7171664545844254 0 0 0 0.27 18 1701 23 334 55 45 57 43 102 194 116 350 140 234 143 57 144 44 149 393 154 313 161 98 171 673 177 126 205 85 215 42 228 188 
1737 -0.20267115775555 0.20889963813840998 0.7541919777812622 0 0 0 0.22 18 1702 34 93 86 143 171 674 
1738 -0.29958741876600076 0.24081629011696526 0.7912243948398354 0 0 0 0.29 18 1703 23 335 51 22 72 260 102 195 153 165 161 99 171 675 173 229 180 645 193 367 218 237 
1739 -0.29932731682944325 0.24079006938053452 0.7913288364252397 0 0 0 0.26 18 1704 23 336 58 140 72 261 102 196 140 235 153 166 161 100 171 676 173 230 180 646 193 368 211 124 226 180 
1740 -0.12811429299700716 0.169729855757973 0.691501203195727 0 0 0 0.21 18 1705 23 337 34 94 72 262 86 144 99 319 102 197 125 182 140 236 145 45 149 394 161 101 171 677 173 231 177 127 180 647 193 369 205 86 211 125 216 192 218 238 226 181 228 189 233 72 
1741 -0.3113534284763061 0.25022058190853924 0.8065500531955152 0 0 0 0.16 18 1706 171 678 180 648 
1742 -0.082917863100341 0.15670279701249226 0.6729866782830042 0 0 0 0.23 18 1707 34 95 72 263 99 320 122 92 151 285 171 679 210 269 
1743 -0.3008577357650023 0.24370968285788308 0.791695490476628 0 0 0 0.26 18 1708 23 338 55 46 72 264 102 198 137 9 153 167 171 680 173 232 180 649 
1744 -0.3608712858495265 0.26444864658287826 0.8166123899263752 0 0 0 0.32 18 1709 23 339 34 96 55 47 72 265 137 10 143 58 144 45 153 168 215 43 
1745 -0.19684121229749404 0.2119255146175321 0.7493957377320328 0 0 0 0.29 18 1710 23 340 55 48 72 266 102 199 119 17 140 237 153 169 171 681 177 128 180 650 215 44 218 239 
1746 0.15799863071045162 0.09222311726619478 0.5914406830955989 0 0 0 0.1 18 1711 116 351 171 682 
1747 -0.26207875963473226 0.23558281736879924 0.7777989761579422 0 0 0 0.26 18 1712 59 51 166 224 171 683 173 233 
1748 -0.44688084114971766 0.2858836637149553 0.8355095528575677 0 0 0 0.17 18 1713 171 684 180 651 
1749 -0.44688084114971766 0.2858836637149553 0.8355095528575677 0 0 0 0.17 18 1714 171 685 180 652 
1750 -0.2629650334830935 0.2401330536007213 0.7781124141128752 0 0 0 0.31 18 1715 99 321 102 200 171 686 
1751 -0.20436545403026224 0.22080847462970216 0.7532926618188415 0 0 0 0.3 18 1716 99 322 116 352 149 395 151 286 171 687 177 129 218 240 
1752 -0.042178742013341056 0.15279329176750647 0.6503074908711399 0 0 0 0.21 18 1717 94 390 99 323 102 201 166 225 173 234 177 130 210 270 
1753 -0.1503185226770305 0.202880375197801 0.7259772156674346 0 0 0 0.12 18 1718 171 688 180 653 
1754 -0.11626753816193383 0.190780611755776 0.7084731238772968 0 0 0 0.14 18 1719 102 202 171 689 
1755 0.2307761773257952 0.06946833026584438 0.5343066640566334 0 0 0 0.31 18 1720 99 324 171 690 
1756 -0.13623642710888081 0.20027958869647008 0.7187286494811356 0 0 0 0.27 18 1721 23 341 94 391 116 353 119 18 143 59 145 46 149 396 151 287 177 131 183 51 211 126 215 45 218 241 226 182 
1757 0.22087075809194068 0.07573737196748172 0.5417150277894324 0 0 0 0.43 72 267 99 325 122 93 140 238 149 397 166 226 171 691 180 654 226 183 
1758 -0.2634538290522721 0.2426532623893499 0.7749615026004714 0 0 0 0.18 18 1722 72 268 99 326 
1759 -0.4457753570625715 0.29322389570954094 0.8377889416925215 0 0 0 0.32 18 1723 58 141 154 314 166 227 173 235 215 46 216 193 228 190 
1760 -0.24906907861835262 0.24316417301877594 0.7744071945890514 0 0 0 0.35 18 1724 171 692 180 655 
1761 -0.1294123722957286 0.18583844865604035 0.684542158739723 0 0 0 0.25 18 1725 23 342 30 46 57 44 72 269 94 392 99 327 116 354 122 94 125 183 140 239 143 60 145 47 149 398 151 288 161 102 166 228 171 693 173 236 177 132 180 656 183 52 193 370 205 87 210 271 211 127 212 49 215 47 216 194 218 242 226 184 228 191 233 73 
1762 -0.12952463412013343 0.1859314987704027 0.6843859212296053 0 0 0 0.2 18 1726 23 343 180 657 211 128 
1763 -0.12973332330100715 0.18839176306646574 0.6878998635315149 0 0 0 0.21 18 1727 30 47 34 97 94 393 99 328 102 203 116 355 125 184 140 240 151 289 166 229 171 694 180 658 193 371 202 23 210 272 211 129 226 185 228 192 233 74 
1764 -0.12967405559116074 0.18838522470907887 0.6879033948054687 0 0 0 0.21 18 1728 30 48 34 98 55 49 72 270 94 394 99 329 102 204 116 356 125 185 131 28 140 241 144 46 145 48 151 290 161 103 166 230 171 695 173 237 180 659 193 372 202 24 210 273 211 130 226 186 228 193 233 75 
1765 -0.4583631881474172 0.29668814072825295 0.8375433507723197 0 0 0 0.35 18 1729 153 170 154 315 
1766 -0.1409228780155772 0.2065154287981144 0.7202984727741851 0 0 0 0.24 18 1730 23 344 72 271 99 330 143 61 144 47 149 399 151 291 171 696 177 133 183 53 210 274 218 243 
1767 -0.12653530410134192 0.1857323752987798 0.6801294707659508 0 0 0 0.32 18 1731 23 345 72 272 143 62 144 48 145 49 149 400 151 292 173 238 180 660 193 373 218 244 226 187 
1768 -0.14393706894446584 0.2096400492339136 0.7212696137368879 0 0 0 0.18 18 1732 149 401 171 697 210 275 228 194 
1769 -0.12137892142659266 0.1949708097204428 0.6959513031999306 0 0 0 0.28 18 1733 23 346 171 698 
1770 -0.08970489698083141 0.17860494666740925 0.6678890594054233 0 0 0 0.08 18 1734 23 347 102 205 210 276 
1771 -0.033001616462915564 0.15954994711668571 0.6398344423464163 0 0 0 0.31 18 1735 55 50 139 41 
1772 0.220679342249083 0.09006956077920482 0.5476961224380736 0 0 0 0.28 18 1736 116 357 122 95 149 402 154 316 177 134 178 29 191 10 193 374 210 277 212 50 218 245 
1773 -0.08489259180955194 0.177481968825777 0.6647840092476438 0 0 0 0.31 18 1737 94 395 102 206 140 242 145 50 173 239 
1774 0.09433861711946984 0.1339843598063759 0.6111604226315617 0 0 0 0.19 18 1738 171 699 210 278 
1775 -0.45262557481789 0.3026427306947908 0.8451738756572879 0 0 0 0.32 18 1739 166 231 173 240 180 661 
1776 -0.18055726272828193 0.22419168446915902 0.7390047207760744 0 0 0 0.16 18 1740 178 30 180 662 
1777 -0.2659390408351314 0.2529158341129038 0.7792779069061029 0 0 0 0.2 18 1741 102 207 161 104 180 663 
1778 0.07034886356158732 0.14197107519523502 0.6179773611396138 0 0 0 0.29 18 1742 55 51 72 273 94 396 99 331 116 358 143 63 149 403 183 54 210 279 
1779 -0.2654429942355952 0.25146217978048907 0.7748883101345314 0 0 0 0.29 18 1743 72 274 99 332 119 19 143 64 151 293 153 171 154 317 171 700 180 664 211 131 228 195 233 76 
1780 -0.12699578336241965 0.19404717130923996 0.6848431590491793 0 0 0 0.31 18 1744 99 333 102 208 145 51 149 404 151 294 171 701 177 135 180 665 193 375 210 280 
1781 -0.10538697357409982 0.18615599003724076 0.6727021997070356 0 0 0 0.17 18 1745 72 275 99 334 171 702 210 281 
1782 -0.10537598528741862 0.18617994809710064 0.672700389159619 0 0 0 0.21 18 1746 99 335 210 282 
1783 -0.11485599109636031 0.20168407348972 0.6974977892383658 0 0 0 0.19 18 1747 23 348 72 276 94 397 99 336 102 209 125 186 140 243 171 703 173 241 177 136 180 666 193 376 210 283 216 195 218 246 226 188 
1784 -0.04329600188508588 0.1702957984885801 0.6447899733657281 0 0 0 0.55 18 1748 37 90 47 96 94 398 99 337 144 49 149 405 151 295 161 105 
1785 -0.08134687531577028 0.1797005138512884 0.6549092315316543 0 0 0 0.41 18 1749 23 349 34 99 57 45 72 277 99 338 131 29 145 52 149 406 171 704 173 242 177 137 210 284 218 247 
1786 0.10525109159044486 0.13956562623167976 0.6010827329950399 0 0 0 0.34 18 1750 102 210 171 705 
1787 0.10674849538045779 0.13951047852072124 0.60105243551682 0 0 0 0.29 18 1751 102 211 171 706 210 285 
1788 -0.11822048243068846 0.19635802082071543 0.6772639712253539 0 0 0 0.25 18 1752 23 350 34 100 55 52 72 278 99 339 102 212 131 30 166 232 173 243 177 138 180 667 216 196 218 248 
1789 0.21629875285651162 0.10049177789159564 0.5328729148017067 0 0 0 0.46 18 1753 139 42 210 286 212 51 
1790 0.22007153394883902 0.10021106945333874 0.5325134027870891 0 0 0 0.41 18 1754 57 46 151 296 177 139 193 377 210 287 212 52 
1791 0.22056121904692805 0.09996921710084496 0.5244509602674305 0 0 0 0.2 18 1755 122 96 150 44 151 297 177 140 
1792 0.22056121904692805 0.09996921710084496 0.5244509602674305 0 0 0 0.2 18 1756 122 97 150 45 151 298 177 141 
1793 0.131672163015259 0.13815481274073943 0.5858572117474018 0 0 0 0.41 18 1757 171 707 210 288 
1794 -0.455424169103947 0.30233565475687224 0.8215031369459561 0 0 0 0.49 18 1758 180 668 215 48 
1795 0.21059256845454416 0.11817563519703887 0.5449439471697209 0 0 0 0.46 18 1759 99 340 122 98 171 708 210 289 
1796 -0.12324975508518722 0.20708974664148563 0.6770261425422144 0 0 0 0.36 18 1760 102 213 143 65 149 407 180 669 
1797 -0.08143795006860374 0.1920791793112146 0.6530435323501315 0 0 0 0.23 18 1761 23 351 34 101 72 279 116 359 140 244 149 408 151 299 173 244 177 142 180 670 210 290 216 197 218 249 226 189 228 196 
1798 0.07102248680891979 0.1630295300282172 0.612448800756701 0 0 0 0.15 18 1762 23 352 102 214 193 378 210 291 
1799 -0.45191994982645267 0.3060086868701439 0.824998237595948 0 0 0 0.15 18 1763 173 245 228 197 
1800 -0.43528491025621213 0.3014333353420474 0.8180531433605578 0 0 0 0.33 18 1764 125 187 143 66 153 172 180 671 
1801 -0.3857831215726401 0.287764447181209 0.7972755481673162 0 0 0 0.2 18 1765 102 215 137 11 171 709 173 246 180 672 
1802 -0.3809617108458166 0.28667585152652164 0.7945719630039771 0 0 0 0.46 18 1766 72 280 166 233 218 250 
1803 -0.4394175124938521 0.30427887796752034 0.8203324808621136 0 0 0 0.25 18 1767 58 142 116 360 125 188 173 247 180 673 216 198 218 251 228 198 
1804 -0.3895621570163231 0.2896811066338223 0.7971526865023536 0 0 0 0.27 18 1768 46 104 72 281 171 710 173 248 
1805 -0.3858342980665997 0.28832850108138813 0.7943106824424436 0 0 0 0.36 18 1769 116 361 171 711 228 199 
1806 -0.08139212657680295 0.19311338427684935 0.6439311744350642 0 0 0 0.1 18 1770 23 353 102 216 
1807 -0.41527126404424625 0.2975389503870387 0.8078175132980544 0 0 0 0.08 18 1771 58 143 166 234 
1808 -0.41527126404424625 0.2975389503870387 0.8078175132980544 0 0 0 0.08 18 1772 58 144 166 235 
1809 -0.46146560439144235 0.3109124711035324 0.8266752451049124 0 0 0 0.17 18 1773 46 105 166 236 
1810 -0.42058704087823867 0.30024156879078123 0.8096321986859798 0 0 0 0.22 18 1774 125 189 166 237 180 674 
1811 -0.4085972036300026 0.2983439418282931 0.8052685658034012 0 0 0 0.28 18 1775 57 47 125 190 
1812 -0.4627635861476896 0.31129991360740217 0.8237970151901857 0 0 0 0.16 18 1776 125 191 171 712 
1813 -0.35940929793199183 0.28410461266044224 0.7797817740172367 0 0 0 0.21 18 1777 72 282 151 300 166 238 171 713 
1814 -0.36075060150892374 0.2839670482220454 0.7793580486803069 0 0 0 0.2 18 1778 72 283 166 239 171 714 
1815 -0.46013338412871263 0.31247292118699616 0.8228306858821197 0 0 0 0.2 18 1779 102 217 180 675 228 200 
1816 -0.3846694009883429 0.2932215558597235 0.792454567121482 0 0 0 0.33 18 1780 154 318 228 201 
1817 -0.08055600083264479 0.2073300446451274 0.6537213941702893 0 0 0 0.19 18 1781 102 218 171 715 
1818 -0.3940558897303916 0.2965170077859791 0.7944436528255575 0 0 0 0.31 18 1782 102 219 166 240 
1819 -0.38305802438861497 0.29457748063170647 0.7897075623524421 0 0 0 0.31 18 1783 37 91 55 53 72 284 116 362 154 319 166 241 180 676 211 132 
1820 -0.3509092517529257 0.28540345265763073 0.7748264272658734 0 0 0 0.33 18 1784 58 145 72 285 119 20 211 133 
1821 -0.37927433045367787 0.29366448444926785 0.7867388519673357 0 0 0 0.1 18 1785 55 54 58 146 116 363 
1822 -0.08175833869105134 0.21163322605035995 0.6511978195075327 0 0 0 0.25 18 1786 23 354 59 52 72 286 99 341 102 220 143 67 171 716 173 249 177 143 180 677 210 292 
1823 -0.37384693225307647 0.2928596260462196 0.7843264087495201 0 0 0 0.13 18 1787 116 364 228 202 
1824 0.21297550400498272 0.13756151864281926 0.526241248991287 0 0 0 0.39 99 342 102 221 122 99 137 12 143 68 150 46 154 320 171 717 178 31 186 44 191 11 210 293 226 190 233 77 
1825 -0.4253911080488189 0.307809062164269 0.8062514122493278 0 0 0 0.28 18 1788 144 50 166 242 171 718 180 678 
1826 -0.3593630883917798 0.28972763916459254 0.776747120566399 0 0 0 0.32 18 1789 171 719 180 679 
1827 -0.3532982752626944 0.2885603964254126 0.7745389382244161 0 0 0 0.28 18 1790 23 355 144 51 153 173 166 243 171 720 180 680 218 252 
1828 -0.4618229587591865 0.31948534636100995 0.8250387532985641 0 0 0 0.39 18 1791 171 721 180 681 
1829 -0.348577487092412 0.2876621110683118 0.7721631153596614 0 0 0 0.29 18 1792 58 147 72 287 116 365 119 21 153 174 154 321 171 722 180 682 228 203 
1830 -0.44694791721299987 0.3146040128204006 0.814890430842625 0 0 0 0.12 18 1793 125 192 180 683 
1831 -0.34409815862123283 0.28707497292901196 0.7691018177606274 0 0 0 0.3 18 1794 72 288 154 322 166 244 228 204 
1832 -0.32946076431938315 0.2838046114088518 0.7615826363693001 0 0 0 0.24 18 1795 166 245 171 723 
1833 -0.3235954686203473 0.28291003717308927 0.759035771797966 0 0 0 0.29 18 1796 23 356 55 55 116 366 140 245 151 301 153 175 154 323 171 724 180 684 193 379 216 199 218 253 
1834 0.21865570742523535 0.14426319718457126 0.5236334124198097 0 0 0 0.34 122 100 143 69 144 52 150 47 154 324 178 32 191 12 193 380 226 191 228 205 
1835 0.07056484059392808 0.18827315416238763 0.5995954318206634 0 0 0 0.19 102 222 150 48 151 302 177 144 193 381 216 200 218 254 
1836 -0.4497802334273007 0.3185834288846937 0.8185129693130991 0 0 0 0.29 18 1797 58 148 228 206 
1837 -0.31840174817798433 0.282169214372566 0.7564619195153947 0 0 0 0.27 18 1798 23 357 55 56 58 149 72 289 116 367 140 246 154 325 171 725 180 685 193 382 216 201 218 255 228 207 
1838 -0.460659509118399 0.32256074582514377 0.8240096797544315 0 0 0 0.36 18 1799 58 150 151 303 173 250 180 686 
1839 -0.31396592466394724 0.281358218698193 0.7536249743696889 0 0 0 0.3 18 1800 55 57 72 290 116 368 140 247 144 53 151 304 154 326 193 383 211 134 216 202 
1840 -0.4143378221670784 0.30934334455744456 0.80070137528771 0 0 0 0.28 18 1801 144 54 154 327 171 726 218 256 
1841 -0.2992706971797455 0.2782770993555649 0.74625554564724 0 0 0 0.22 18 1802 58 151 116 369 
1842 -0.10800367455490048 0.22661388893397075 0.6552129100865621 0 0 0 0.3 18 1803 23 358 34 102 55 58 57 48 72 291 99 343 102 223 116 370 119 22 131 31 143 70 144 55 149 409 151 305 154 328 166 246 171 727 173 251 177 145 178 33 180 687 202 25 210 294 211 135 212 53 215 49 218 257 233 78 
1843 0.21676502995269395 0.14735611768270826 0.5163843984221553 0 0 0 0.68 122 101 137 13 210 295 228 208 
1844 0.21278159449301642 0.15345628861266458 0.523905242406163 0 0 0 0.36 59 53 99 344 102 224 122 102 125 193 137 14 143 71 150 49 151 306 154 329 171 728 191 13 193 384 210 296 212 54 226 192 228 209 233 79 
1845 -0.11638061949483769 0.22982046155273234 0.6569004590884916 0 0 0 0.33 18 1804 34 103 144 56 183 55 218 258 
1846 -0.2579136131805701 0.27098369943638395 0.7261310551240389 0 0 0 0.21 18 1805 23 359 153 176 171 729 218 259 228 210 
1847 -0.053128185675672686 0.21715545131221858 0.6294049394516675 0 0 0 0.29 18 1806 34 104 46 106 59 54 116 371 139 43 140 248 144 57 151 307 166 247 178 34 180 688 193 385 211 136 218 260 
1848 -0.228856861310493 0.26491433903887657 0.7113065832811801 0 0 0 0.36 18 1807 23 360 72 292 153 177 173 252 177 146 226 193 
1849 -0.19108650545766853 0.25537526518390696 0.6926980447154378 0 0 0 0.25 18 1808 34 105 72 293 140 249 154 330 216 203 233 80 
1850 -0.4412781792804233 0.32397522248834654 0.813842192677345 0 0 0 0.31 18 1809 143 72 151 308 171 730 180 689 211 137 
1851 -0.1587847433286762 0.24691175797587314 0.6757280407933899 0 0 0 0.29 18 1810 102 225 173 253 180 690 
1852 -0.19899122564780264 0.2592807770211217 0.6954889711599772 0 0 0 0.33 18 1811 23 361 116 372 151 309 166 248 171 731 177 147 216 204 
1853 -0.19286608816539524 0.2585452850469429 0.6929899859894537 0 0 0 0.33 18 1812 34 106 140 250 154 331 171 732 177 148 193 386 216 205 218 261 233 81 
1854 -0.16051191229103115 0.24997678263337578 0.6771033055056617 0 0 0 0.19 18 1813 23 362 30 49 72 294 102 226 116 373 171 733 173 254 180 691 233 82 
1855 -0.3958630628427355 0.31196716602528607 0.787729900725519 0 0 0 0.2 18 1814 23 363 180 692 218 262 
1856 -0.13571655913354386 0.24723935471358885 0.6617549538990962 0 0 0 0.18 18 1815 23 364 144 58 177 149 211 138 212 55 
1857 -0.10044490420751306 0.2380533796117478 0.6441924188188928 0 0 0 0.17 18 1816 34 107 59 55 99 345 140 251 149 410 171 734 180 693 193 387 
1858 -0.12168534430890121 0.2448981774149466 0.6566230797065181 0 0 0 0.13 18 1817 30 50 102 227 
1859 -0.12377657834576915 0.2450217565479341 0.6565731757904302 0 0 0 0.38 18 1818 30 51 72 295 102 228 137 15 140 252 166 249 
1860 -0.057221274372187256 0.23593461845331887 0.6190012681506584 0 0 0 0.31 18 1819 171 735 173 255 180 694 
1861 -0.46434631841755214 0.33880014494928273 0.8170992348964778 0 0 0 0.36 18 1820 46 107 58 152 125 194 151 310 166 250 211 139 216 206 228 211 
1862 -0.02334861993259414 0.231378055288793 0.5989801484040175 0 0 0 0.29 18 1821 99 346 116 374 125 195 171 736 193 388 
1863 -0.28482447225997126 0.29705577467091243 0.7257003019937718 0 0 0 0.37 18 1822 99 347 211 140 
1864 -0.13251318332289433 0.25969458193923073 0.6470466170745018 0 0 0 0.29 18 1823 72 296 171 737 180 695 
1865 -0.24868384264274354 0.2912288182769481 0.7044721343492348 0 0 0 0.21 18 1824 23 365 140 253 
1866 -0.3713638706381314 0.3239653007563048 0.7686950068406637 0 0 0 0.35 18 1825 151 311 216 207 
1867 -0.1270635280369746 0.26886686254919245 0.6337248240987465 0 0 0 0.21 18 1826 99 348 215 50 
1868 -0.13078356773407554 0.28059745428479377 0.645213314398583 0 0 0 0.4 18 1827 99 349 193 389 228 212 
1869 -0.04420313359297806 -0.4850587078919491 1.0267072386355285 0 0 0 0.39 34 108 94 399 144 59 149 411 151 312 
1870 -0.03189447147926369 -0.4894812257630784 1.0422061043009623 0 0 0 1.28 18 1828 94 400 144 60 149 412 151 313 212 56 
1871 -0.055971400495693595 -0.40849513334193815 1.000135286015279 0 0 0 0.56 18 1829 59 56 86 145 94 401 149 413 186 45 189 16 202 26 212 57 
1872 -0.05803506419277389 -0.40119331799400154 1.0090922800270792 0 0 0 0.45 18 1830 94 402 116 375 166 251 178 35 212 58 
1873 -0.05024721554315109 -0.39610135659254175 1.002635714293679 0 0 0 0.43 34 109 47 97 86 146 94 403 116 376 144 61 149 414 151 314 166 252 178 36 186 46 211 141 212 59 
1874 -0.04049354344079884 -0.4164222898921433 0.9570699826034391 0 0 0 0.37 18 1831 86 147 94 404 116 377 144 62 149 415 166 253 218 263 
1875 -0.04910204688762932 -0.40276380957202634 0.9681706306457566 0 0 0 0.55 18 1832 59 57 116 378 178 37 225 14 
1876 -0.4143076417464099 -0.05606632472021863 1.0205681455972673 0 0 0 0.49 18 1833 45 19 57 49 94 405 102 229 
1877 -0.056837933271754564 -0.36932484024648415 0.9596725370623449 0 0 0 0.47 18 1834 34 110 116 379 144 63 225 15 
1878 -0.0375721895372546 -0.37757026447543496 0.9387928676769036 0 0 0 0.49 18 1835 57 50 59 58 94 406 139 44 144 64 151 315 178 38 189 17 202 27 212 60 218 264 225 16 
1879 -0.04887535828274007 -0.3648491974722708 0.8963928215283355 0 0 0 0.22 18 1836 178 39 212 61 
1880 -0.4239523397398572 -0.006929617784718791 0.9766955834133494 0 0 0 0.39 18 1837 86 148 102 230 116 380 125 196 144 65 154 332 193 390 
1881 -0.05292331114056959 -0.2888958648775605 0.9455999422979482 0 0 0 0.63 18 1838 34 111 47 98 116 381 132 18 144 66 149 416 151 316 
1882 -0.054680344596947435 -0.29086339558166285 0.8750866633750894 0 0 0 0.79 18 1839 144 67 225 17 
1883 -0.06284440260296165 -0.2567112257726877 0.9248118926523227 0 0 0 0.23 18 1840 86 149 94 407 166 254 
1884 -0.05585797376150265 -0.27882343719266023 0.8751056684985852 0 0 0 0.39 18 1841 34 112 102 231 116 382 131 32 139 45 144 68 149 417 151 317 166 255 178 40 218 265 225 18 
1885 -0.06296321448431522 -0.25133891692328847 0.9328093461083447 0 0 0 0.38 18 1842 37 92 46 108 58 153 59 59 86 150 94 408 116 383 125 197 151 318 186 47 212 62 
1886 -0.058334927713663734 -0.24388695794430676 0.9304528576139014 0 0 0 0.31 18 1843 59 60 116 384 131 33 151 319 173 256 193 391 
1887 -0.42492482401693016 0.02963968575711371 0.9675034658447302 0 0 0 0.29 18 1844 137 16 180 696 
1888 -0.42500883857008637 0.029727620296804733 0.9673534392374054 0 0 0 0.29 18 1845 137 17 151 320 154 333 180 697 
1889 -0.42597201961751907 0.033775846783906036 0.9647936419844158 0 0 0 0.32 18 1846 34 113 137 18 151 321 
1890 -0.04631179266650951 -0.22781156729268123 0.8567038828944968 0 0 0 0.31 18 1847 34 114 57 51 59 61 86 151 94 409 102 232 116 385 139 46 151 322 166 256 171 738 178 41 212 63 218 266 
1891 -0.44089028544390896 0.0634732926826949 0.9459604444430385 0 0 0 0.29 18 1848 144 69 180 698 
1892 -0.07512016793576458 -0.1718657368469326 0.905861396494127 0 0 0 0.34 18 1849 171 739 180 699 
1893 -0.03775843868691919 -0.17136809614171428 0.9612823985180153 0 0 0 0.52 18 1850 23 366 59 62 166 257 212 64 
1894 -0.4425911620817951 0.07747534926760195 0.9590713123265866 0 0 0 0.26 18 1851 58 154 125 198 212 65 
1895 -0.4405569283991769 0.0756997766333031 0.952202435121556 0 0 0 0.6 18 1852 46 109 55 59 57 52 58 155 59 63 86 152 102 233 116 386 154 334 166 258 186 48 211 142 212 66 
1896 -0.031031409406666 -0.1725036916629863 0.949720939951465 0 0 0 0.43 18 1853 23 367 34 115 58 156 86 153 94 410 116 387 125 199 131 34 151 323 154 335 161 106 166 259 171 740 177 150 186 49 189 18 193 392 211 143 212 67 216 208 218 267 
1897 -0.4332542277655333 0.07161363050003415 0.944096713254635 0 0 0 0.4 18 1854 34 116 45 20 139 47 151 324 178 42 
1898 -0.10945291640462347 -0.15887727170861635 0.8470787000819316 0 0 0 0.35 18 1855 34 117 59 64 116 388 144 70 
1899 -0.43676010780048596 0.08193114993151027 0.9462285736912169 0 0 0 0.25 18 1856 59 65 116 389 143 73 145 53 151 325 166 260 212 68 
1900 -0.43636830374717317 0.08008104842357028 0.9415938799692336 0 0 0 0.14 18 1857 34 118 55 60 
1901 -0.4357075091798336 0.07991672410306012 0.9421989886071821 0 0 0 0.28 18 1858 34 119 58 157 102 234 145 54 
1902 -0.42633855941866367 0.07870150851506766 0.9381569478416355 0 0 0 0.39 18 1859 51 23 58 158 59 66 86 154 125 200 143 74 151 326 153 178 166 261 173 257 180 700 193 393 218 268 
1903 -0.4384109367355077 0.0882552250684128 0.9396799646464954 0 0 0 0.35 18 1860 139 48 151 327 180 701 
1904 -0.3347219734398849 0.10512401576875588 1.0992738898555512 0 0 0 0.25 18 1861 57 53 59 67 202 28 
1905 -0.3366977252328505 0.10831354408815284 1.100848188952651 0 0 0 0.32 18 1862 59 68 171 741 186 50 
1906 -0.42998065741636965 0.09432729061127243 0.9309877244559555 0 0 0 0.24 18 1863 173 258 212 69 
1907 -0.42916140344364145 0.09776185668877097 0.9321725544446565 0 0 0 0.35 18 1864 59 69 102 235 166 262 
1908 -0.04196296985872039 -0.11160849879159697 0.9321123499844802 0 0 0 0.5 18 1865 23 368 58 159 166 263 212 70 
1909 -0.009817158384089385 -0.17243010441487924 0.7953401407732682 0 0 0 0.36 18 1866 55 61 102 236 
1910 -0.34049371155603875 0.11616718758448619 1.081000654826594 0 0 0 0.58 18 1867 86 155 125 201 145 55 212 71 
1911 -0.3701553677011703 0.10847159147793327 1.0221152802295597 0 0 0 0.28 18 1868 178 43 212 72 
1912 -0.43057234436923925 0.10369438497977021 0.9286250957726779 0 0 0 0.22 18 1869 59 70 102 237 
1913 -0.431620417334151 0.10391343840182979 0.9279464603034945 0 0 0 0.31 18 1870 102 238 137 19 139 49 144 71 151 328 173 259 180 702 
1914 -0.06740535310938021 -0.1101864951221913 0.8729697166644084 0 0 0 0.32 18 1871 116 390 154 336 171 742 212 73 
1915 -0.3408630065707807 0.12012786352801583 1.0838936242906454 0 0 0 0.37 18 1872 57 54 58 160 125 202 151 329 171 743 178 44 
1916 -0.3669818960670649 0.11093895340567567 1.027803001221301 0 0 0 0.23 18 1873 57 55 58 161 86 156 144 72 151 330 180 703 202 29 212 74 
1917 -0.36693112580855775 0.11093479507339442 1.0278745726006113 0 0 0 0.21 18 1874 34 120 37 93 57 56 86 157 144 73 151 331 154 337 180 704 189 19 202 30 
1918 -0.3662573581954365 0.11338175065327469 1.0324102348850803 0 0 0 0.42 18 1875 37 94 46 110 51 24 57 57 58 162 86 158 125 203 144 74 154 338 166 264 180 705 186 51 202 31 211 144 212 75 228 213 
1919 -0.08293724750829466 -0.11152702681185404 0.8217879037940561 0 0 0 1.34 178 45 212 76 225 19 
1920 -0.44797215720142897 0.12280667703125622 0.9216031915209466 0 0 0 0.32 18 1876 34 121 58 163 59 71 86 159 94 411 116 391 125 204 144 75 151 332 154 339 166 265 171 744 178 46 193 394 212 77 216 209 228 214 
1921 -0.06514135064403599 -0.11741078483325008 0.7926141027135273 0 0 0 1.02 18 1877 37 95 59 72 102 239 116 392 125 205 132 19 178 47 202 32 211 145 215 51 225 20 
1922 -0.09240463860272978 -0.08186342320942869 0.8457877305365586 0 0 0 0.33 18 1878 23 369 34 122 47 99 57 58 59 73 86 160 94 412 116 393 125 206 131 35 144 76 149 418 151 333 154 340 161 107 166 266 171 745 173 260 178 48 180 706 202 33 205 88 212 78 
1923 -0.0693722188713794 -0.11079541930628174 0.7956776223537588 0 0 0 0.42 18 1879 34 123 37 96 59 74 94 413 116 394 132 20 140 254 144 77 149 419 151 334 171 746 177 151 178 49 180 707 193 395 202 34 212 79 218 269 225 21 
1924 -0.31629512251289826 0.07628837150197203 0.9542271782973538 0 0 0 0.21 18 1880 59 75 125 207 153 179 193 396 
1925 -0.34018320623596054 0.13471222705228736 1.0671384588495714 0 0 0 0.72 18 1881 151 335 161 108 202 35 212 80 
1926 -0.08375541548109013 -0.07725282628241363 0.8567389596299931 0 0 0 0.42 18 1882 23 370 30 52 47 100 86 161 94 414 116 395 139 50 144 78 149 420 161 109 166 267 171 747 173 261 178 50 180 708 186 52 202 36 211 146 212 81 216 210 
1927 -0.08887681553060979 -0.09341957931819413 0.8033500480272326 0 0 0 1.37 18 1883 180 709 225 22 
1928 -0.3164434546898429 0.080367490198247 0.9520198677506624 0 0 0 0.25 18 1884 59 76 180 710 
1929 -0.01859867728234723 -0.13623549016234737 0.7701493772922566 0 0 0 0.32 18 1885 102 240 171 748 
1930 -0.34042611575650555 0.14577085617388316 1.0774146330119458 0 0 0 0.43 18 1886 34 124 59 77 151 336 154 341 180 711 189 20 202 37 211 147 
1931 -0.3356903260309574 0.14042878273870835 1.0699220583901259 0 0 0 0.51 18 1887 59 78 171 749 180 712 
1932 -0.43684738886002555 0.12483321222001774 0.9081583422783279 0 0 0 0.26 18 1888 86 162 94 415 116 396 125 208 139 51 166 268 178 51 212 82 
1933 -0.43673542648841424 0.12493243021605936 0.9081307865349488 0 0 0 0.2 18 1889 51 25 58 164 86 163 144 79 145 56 151 337 178 52 216 211 228 215 
1934 -0.4500109827956449 0.1390487917058863 0.9186758768562764 0 0 0 0.25 18 1890 58 165 145 57 166 269 178 53 212 83 228 216 
1935 -0.4494384696830131 0.1406477763414834 0.9140348588673199 0 0 0 0.21 18 1891 171 750 178 54 211 148 212 84 
1936 -0.07500635863376083 -0.05614403441805769 0.8620640913652802 0 0 0 0.83 18 1892 23 371 47 101 58 166 59 79 94 416 116 397 125 209 166 270 173 262 212 85 
1937 -0.4421351966376469 0.13662411155070414 0.9038974846902682 0 0 0 0.27 18 1893 171 751 178 55 180 713 
1938 -0.43054997062622413 0.13117600280004676 0.902317247197134 0 0 0 0.44 18 1894 34 125 51 26 59 80 94 417 102 241 116 398 131 36 144 80 154 342 161 110 171 752 191 14 228 217 
1939 -0.43540809966688254 0.13530236116496416 0.9015847973837631 0 0 0 0.21 18 1895 59 81 173 263 178 56 193 397 
