# 3D point list with one line of data per point:
#   POINT3D_ID, X, Y, Z, R, G, B, ERROR, TRACK[] as (IMAGE_ID, POINT2D_IDX)
# Number of points: 374, mean track length: 7.26
12300 -0.05896531150338519 -0.01521841543910387 0.6267816017800449 0 0 0 0.25 144 2846 145 1809 193 4466 
12301 0.08266586810325423 -0.019292888391175097 0.6376289345323637 0 0 0 0.3 94 3996 116 4564 125 4845 139 2511 140 3803 144 2847 145 1810 149 3030 151 4412 154 3652 161 2291 166 3165 177 2332 183 1934 193 4467 205 1988 210 1248 211 3074 216 3154 226 2329 228 4065 233 2368 
12302 0.17861034698499745 -0.00906341784911558 0.6789478995366703 0 0 0 0.66 144 2848 151 4413 166 3166 
12303 0.5716166543865557 -0.07773021898189222 0.48996548002857654 0 0 0 0.5 144 2849 205 1989 216 3155 
12304 -0.42911598092381364 0.029797888696004856 0.6447264953429451 0 0 0 0.15 144 2850 151 4414 193 4468 212 2331 226 2330 
12305 0.21389706130272718 -0.0051187127139769705 0.6766522285802956 0 0 0 0.47 90 1146 144 2851 161 2292 166 3167 177 2333 211 3075 218 3250 228 4066 
12306 0.2718465546353562 -0.006143265710107889 0.6789785087507272 0 0 0 0.27 125 4846 144 2852 177 2334 202 1997 212 2332 
12307 -0.4878285224445751 0.06069455636354619 0.7228878142128498 0 0 0 0.36 144 2853 166 3168 202 1998 211 3076 
12308 0.37872239265647845 -0.0059374799821629845 0.6778468847253805 0 0 0 0.27 94 3997 125 4847 137 1524 143 1887 144 2854 151 4415 154 3653 166 3169 211 3077 212 2333 228 4067 
12309 -0.22865474986400391 0.03131996747819252 0.652497061850172 0 0 0 0.48 144 2855 151 4416 218 3251 
12310 -0.46732541993337334 0.04092614454048247 0.6138219127634337 0 0 0 0.11 144 2856 151 4417 154 3654 
12311 0.6114378195337887 -0.054411416528646894 0.44274552263196454 0 0 0 0.36 144 2857 216 3156 233 2369 
12312 0.5730223694272527 -0.037415866810907104 0.5033965012651345 0 0 0 0.57 144 2858 145 1811 154 3655 161 2293 
12313 -0.2556062063299681 0.04481025398495295 0.6417536211466195 0 0 0 0.23 140 3804 144 2859 151 4418 153 1052 205 1990 212 2334 
12314 0.5804541674320287 -0.015153735362020302 0.5973407481629427 0 0 0 0.42 116 4565 122 1439 140 3805 144 2860 154 3656 193 4469 210 1249 216 3157 228 4068 233 2370 
12315 0.5764467548678482 -0.042180193237008896 0.4699604730032713 0 0 0 0.18 144 2861 154 3657 216 3158 
12316 0.5779960424227479 -0.044803991316635726 0.4415920052775811 0 0 0 0.33 144 2862 145 1812 216 3159 
12317 -0.1577650954988174 0.04530173284700197 0.6353002849695804 0 0 0 0.24 144 2863 202 1999 212 2335 
12318 -0.3429450057847408 0.05656212136264013 0.625312105164187 0 0 0 0.17 144 2864 145 1813 151 4419 154 3658 
12319 0.5865854409521144 -0.013361440385046679 0.5052951685949801 0 0 0 0.4 144 2865 154 3659 228 4069 
12320 -0.25429801778430217 0.06127195791703525 0.6303979345919312 0 0 0 0.16 125 4848 144 2866 193 4470 202 2000 218 3252 
12321 0.291822732528378 0.04079193548700809 0.6597572036553145 0 0 0 0.1 144 2867 216 3160 218 3253 
12322 0.5809690891563957 -0.0039509336059637265 0.528267274024096 0 0 0 0.43 116 4566 144 2868 154 3660 161 2294 177 2335 205 1991 210 1250 212 2336 216 3161 
12323 -0.48951603422615536 0.09014422005115376 0.6831632269929315 0 0 0 0.41 125 4849 144 2869 193 4471 202 2001 218 3254 228 4070 
12324 -0.04103525564711637 0.05172840344040122 0.6132857079693621 0 0 0 0.22 144 2870 154 3661 191 2316 
12325 -0.04055800301017217 0.051866794740529326 0.6143126256662089 0 0 0 0.43 94 3998 116 4567 125 4850 140 3806 144 2871 145 1814 154 3662 193 4472 
12326 -0.04283715314818984 0.054979328234535545 0.6156446247793201 0 0 0 0.26 94 3999 116 4568 125 4851 140 3807 144 2872 145 1815 149 3031 151 4420 154 3663 161 2295 177 2336 183 1935 193 4473 205 1992 210 1251 212 2337 216 3162 218 3255 226 2331 228 4071 233 2371 
12327 -0.04438338470634447 0.05721571141471677 0.6078694851698189 0 0 0 0.27 144 2873 145 1816 212 2338 
12328 0.4724238641858495 0.04321173987962609 0.6459797617330713 0 0 0 0.23 140 3808 144 2874 151 4421 193 4474 
12329 -0.26007155330605597 0.07562752160538107 0.626862927367636 0 0 0 0.28 144 2875 153 1053 183 1936 212 2339 218 3256 
12330 0.2677345592382737 0.06554810872619928 0.6440167244076179 0 0 0 0.1 144 2876 154 3664 177 2337 
12331 0.21019233761419565 0.0697937327384286 0.6414950437294199 0 0 0 0.23 144 2877 205 1993 215 1505 
12332 -0.23933701619528278 0.08344738881809033 0.6251225384840471 0 0 0 0.29 144 2878 153 1054 154 3665 183 1937 
12333 -0.2836595488629414 0.0848380385542827 0.5985322790794264 0 0 0 0.26 144 2879 191 2317 202 2002 212 2340 
12334 0.22850447419349693 0.078408878463489 0.639108174221949 0 0 0 0.32 125 4852 140 3809 144 2880 161 2296 166 3170 183 1938 205 1994 228 4072 
12335 0.12213042965559985 0.08016159851442689 0.61110467558293 0 0 0 0.43 125 4853 144 2881 145 1817 151 4422 193 4475 202 2003 228 4073 
12336 -0.4403312985704748 0.11583017946742946 0.6014341193540647 0 0 0 0.11 144 2882 151 4423 228 4074 
12337 0.22804133120256392 0.11835548658918106 0.6282778088307593 0 0 0 0.29 144 2883 166 3171 191 2318 
12338 0.42975635022965825 0.11478191631669946 0.6184052078780427 0 0 0 0.55 144 2884 151 4424 154 3666 193 4476 202 2004 212 2341 228 4075 
12339 0.05227891857113535 0.11807871788902743 0.591530571458467 0 0 0 0.64 144 2885 177 2338 191 2319 215 1506 
12340 -0.2614892652551318 0.13988354273739784 0.5924547777637312 0 0 0 0.21 144 2886 191 2320 211 3078 
12341 -0.4387284989256992 0.138874314486456 0.5674992431857796 0 0 0 0.21 144 2887 151 4425 228 4076 
12342 -0.45630844170915447 0.14721954129243958 0.5610527559360987 0 0 0 0.3 58 2908 116 4569 144 2888 151 4426 153 1055 154 3667 166 3172 216 3163 228 4077 
12343 -0.24234486900188731 0.14981851861083237 0.5646003857349382 0 0 0 0.33 116 4570 119 2172 125 4854 140 3810 144 2889 149 3032 151 4427 154 3668 161 2297 177 2339 193 4477 202 2005 205 1995 211 3079 216 3164 218 3257 228 4078 
12344 0.36368939512048354 0.1579488772688519 0.569158521391904 0 0 0 0.2 144 2890 151 4428 228 4079 
12345 -0.3675709299354961 0.15147150975756982 0.5693666314493568 0 0 0 0.18 144 2891 151 4429 153 1056 218 3258 
12346 -0.36294711458790396 0.14971043331297793 0.5631605568279385 0 0 0 0.27 58 2909 116 4571 144 2892 149 3033 151 4430 154 3669 166 3173 216 3165 218 3259 226 2332 228 4080 
12347 0.4083918216537971 0.16532868745858256 0.577465627831361 0 0 0 0.34 116 4572 139 2512 140 3811 144 2893 151 4431 154 3670 191 2321 193 4478 218 3260 226 2333 228 4081 
12348 -0.31018702070327814 0.1533655913961271 0.5640758737972614 0 0 0 0.37 144 2894 191 2322 211 3080 
12349 -0.4771100286900079 0.15861051589810593 0.5638391171990047 0 0 0 0.4 58 2910 144 2895 151 4432 211 3081 228 4082 
12350 -0.07681568150471807 0.1669741438086559 0.5669907206383401 0 0 0 0.21 144 2896 151 4433 161 2298 205 1996 212 2342 
12351 0.27351047480172064 0.180566781955989 0.5802296170688072 0 0 0 0.94 122 1440 144 2897 151 4434 215 1507 218 3261 
12352 0.0007521741948215497 0.17483794583735435 0.5509546462486709 0 0 0 0.2 144 2898 145 1818 191 2323 202 2006 
12353 -0.026096031676246797 0.18954806607825234 0.5557231540856414 0 0 0 0.19 144 2899 183 1939 191 2324 218 3262 
12354 0.3954858087340767 0.2074422509914516 0.5714148238663821 0 0 0 0.58 125 4855 140 3812 143 1888 144 2900 151 4435 211 3082 228 4083 
12355 0.2935521147317282 0.2166126045010276 0.5972191387609612 0 0 0 0.36 144 2901 145 1819 193 4479 228 4084 233 2372 
12356 0.06657537798503449 0.19610884137315063 0.5551896490078567 0 0 0 0.28 144 2902 145 1820 183 1940 228 4085 233 2373 
12357 0.28898577988645124 0.2046483183820492 0.5439227474129119 0 0 0 0.68 144 2903 151 4436 216 3166 
12358 0.27794654590709733 0.21881692182431747 0.5830537627324249 0 0 0 0.85 144 2904 151 4437 193 4480 
12359 -0.03042192176500291 0.20007129074844598 0.5561293243269971 0 0 0 1.59 144 2905 191 2325 215 1508 
12360 -0.1657130021544008 0.19706323076352414 0.5531199476935358 0 0 0 0.37 144 2906 151 4438 154 3671 216 3167 
12361 0.009034588856195814 -0.9483017623402574 1.0287088032831941 0 0 0 0.35 144 2907 149 3034 151 4439 
12362 0.019501354884438004 -0.8837602878177024 1.018468525068756 0 0 0 0.48 144 2908 151 4440 202 2007 
12363 0.02634600339356045 -0.8104148859099921 0.9559064270840067 0 0 0 0.56 94 4000 116 4573 144 2909 151 4441 166 3174 218 3263 
12364 0.015047589844409468 -0.7911890438234443 0.9505492396633732 0 0 0 0.59 144 2910 191 2326 202 2008 218 3264 
12365 -0.01536177915886851 -0.6730021000195586 0.9351246667569509 0 0 0 0.15 144 2911 151 4442 202 2009 
12366 0.020504448869871895 -0.6657397588560025 0.8827045320642324 0 0 0 0.39 144 2912 191 2327 202 2010 212 2343 218 3265 226 2334 
12367 0.038874336483279356 -0.6643267751142524 0.8827472287631882 0 0 0 0.64 116 4574 144 2913 151 4443 205 1997 218 3266 
12368 -0.027693337326191614 -0.5280833683652532 0.9076482166776713 0 0 0 0.65 144 2914 151 4444 202 2011 
12369 0.07108489098980358 -0.5519361025833314 0.9143035444424493 0 0 0 0.08 144 2915 151 4445 202 2012 
12370 0.04152746233942276 -0.5034347451504182 0.7968326369004661 0 0 0 0.15 144 2916 151 4446 166 3175 
12371 0.01938776355130108 -0.4927023097851502 0.8275168580280926 0 0 0 0.39 144 2917 149 3035 211 3083 
12372 -0.038527265355052305 -0.3736096802182571 0.8305876597676598 0 0 0 0.13 144 2918 145 1821 161 2299 212 2344 
12373 0.05551814357424528 -0.3708015009628939 0.840852918118525 0 0 0 0.76 125 4856 144 2919 151 4447 202 2013 212 2345 
12374 -0.04154820396881804 -0.28768992056427894 0.7425446399283551 0 0 0 0.47 144 2920 145 1822 177 2340 218 3267 
12375 -0.36023775843376266 -0.18362902860732114 0.8207355447207361 0 0 0 0.3 58 2911 144 2921 161 2300 183 1941 
12376 -0.4991606885890711 -0.05887149308566427 0.6737044844775457 0 0 0 0.3 144 2922 145 1823 151 4448 202 2014 
12377 -0.46909108046694686 -0.045598661691222744 0.8123645962641421 0 0 0 0.14 48 318 144 2923 145 1824 166 3176 212 2346 
12378 -0.0353543605925401 -0.11166582709923957 0.7230785024555088 0 0 0 0.61 116 4575 119 2173 125 4857 140 3813 144 2924 145 1825 151 4449 161 2301 183 1942 191 2328 193 4481 202 2015 215 1509 228 4086 
12379 -0.033860653299602785 -0.11131893134974677 0.7255410401430216 0 0 0 0.66 90 1147 116 4576 119 2174 140 3814 144 2925 145 1826 149 3036 151 4450 154 3672 161 2302 166 3177 183 1943 193 4482 202 2016 205 1998 215 1510 226 2335 228 4087 
12380 -0.14368141711590396 -0.08377516269517726 0.722184825321513 0 0 0 0.41 58 2912 144 2926 151 4451 177 2341 218 3268 228 4088 
12381 -0.19919139224219987 -0.07712160994339251 0.6862275699414203 0 0 0 0.47 144 2927 154 3673 177 2342 
12382 0.3404786532064294 -0.12490179536483614 0.7781106784723902 0 0 0 0.12 144 2928 177 2343 216 3168 218 3269 
12383 -0.2734829890388166 -0.06306204917869905 0.679313503225491 0 0 0 0.23 144 2929 202 2017 233 2374 
12384 -0.3268988173991324 -0.05162342447955748 0.6759763111012894 0 0 0 0.22 51 893 144 2930 145 1827 154 3674 183 1944 193 4483 218 3270 
12385 -0.2873384019395074 -0.03207282826261631 0.6618961825962838 0 0 0 0.89 144 2931 215 1511 233 2375 
12386 0.6085857436644269 -0.15516013096265643 0.46474758145188044 0 0 0 0.31 144 2932 145 1828 216 3169 
12387 0.05950342113062233 -0.052883731557266764 0.6515174381141818 0 0 0 0.04 144 2933 218 3271 228 4089 
12388 -0.05281597608989605 -0.03052874409651682 0.6761433111231344 0 0 0 0.64 94 4001 116 4577 125 4858 132 905 139 2513 144 2934 149 3037 151 4452 161 2303 166 3178 183 1945 193 4484 210 1252 211 3084 212 2347 215 1512 228 4090 
12389 0.23670325279346355 -0.04597606278761394 0.6877800229897674 0 0 0 0.61 94 4002 116 4578 125 4859 140 3815 144 2935 145 1829 154 3675 191 2329 202 2018 211 3085 215 1513 216 3170 218 3272 228 4091 233 2376 
12390 0.12041081800965307 -0.034912672061650545 0.6453795306990194 0 0 0 0.19 144 2936 145 1830 202 2019 
12391 0.5875491192029194 -0.10171944075801641 0.4877662977484609 0 0 0 0.33 144 2937 161 2304 205 1999 212 2348 233 2377 
12392 -0.4778028994138394 0.01657356838989799 0.6148995885528392 0 0 0 0.76 58 2913 125 4860 144 2938 151 4453 153 1057 154 3676 166 3179 
12393 0.5913388158842408 -0.04713328755835621 0.5629014521934208 0 0 0 0.32 119 2175 137 1525 139 2514 144 2939 145 1831 191 2330 202 2020 205 2000 212 2349 216 3171 233 2378 
12394 0.5624011340940095 -0.06512378009845159 0.4442820220446044 0 0 0 0.39 144 2940 145 1832 161 2305 
12395 -0.3948475701567039 0.05201524212420188 0.6317089026298457 0 0 0 0.21 144 2941 145 1833 202 2021 
12396 -0.13636053319193173 0.04186492451730639 0.6479727660246304 0 0 0 0.47 58 2914 94 4003 116 4579 125 4861 140 3816 143 1889 144 2942 145 1834 149 3038 151 4454 153 1058 166 3180 177 2344 183 1946 193 4485 205 2001 212 2350 215 1514 218 3273 226 2336 228 4092 233 2379 
12397 -0.42172883496977265 0.057975396548185565 0.6171617362353924 0 0 0 0.21 144 2943 145 1835 151 4455 
12398 0.5260190353859302 -0.009654091872784206 0.5443077804882956 0 0 0 0.6 139 2515 144 2944 193 4486 202 2022 228 4093 
12399 -0.612858703469298 0.06139231237738382 0.5836856393621987 0 0 0 0.46 51 894 125 4862 151 4456 154 3677 193 4487 211 3086 228 4094 
12400 -0.48864461299835465 0.08650351374382062 0.6803347621258117 0 0 0 0.54 125 4863 143 1890 144 2945 151 4457 154 3678 211 3087 216 3172 228 4095 
12401 -0.38325736592921544 0.06932628807633617 0.6199940345420453 0 0 0 0.23 144 2946 145 1836 154 3679 
12402 -0.003189434697045309 0.051517372195278306 0.5975651819828769 0 0 0 0.22 144 2947 202 2023 212 2351 
12403 -0.330431124989636 0.07719262537868936 0.6268029365089149 0 0 0 0.63 119 2176 137 1526 139 2516 144 2948 191 2331 202 2024 226 2337 
12404 -0.36371838059613437 0.0808868410285995 0.6264033045501637 0 0 0 0.41 144 2949 151 4458 183 1947 205 2002 
12405 -0.12719561767733426 0.07255334916430616 0.6300269563920178 0 0 0 0.39 90 1148 144 2950 151 4459 153 1059 161 2306 205 2003 228 4096 
12406 0.30528887630936635 0.06084497022288381 0.6516880124078717 0 0 0 0.32 125 4864 139 2517 140 3817 144 2951 149 3039 151 4460 193 4488 202 2025 211 3088 212 2352 215 1515 228 4097 233 2380 
12407 0.1775622883648836 0.07607335550067289 0.6386406769148625 0 0 0 0.44 137 1527 144 2952 145 1837 149 3040 183 1948 193 4489 205 2004 211 3089 212 2353 
12408 -0.6378843708348788 0.10054196917197017 0.5676341900193334 0 0 0 0.23 48 319 51 895 153 1060 193 4490 212 2354 
12409 0.36204352946330143 0.13293614390153152 0.638547348181607 0 0 0 0.82 144 2953 151 4461 177 2345 202 2026 215 1516 216 3173 
12410 -0.30473727971959863 0.1344585089033559 0.5777801111923666 0 0 0 0.77 144 2954 215 1517 218 3274 
12411 -0.4073047315177588 0.14617931730792588 0.5640237742518978 0 0 0 0.3 144 2955 151 4462 154 3680 202 2027 216 3174 218 3275 
12412 -0.20730879328559249 0.15422915597453252 0.5665682085401686 0 0 0 0.36 144 2956 149 3041 151 4463 202 2028 212 2355 218 3276 
12413 -0.19360581084653447 0.15265092710490039 0.5606718112350244 0 0 0 0.22 144 2957 193 4491 218 3277 
12414 -0.28562610262433963 0.15470037008831994 0.5675859864877456 0 0 0 0.48 116 4580 119 2177 125 4865 144 2958 149 3042 151 4464 166 3181 191 2332 211 3090 216 3175 218 3278 228 4098 233 2381 
12415 -0.26701684856256297 0.15481603806065208 0.5691137214118541 0 0 0 0.36 58 2915 116 4581 125 4866 140 3818 144 2959 149 3043 154 3681 161 2307 191 2333 193 4492 202 2029 211 3091 216 3176 218 3279 228 4099 233 2382 
12416 -0.13973835650849495 0.16274587418772202 0.5702205611445804 0 0 0 0.51 144 2960 154 3682 202 2030 
12417 0.3418471704965219 0.17221095501710157 0.5763797890256789 0 0 0 0.35 140 3819 154 3683 166 3182 177 2346 191 2334 216 3177 226 2338 
12418 0.211092893226429 0.17907561861916815 0.5624674931056146 0 0 0 0.1 144 2961 145 1838 191 2335 
12419 -0.36999012591745495 0.16624225239888046 0.5491771263322559 0 0 0 0.24 144 2962 202 2031 212 2356 218 3280 
12420 -0.03933431017193065 -0.4315666183552389 0.7806735778877986 0 0 0 0.35 144 2963 149 3044 161 2308 193 4493 202 2032 212 2357 
12421 -0.042519954233499434 -0.20812916997038283 0.6798486446011941 0 0 0 0.05 144 2964 151 4465 212 2358 
12422 0.281072233142156 -0.20069047097500678 0.8467433565016392 0 0 0 0.27 144 2965 151 4466 191 2336 228 4100 
12423 -0.04166909454818387 -0.14820371754513112 0.7006384236035769 0 0 0 1.14 132 906 140 3820 143 1891 144 2966 145 1839 177 2347 183 1949 193 4494 205 2005 212 2359 215 1518 218 3281 226 2339 
12424 -0.34597053085745105 -0.07854294835121138 0.7111834451151069 0 0 0 0.29 51 896 144 2967 151 4467 193 4495 202 2033 
12425 -0.5030319163353357 -0.06335127583839864 0.6463747518181157 0 0 0 0.63 51 897 58 2916 125 4867 139 2518 144 2968 145 1840 151 4468 154 3684 161 2309 166 3183 202 2034 212 2360 216 3178 228 4101 
12426 -0.39996490877100854 -0.04696213182800224 0.6651064719481865 0 0 0 0.63 144 2969 145 1841 151 4469 193 4496 202 2035 216 3179 218 3282 
12427 -0.177973324821468 -0.04568488723759096 0.6644818418808612 0 0 0 0.46 144 2970 202 2036 218 3283 
12428 0.40155066986599586 -0.09741794450875078 0.7276813585840817 0 0 0 0.27 144 2971 166 3184 233 2383 
12429 0.413911646754148 -0.09740046228875515 0.7364420195828498 0 0 0 0.16 144 2972 151 4470 166 3185 
12430 0.6398081528848834 -0.1320970942423551 0.5475786628033613 0 0 0 0.9 119 2178 137 1528 140 3821 144 2973 161 2310 205 2006 
12431 0.606350295012497 -0.10317173167736893 0.527863324719454 0 0 0 0.33 144 2974 212 2361 216 3180 228 4102 
12432 -0.32502597705100855 0.0031190852484153393 0.6486878626508107 0 0 0 0.18 144 2975 153 1061 212 2362 218 3284 
12433 -0.10519499759706699 -0.0017718642649570922 0.6654971066414724 0 0 0 0.68 144 2976 149 3045 211 3092 233 2384 
12434 -0.005525763770121695 -0.01200468733900255 0.6375183170313214 0 0 0 0.67 94 4004 116 4582 125 4868 140 3822 144 2977 145 1842 149 3046 151 4471 154 3685 161 2311 166 3186 177 2348 183 1950 191 2337 193 4497 205 2007 211 3093 212 2363 215 1519 216 3181 218 3285 228 4103 233 2385 
12435 0.4652722492555716 -0.03760048816689235 0.6674889053537827 0 0 0 0.31 144 2978 151 4472 216 3182 218 3286 
12436 0.5871006905793332 -0.08611756586241187 0.4771552744229153 0 0 0 0.27 144 2979 145 1843 233 2386 
12437 -0.2734335070458443 0.06197095398041732 0.630113741783229 0 0 0 0.24 144 2980 149 3047 211 3094 228 4104 
12438 0.39406063411556685 0.02856041861799015 0.5975332220769548 0 0 0 0.48 144 2981 151 4473 202 2037 228 4105 
12439 -0.37343956894119446 0.10094688161747203 0.6015750497634721 0 0 0 0.53 137 1529 144 2982 161 2312 215 1520 218 3287 
12440 -0.2970432702505983 0.10547867357737917 0.6264419880532621 0 0 0 0.09 144 2983 151 4474 211 3095 
12441 0.6167402518679629 0.0792828109951169 0.5175249138655709 0 0 0 0.21 144 2984 191 2338 216 3183 
12442 -0.4328017104919581 0.13400133348592597 0.5624428137827046 0 0 0 0.28 144 2985 151 4475 211 3096 216 3184 
12443 -0.02531677737202987 0.14172323962121008 0.5763155263991825 0 0 0 0.17 144 2986 145 1844 151 4476 228 4106 
12444 -0.15731134499829527 0.14354244635049926 0.5763353156525424 0 0 0 0.55 125 4869 143 1892 144 2987 149 3048 151 4477 177 2349 211 3097 215 1521 
12445 -0.3159323392236226 0.15329198859305884 0.5626060009703372 0 0 0 0.21 51 898 144 2988 154 3686 216 3185 228 4107 
12446 -0.3071764880517074 0.1544130194298271 0.5651208297411832 0 0 0 0.69 144 2989 151 4478 216 3186 218 3288 226 2340 
12447 -0.3922669691911456 0.15144915113868662 0.5570792876673462 0 0 0 0.38 144 2990 151 4479 202 2038 218 3289 
12448 0.43163433177366267 0.22412021991071568 0.5733923283677105 0 0 0 0.58 119 2179 125 4870 137 1530 144 2991 151 4480 166 3187 191 2339 193 4498 202 2039 211 3098 226 2341 228 4108 
12449 0.35846838971141826 -0.15047767263577044 0.8137922850658704 0 0 0 0.5 144 2992 151 4481 202 2040 216 3187 228 4109 
12450 0.21650756832036053 -0.06744266434063895 0.6916435417167324 0 0 0 0.41 144 2993 154 3687 226 2342 
12451 0.573814478706729 -0.07588632616112748 0.5409276314366218 0 0 0 0.22 144 2994 145 1845 161 2313 191 2340 212 2364 228 4110 
12452 0.28928975997164547 0.04312659427357585 0.6587820238350957 0 0 0 0.24 144 2995 166 3188 202 2041 212 2365 
12453 -0.38080016658788235 0.11314222069928295 0.6170384595600126 0 0 0 0.23 144 2996 151 4482 216 3188 
12454 -0.4737355337361736 0.16128194786644423 0.551376055428505 0 0 0 0.04 144 2997 151 4483 202 2042 
12455 0.016366334277524045 -0.4914349135475205 0.8437058382206775 0 0 0 0.38 144 2998 202 2043 211 3099 
12456 0.07784428235780164 -0.3537307030417988 0.779182297588042 0 0 0 0.3 116 4583 144 2999 145 1846 154 3688 
12457 -0.4681901616249075 -0.17401000206563758 0.7864602496769286 0 0 0 0.07 144 3000 151 4484 212 2366 
12458 -0.4694183324018256 -0.07108345099661147 0.8071009187876137 0 0 0 0.78 119 2180 144 3001 145 1847 166 3189 193 4499 
12459 0.34973412690473493 -0.11984182853034477 0.7495839245540079 0 0 0 0.61 144 3002 151 4485 161 2314 205 2008 216 3189 228 4111 
12460 0.5802697776539384 -0.08443904140879083 0.66340485015115 0 0 0 0.13 144 3003 177 2350 202 2044 216 3190 
12461 0.2137162251120963 0.04011184837644103 0.6519328821744751 0 0 0 0.38 94 4005 116 4584 125 4871 139 2519 143 1893 144 3004 151 4486 154 3689 166 3190 177 2351 202 2045 211 3100 212 2367 218 3290 
12462 0.5847933514896084 -0.0020730058267857104 0.5305259278595404 0 0 0 0.37 119 2181 139 2520 144 3005 154 3690 202 2046 205 2009 228 4112 
12463 -0.28204139222055424 0.06900002412708867 0.6276497254170917 0 0 0 0.48 144 3006 218 3291 226 2343 
12464 0.5895753537943688 0.0035431418119803845 0.5127110095140341 0 0 0 0.43 119 2182 144 3007 161 2315 212 2368 216 3191 
12465 -0.21344992009909022 0.1499642095636568 0.5716255298106587 0 0 0 0.46 137 1531 144 3008 149 3049 154 3691 177 2352 218 3292 
12466 -0.2714886624565944 0.1756001778271372 0.5693624940474205 0 0 0 0.41 137 1532 144 3009 151 4487 228 4113 
12467 -0.46596600356331114 0.18052428458234174 0.5540460680985149 0 0 0 0.76 119 2183 125 4872 144 3010 151 4488 191 2341 211 3101 212 2369 215 1522 216 3192 218 3293 
12468 -0.4660160418897783 0.18035558834039903 0.5539947952108275 0 0 0 0.84 119 2184 125 4873 143 1894 144 3011 151 4489 191 2342 211 3102 212 2370 215 1523 216 3193 218 3294 
12469 0.028609808649216865 -0.9014491012079463 0.9837979515956999 0 0 0 0.38 144 3012 151 4490 166 3191 
12470 0.09307973728521984 -0.687632538421968 0.9144971742071489 0 0 0 0.91 144 3013 151 4491 202 2047 211 3103 
12471 -0.10721664821803878 -0.029459833078980802 0.6773680809911399 0 0 0 0.38 144 3014 149 3050 151 4492 177 2353 202 2048 228 4114 
12472 0.5996740276840881 -0.12929135191440058 0.4641297919416216 0 0 0 0.43 144 3015 216 3194 233 2387 
12473 0.581844433232825 -0.06332903296279288 0.5209277487154513 0 0 0 0.49 139 2521 144 3016 145 1848 205 2010 216 3195 228 4115 233 2388 
12474 -0.45035951037855176 0.11275942634983435 0.5932810496206635 0 0 0 0.42 144 3017 202 2049 211 3104 
12475 -0.15885026317538722 0.13811078710908864 0.6131373049315298 0 0 0 0.41 144 3018 202 2050 211 3105 
12476 -0.33306889241915655 0.16288194253383215 0.5614709354669384 0 0 0 0.48 58 2917 116 4585 119 2185 125 4874 144 3019 151 4493 166 3192 215 1524 218 3295 228 4116 
12477 0.03648431301473151 -0.9086586179002412 0.9925827839706651 0 0 0 0.59 144 3020 212 2371 218 3296 
12478 0.009308286329121937 -0.6617692501505144 0.9109304264361621 0 0 0 0.17 144 3021 151 4494 202 2051 
12479 0.6239281787389591 -0.1571910262500903 0.5746683155933109 0 0 0 0.81 144 3022 145 1849 161 2316 205 2011 216 3196 
12480 -0.21865048951052085 0.13477958041734997 0.6190210494798551 0 0 0 0.32 144 3023 151 4495 228 4117 
12481 -0.26179258046889 0.13523766727841066 0.6104369099429016 0 0 0 0.47 144 3024 153 1062 191 2343 216 3197 218 3297 228 4118 
12482 0.032706675931250324 -0.3821788421787019 0.7757323560267982 0 0 0 1.51 125 4875 139 2522 144 3025 151 4496 161 2317 166 3193 177 2354 193 4500 202 2052 205 2012 211 3106 212 2372 218 3298 
12483 0.6394733304907618 -0.11549687349075426 0.5501748079472198 0 0 0 0.36 144 3026 145 1850 161 2318 205 2013 
12484 -0.21349654327622597 0.10424090095480804 0.6367992497086936 0 0 0 0.12 144 3027 161 2319 205 2014 
12485 -0.22670758526209076 0.1762535350634319 0.554339317924798 0 0 0 0.22 144 3028 151 4497 228 4119 
12486 -0.18529864194707374 0.17638149697857264 0.5563472144263985 0 0 0 0.42 144 3029 151 4498 154 3692 183 1951 
12487 -0.11372356656945898 0.15940966727984276 0.5760861814493322 0 0 0 0.5 144 3030 151 4499 177 2355 193 4501 218 3299 228 4120 
12488 0.06577924034793507 -0.8473531427361313 0.963808457170854 0 0 0 1.32 144 3031 166 3194 202 2053 205 2015 
12489 -0.21273918991027316 0.1520915825942581 0.5580536688597687 0 0 0 0.47 144 3032 151 4500 218 3300 
12490 0.11316694035035085 -0.7498511821188473 0.9408295672298612 0 0 0 1.33 144 3033 166 3195 202 2054 
12491 -0.043825871093578064 -0.36740698065919314 0.777291163882639 0 0 0 0.28 145 1851 177 2356 193 4502 218 3301 226 2344 
12492 -0.03642394348340947 -0.3509405489935644 0.7522900603750701 0 0 0 0.33 116 4586 122 1441 145 1852 149 3051 154 3693 177 2357 193 4503 205 2016 210 1253 218 3302 226 2345 
12493 -0.018979837905972824 -0.2846997505492503 0.8040372321266116 0 0 0 0.79 145 1853 193 4504 218 3303 
12494 0.03032536174808034 -0.26869416733391477 0.7169587098604381 0 0 0 0.18 145 1854 183 1952 218 3304 
12495 0.03134482726847871 -0.26885535581324116 0.7186456534028863 0 0 0 0.36 22 190 122 1442 140 3823 145 1855 149 3052 183 1953 193 4505 210 1254 218 3305 226 2346 
12496 0.08203772714467707 -0.2544508493545658 0.7246917564914741 0 0 0 0.28 125 4876 145 1856 183 1954 193 4506 228 4121 
12497 -0.4956565107705093 -0.14460078949203875 0.6899995461431117 0 0 0 0.36 116 4587 145 1857 218 3306 228 4122 
12498 -0.4610374190697028 -0.14918442038716678 0.6726670753857031 0 0 0 0.53 145 1858 161 2320 183 1955 228 4123 
12499 -0.360721686007704 -0.1387600809680616 0.7711445404102496 0 0 0 0.25 145 1859 154 3694 183 1956 228 4124 
12500 -0.48079279865943586 -0.08040527110364841 0.8791076974639206 0 0 0 0.54 144 3034 145 1860 151 4501 153 1063 154 3695 183 1957 193 4507 202 2055 212 2373 218 3307 228 4125 
12501 -0.21991710240869425 -0.12735019399893033 0.7704888518963788 0 0 0 0.11 145 1861 151 4502 161 2321 
12502 -0.4219194601017365 -0.09712220457111269 0.7117499226311705 0 0 0 0.83 58 2918 94 4006 116 4588 125 4877 132 907 139 2523 144 3035 145 1862 154 3696 161 2322 183 1958 191 2344 193 4508 216 3198 226 2347 228 4126 
12503 0.41964121309383745 -0.21305728003443533 0.7582058301077677 0 0 0 0.32 145 1863 161 2323 205 2017 
12504 -0.3926776011915071 -0.09489329420713703 0.734128929865899 0 0 0 0.32 145 1864 161 2324 183 1959 228 4127 
12505 -0.13190082023205327 -0.12843770750754083 0.7650686786191765 0 0 0 0.25 145 1865 161 2325 205 2018 
12506 0.06841539756824665 -0.16236567709747524 0.6912334355850789 0 0 0 0.13 145 1866 154 3697 177 2358 228 4128 
12507 -0.4581031487909253 -0.06377544654387968 0.8455061942770393 0 0 0 0.13 145 1867 193 4509 218 3308 
12508 -0.3091707366831887 -0.09790307941170345 0.7179238981596543 0 0 0 0.29 145 1868 161 2326 228 4129 
12509 -0.4676562062361729 -0.07630343004348136 0.6424511219463991 0 0 0 0.34 145 1869 161 2327 218 3309 
12510 -0.47514376852991436 -0.06759150971240549 0.6401984800112959 0 0 0 0.4 58 2919 94 4007 116 4589 145 1870 161 2328 166 3196 183 1960 193 4510 216 3199 228 4130 
12511 -0.157469485939136 -0.09504807437603625 0.7360173014879315 0 0 0 0.45 145 1871 151 4503 161 2329 205 2019 216 3200 
12512 -0.15825944855380025 -0.09721785117991665 0.7171396592404021 0 0 0 0.16 145 1872 183 1961 228 4131 
12513 0.39723446004295176 -0.15622035097883744 0.7991262591364581 0 0 0 0.45 145 1873 166 3197 216 3201 233 2389 
12514 -0.5044077322045645 -0.05882096626607923 0.6600761961205983 0 0 0 0.58 145 1874 154 3698 166 3198 
12515 0.2671195112803272 -0.1264818634921909 0.7826752992478442 0 0 0 0.37 116 4590 125 4878 145 1875 151 4504 154 3699 161 2330 166 3199 183 1962 193 4511 205 2020 211 3107 216 3202 228 4132 
12516 -0.3097998235065796 -0.0705240390568408 0.683533870585873 0 0 0 0.19 145 1876 183 1963 193 4512 
12517 -0.4786729448024332 -0.024668611907419067 0.8133100329862128 0 0 0 0.16 145 1877 193 4513 218 3310 
12518 -0.255276843148704 -0.07043226491407593 0.6802665741410622 0 0 0 0.29 58 2920 94 4008 116 4591 125 4879 145 1878 151 4505 153 1064 183 1964 193 4514 218 3311 
12519 0.320763020395895 -0.12155703021661687 0.76656816340569 0 0 0 0.17 145 1879 161 2331 205 2021 
12520 -0.2978709080401245 -0.059992260176554575 0.675398036177037 0 0 0 0.21 145 1880 183 1965 211 3108 
12521 -0.3545199053875039 -0.051634598802537506 0.6743776022705333 0 0 0 0.13 145 1881 154 3700 183 1966 
12522 -0.13605704703123617 -0.06973839661524331 0.6872164176854414 0 0 0 0.12 145 1882 153 1065 183 1967 
12523 -0.4985833635284344 -0.03397456432832634 0.6571435089743499 0 0 0 0.38 145 1883 153 1066 154 3701 193 4515 218 3312 
12524 -0.14680693910603088 -0.06849366963071625 0.6827044314665975 0 0 0 0.3 145 1884 161 2332 183 1968 205 2022 216 3203 
12525 -0.0790965397613016 -0.07212300172291373 0.6928480807658773 0 0 0 0.36 145 1885 154 3702 177 2359 
12526 -0.0658998618450208 -0.0645108321623254 0.6925216865574214 0 0 0 0.28 140 3824 145 1886 183 1969 193 4516 216 3204 228 4133 
12527 0.347656982393018 -0.0992856985482965 0.7346259188734895 0 0 0 0.36 145 1887 151 4506 161 2333 183 1970 205 2023 
12528 -0.13320581934739056 -0.05792135586447571 0.6821582720223122 0 0 0 0.17 116 4592 140 3825 145 1888 149 3053 151 4507 153 1067 154 3703 161 2334 177 2360 183 1971 193 4517 205 2024 216 3205 218 3313 228 4134 233 2390 
12529 0.35902400071223206 -0.090804762575919 0.7479772391606556 0 0 0 0.12 145 1889 154 3704 216 3206 218 3314 
12530 -0.31107736004286435 -0.0332783090606068 0.6604498597194355 0 0 0 0.12 145 1890 183 1972 228 4135 
12531 -0.2407094188122047 -0.038541681274132385 0.669418037665737 0 0 0 0.34 145 1891 154 3705 177 2361 183 1973 193 4518 205 2025 218 3315 
12532 -0.16197250372353555 -0.04154320347267947 0.6742672717002577 0 0 0 0.06 145 1892 154 3706 183 1974 
12533 -0.2550930761453087 -0.028425864824981942 0.6675808298598472 0 0 0 0.5 94 4009 145 1893 153 1068 154 3707 161 2335 166 3200 183 1975 210 1255 218 3316 
12534 0.012965380406196072 -0.05627800201351874 0.6473710652579271 0 0 0 0.49 94 4010 145 1894 149 3054 151 4508 161 2336 177 2362 183 1976 205 2026 216 3207 226 2348 233 2391 
12535 -0.3712479299583188 -0.009780357986924254 0.6471928114996411 0 0 0 0.19 116 4593 145 1895 153 1069 154 3708 161 2337 183 1977 205 2027 216 3208 228 4136 
12536 0.10225042518753762 -0.04836198824913747 0.6457358581659413 0 0 0 0.29 145 1896 161 2338 205 2028 218 3317 226 2349 
12537 -0.03491589726576179 -0.03782311589867995 0.6328793519093415 0 0 0 0.65 140 3826 145 1897 149 3055 151 4509 154 3709 177 2363 
12538 -0.28565384762839924 -0.009004632365422708 0.6486622422549319 0 0 0 0.29 58 2921 116 4594 145 1898 151 4510 161 2339 193 4519 205 2029 218 3318 226 2350 228 4137 
12539 0.5822373178925269 -0.10898355568916239 0.47336823628640234 0 0 0 0.16 145 1899 161 2340 228 4138 
12540 -0.5014666712635139 0.009963501203506525 0.6296748631715691 0 0 0 0.31 145 1900 154 3710 183 1978 216 3209 
12541 0.27243618682099163 -0.03693021064796565 0.6842334897410334 0 0 0 0.49 22 191 145 1901 149 3056 193 4520 226 2351 233 2392 
12542 0.5588646639728634 -0.08625558516458595 0.499733814976689 0 0 0 0.45 145 1902 161 2341 205 2030 
12543 0.5950943952394053 -0.09523066392139046 0.46457837563839033 0 0 0 0.43 140 3827 145 1903 161 2342 216 3210 233 2393 
12544 -0.07785466138587652 -0.0053234139637162335 0.6600737537255816 0 0 0 0.2 94 4011 145 1904 193 4521 226 2352 228 4139 
12545 0.10059494838600684 -0.022741239130208542 0.6350616081779376 0 0 0 0.11 145 1905 177 2364 210 1256 218 3319 
12546 0.024129148252641886 -0.009709043386908305 0.641690701237064 0 0 0 0.3 90 1149 94 4012 116 4595 119 2186 122 1443 125 4880 140 3828 143 1895 144 3036 145 1906 149 3057 151 4511 154 3711 161 2343 166 3201 177 2365 183 1979 191 2345 193 4522 205 2031 210 1257 211 3109 212 2374 215 1525 216 3211 218 3320 226 2353 228 4140 233 2394 
12547 -0.04370385429684742 0.00535784492538823 0.6554944549417383 0 0 0 0.26 145 1907 149 3058 151 4512 154 3712 183 1980 
12548 0.04685684657857089 -0.0022701726129264735 0.625205873785902 0 0 0 0.08 145 1908 161 2344 183 1981 233 2395 
12549 -0.4283106024623955 0.049486624606609034 0.6282149120659974 0 0 0 0.31 116 4596 145 1909 151 4513 154 3713 193 4523 216 3212 218 3321 226 2354 
12550 -0.4158111734698775 0.05068144823727125 0.6340173166294679 0 0 0 0.31 58 2922 125 4881 145 1910 151 4514 154 3714 193 4524 
12551 -0.17970745719024467 0.042485714925185776 0.644798792782458 0 0 0 0.35 145 1911 183 1982 205 2032 
12552 0.005119795993693155 0.028487124161918495 0.6254200703307174 0 0 0 0.32 125 4882 140 3829 145 1912 149 3059 151 4515 161 2345 177 2366 183 1983 193 4525 205 2033 211 3110 216 3213 226 2355 228 4141 233 2396 
12553 0.019794529183112655 0.0329149587464875 0.6240756247885814 0 0 0 0.12 145 1913 183 1984 193 4526 
12554 0.20252091541466577 0.03894126585046956 0.6640032236850694 0 0 0 0.44 145 1914 149 3060 154 3715 193 4527 218 3322 
12555 0.22747982801477795 0.04590717670548325 0.6714976119171288 0 0 0 0.42 145 1915 183 1985 205 2034 
12556 -0.397340814870811 0.06466824566942539 0.6275817339699896 0 0 0 0.12 145 1916 166 3202 193 4528 
12557 -0.17049529023355176 0.05831838822904238 0.6334908533899474 0 0 0 0.51 140 3830 145 1917 177 2367 205 2035 215 1526 218 3323 
12558 -0.09962314250839147 0.059214766998660816 0.6343996548812103 0 0 0 0.16 145 1918 177 2368 183 1986 
12559 -0.38984723154291234 0.07567940397907805 0.6224745867827394 0 0 0 0.51 145 1919 154 3716 193 4529 226 2356 228 4142 
12560 -0.09937928350549675 0.07584305081071892 0.6280895359930166 0 0 0 0.25 145 1920 154 3717 177 2369 183 1987 233 2397 
12561 -0.1639353155347167 0.08245353658140842 0.6286925615211267 0 0 0 0.24 145 1921 151 4516 153 1070 154 3718 
12562 -0.16509152601501387 0.08628563510966718 0.6181034042267475 0 0 0 0.25 145 1922 183 1988 216 3214 
12563 -0.14481396534734958 0.09149329101560909 0.6292446569754584 0 0 0 0.08 145 1923 161 2346 216 3215 233 2398 
12564 -0.024612269622793014 0.07986118092608391 0.5944982309615432 0 0 0 0.25 122 1444 145 1924 149 3061 183 1989 205 2036 233 2399 
12565 0.28189079243422543 0.0877406305622966 0.65107142934666 0 0 0 0.23 94 4013 122 1445 145 1925 149 3062 151 4517 161 2347 193 4530 205 2037 228 4143 
12566 0.5807228017299897 0.04246675282392324 0.4781403010409946 0 0 0 0.21 145 1926 154 3719 161 2348 228 4144 
12567 -0.038267496094546334 0.08936965619993649 0.6009963576796261 0 0 0 0.48 116 4597 125 4883 140 3831 145 1927 149 3063 151 4518 166 3203 177 2370 183 1990 193 4531 210 1258 211 3111 228 4145 233 2400 
12568 0.005414426011871717 0.14820286608073222 0.5792239451643006 0 0 0 0.21 116 4598 122 1446 140 3832 145 1928 149 3064 151 4519 177 2371 183 1991 193 4532 216 3216 228 4146 233 2401 
12569 -0.025917330575714558 0.1498624060019023 0.575734329774715 0 0 0 0.24 145 1929 177 2372 183 1992 218 3324 
12570 -0.026791890361183256 0.14979940428038252 0.5748898740769801 0 0 0 0.17 145 1930 177 2373 218 3325 
12571 0.15386924619114317 0.16341772075110184 0.5642226684777923 0 0 0 0.26 116 4599 145 1931 149 3065 151 4520 
12572 0.06528720245731845 0.17105893471877082 0.5704067515650828 0 0 0 0.51 90 1150 116 4600 122 1447 145 1932 149 3066 151 4521 177 2374 183 1993 193 4533 215 1527 216 3217 218 3326 228 4147 233 2402 
12573 -0.01950782118074035 -0.43729771301674225 0.8539890978719681 0 0 0 0.31 94 4014 116 4601 125 4884 143 1896 144 3037 145 1933 151 4522 166 3204 177 2375 193 4534 211 3112 218 3327 226 2357 
12574 -0.049055364234512164 -0.42462765285142057 0.7896211098258007 0 0 0 0.46 145 1934 161 2349 177 2376 193 4535 205 2038 218 3328 
12575 -0.03237153618601188 -0.4325415160027818 0.9335792655566809 0 0 0 0.16 145 1935 193 4536 205 2039 210 1259 212 2375 218 3329 
12576 -0.04452688196041897 -0.37231398224536066 0.7684098143793671 0 0 0 0.4 145 1936 166 3205 216 3218 
12577 -0.03506366867502727 -0.2934868395593756 0.7230746182671312 0 0 0 0.2 145 1937 154 3720 216 3219 
12578 -0.3345481246877444 -0.16843862014848338 0.8030182475750626 0 0 0 0.32 145 1938 154 3721 166 3206 
12579 -0.21717760504540742 -0.17327242501346804 0.8229721566356162 0 0 0 0.22 145 1939 161 2350 193 4537 228 4148 
12580 -0.04249512992792545 -0.20390914749549813 0.7105453720983673 0 0 0 0.16 145 1940 161 2351 205 2040 216 3220 228 4149 
12581 -0.13113528813193182 -0.17599136882112604 0.8169908843429573 0 0 0 0.35 145 1941 149 3067 151 4523 161 2352 183 1994 205 2041 228 4150 
12582 -0.18833933047771542 -0.1653344945841744 0.8051209171745406 0 0 0 0.22 145 1942 161 2353 205 2042 
12583 -0.06545824618691269 -0.15724844273909416 0.7957207089707238 0 0 0 0.11 145 1943 154 3722 161 2354 
12584 -0.21751141844154923 -0.12521323820499936 0.7619715944258377 0 0 0 0.26 140 3833 145 1944 151 4524 154 3723 161 2355 183 1995 205 2043 228 4151 
12585 0.015986443125862497 -0.16683210691439476 0.6853305661572568 0 0 0 0.33 145 1945 154 3724 177 2377 218 3330 
12586 -0.4672811679327602 -0.08155369734765883 0.7874589734572596 0 0 0 0.31 145 1946 193 4538 228 4152 
12587 0.26836200152889456 -0.18258504894578634 0.8280165727520168 0 0 0 0.35 145 1947 151 4525 161 2356 205 2044 
12588 -0.46900798951081585 -0.070645573725387 0.7944694416545645 0 0 0 0.28 145 1948 153 1071 193 4539 
12589 -0.444705820680183 -0.06340448609931137 0.6566979129929351 0 0 0 0.39 145 1949 154 3725 183 1996 228 4153 
12590 -0.3770419468455724 -0.06729963344176708 0.6862139510353039 0 0 0 1.13 94 4015 125 4885 145 1950 151 4526 183 1997 193 4540 
12591 -0.3839052853503675 -0.0690002171137563 0.6746841778660925 0 0 0 0.08 145 1951 183 1998 193 4541 
12592 -0.384350869837362 -0.06281674081448659 0.6715442833698809 0 0 0 0.37 58 2923 116 4602 132 908 144 3038 145 1952 151 4527 153 1072 154 3726 183 1999 193 4542 211 3113 215 1528 216 3221 218 3331 228 4154 
12593 -0.346736104272155 -0.06196721154146594 0.6765857067231963 0 0 0 0.26 145 1953 183 2000 193 4543 
12594 -0.3320887297948735 -0.05601116684702687 0.6734379070809703 0 0 0 0.12 145 1954 183 2001 211 3114 212 2376 
12595 -0.33843243646244686 -0.043112020443306906 0.6535347714524775 0 0 0 0.3 145 1955 193 4544 215 1529 
12596 -0.14941131248166944 -0.04975138326718759 0.6773411443945008 0 0 0 0.23 145 1956 153 1073 154 3727 183 2002 193 4545 205 2045 228 4155 
12597 0.009190759287901919 -0.061013533470577225 0.6419383409254202 0 0 0 0.1 145 1957 177 2378 183 2003 
12598 -0.40619959701952085 -0.008994727157091941 0.6470523626023889 0 0 0 0.44 125 4886 139 2524 145 1958 154 3728 215 1530 
12599 0.2727789134552744 -0.04549448551473486 0.6977614738386501 0 0 0 0.35 116 4603 145 1959 183 2004 193 4546 218 3332 
12600 0.5792989491529731 -0.10477160945156126 0.4723987397974243 0 0 0 0.18 145 1960 154 3729 161 2357 228 4156 233 2403 
12601 0.5945145166678728 -0.08561481676275644 0.5646216335748893 0 0 0 0.34 145 1961 161 2358 205 2046 228 4157 
12602 -0.359890362415252 0.018151540436869767 0.637747970235608 0 0 0 0.66 145 1962 154 3730 183 2005 215 1531 218 3333 226 2358 
12603 0.5386106467573746 -0.07355869098072759 0.48518212040874265 0 0 0 0.5 145 1963 161 2359 228 4158 
12604 -0.33797461301328735 0.0394062875633603 0.6415008471088922 0 0 0 0.62 145 1964 153 1074 215 1532 218 3334 
12605 0.28859653455137346 0.01240512964664411 0.6706738674381516 0 0 0 0.45 145 1965 151 4528 177 2379 
12606 0.5679655247677392 -0.02968436514082015 0.5202929394048434 0 0 0 0.41 145 1966 154 3731 161 2360 205 2047 216 3222 
12607 0.580746144906398 -0.029670656316870034 0.49860647127327856 0 0 0 0.44 145 1967 154 3732 161 2361 205 2048 216 3223 228 4159 233 2404 
12608 -0.11800865651020133 0.047918689920552426 0.6368745257560628 0 0 0 0.38 140 3834 145 1968 149 3068 177 2380 183 2006 211 3115 216 3224 226 2359 
12609 -0.40246330081884896 0.06292954126547932 0.6239532032574061 0 0 0 0.25 58 2924 116 4604 145 1969 154 3733 193 4547 228 4160 
12610 -0.15898201497453598 0.059336758168525926 0.6361856972902822 0 0 0 0.15 143 1897 145 1970 183 2007 205 2049 
12611 0.002471509598524224 0.0606584736285193 0.6064417937557627 0 0 0 0.45 145 1971 183 2008 210 1260 215 1533 228 4161 
12612 -0.4768666645471538 0.08147412002879868 0.6138537675318586 0 0 0 0.96 145 1972 193 4548 212 2377 215 1534 
12613 0.30577376191453737 0.06629833519706607 0.6471689831157588 0 0 0 0.16 140 3835 145 1973 151 4529 154 3734 166 3207 177 2381 218 3335 
12614 -0.022897539952085964 0.08586545306359819 0.5980700491757851 0 0 0 0.27 145 1974 151 4530 177 2382 183 2009 205 2050 233 2405 
12615 0.2157982246448013 0.14782997894609642 0.5817932310988609 0 0 0 0.78 90 1151 145 1975 193 4549 218 3336 233 2406 
12616 -0.04021418074118661 -0.28346451465260347 0.721226737726549 0 0 0 0.19 145 1976 151 4531 154 3735 205 2051 
12617 -0.49769350859568795 -0.16366635995735923 0.6928394886719432 0 0 0 0.12 145 1977 193 4550 218 3337 
12618 -0.4594149529652984 -0.15142831747126556 0.9086228338050205 0 0 0 0.41 145 1978 151 4532 154 3736 
12619 -0.4906218917214753 -0.13135059761939197 0.6823575067232521 0 0 0 0.5 58 2925 94 4016 116 4605 125 4887 139 2525 144 3039 145 1979 151 4533 154 3737 161 2362 166 3208 191 2346 193 4551 211 3116 212 2378 218 3338 228 4162 
12620 -0.0350707219369015 -0.19388056104919188 0.7426201484314238 0 0 0 0.12 145 1980 149 3069 177 2383 
12621 -0.19078977515855436 -0.15803156862914972 0.7949471398460459 0 0 0 0.23 145 1981 161 2363 183 2010 205 2052 
12622 -0.4950909864685596 -0.09020563618634332 0.673267962526701 0 0 0 0.23 145 1982 153 1075 218 3339 
12623 0.3006209790927096 -0.16261745310895492 0.8108995767278455 0 0 0 0.64 125 4888 140 3836 144 3040 145 1983 151 4534 154 3738 161 2364 166 3209 177 2384 193 4552 202 2056 205 2053 216 3225 218 3340 228 4163 233 2407 
12624 0.35403073474205504 -0.1513978972672561 0.8005016373418146 0 0 0 0.4 145 1984 161 2365 205 2054 
12625 -0.38919357677677574 -0.05566249086001505 0.6741311551191911 0 0 0 0.26 145 1985 151 4535 183 2011 
12626 -0.41742468665817245 -0.05249109648903641 0.6679399697984587 0 0 0 0.28 119 2187 143 1898 145 1986 183 2012 191 2347 193 4553 215 1535 216 3226 226 2360 
12627 -0.3507092348210596 -0.05208407385395105 0.6718077643207738 0 0 0 0.37 145 1987 153 1076 161 2366 193 4554 205 2055 215 1536 
12628 -0.23181885288478896 -0.05077434775432435 0.675085172890755 0 0 0 0.1 145 1988 153 1077 183 2013 
12629 -0.14235858721897027 -0.049850332334223 0.6781264552936701 0 0 0 0.22 145 1989 153 1078 183 2014 205 2056 216 3227 228 4164 
12630 -0.39741879065631636 0.0016169408142122548 0.6371320065213916 0 0 0 0.5 145 1990 154 3739 215 1537 
12631 -0.008987850532467478 -0.021147961371138398 0.6351642056709342 0 0 0 0.21 145 1991 151 4536 154 3740 211 3117 228 4165 
12632 -0.05499931060489845 0.004683834884333099 0.6675619201417675 0 0 0 0.16 145 1992 149 3070 183 2015 
12633 -0.03482715611460276 0.02814073917929811 0.6538699161056467 0 0 0 0.09 145 1993 154 3741 183 2016 
12634 -0.09095556816784096 0.06982451954506537 0.6380816719258893 0 0 0 0.26 116 4606 122 1448 125 4889 139 2526 145 1994 151 4537 154 3742 177 2385 183 2017 191 2348 202 2057 205 2057 211 3118 212 2379 228 4166 233 2408 
12635 -0.010649457009912591 0.14150439632482087 0.5812240415020988 0 0 0 0.29 145 1995 177 2386 183 2018 
12636 -0.01973094000673146 -0.40092217202843106 0.8434293237792926 0 0 0 0.59 94 4017 116 4607 119 2188 125 4890 137 1533 139 2527 143 1899 144 3041 145 1996 151 4538 154 3743 161 2367 166 3210 177 2387 183 2019 191 2349 193 4555 202 2058 205 2058 211 3119 212 2380 215 1538 218 3341 226 2361 
12637 -0.054120436981746636 -0.2270243871490434 0.8143075044064619 0 0 0 0.18 145 1997 177 2388 218 3342 
12638 0.020571669807076157 -0.22466092793762046 0.713290344192723 0 0 0 0.18 145 1998 154 3744 177 2389 
12639 -0.03778380732916896 -0.19264102403584246 0.8189936167608918 0 0 0 0.15 145 1999 151 4539 161 2368 205 2059 
12640 -0.23076259412610015 -0.046391760130809055 0.6699269371756356 0 0 0 0.46 145 2000 183 2020 202 2059 
12641 0.02173687801538226 -0.03184221317995942 0.654704315955527 0 0 0 0.72 145 2001 205 2060 215 1539 
12642 0.09774679039422997 -0.019303630566383935 0.6222985095259601 0 0 0 0.19 145 2002 193 4556 233 2409 
12643 0.5831369478709902 -0.03172000530005652 0.5593678510776157 0 0 0 0.16 137 1534 139 2528 144 3042 145 2003 161 2369 205 2061 212 2381 216 3228 228 4167 
12644 -0.36407246974629703 0.06430567912329399 0.6223065679132486 0 0 0 0.53 145 2004 151 4540 183 2021 205 2062 
12645 0.24281703513367545 0.0645840593929755 0.6476140992705204 0 0 0 0.34 145 2005 166 3211 191 2350 211 3120 228 4168 
12646 0.23846637862347497 0.06375665227725259 0.6441320373641525 0 0 0 0.33 145 2006 166 3212 191 2351 228 4169 
12647 -0.14641627300148546 0.10945954442735596 0.5947925777243299 0 0 0 0.67 145 2007 193 4557 215 1540 
12648 -0.4543295529110333 -0.16622304392972115 0.682069512880804 0 0 0 0.46 145 2008 151 4541 193 4558 212 2382 
12649 -0.2105771949002903 -0.1666131340668569 0.8154824328722372 0 0 0 0.32 145 2009 161 2370 205 2063 
12650 -0.02735611857410248 -0.1974076660332763 0.6997840199628295 0 0 0 0.34 145 2010 149 3071 151 4542 161 2371 
12651 -0.2834956814281103 -0.13726292094492812 0.7710623927861596 0 0 0 0.21 144 3043 145 2011 161 2372 228 4170 
12652 -0.06833859104318495 -0.1343176759119887 0.7933002974345346 0 0 0 0.21 145 2012 177 2390 193 4559 218 3343 
12653 0.3536420255773003 -0.15032310704460433 0.8104971105095925 0 0 0 0.36 140 3837 145 2013 161 2373 193 4560 205 2064 
12654 0.24233144301474646 -0.08284069070478359 0.7029081175920416 0 0 0 0.19 145 2014 151 4543 202 2060 
12655 0.3088234116022055 -0.07640990307987731 0.7301794910425002 0 0 0 0.67 90 1152 119 2189 145 2015 149 3072 191 2352 215 1541 
12656 -0.041496786826460005 0.02305542931811935 0.6210066307500732 0 0 0 0.12 145 2016 161 2374 205 2065 
12657 0.020204484726079608 -0.2671326624410217 0.7218495778770254 0 0 0 0.38 145 2017 161 2375 205 2066 
12658 -0.03973638267845886 -0.1994848744366651 0.8280975814984535 0 0 0 0.48 145 2018 161 2376 205 2067 
12659 -0.30202566539926445 -0.14688872834073358 0.7874410355210116 0 0 0 0.24 145 2019 153 1079 161 2377 205 2068 
12660 0.29366856878758923 -0.1519098919465132 0.8082065732513879 0 0 0 0.71 116 4608 144 3044 145 2020 151 4544 166 3213 183 2022 202 2061 216 3229 228 4171 
12661 0.11350807616042534 -0.09027319124717278 0.6701496776048834 0 0 0 0.41 145 2021 161 2378 166 3214 
12662 -0.09680517816077873 -0.04078703965510186 0.6808877026672349 0 0 0 0.16 145 2022 191 2353 218 3344 
12663 -0.36350204061011965 0.05221220057171562 0.6275556624298554 0 0 0 0.28 145 2023 154 3745 161 2379 183 2023 205 2069 
12664 0.0942746935062439 0.04017193275748958 0.6199143881330795 0 0 0 0.32 145 2024 154 3746 177 2391 212 2383 218 3345 
12665 0.18072466870386356 0.1176857824672783 0.6264718440170647 0 0 0 0.34 145 2025 183 2024 211 3121 
12666 -0.28958711135275916 -0.11689111294540537 0.747280962539601 0 0 0 0.85 58 2926 119 2190 137 1535 139 2529 145 2026 151 4545 153 1080 154 3747 183 2025 211 3122 
12667 -0.2912134459478588 -0.11711898933016379 0.7473387612695247 0 0 0 0.46 145 2027 153 1081 161 2380 193 4561 205 2070 
12668 -0.46003184078143033 -0.08532795716114629 0.7972509597245906 0 0 0 0.43 145 2028 193 4562 218 3346 
12669 -0.2714491248606574 -0.11719631093547375 0.7215691427432152 0 0 0 1.35 137 1536 145 2029 154 3748 193 4563 215 1542 
12670 0.4211292216659684 -0.1989050034554172 0.7563890158178962 0 0 0 0.62 122 1449 145 2030 154 3749 216 3230 233 2410 
12671 -0.3627181909312113 -0.038836867280269735 0.6544380965654205 0 0 0 0.54 137 1537 145 2031 183 2026 215 1543 
12672 -0.48839035203589565 -0.22234846386125032 0.7306398071350768 0 0 0 0.52 145 2032 151 4546 193 4564 
12673 0.24525411153954604 -0.08576169508316978 0.730720476643366 0 0 0 1.12 94 4018 116 4609 125 4891 139 2530 144 3045 145 2033 149 3073 151 4547 154 3750 166 3215 202 2062 211 3123 216 3231 218 3347 
