# 3D point list with one line of data per point:
#   POINT3D_ID, X, Y, Z, R, G, B, ERROR, TRACK[] as (IMAGE_ID, POINT2D_IDX)
# Number of points: 447, mean track length: 5.64
282 0.28898947512421097 -0.08334899566580176 1.0478557884072632 0 0 0 0.11 13 127 28 100 201 266 
283 0.3034423685436395 -0.0832920742250933 1.0482462801406762 0 0 0 0.11 13 128 92 67 201 267 
284 0.30947774424235636 -0.08303333685106014 1.0471429951821993 0 0 0 0.25 92 68 165 20 201 268 
285 0.3221364113004208 -0.0829822683931672 1.0463806241972913 0 0 0 0.29 201 269 232 19 234 42 
286 0.05449155780962723 -0.023413640876490536 1.0473403851317808 0 0 0 0.19 13 129 110 35 124 68 201 270 
287 0.2522711902641558 0.030509240376109806 1.0321764522076573 0 0 0 0.3 13 130 28 101 98 26 112 36 146 72 157 34 175 75 201 271 
288 0.15508026962819946 0.03561431119254307 1.027203553941079 0 0 0 0.27 13 131 28 102 53 27 176 61 201 272 204 28 
289 0.16749664491580854 0.04371880608136686 1.0337979954109053 0 0 0 0.18 13 132 17 25 28 103 172 7 176 62 201 273 234 43 
290 0.2566005209231336 0.04303743688942047 1.023013382311597 0 0 0 0.1 61 24 175 76 176 63 201 274 
291 0.16203409311603065 0.04641197347385857 1.0285290450525473 0 0 0 0.15 13 133 175 77 176 64 201 275 
292 0.16570772274579265 0.04641393440069645 1.0292837589180537 0 0 0 0.16 13 134 28 104 201 276 234 44 
293 0.14614327321043366 0.04780480516986327 1.0219518988562926 0 0 0 0.15 28 105 98 27 187 82 201 277 
294 0.2500241893726564 0.045459495522312404 1.0312624369062968 0 0 0 0.32 13 135 112 37 146 73 201 278 234 45 
295 0.24872724097438684 0.04549923894059366 1.0295013755467 0 0 0 0.11 13 136 112 38 201 279 
296 0.31383250880797364 0.04791984140609467 1.0281979277316828 0 0 0 0.39 13 137 112 39 201 280 
297 0.1387945541458802 0.05895715097071099 1.0255086397778748 0 0 0 0.25 13 138 50 38 61 25 146 74 176 65 201 281 
298 0.1936513928094551 0.05940806070532012 1.0228930183877283 0 0 0 0.29 13 139 112 40 146 75 176 66 201 282 
299 0.14109182044476803 0.07243967837011933 1.0213606680153184 0 0 0 0.36 13 140 201 283 204 29 223 36 
300 0.04784178343545801 -0.13673218127779027 1.0634653392714497 0 0 0 0.37 13 141 85 38 109 42 
301 0.07922724378090035 -0.09011559086513432 1.0576930565153828 0 0 0 0.57 13 142 53 28 146 76 201 284 
302 0.14924792116485308 -0.08943132079779956 1.051995523793273 0 0 0 0.29 13 143 197 28 201 285 
303 0.15850319983373395 -0.08946187429001055 1.0525707103983735 0 0 0 0.26 13 144 197 29 201 286 
304 0.1430311494409634 -0.08330993546272589 1.0514804713375798 0 0 0 0.41 13 145 28 106 39 16 92 69 124 69 158 13 187 83 197 30 201 287 234 46 
305 0.3682681574303467 -0.08602517135520202 1.0462721450005477 0 0 0 0.37 92 70 197 31 201 288 
306 0.18330487698617878 0.053627623226491124 1.0201253697051562 0 0 0 0.34 13 146 50 39 98 28 124 70 152 9 201 289 
307 0.20823579323093958 0.056344059626603236 1.0252147819908857 0 0 0 0.36 15 20 28 107 50 40 53 29 152 10 158 14 175 78 187 84 201 290 204 30 234 47 
308 0.25144964801342334 0.057506709312000116 1.0218162215492441 0 0 0 0.19 17 26 152 11 157 35 201 291 
309 0.22842430854211385 0.06435396021199526 1.0207010660921438 0 0 0 0.12 17 27 28 108 118 39 201 292 
310 0.33616411517700484 0.0930005463016044 1.0127233319641729 0 0 0 0.38 50 41 61 26 172 8 234 48 
311 0.09916377675201081 0.10339775045037881 1.022289169694308 0 0 0 0.41 13 147 28 109 92 71 110 36 201 293 234 49 
312 0.20730808096630818 -0.08858606924060236 1.0528708940300853 0 0 0 0.58 13 148 92 72 93 24 109 43 164 29 201 294 204 31 223 37 
313 0.2728440619027427 -0.0878010722276614 1.05038134985403 0 0 0 0.23 13 149 53 30 201 295 
314 0.2947238352988416 -0.08745767186644647 1.0493922748161264 0 0 0 0.44 27 25 61 27 92 73 124 71 152 12 201 296 
315 0.30626957033956603 -0.08751962568380237 1.0509054462494212 0 0 0 0.32 27 26 44 39 61 28 85 39 92 74 164 30 197 32 201 297 
316 0.3220087126547288 -0.08738588182461778 1.04883376924434 0 0 0 0.19 27 27 28 110 53 31 85 40 91 29 92 75 164 31 197 33 201 298 204 32 234 50 
317 0.32198243947523814 -0.08737609086722538 1.0486850606528575 0 0 0 0.2 27 28 28 111 53 32 77 52 85 41 91 30 92 76 187 85 197 34 201 299 234 51 
318 0.3286877812742264 -0.08715234072484036 1.0486839088821593 0 0 0 0.23 28 112 197 35 201 300 234 52 
319 0.17654289391561717 0.04301411734187624 1.0323398312712424 0 0 0 0.21 13 150 118 40 128 13 201 301 204 33 
320 0.1029396808924022 0.049073072420172545 1.0317888453451844 0 0 0 0.19 13 151 16 28 61 29 146 77 158 15 175 79 201 302 204 34 231 21 
321 0.2258657361876389 0.09436932531579317 1.0164296211838904 0 0 0 0.29 175 80 201 303 232 20 
322 0.22897327343710142 0.10196002677861264 1.0136447881395285 0 0 0 0.47 118 41 172 9 175 81 201 304 
323 0.05432797034153845 -0.13560910324545933 1.0643141852309803 0 0 0 0.41 13 152 110 37 172 10 201 305 
324 0.2524609261723921 0.044305243903287 1.0257408036728195 0 0 0 0.27 17 28 50 42 61 30 128 14 152 13 158 16 175 82 201 306 
325 0.13744743447868726 0.08460957661517991 1.0204187728248275 0 0 0 0.52 13 153 28 113 187 86 194 24 201 307 
326 0.22186681344557657 -0.09961937337619647 1.0568260361299064 0 0 0 0.35 13 154 92 77 201 308 
327 0.2752322309882642 0.07779244561837712 1.0198900119448628 0 0 0 0.15 17 29 50 43 61 31 128 15 201 309 
328 0.48763918211088203 -0.05933222503081658 0.9462851956781493 0 0 0 0.22 17 30 53 33 77 53 82 2 118 42 170 6 201 310 232 21 
329 0.48676910276297525 -0.05956933122918823 0.9574839313736762 0 0 0 0.08 53 34 201 311 232 22 
330 0.48674441691258324 -0.0594712021117123 0.9574371816464775 0 0 0 0.17 17 31 53 35 118 43 197 36 201 312 232 23 
331 0.19538926654468394 0.012622496442815018 1.0363609682665165 0 0 0 0.34 15 21 28 114 53 36 118 44 146 78 152 14 158 17 172 11 175 83 201 313 213 82 
332 0.2832267800726123 0.06573493768429332 1.02169688391131 0 0 0 0.17 15 22 118 45 176 67 197 37 201 314 204 35 232 24 
333 0.2514608325507412 0.06756922054789787 1.0204483288530628 0 0 0 0.21 15 23 92 78 128 16 176 68 201 315 223 38 234 53 235 18 
334 0.3179509625517842 0.05179671954317738 1.0255494453873875 0 0 0 0.4 15 24 175 84 201 316 213 83 234 54 
335 0.20726507263451216 0.05637982307765843 1.0233515708800158 0 0 0 0.29 15 25 50 44 124 72 152 15 158 18 175 85 201 317 204 36 
336 0.4915034698570302 -0.06352402622517134 0.9423975759771875 0 0 0 0.2 128 17 170 7 201 318 
337 0.19065514538716918 0.013706326365088152 1.034435675897094 0 0 0 0.3 15 26 53 37 61 32 172 12 201 319 
338 0.2627669861171475 0.03776958206112756 1.0256840398677183 0 0 0 0.64 15 27 175 86 201 320 
339 0.08071620953203873 -0.08369541046271042 1.053705755600568 0 0 0 0.32 38 27 98 29 124 73 146 79 175 87 201 321 213 84 
340 0.16603779703382812 -0.02384719875826305 1.0423157559711755 0 0 0 0.21 28 115 109 44 110 38 124 74 157 36 201 322 
341 0.3252527055911795 0.04463121557963262 1.0224591292673562 0 0 0 0.24 175 88 187 87 201 323 
342 0.09937106764515988 0.049123344140426385 1.0307002027359506 0 0 0 0.25 28 116 124 75 175 89 187 88 201 324 
343 0.06250655133748491 0.049737392178791875 1.0362880708966669 0 0 0 0.22 16 29 146 80 157 37 201 325 
344 0.06048255005548367 0.05091014614472456 1.0360870398825814 0 0 0 0.05 16 30 28 117 146 81 201 326 213 85 
345 0.21255635453845526 0.050483160623272925 1.0270353983728446 0 0 0 0.13 28 118 124 76 175 90 187 89 201 327 
346 0.06030639903215762 0.0564047524282186 1.0344840393144066 0 0 0 0.11 16 31 146 82 201 328 213 86 
347 0.2143233204454955 0.05643204239085683 1.0266380523676895 0 0 0 0.36 28 119 91 31 112 41 201 329 
348 0.183512182952241 0.05815933466687134 1.0194435353787117 0 0 0 0.16 28 120 146 83 175 91 201 330 
349 0.25692523267933204 0.059313241626329956 1.0189023312495733 0 0 0 0.06 28 121 157 38 187 90 201 331 
350 0.2503247016006521 0.06306552232071946 1.0236201182424645 0 0 0 0.35 112 42 124 77 146 84 176 69 201 332 
351 0.03431272599698293 0.06485230559372056 1.0301341861220918 0 0 0 0.03 16 32 146 85 187 91 201 333 
352 0.0532067078677866 0.06547259483639765 1.0333722587797227 0 0 0 0.22 16 33 146 86 187 92 201 334 214 30 
353 0.08089415980583019 0.06524314869747189 1.0276300395632332 0 0 0 0.15 16 34 85 42 146 87 176 70 201 335 
354 0.18229116142093582 0.06639340410666811 1.0212593355749984 0 0 0 0.29 28 122 85 43 91 32 109 45 146 88 165 21 176 71 194 25 201 336 213 87 235 19 
355 0.22436931190252318 0.06687985302476351 1.0199928127210078 0 0 0 0.42 146 89 164 32 165 22 201 337 235 20 
356 0.11636308553706075 0.06736177057767335 1.0237641339050194 0 0 0 0.14 28 123 91 33 146 90 187 93 201 338 
357 0.03830011932807215 0.08187542023857738 1.0268734402781203 0 0 0 0.21 16 35 28 124 187 94 201 339 
358 0.07105534996896724 0.09329587500999013 1.0230529158607966 0 0 0 0.21 28 125 38 28 201 340 
359 0.13944782029568661 0.09330052911551047 1.0193658693766159 0 0 0 0.19 28 126 146 91 187 95 201 341 234 55 
360 0.32236340436325867 0.10431938002105567 1.0118482987984232 0 0 0 0.18 201 342 213 88 235 21 
361 0.14732773679448646 0.10448531767729975 1.0153020106367334 0 0 0 0.3 28 127 109 46 110 39 201 343 214 31 
362 0.09392448284938547 -0.08919656813887432 1.055397614280483 0 0 0 0.3 98 30 175 92 201 344 
363 0.1389807872504848 -0.08310091510655669 1.051855480325356 0 0 0 0.31 77 54 92 79 110 40 176 72 197 38 201 345 
364 0.05016326147088906 -0.01134198042145104 1.0485033578506024 0 0 0 0.11 16 36 176 73 201 346 
365 0.1810198024759408 0.0486898650393782 1.0231551332324944 0 0 0 0.27 28 128 146 92 175 93 176 74 187 96 201 347 
366 0.20138314643918237 0.05060780897070153 1.0274939189849848 0 0 0 0.17 112 43 124 78 146 93 164 33 165 23 201 348 213 89 214 32 234 56 235 22 
367 0.05849291126662253 0.05554532509096519 1.035453571879066 0 0 0 0.11 16 37 50 45 146 94 201 349 
368 0.036358242860831315 0.05641631032045532 1.0275439968465028 0 0 0 0.27 16 38 28 129 39 17 85 44 98 31 109 47 110 41 112 44 124 79 146 95 157 39 175 94 201 350 213 90 
369 0.03903120197253842 0.062145844216573015 1.028662474768909 0 0 0 0.34 16 39 17 32 28 130 50 46 53 38 61 33 92 80 118 46 124 80 146 96 157 40 175 95 188 2 201 351 213 91 
370 0.11675364607675366 0.0627196149820496 1.0243526645799896 0 0 0 0.23 38 29 77 55 146 97 176 75 197 39 201 352 213 92 214 33 
371 0.29074507134791405 0.08804210981189105 1.0160840998022993 0 0 0 0.22 85 45 187 97 201 353 
372 0.29577534804776745 0.08856738814157962 1.0158497493970498 0 0 0 0.36 28 131 91 34 148 37 165 24 201 354 213 93 223 39 235 23 
373 0.3592788146466002 0.09314687327291413 1.0127290036411891 0 0 0 0.38 91 35 201 355 223 40 
374 0.14099367956637063 0.09389451729391252 1.0173595040744499 0 0 0 0.19 28 132 53 39 110 42 128 18 172 13 187 98 197 40 201 356 214 34 232 25 234 57 
375 0.10396535137011075 0.0952064791138034 1.0198423965578551 0 0 0 0.15 28 133 146 98 187 99 201 357 
376 0.10404809623365102 0.09523957007685506 1.020009992197195 0 0 0 0.14 146 99 175 96 201 358 
377 0.3458516735215441 0.09583065178374241 1.0173665378909391 0 0 0 0.69 148 38 201 359 223 41 
378 0.2051504422589038 -0.0770940077769312 1.049647073987019 0 0 0 0.19 50 47 61 34 112 45 146 100 157 41 172 14 201 360 204 37 234 58 
379 0.3971305849853381 0.0034290592275042445 1.0324233794509137 0 0 0 0.26 44 40 82 3 92 81 201 361 
380 0.07078582801493671 0.04789277166002172 1.0290220132221506 0 0 0 0.22 16 40 28 134 50 48 61 35 92 82 98 32 112 46 118 47 128 19 146 101 175 97 176 76 187 100 201 362 204 38 231 22 
381 0.25967452558256826 -0.08739885811502199 1.0487468149643426 0 0 0 0.44 50 49 91 36 124 81 158 19 201 363 204 39 
382 0.10593722390913482 0.04188331201691228 1.0295309820840826 0 0 0 0.21 16 41 118 48 146 102 176 77 201 364 204 40 
383 0.06920789855687795 0.04252245906541269 1.0323952403900283 0 0 0 0.33 16 42 50 50 61 36 98 33 128 20 146 103 152 16 175 98 201 365 
384 0.06061176288452713 0.058817676664350574 1.0335799409465942 0 0 0 0.26 16 43 118 49 146 104 201 366 204 41 
385 0.21322520847997672 0.0638324831143045 1.0212523697748164 0 0 0 0.26 146 105 201 367 204 42 213 94 
386 0.4907527255720114 -0.06536667055171162 0.9372442970486087 0 0 0 0.35 17 33 61 37 77 56 82 4 91 37 165 25 170 8 201 368 235 24 
387 0.49143406576713294 -0.05208217211454675 0.9306868086910677 0 0 0 0.24 17 34 82 5 201 369 
388 0.17677002037940176 0.059517651258437866 1.0233608080069538 0 0 0 0.18 17 35 146 106 175 99 176 78 201 370 
389 0.11035515922570648 0.05304765446528743 1.0246642435268256 0 0 0 0.36 17 36 28 135 50 51 92 83 112 47 124 82 146 107 152 17 157 42 176 79 201 371 204 43 213 95 231 23 232 26 
390 0.49044827451152334 -0.07173980269292923 0.9387353426880256 0 0 0 0.29 17 37 53 40 61 38 82 6 91 38 118 50 165 26 197 41 232 27 234 59 235 25 
391 0.2446762457042804 0.014928420320662193 1.0370430614935282 0 0 0 0.48 17 38 53 41 201 372 234 60 
392 0.18498889290778336 0.05596396802623343 1.0188049312023617 0 0 0 0.34 17 39 28 136 44 41 53 42 61 39 92 84 118 51 128 21 152 18 176 80 187 101 201 373 213 96 
393 0.3119711646343954 -0.08062618117896475 1.0472427847066865 0 0 0 0.29 27 29 85 46 91 39 92 85 148 39 165 27 197 42 201 374 204 44 235 26 
394 0.10350124553231607 -0.012644550910852481 1.043281373938331 0 0 0 0.27 27 30 61 40 124 83 158 20 175 100 176 81 201 375 231 24 
395 0.3218314441954261 0.06490125099608428 1.01725709556066 0 0 0 0.24 27 31 28 137 118 52 197 43 201 376 
396 0.10131173688553675 0.05374510713414243 1.0283265501933347 0 0 0 0.28 27 32 53 43 112 48 152 19 158 21 
397 0.0873417854638896 -0.1354470544950263 1.0590925818220103 0 0 0 0.2 28 138 124 84 201 377 
398 0.12871342389778478 -0.11376414856253991 1.0538254887574523 0 0 0 0.3 28 139 39 18 124 85 146 108 201 378 
399 0.043269363644569174 -0.09431028808321412 1.0574036518910441 0 0 0 0.57 28 140 109 48 201 379 
400 0.09066222301168746 -0.089266510257217 1.0557214367439436 0 0 0 0.26 28 141 92 86 124 86 146 109 187 102 201 380 234 61 
401 0.11588639788527384 -0.08148163513878563 1.0519714424804694 0 0 0 0.11 28 142 39 19 201 381 
402 0.035238645242974785 -0.006364521204726972 1.0444117816479863 0 0 0 0.15 28 143 187 103 201 382 
403 0.03735322686645671 -0.006618339243023066 1.0447846722652145 0 0 0 0.35 28 144 109 49 112 49 175 101 176 82 187 104 201 383 214 35 231 25 
404 0.04103365617670217 -0.006816171339852256 1.044709189143865 0 0 0 0.18 28 145 187 105 201 384 
405 0.06938479127709653 -0.0031153089418446125 1.0420559539966041 0 0 0 0.18 28 146 124 87 175 102 187 106 201 385 
406 0.11113670116317975 -0.005355278517149099 1.040477420723625 0 0 0 0.29 28 147 175 103 176 83 201 386 231 26 
407 0.6583387818233583 -0.07415248806128923 1.1825765670840234 0 0 0 0.38 82 7 201 387 234 62 
408 0.1789087667956526 0.03629053614340853 1.0338758452455927 0 0 0 0.22 28 148 187 107 201 388 
409 0.03876662003143538 0.047263688506221854 1.027640114700947 0 0 0 0.13 28 149 112 50 175 104 201 389 
410 0.052574779146876915 0.04608491644535404 1.036998976485468 0 0 0 0.09 28 150 175 105 187 108 201 390 
411 0.06440485190454791 0.04612262492144369 1.0358251152541327 0 0 0 0.1 28 151 98 34 146 110 175 106 187 109 201 391 
412 0.06433211362868466 0.04614864640773185 1.0356265398543185 0 0 0 0.12 28 152 112 51 146 111 175 107 187 110 201 392 
413 0.07333047508300236 0.04783317554525915 1.0272821506613625 0 0 0 0.19 28 153 187 111 201 393 
414 0.18052634468849288 0.04688857692677166 1.0218086714766559 0 0 0 0.06 28 154 112 52 201 394 
415 0.21755799192396086 0.04770121280828571 1.0215384239926981 0 0 0 0.19 28 155 175 108 201 395 
416 0.03864677999456223 0.054885905535235306 1.0281448068155545 0 0 0 0.23 28 156 39 20 124 88 175 109 201 396 
417 0.06708661097248857 0.0583343352552257 1.0250567941069209 0 0 0 0.21 28 157 187 112 201 397 
418 0.03396293071865331 0.05937994398711374 1.0265939755177136 0 0 0 0.16 28 158 112 53 187 113 201 398 
419 0.07265818889027827 0.05831398432072494 1.0253504369493243 0 0 0 0.11 28 159 112 54 201 399 
420 0.07482767243050734 0.05850958921191718 1.0244845320668396 0 0 0 0.19 28 160 187 114 201 400 
421 0.1448653954966342 0.05684897335002081 1.0225400975346972 0 0 0 0.27 28 161 124 89 187 115 201 401 
422 0.22135087626986444 0.05777802996892778 1.0191848478243382 0 0 0 0.3 28 162 146 112 201 402 
423 0.1756058681339297 0.06129387568668008 1.0201521293363613 0 0 0 0.23 28 163 187 116 201 403 
424 0.039304391525532625 0.06670115602214471 1.028766179021106 0 0 0 0.12 28 164 124 90 146 113 175 110 201 404 
425 0.06804081717697698 0.06689504038618395 1.0268251598512625 0 0 0 0.06 28 165 175 111 187 117 201 405 
426 0.0699422930934671 0.06692023907746383 1.0261578372323203 0 0 0 0.27 28 166 187 118 201 406 
427 0.06569375749378258 0.06743855183546212 1.0273167028500183 0 0 0 0.21 28 167 187 119 201 407 
428 0.10871569679171914 0.06739490110528158 1.0240895217202828 0 0 0 0.15 28 168 187 120 201 408 214 36 
429 0.06664161080757018 0.06865982946034098 1.0263604296649513 0 0 0 0.33 28 169 175 112 187 121 201 409 234 63 
430 0.07752374910109423 0.06852829656825361 1.0244253279046382 0 0 0 0.17 28 170 187 122 201 410 
431 0.14485633458558192 0.06811825986441851 1.0222692211433133 0 0 0 0.25 28 171 91 40 187 123 201 411 
432 0.11440439918472556 0.06915534013900736 1.0240860183126204 0 0 0 0.2 28 172 91 41 109 50 201 412 214 37 
433 0.143301785253426 0.06948153601312451 1.0217133129432276 0 0 0 0.23 28 173 109 51 187 124 201 413 
434 0.11223860054435095 0.07056681879669188 1.0235586526345444 0 0 0 0.08 28 174 187 125 201 414 
435 0.29062817549862113 0.06752291158218407 1.0195181599078897 0 0 0 0.05 28 175 91 42 110 43 201 415 
436 0.3245051116544436 0.06771171926670712 1.0180452357808687 0 0 0 0.17 28 176 91 43 201 416 
437 0.03882522646938006 0.07389875193085174 1.0286088401268587 0 0 0 0.08 28 177 124 91 175 113 187 126 201 417 
438 0.330049334420431 0.06792216290283468 1.0177184709838878 0 0 0 0.16 28 178 85 47 201 418 
439 0.11268896042557475 0.07328742620640478 1.0240362386857202 0 0 0 0.19 28 179 109 52 187 127 201 419 
440 0.06706856090703373 0.0750180433040874 1.026324279904753 0 0 0 0.16 28 180 187 128 201 420 
441 0.21886389747063997 0.07324403738580747 1.0210965772616647 0 0 0 0.29 28 181 187 129 201 421 
442 0.07148333401107175 0.07682508642021722 1.0259440286415487 0 0 0 0.15 28 182 187 130 201 422 
443 0.11249615228563371 0.0804546316216073 1.0226414012587572 0 0 0 0.11 28 183 201 423 213 97 214 38 
444 0.07145570535782492 0.08122697971468411 1.025417582381012 0 0 0 0.04 28 184 187 131 201 424 
445 0.0398835166983372 0.08558263147975571 1.0256964095175913 0 0 0 0.26 28 185 187 132 201 425 
446 0.06228872220417198 0.08740168255815599 1.028564573932285 0 0 0 0.16 28 186 187 133 201 426 213 98 
447 0.06615765015680215 0.08791990750344986 1.0262740805645238 0 0 0 0.08 28 187 187 134 201 427 
448 0.10137568885980318 0.08783479670073244 1.0266223707312199 0 0 0 0.27 28 188 187 135 201 428 
449 0.2244687630726142 0.08699761520685523 1.0179512190004927 0 0 0 0.08 28 189 187 136 201 429 
450 0.08298310238013643 0.08912784356582051 1.0238381371199594 0 0 0 0.21 28 190 187 137 201 430 
451 0.05301039329249803 0.09086686401488338 1.0292291935130775 0 0 0 0.07 28 191 187 138 201 431 
452 0.17688798758654087 0.08991803833787487 1.0233318568416967 0 0 0 0.05 28 192 187 139 201 432 
453 0.03810697052842566 0.09162213409478227 1.028324988508827 0 0 0 0.31 28 193 187 140 201 433 
454 0.06002628687448703 0.09199689524048425 1.0286703231362364 0 0 0 0.14 28 194 187 141 201 434 
455 0.14812270687817258 0.09166590090758213 1.0177743158310597 0 0 0 0.13 28 195 109 53 194 26 201 435 
456 0.03842485921726326 0.09319691463120519 1.0252407693675067 0 0 0 0.09 28 196 175 114 187 142 201 436 
457 0.039239492393595886 0.09366111343904647 1.0237377698420267 0 0 0 0.21 28 197 187 143 201 437 
458 0.039540095876246156 0.09512623339090871 1.0263016263645357 0 0 0 0.2 28 198 187 144 201 438 
459 0.148088614986024 0.09473548516547152 1.0173101767644606 0 0 0 0.13 28 199 187 145 201 439 214 39 
460 0.04442469508423503 0.09633290462719757 1.0248179935568236 0 0 0 0.14 28 200 187 146 201 440 
461 0.0710327611845499 0.09697376604029093 1.0223099198392067 0 0 0 0.2 28 201 187 147 201 441 
462 0.14764887043815886 0.09828316966802789 1.0163736417011844 0 0 0 0.07 28 202 187 148 201 442 
463 0.11357306367394852 0.09852745402920988 1.0193825374834191 0 0 0 0.12 28 203 187 149 201 443 
464 0.2961478939504309 0.09924330426416259 1.0149085869424253 0 0 0 0.23 28 204 175 115 201 444 
465 0.04133227269744238 0.09963806601608562 1.0239628240693666 0 0 0 0.08 28 205 187 150 201 445 
466 0.154173957084974 0.09957633845574111 1.015122694751455 0 0 0 0.27 28 206 201 446 214 40 
467 0.14591843061448112 0.10082553240688695 1.0158971265185612 0 0 0 0.24 28 207 109 54 187 151 201 447 
468 0.22454467766685168 0.10108496731294915 1.015401992083619 0 0 0 0.24 28 208 187 152 201 448 
469 0.14090385411496226 0.10186797822748148 1.016348831832333 0 0 0 0.03 28 209 187 153 201 449 
470 0.1538989200011344 0.10193292814599102 1.0144851945297197 0 0 0 0.21 28 210 124 92 175 116 187 154 201 450 
471 0.04749933271250566 0.10294007061284487 1.0246396266967217 0 0 0 0.34 28 211 175 117 201 451 
472 0.21515019380244477 -0.15446161116164123 1.0600751718280494 0 0 0 0.48 28 212 146 114 201 452 234 64 
473 0.146349283452622 -0.08565032288555222 1.0509543084475153 0 0 0 0.14 28 213 187 155 197 44 201 453 
474 0.28631071688841964 -0.08061277441067945 1.0474484002149318 0 0 0 0.23 28 214 91 44 201 454 
475 0.2858898694778587 -0.08049524644435806 1.0469717571518822 0 0 0 0.22 28 215 61 41 201 455 
476 0.32569373104865657 -0.08018512914055473 1.0456807104315649 0 0 0 0.37 28 216 118 53 201 456 232 28 
477 0.12114203983898979 -0.01643590529196421 1.0426589053907969 0 0 0 0.28 28 217 175 118 201 457 
478 0.19560476763179152 0.026780505738654124 1.0349566939760582 0 0 0 0.25 28 218 124 93 172 15 175 119 201 458 234 65 
479 0.07325623497070291 0.04207685483152044 1.029740973006845 0 0 0 0.1 28 219 98 35 112 55 146 115 175 120 187 156 201 459 234 66 
480 0.1418972921592369 0.03992916015714109 1.0269002098905908 0 0 0 0.16 28 220 124 94 201 460 
481 0.08165607900781086 0.044362335710426505 1.0308067317743548 0 0 0 0.27 28 221 112 56 146 116 187 157 201 461 
482 0.1031902119542275 0.04435369408701768 1.0290806860522257 0 0 0 0.25 28 222 175 121 187 158 201 462 
483 0.052538875336127666 0.050949985346032504 1.0365958167188487 0 0 0 0.15 28 223 175 122 187 159 201 463 
484 0.1723889122697557 0.04661577962749788 1.0289116515595826 0 0 0 0.19 28 224 175 123 201 464 234 67 
485 0.05341056001103427 0.0513129611325097 1.0293065993751445 0 0 0 0.96 28 225 201 465 214 41 
486 0.05844074828977517 0.05305122310793943 1.0359241117835112 0 0 0 0.2 28 226 50 52 146 117 201 466 
487 0.03914603782274979 0.05654062735904919 1.027602805244286 0 0 0 0.21 28 227 109 55 175 124 187 160 201 467 
488 0.1824208163598569 0.05730639598152506 1.0220741094555443 0 0 0 0.06 28 228 91 45 112 57 146 118 201 468 
489 0.04083183571703395 0.06515305578714499 1.0294676380765417 0 0 0 0.35 28 229 38 30 146 119 175 125 187 161 188 3 201 469 214 42 
490 0.17215063742963396 0.06400244438316739 1.0245666530510154 0 0 0 0.17 28 230 201 470 234 68 
491 0.13710633201005307 0.06674691323900249 1.0258139066737801 0 0 0 0.22 28 231 187 162 201 471 
492 0.18582747077903958 0.0663498021291519 1.0206180784358316 0 0 0 0.18 28 232 91 46 109 56 201 472 
493 0.16967878204246598 0.06699462377388556 1.025238173377409 0 0 0 0.07 28 233 109 57 201 473 234 69 
494 0.11077301179287821 0.06901753526421167 1.02357933701169 0 0 0 0.31 28 234 146 120 187 163 201 474 
495 0.21762070656642296 0.06671892340851422 1.0204929848179436 0 0 0 0.37 28 235 176 84 197 45 201 475 213 99 223 42 234 70 235 27 
496 0.11774927848618849 0.06951621024632011 1.0234779939701586 0 0 0 0.11 28 236 201 476 234 71 
497 0.14660117027487357 0.06968101141610314 1.0216733862252962 0 0 0 0.17 28 237 91 47 109 58 187 164 201 477 214 43 
498 0.3550726455835192 0.06814858953440096 1.0164413096244507 0 0 0 0.1 28 238 170 9 201 478 
499 0.3513944593247575 0.06858297828504423 1.0214495281111384 0 0 0 0.18 28 239 91 48 201 479 
500 0.038645309427183965 0.07805642631603833 1.027830278093536 0 0 0 0.21 28 240 124 95 175 126 187 165 201 480 
501 0.14862217943883 0.07813164229163667 1.0203090300570747 0 0 0 0.15 28 241 38 31 85 48 109 59 110 44 194 27 201 481 
502 0.10390353014570966 0.08652289210265106 1.0213126573208573 0 0 0 0.05 28 242 187 166 201 482 
503 0.09876924589883453 0.08780243493846819 1.025448853669575 0 0 0 0.11 28 243 175 127 201 483 
504 0.06603746387386057 0.09351186326531082 1.0250481190544716 0 0 0 0.18 28 244 187 167 201 484 
505 0.07064431226176034 0.0991736845376788 1.0219623106952707 0 0 0 0.26 28 245 38 32 201 485 214 44 
506 0.03641379669960274 0.09963737730247152 1.0246659837712142 0 0 0 0.13 28 246 146 121 187 168 201 486 
507 0.038088368721449335 0.10135946897285435 1.023968488704907 0 0 0 0.13 28 247 187 169 201 487 214 45 
508 0.10376407519871984 0.10295299799798574 1.0184091991460742 0 0 0 0.11 28 248 175 128 187 170 201 488 
509 0.0695108338379831 0.1036960364857966 1.022411875035905 0 0 0 0.11 28 249 187 171 201 489 
510 0.10679141103503913 0.10359218082026327 1.019829695921678 0 0 0 0.06 28 250 187 172 201 490 
511 0.1259743073541732 0.04543804242761846 1.030931299028554 0 0 0 0.25 28 251 112 58 157 43 175 129 201 491 234 72 
512 0.13420144609740606 0.04560561578762301 1.030790942215889 0 0 0 0.29 28 252 112 59 157 44 175 130 201 492 
513 0.21388951711654175 0.044615015066901596 1.0320807024472514 0 0 0 0.35 28 253 112 60 146 122 175 131 201 493 
514 0.06320987481283646 0.058687236504345826 1.0272830122488055 0 0 0 0.22 28 254 124 96 157 45 175 132 187 173 201 494 
515 0.0940775002546176 0.06086788494650169 1.0289396552220695 0 0 0 0.26 28 255 38 33 92 87 201 495 213 100 214 46 231 27 234 73 
516 0.10519035792767896 0.062583665786166 1.024783635873504 0 0 0 0.47 28 256 197 46 201 496 
517 0.13544727845206947 0.06320318887107919 1.0262043435889006 0 0 0 0.13 28 257 176 85 201 497 
518 0.1326261961861045 0.06644749557612312 1.0266289718600428 0 0 0 0.27 28 258 187 174 201 498 234 74 
519 0.17487824452749232 0.0666691169768176 1.0259559932976043 0 0 0 0.3 28 259 146 123 201 499 234 75 
520 0.38604086177650426 0.07235871446648197 1.0198492771310959 0 0 0 0.46 28 260 53 44 234 76 
521 0.03779230068282638 0.08924773784170596 1.025718436554413 0 0 0 0.12 28 261 110 45 201 500 231 28 
522 0.0788672579201587 0.09048349554413943 1.023530841456647 0 0 0 0.41 28 262 38 34 110 46 201 501 214 47 
523 0.1020497605601357 0.09209891934303113 1.0212112666696662 0 0 0 0.27 28 263 164 34 187 175 201 502 
524 0.07641890399285625 0.09278690878070554 1.022760727927373 0 0 0 0.34 28 264 38 35 77 57 110 47 146 124 148 40 201 503 213 101 214 48 223 43 
525 0.2442572806248802 0.09241696292266108 1.0217465900985705 0 0 0 0.24 28 265 148 41 194 28 201 504 213 102 234 77 
526 0.3533455778118283 0.0961867937336536 1.013350769627637 0 0 0 0.13 28 266 165 28 201 505 235 28 
527 0.29107609897880576 0.09797482532903516 1.0137469938998707 0 0 0 0.22 28 267 118 54 234 78 
528 0.2910760989788037 0.09797482532903436 1.0137469938998678 0 0 0 0.22 28 268 118 55 234 79 
529 0.2488207935671465 0.10364789125724545 1.0137203033170967 0 0 0 0.29 28 269 201 506 234 80 
530 0.0814293325917642 -0.009164490214611052 1.0443100979163602 0 0 0 0.2 28 270 187 176 201 507 
531 0.15755553117440851 -0.015528744723942767 1.041945176848922 0 0 0 0.54 28 271 36 14 53 45 124 97 146 125 157 46 187 177 197 47 201 508 
532 0.18752375905985727 0.032314638544611946 1.0311764598316089 0 0 0 0.28 28 272 201 509 204 45 
533 0.14764054727355058 0.04526427694929405 1.0221538592028534 0 0 0 0.32 28 273 50 53 98 36 112 61 146 126 152 20 176 86 201 510 204 46 
534 0.1477191664041804 0.04528846537706541 1.0221841353980532 0 0 0 0.24 28 274 98 37 146 127 176 87 187 178 201 511 234 81 
535 0.19209348652306965 0.06365022428171643 1.0213528798963498 0 0 0 0.32 28 275 176 88 187 179 201 512 232 29 234 82 
536 0.21579896252358632 0.06406337937034254 1.0222009856891279 0 0 0 0.17 28 276 201 513 213 103 234 83 
537 0.20288293201558796 0.09130635671797553 1.021638711520281 0 0 0 0.07 28 277 201 514 234 84 
538 0.15353908012307552 -0.17935345480939516 1.0692081281155748 0 0 0 0.45 28 278 124 98 234 85 
539 0.22649675080146695 0.05453467054764808 1.0245685502160171 0 0 0 0.57 28 279 77 58 175 133 201 515 234 86 
540 0.10347638218421523 0.07137399276741664 1.0226312457367341 0 0 0 0.26 28 280 201 516 234 87 
541 0.2263679415416347 0.09052854054819647 1.0172888599006646 0 0 0 0.72 28 281 175 134 201 517 
542 0.35680663087934583 0.09862635508535243 1.0116540913093532 0 0 0 0.05 28 282 50 54 61 42 
543 0.1341390368379059 0.10265892992965743 1.0204950152835708 0 0 0 0.11 28 283 92 88 172 16 201 518 
544 0.08424703958481075 0.08408809289693946 1.0237027585098526 0 0 0 0.64 28 284 187 180 201 519 
545 0.3611394087416552 0.08050815629256244 1.0162043377943524 0 0 0 0.32 28 285 50 55 118 56 
546 0.22028139051146806 0.07828746256968738 1.0193834390307428 0 0 0 0.74 28 286 98 38 118 57 124 99 187 181 201 520 232 30 234 88 
547 0.22130416035860895 0.07840470965575343 1.0205225040931571 0 0 0 0.48 50 56 53 46 61 43 98 39 118 58 231 29 232 31 
548 0.1025687131941855 -0.016965535956939677 1.0455000446112492 0 0 0 0.21 36 15 109 60 112 62 157 47 175 135 201 521 231 30 
549 0.12891179783769474 -0.11719654403322981 1.053449996247648 0 0 0 0.28 36 16 124 100 187 182 201 522 
550 0.12891179783771722 -0.11719654403324412 1.0534499962476904 0 0 0 0.28 36 17 124 101 187 183 201 523 
551 0.13499944125464994 -0.11249454093968304 1.0520863625923398 0 0 0 0.17 36 18 124 102 201 524 
552 0.135165900706252 -0.11259202473518692 1.0523565186153951 0 0 0 0.22 36 19 124 103 157 48 201 525 
553 0.12985502882045835 -0.10366547915415328 1.0564122028903953 0 0 0 0.13 36 20 77 59 201 526 232 32 
554 0.03522650228468614 -0.1008086572027502 1.0607239039129543 0 0 0 0.25 36 21 124 104 201 527 
555 0.08882379761516082 -0.09530696394345577 1.060102760829422 0 0 0 0.41 36 22 92 89 124 105 201 528 
556 0.17375508442467355 -0.07774162000607528 1.0514632652495226 0 0 0 0.57 36 23 91 49 109 61 118 59 148 42 201 529 223 44 
557 0.17883456056813157 0.0704633620924556 1.0204768463407718 0 0 0 0.21 36 24 128 22 146 128 165 29 201 530 213 104 235 29 
558 0.1019406150138284 -0.13681744376467445 1.0547743644030756 0 0 0 0.2 36 25 77 60 85 49 176 89 201 531 
559 0.13330983972885366 -0.10739904800444078 1.0560690880826187 0 0 0 0.29 36 26 39 21 110 48 146 129 176 90 201 532 
560 0.1237516682109513 -0.012318575908626147 1.0448164734635113 0 0 0 0.46 36 27 172 17 175 136 201 533 204 47 
561 0.2214326888830669 0.0418822969937803 1.0238428290357757 0 0 0 0.19 146 130 175 137 187 184 201 534 234 89 235 30 
562 0.1281810137964928 0.050430382586627645 1.0313533594544209 0 0 0 0.3 38 36 201 535 231 31 
563 0.2790109979964398 0.06514698323305716 1.0227111870207148 0 0 0 0.56 91 50 109 62 110 49 201 536 213 105 235 31 
564 0.07299659461579 0.06512044653227689 1.0274170178906183 0 0 0 0.18 38 37 110 50 201 537 214 49 
565 0.1281134560523636 -0.10925216401229644 1.0572015629975342 0 0 0 0.38 44 42 77 61 85 50 93 25 124 106 146 131 164 35 176 91 201 538 204 48 
566 0.07395987737013998 0.10002732647707838 1.0225570254482907 0 0 0 0.27 38 38 201 539 223 45 
567 0.08889442931555394 -0.13838322939702005 1.0565658127849642 0 0 0 0.47 39 22 187 185 201 540 
568 0.08889442931555394 -0.13838322939702005 1.0565658127849642 0 0 0 0.47 39 23 187 186 201 541 
569 0.18913241463542757 -0.12470216050600129 1.0565396425285576 0 0 0 0.28 39 24 112 63 201 542 
570 0.1446590546839737 -0.10879427578466269 1.0488103178473305 0 0 0 0.32 39 25 109 63 201 543 
571 0.14480284783624986 -0.10691376321880768 1.0487495873989336 0 0 0 0.29 39 26 112 64 201 544 
572 0.08106873785673156 -0.10139678537235955 1.056965404960423 0 0 0 0.32 39 27 124 107 201 545 
573 0.1696821368945843 -0.08115224518861998 1.0510509436736486 0 0 0 0.14 39 28 112 65 201 546 
574 0.2013042491412879 -0.07853416243694435 1.0509168876996084 0 0 0 0.17 39 29 112 66 201 547 
575 0.12872345591877307 -0.019490941376488286 1.0424766787769046 0 0 0 0.33 39 30 175 138 201 548 231 32 
576 0.11209015842630818 -0.01735870419218207 1.0416222858996382 0 0 0 0.25 39 31 112 67 201 549 
577 0.10430188320562031 -0.01650161326648212 1.0445420640375473 0 0 0 0.18 39 32 112 68 201 550 
578 0.10457480472567939 -0.016682293833508645 1.0452095326426467 0 0 0 0.24 39 33 201 551 214 50 
579 0.08430830367170454 -0.015078027432288007 1.0451354561687476 0 0 0 0.11 39 34 112 69 201 552 
580 0.0684230040591787 -0.0136042215364081 1.0455676607802147 0 0 0 0.07 39 35 112 70 201 553 
581 0.10410992618099138 -0.014973006015048699 1.0444234031678736 0 0 0 0.11 39 36 112 71 201 554 
582 0.10541076524038466 0.002843880144634663 1.0408964006551653 0 0 0 0.27 39 37 124 108 201 555 
583 0.21238331338494698 -0.13527036316170005 1.0567734229681451 0 0 0 0.4 39 38 112 72 201 556 
584 0.12924305668639793 -0.11613586366661606 1.0546335294274685 0 0 0 0.58 39 39 124 109 187 187 201 557 
585 0.13346757895764572 -0.11117859286811492 1.0508430755943616 0 0 0 0.29 39 40 124 110 201 558 
586 0.03698137992794895 -0.10142976721718128 1.0588875881596587 0 0 0 0.13 39 41 201 559 231 33 
587 0.04454187303228349 -0.10009273656237457 1.0602223029419127 0 0 0 0.32 39 42 124 111 201 560 
588 0.08108826662185731 -0.0818632084481391 1.0540952585387051 0 0 0 0.08 39 43 109 64 112 73 201 561 231 34 
589 0.2501000404404683 -0.0029520815152977403 1.0410566468612226 0 0 0 0.3 146 132 175 139 201 562 
590 0.10096214506724295 0.05190734032296552 1.0307095966356152 0 0 0 0.09 112 74 175 140 201 563 
591 0.10096066712397164 0.05188922039195933 1.030693295450468 0 0 0 0.13 112 75 124 112 175 141 201 564 
592 0.04224322620320669 0.05943433604890231 1.0270949569901853 0 0 0 0.1 112 76 187 188 201 565 
593 0.07494911450795869 -0.09655307952417677 1.0568594587928077 0 0 0 0.23 39 44 110 51 201 566 
594 0.11163309654180567 -0.08336098431355278 1.0524298644666816 0 0 0 0.24 39 45 146 133 148 43 201 567 
595 0.11982768981600955 -0.08292870939128136 1.0514754830654625 0 0 0 0.21 39 46 93 26 146 134 201 568 
596 0.04193174620460327 0.05070547592411374 1.0294312507057368 0 0 0 0.43 39 47 112 77 124 113 175 142 201 569 
597 0.14355942460043272 -0.014567505374066304 1.0402793328231723 0 0 0 0.21 39 48 124 114 146 135 201 570 
598 0.06474124521585894 -0.011126959503426128 1.0475060440627337 0 0 0 0.17 39 49 124 115 201 571 231 35 
599 0.07896769297776911 0.048361491457197654 1.0294222076743822 0 0 0 0.33 61 44 146 136 175 143 176 92 201 572 204 49 
600 0.04990866547499458 0.055480751119195475 1.0342665044900674 0 0 0 0.37 39 50 175 144 187 189 201 573 
601 0.20752292168657688 -0.1294922967942212 1.0582190351328975 0 0 0 0.34 53 47 124 116 201 574 
602 0.14489705853465273 -0.11092460481127168 1.0490273267069135 0 0 0 0.21 39 51 124 117 201 575 
603 0.395061688865269 -0.07869465585564843 1.0460797555839347 0 0 0 0.3 44 43 170 10 201 576 
604 0.09697245765211436 -0.1336277790753529 1.0585793340871974 0 0 0 0.17 44 44 146 137 201 577 
605 0.32379577694787504 0.05069985960139577 1.0197884297476527 0 0 0 0.23 44 45 50 57 175 145 201 578 
606 0.10535251721535113 0.05138817995571781 1.028775555354944 0 0 0 0.18 44 46 61 45 201 579 
607 0.3276097748298871 0.04664606214787433 1.021152927463628 0 0 0 0.4 44 47 50 58 61 46 92 90 175 146 201 580 204 50 
608 0.10322770026745177 0.042684048317462385 1.0356762662785857 0 0 0 0.15 50 59 61 47 124 118 146 138 176 93 201 581 
609 0.062456247070976204 0.053053058441750935 1.035635635892471 0 0 0 0.18 50 60 146 139 201 582 213 106 
610 0.4097450338829554 0.009480914506298049 1.0375407283949978 0 0 0 0.16 50 61 82 8 170 11 201 583 204 51 234 90 
611 0.1789575188767779 0.05004187624534694 1.0245301752939977 0 0 0 0.25 50 62 61 48 146 140 152 21 176 94 197 48 201 584 204 52 
612 0.39904426610150057 0.06836207670853828 1.0217152885320768 0 0 0 0.22 50 63 82 9 234 91 
613 0.2540474559112974 0.03676123598172524 1.0268838063541124 0 0 0 0.21 50 64 61 49 201 585 
614 0.06952812768299092 0.05114987139199926 1.0345782730054875 0 0 0 0.26 50 65 61 50 201 586 
615 0.3523315464380155 0.029047506584117113 1.030151267140417 0 0 0 0.23 50 66 128 23 201 587 234 92 
616 0.2004712321776901 0.04227392971981264 1.0316038595950503 0 0 0 0.52 50 67 124 119 175 147 201 588 
617 0.26014871982956544 0.05807216710891128 1.0202865723829275 0 0 0 0.36 50 68 61 51 124 120 152 22 157 49 201 589 
618 0.49481249914550846 -0.04855141589957943 0.9223515126123655 0 0 0 0.24 53 48 77 62 118 60 165 30 170 12 197 49 201 590 235 32 
619 0.4819295966228462 -0.02676416122958437 0.954562843620036 0 0 0 0.21 53 49 77 63 91 51 118 61 165 31 197 50 201 591 232 33 234 93 235 33 
620 0.19619288545568817 -0.010911592880696404 1.0403952955820377 0 0 0 0.28 53 50 124 121 201 592 
621 0.2495734591863518 0.028035587589764942 1.0346915373589356 0 0 0 0.15 53 51 61 52 158 22 201 593 
622 0.3869971758034337 0.08919572443168101 1.0186275205571858 0 0 0 0.17 53 52 165 32 234 94 
623 0.2210694196322966 0.04348371276886624 1.0221986039103126 0 0 0 0.44 53 53 92 91 124 122 158 23 175 148 201 594 232 34 
624 0.19272981628568606 -0.11676676890942922 1.0603070483800037 0 0 0 0.67 53 54 92 92 158 24 201 595 223 46 
625 0.2073225376399448 -0.11820175903779942 1.0571771752356642 0 0 0 0.16 53 55 109 65 128 24 197 51 201 596 
626 0.2662949669032008 -0.09656543990593941 1.048034027830875 0 0 0 0.63 53 56 152 23 201 597 
627 0.20393986132103073 -0.026626196749116118 1.0426301773260978 0 0 0 0.16 61 53 146 141 175 149 201 598 
628 0.10362716034899211 0.038958976246786584 1.0367201044601124 0 0 0 0.16 61 54 124 123 176 95 201 599 204 53 
629 0.10049444633495248 0.04082787219772487 1.0346380364759937 0 0 0 0.15 61 55 201 600 213 107 
630 0.2074553820164616 0.04175464917978678 1.0345932852329873 0 0 0 0.14 61 56 157 50 201 601 
631 0.21609955389597302 0.04409132744099242 1.025082532769681 0 0 0 0.22 61 57 146 142 152 24 157 51 201 602 204 54 
632 0.4874539617603295 -0.08348320631047393 0.9436079207042684 0 0 0 0.41 61 58 128 25 201 603 235 34 
633 0.4848389227153551 -0.05639797461551544 0.9577302962695081 0 0 0 0.26 77 64 165 33 201 604 234 95 235 35 
634 0.4895531760877676 -0.0010979870570873855 0.9159454044724722 0 0 0 0.4 77 65 91 52 165 34 201 605 235 36 
635 0.12935875397630053 0.06349086151159578 1.0257725404267548 0 0 0 0.37 77 66 201 606 234 96 
636 0.48998984854562666 -0.08616055460503926 0.9415954209125673 0 0 0 0.26 118 62 232 35 234 97 
637 0.4818536118987219 0.050428025879107594 0.9448707304606591 0 0 0 0.6 77 67 197 52 201 607 
638 0.4925212029517562 -0.09375798854185935 0.942292400866414 0 0 0 0.29 77 68 118 63 165 35 201 608 232 36 235 37 
639 0.39127397942055786 -0.11991525897879506 1.0530626224750652 0 0 0 0.28 82 10 124 124 201 609 
640 0.48886270115113056 0.02495639576708528 1.0729565843862898 0 0 0 0.24 82 11 92 93 201 610 
641 0.5069052809571915 0.04319632810842825 1.0783543983903425 0 0 0 0.36 82 12 172 18 201 611 
642 0.48335571385554627 -0.07305174373074869 0.9456080142771558 0 0 0 0.21 82 13 170 13 234 98 
643 0.41267753458542855 0.03709835760018529 1.0349811165038412 0 0 0 0.48 82 14 152 25 170 14 201 612 
644 0.6633509758879588 -0.08413684176605297 1.186447581714379 0 0 0 0.13 82 15 170 15 201 613 
645 0.4106029001241871 0.02081917920783102 1.035827073039023 0 0 0 0.47 128 26 170 16 201 614 
646 0.08655229266364618 -0.08416098264377433 1.0538546341590267 0 0 0 0.71 85 51 201 615 223 47 
647 0.17928722238892386 0.06626562861020906 1.021533095828578 0 0 0 0.15 85 52 91 53 98 40 146 143 201 616 213 108 214 51 
648 0.1858267735679602 0.06634327331783162 1.0207867244559727 0 0 0 0.1 91 54 109 66 165 36 201 617 235 38 
649 0.36560666819677556 0.06851958453313281 1.0161886419219701 0 0 0 0.22 91 55 148 44 164 36 165 37 176 96 201 618 235 39 
650 0.26350840738602577 0.0947339367513231 1.0152370678686442 0 0 0 0.16 91 56 175 150 201 619 
651 0.3577837184569774 -0.0793892950821492 1.0433320247811222 0 0 0 0.26 91 57 92 94 201 620 
652 0.2976980222236521 0.06487024051229391 1.0187399764561904 0 0 0 0.12 91 58 201 621 234 99 
653 0.2520336462756972 -0.08087032650011002 1.0481287923810063 0 0 0 0.3 91 59 118 64 157 52 172 19 187 190 201 622 
654 0.49470237991317295 -0.0922732191201138 0.9383225329162322 0 0 0 0.19 91 60 165 38 197 53 234 100 
655 0.11048311962309545 -0.0863751851888183 1.0527150093331195 0 0 0 0.15 92 95 109 67 201 623 
656 0.07492745220754131 -0.003661654700025086 1.0417218421157028 0 0 0 0.35 92 96 124 125 201 624 231 36 
657 0.14767224723519892 -0.0026250240193786815 1.0380954337476076 0 0 0 0.24 92 97 187 191 201 625 
658 0.13959928517021433 -0.08572633255100662 1.0516667927957144 0 0 0 0.42 92 98 146 144 148 45 187 192 197 54 201 626 
659 0.2674086160549224 0.04074279979491079 1.0251409325098944 0 0 0 0.21 92 99 124 126 175 151 201 627 
660 0.16798513189208839 -0.08766458237182456 1.0484738268942644 0 0 0 0.68 92 100 124 127 201 628 
661 0.2471265666092452 -0.07907475952192271 1.0467611588126655 0 0 0 0.17 92 101 187 193 201 629 
662 0.08653049765142302 -0.0868060484412869 1.0554813156676262 0 0 0 0.35 93 27 124 128 201 630 
663 0.16733428719841112 -0.018335397783339355 1.041122020011077 0 0 0 0.14 93 28 112 78 175 152 201 631 
664 0.2640176865300659 0.0415377150107154 1.0237574583938323 0 0 0 0.15 112 79 175 153 201 632 
665 0.28848149402004764 0.09152697414938885 1.0247754529945405 0 0 0 0.28 124 129 175 154 201 633 
666 0.06895191666092303 -0.04587536479089427 1.0515235760541493 0 0 0 0.31 98 41 124 130 201 634 231 37 
667 0.13125681317646462 -0.015855422364958762 1.0396115205715322 0 0 0 0.28 98 42 124 131 146 145 201 635 
668 0.06740112464800148 0.02760219333930852 1.0382596065409833 0 0 0 0.23 98 43 112 80 201 636 
669 0.36692816268961226 0.07647041767552336 1.0160323818103218 0 0 0 0.26 170 17 201 637 234 101 
670 0.07369344001763775 -0.005916748050677413 1.0429288150694491 0 0 0 0.08 109 68 187 194 201 638 
671 0.110234958027704 0.043512876159555985 1.026598714108633 0 0 0 0.14 109 69 176 97 201 639 231 38 
672 0.1481349232021167 0.0593879855239523 1.0206413600802244 0 0 0 0.12 109 70 112 81 187 195 201 640 
673 0.11352308201903535 0.05738513765410788 1.024068669934332 0 0 0 0.31 109 71 124 132 175 155 201 641 
674 0.1127892502781773 0.05899839278724378 1.0235105688992447 0 0 0 0.11 109 72 112 82 187 196 201 642 
675 0.14799698752015517 0.07135163452054946 1.021449174450867 0 0 0 0.15 109 73 187 197 201 643 
676 0.13497184833204967 -0.02216569408700611 1.0424983483721995 0 0 0 0.18 109 74 124 133 201 644 214 52 
677 0.14788102053361593 0.09918826254686361 1.0163890963764413 0 0 0 0.26 109 75 110 52 148 46 187 198 194 29 201 645 213 109 214 53 223 48 234 102 
678 0.15082303804664574 0.07537017134933095 1.0205881611406542 0 0 0 0.23 110 53 194 30 201 646 
679 0.07347300087045407 -0.08968612380616137 1.0555796944685254 0 0 0 0.25 110 54 201 647 231 39 
680 0.08082225428459484 -0.12981315971335702 1.0635257047081672 0 0 0 0.48 110 55 201 648 204 55 
681 0.18840721919192988 0.04724816653247554 1.0213791137050723 0 0 0 0.06 112 83 175 156 201 649 
682 0.33765620624858184 -0.09783741473348445 1.0449090630180744 0 0 0 0.24 112 84 175 157 201 650 
683 0.20217713447325744 -0.01657970868785284 1.0421639012056982 0 0 0 0.19 112 85 175 158 201 651 
684 0.03904319648342093 -0.007214344656643335 1.0440454664952763 0 0 0 0.47 112 86 187 199 201 652 
685 0.20336920988586984 0.000939441916308946 1.0386889945324025 0 0 0 0.14 112 87 175 159 201 653 
686 0.033318992702332156 0.03783170346829455 1.0329010993720704 0 0 0 0.4 112 88 175 160 187 200 201 654 
687 0.07846720552796087 0.03839290955133467 1.0310792772082176 0 0 0 0.15 175 161 187 201 201 655 
688 0.032879643592323045 0.03896378356601866 1.0334645485332603 0 0 0 0.18 112 89 187 202 201 656 
689 0.10693071243084223 0.03960206849485346 1.0289424865105061 0 0 0 0.23 175 162 187 203 201 657 
690 0.14614932877134415 0.03935457859921893 1.0263160016613857 0 0 0 0.08 112 90 175 163 201 658 
691 0.1405266530370572 0.04126201950045225 1.0274764149561484 0 0 0 0.19 112 91 175 164 201 659 
692 0.23284673065660721 0.04715828666056204 1.027074937283612 0 0 0 0.24 112 92 124 134 201 660 
693 0.06026413348448549 0.04814349224264746 1.03606670327672 0 0 0 0.11 112 93 187 204 201 661 
694 0.07214965678368822 0.05018354889593203 1.0264729935749652 0 0 0 0.18 112 94 175 165 201 662 
695 0.17622861227710326 0.05351718530692135 1.0293647412211657 0 0 0 0.14 112 95 175 166 201 663 
696 0.0694089719457273 0.058249518537912534 1.0252754976021563 0 0 0 0.13 112 96 187 205 201 664 
697 0.21355223378829044 0.05894177117187638 1.0191060707593151 0 0 0 0.4 112 97 175 167 201 665 
698 0.17904460197755656 -0.0950318674154226 1.0517433192534587 0 0 0 0.12 112 98 165 39 201 666 235 40 
699 0.09695596449191113 -0.08868253999752593 1.0558762227744547 0 0 0 0.43 112 99 201 667 231 40 
700 0.10245686924050945 -0.016953734790269705 1.045303099243567 0 0 0 0.21 112 100 175 168 201 668 231 41 
701 0.06969879003335747 -0.012263756221841332 1.0443162464908244 0 0 0 0.21 112 101 187 206 201 669 
702 0.1823957336344611 -0.00844738075389177 1.0397314039792167 0 0 0 0.44 112 102 124 135 201 670 
703 0.14174734448844173 0.0321257453353773 1.0296350928459017 0 0 0 0.12 175 169 187 207 201 671 
704 0.14103531798198116 0.040489805007561996 1.0318257277546925 0 0 0 0.27 112 103 175 170 201 672 
705 0.3033029415432296 0.04071694779133442 1.0261878440273702 0 0 0 0.16 112 104 175 171 201 673 
706 0.28408882983152123 0.041775302370310095 1.0222109326886453 0 0 0 0.2 112 105 175 172 201 674 
707 0.22152213206261753 0.047882551959210186 1.02001707580142 0 0 0 0.26 112 106 175 173 176 98 201 675 
708 0.22631166687111878 0.050432255124719175 1.021524468839759 0 0 0 0.38 112 107 175 174 201 676 
709 0.1863765834315388 0.05836733135797136 1.019610624445393 0 0 0 0.19 112 108 146 146 201 677 
710 0.2187902837885358 0.06172773918684869 1.0196031996932304 0 0 0 0.13 112 109 201 678 213 110 
711 0.14306542671436015 -0.021224011412134883 1.0431673417480998 0 0 0 0.44 112 110 146 147 201 679 
712 0.18036898605187648 -0.01103691712462482 1.0401986045900062 0 0 0 0.1 112 111 157 53 201 680 
713 0.1957156436605019 0.007524980120198948 1.0379616141709602 0 0 0 0.27 112 112 118 65 157 54 201 681 234 103 
714 0.14702427590773876 0.04076078404545436 1.0251892873597268 0 0 0 0.09 112 113 175 175 201 682 
715 0.21430294314775347 0.040888685004161276 1.0323211771677863 0 0 0 0.25 112 114 146 148 201 683 
716 0.25662248168774543 0.043101540198093334 1.022974198685685 0 0 0 0.17 112 115 146 149 175 176 176 99 201 684 
717 0.26751660892370116 0.05122884492283265 1.022004385502648 0 0 0 0.47 112 116 175 177 201 685 204 56 
718 0.23372812175848517 0.04363079154624481 1.026277532480398 0 0 0 0.27 112 117 124 136 175 178 201 686 234 104 
719 0.14165730705422142 0.05236106808020771 1.0250789586465503 0 0 0 0.19 112 118 152 26 176 100 201 687 231 42 
720 0.1699674990055496 -0.004283956445693629 1.0409981500561178 0 0 0 0.49 112 119 197 55 201 688 234 105 
721 0.1409484410868324 -0.015888065665735595 1.040979786397444 0 0 0 0.32 118 66 146 150 176 101 201 689 204 57 223 49 231 43 
722 0.10122609271317012 0.0025482895396493886 1.0423415576025228 0 0 0 0.12 118 67 201 690 232 37 
723 0.13136980818247462 0.042818896018516 1.0372097310911885 0 0 0 0.3 118 68 157 55 175 179 201 691 
724 0.06733582257861462 0.045470451899555384 1.0289012562727704 0 0 0 0.24 118 69 152 27 197 56 201 692 
725 0.15722211621620102 0.06348202335704721 1.0223046468740415 0 0 0 0.39 118 70 152 28 176 102 201 693 232 38 234 106 
726 0.4924374990032907 -0.09369729714913654 0.942259587297429 0 0 0 0.25 118 71 165 40 201 694 232 39 235 41 
727 0.0473835743552277 -0.09477028617826214 1.0593172163731872 0 0 0 0.36 124 137 176 103 201 695 
728 0.14096101787603535 0.034546044297197855 1.0295250769130941 0 0 0 0.24 124 138 175 180 201 696 
