# 3D point list with one line of data per point:
#   POINT3D_ID, X, Y, Z, R, G, B, ERROR, TRACK[] as (IMAGE_ID, POINT2D_IDX)
# Number of points: 118, mean track length: 3.43
0 0.0750663116857772 -0.06485636639919311 0.8472331485963909 0 0 0 0.15 42 0 222 0 232 0 
1 0.09343891879785399 -0.02575287525573418 0.8242500375189145 0 0 0 0.43 42 1 222 1 235 0 
2 -0.03833434857229105 -0.002717414146481126 0.8939620698469231 0 0 0 0.28 42 2 217 0 222 2 227 0 232 1 
3 -0.035559137792584475 -0.00013800160432718834 0.8892095002139542 0 0 0 0.33 42 3 217 1 220 0 
4 -0.20953523571037208 0.03464778511617633 0.9945259105271211 0 0 0 0.86 42 4 220 1 224 0 232 2 
5 0.31735957469670295 0.03063071074280027 0.6810091412642973 0 0 0 0.81 42 5 223 0 235 1 
6 0.1568836419591415 0.12315037881678388 0.7319862018858246 0 0 0 0.48 42 6 223 1 235 2 
7 0.17265990692134747 0.12415490046580661 0.7205080853172847 0 0 0 0.2 42 7 223 2 235 3 
8 0.15988224385929456 0.15872341029152628 0.7206338048788284 0 0 0 0.14 42 8 223 3 235 4 
9 0.06979441179488491 0.17151208922336972 0.7681918098659869 0 0 0 0.65 42 9 223 4 235 5 
10 0.06748484284744088 0.1735951076097941 0.7682267041456193 0 0 0 0.92 42 10 223 5 
11 0.1753835326996481 0.15832564213953537 0.7071617942307894 0 0 0 0.16 42 11 223 6 235 6 
12 0.1071300268418399 0.1744273140266407 0.7435211606223889 0 0 0 0.52 42 12 223 7 235 7 
13 0.06813701714308795 0.18679231334690646 0.7623586066077527 0 0 0 1.38 42 13 223 8 
14 0.06696083433978932 0.21352996806700109 0.7506441050060007 0 0 0 1.38 42 14 223 9 
15 0.21278474647973294 -0.06488246082979698 0.7552113505949788 0 0 0 0.7 42 15 223 10 235 8 
16 0.23618379319210553 -0.05184545014222552 0.7428532710200518 0 0 0 0.46 42 16 232 3 235 9 
17 0.22164923235168366 -0.05198048299797824 0.7474284730384732 0 0 0 0.76 42 17 223 11 235 10 
18 -0.012251707269553097 -0.0596987736171922 0.9003842579149314 0 0 0 0.63 42 18 220 2 227 1 
19 -0.007502356889717096 -0.05779349929990975 0.8825362524286193 0 0 0 0.15 42 19 217 2 220 3 
20 0.20792733746584732 -0.04278740827183769 0.7541714737352315 0 0 0 0.29 42 20 222 3 223 12 
21 0.13912977797154114 -0.035266244819967735 0.7984128061664868 0 0 0 0.12 42 21 222 4 227 2 
22 0.349215901912964 -0.02745588171298952 0.6981019072621928 0 0 0 0.37 42 22 220 4 235 11 
23 0.12369499255971747 -0.03195514671629132 0.806666856432553 0 0 0 0.16 42 23 220 5 227 3 
24 0.11311703950617957 -0.02967030187945454 0.8121172904347925 0 0 0 0.58 42 24 220 6 223 13 235 12 
25 0.1837399231477673 -0.015741893397099842 0.7622332540146591 0 0 0 0.22 42 25 223 14 235 13 
26 0.03214534396290439 -0.018012844159968476 0.8562508492829696 0 0 0 0.19 42 26 220 7 227 4 
27 -0.09616350194709221 -0.01822018470519774 0.9339107862918254 0 0 0 0.24 42 27 217 3 232 4 
28 -0.08094012561083694 -0.00033008026145629364 0.9193985821476129 0 0 0 0.28 42 28 217 4 220 8 222 5 232 5 
29 0.3554022996056899 0.028199916153199178 0.6779085139181672 0 0 0 1.12 42 29 223 15 235 14 
30 0.2776335567442906 0.09584999358758894 0.670245910264099 0 0 0 0.24 42 30 223 16 235 15 
31 0.17883333970237456 0.11981026231413917 0.7165151329074256 0 0 0 0.21 42 31 223 17 235 16 
32 0.11592415755416338 0.13420299647986583 0.7531815543731152 0 0 0 0.21 42 32 223 18 235 17 
33 0.29826062954576144 0.13570656787890062 0.6522591086276556 0 0 0 0.34 42 33 223 19 235 18 
34 0.14423974662352423 0.16112756251951893 0.7259912532739292 0 0 0 0.21 42 34 223 20 235 19 
35 0.14423974662352432 0.16112756251951893 0.7259912532739292 0 0 0 0.21 42 35 223 21 235 20 
36 0.14365514464991844 0.16737865734986546 0.7246316173270707 0 0 0 0.43 42 36 223 22 235 21 
37 0.17102687142947642 0.16580135359965661 0.7072176198854744 0 0 0 0.23 42 37 222 6 232 6 235 22 
38 0.27982335653916657 0.16929887849688652 0.643210408695893 0 0 0 0.65 42 38 223 23 235 23 
39 0.06916989983489559 0.20455511309931076 0.7536455088898607 0 0 0 1.16 42 39 223 24 
40 0.06961924049819959 0.2105715566649904 0.7501724771471225 0 0 0 1.53 42 40 223 25 
41 0.03365645500088545 0.2184108443938647 0.7731257125372033 0 0 0 1.81 42 41 223 26 
42 0.25112194099511415 -0.06184656486108968 0.7364952834842882 0 0 0 0.34 42 42 220 9 235 24 
43 0.24655534390958742 -0.057526014457313875 0.7366900355058579 0 0 0 0.34 42 43 220 10 235 25 
44 0.20528648358803456 -0.053149201949170104 0.7629820191244843 0 0 0 0.36 42 44 227 5 235 26 
45 0.21779056827212265 -0.04481187377702624 0.747771987587864 0 0 0 0.66 42 45 223 27 232 7 235 27 
46 0.13255429247328163 -0.03817374710851915 0.8029003100065378 0 0 0 0.48 42 46 227 6 232 8 235 28 
47 0.126893012086347 -0.03668369528876173 0.8071591392368549 0 0 0 0.23 42 47 220 11 222 7 232 9 235 29 
48 0.11959525498742857 -0.03523598866611863 0.8105570340863127 0 0 0 0.48 42 48 220 12 223 28 227 7 232 10 235 30 
49 0.11271394942185849 -0.03401889806245203 0.8169406778545392 0 0 0 0.36 42 49 220 13 223 29 
50 0.10669414626771591 -0.03255460213380779 0.8171311803491383 0 0 0 0.63 42 50 220 14 223 30 232 11 235 31 
51 0.09943506185375417 -0.030786648904408836 0.8219399918212024 0 0 0 0.15 42 51 220 15 227 8 235 32 
52 -0.10629468423648557 -0.03589771068005645 0.9452622656685958 0 0 0 0.17 42 52 217 5 220 16 
53 0.08983378869806516 -0.02919891463838956 0.8271898235256936 0 0 0 0.54 42 53 223 31 227 9 
54 0.07062298507842567 -0.025288564399812773 0.8384252147834805 0 0 0 0.64 42 54 222 8 227 10 235 33 
55 0.03907711006576602 -0.004022256899078225 0.8460291550108567 0 0 0 0.31 42 55 217 6 220 17 222 9 227 11 
56 -0.1362046967152853 0.007257417287999423 0.9491310408175374 0 0 0 0.39 42 56 217 7 220 18 
57 -0.1673653288561883 0.011732459282419222 0.9673537895482934 0 0 0 0.33 42 57 217 8 222 10 232 12 
58 0.22462992975013713 0.028743849817803785 0.7248140556655002 0 0 0 0.23 42 58 222 11 223 32 232 13 
59 0.3212320527116589 0.04407361720202081 0.6775251080015366 0 0 0 0.58 42 59 223 33 235 34 
60 0.28020687816508627 0.10074387180981863 0.6644890099541433 0 0 0 0.26 42 60 223 34 235 35 
61 0.24750959766440422 0.10484017059663661 0.6771197077671526 0 0 0 0.35 42 61 223 35 235 36 
62 0.10647746760388069 0.1356511197975233 0.754254289031749 0 0 0 1.59 42 62 223 36 
63 0.10760019461831351 0.14941199336805416 0.7515532558989164 0 0 0 0.42 42 63 222 12 223 37 235 37 
64 0.17866761230912415 0.1562218765994549 0.705033738495178 0 0 0 0.24 42 64 223 38 232 14 235 38 
65 0.10790667930172729 0.1692949013008567 0.7444386421124071 0 0 0 0.39 42 65 232 15 235 39 
66 0.17278147761817794 0.16188788192767756 0.7064050857585281 0 0 0 0.18 42 66 220 19 222 13 232 16 235 40 
67 0.24994483857743904 0.15405691052295387 0.6624502492474558 0 0 0 0.59 42 67 223 39 235 41 
68 0.2798786730906303 0.1598714733387407 0.6479311982182541 0 0 0 0.5 42 68 223 40 235 42 
69 0.25997539998921076 0.167391385089232 0.6522747695248965 0 0 0 0.46 42 69 220 20 222 14 223 41 
70 0.2550490197777944 -0.06693053668817281 0.7391815602001087 0 0 0 0.41 42 70 217 9 220 21 
71 0.2386607251114001 -0.059249205427711636 0.7409254807514427 0 0 0 0.61 42 71 223 42 235 43 
72 0.1650041143214124 -0.04476836734202746 0.7850114021803788 0 0 0 0.24 42 72 220 22 227 12 
73 0.15569045832623404 -0.04259181652577566 0.7915970569435652 0 0 0 0.37 42 73 217 10 220 23 223 43 227 13 235 44 
74 -0.030574744998869453 -0.04634515706759323 0.9061930828345807 0 0 0 0.24 42 74 227 14 232 17 
75 -0.08740117541295282 -0.030589937514967528 0.9323145241504428 0 0 0 0.13 42 75 217 11 220 24 
76 0.2756307119467723 -0.0032144421264849077 0.7060815442922357 0 0 0 0.29 42 76 217 12 220 25 222 15 227 15 232 18 
77 0.08334340893326277 0.044740860128417166 0.8079853154826195 0 0 0 0.14 42 77 217 13 220 26 
78 0.37165743992698375 0.0410046890365295 0.6806987960941876 0 0 0 0.96 217 14 223 44 235 45 
79 0.2974963045812978 0.041174689361396774 0.6818196219360194 0 0 0 0.09 42 78 217 15 222 16 235 46 
80 0.29753725198625747 0.04141783417135496 0.6818182152753974 0 0 0 0.32 42 79 217 16 223 45 235 47 
81 0.08821471973953254 0.10753353719176156 0.7862696334866071 0 0 0 0.34 42 80 220 27 223 46 
82 0.28322664666714437 0.13104813526527215 0.6548477666392047 0 0 0 0.36 42 81 223 47 235 48 
83 0.286995826608637 0.13258180771567613 0.6538234144280725 0 0 0 0.45 42 82 223 48 235 49 
84 -0.0721725496872885 0.18236399361818587 0.8450886091469989 0 0 0 0.23 42 83 217 17 220 28 
85 0.3210289979584431 0.13829939733862776 0.6345157555639229 0 0 0 0.49 222 17 223 49 235 50 
86 0.1541327781444894 0.1636100058816711 0.7202075697093959 0 0 0 0.24 42 84 220 29 223 50 235 51 
87 0.25415645418353827 0.15928137126201874 0.6570908892092513 0 0 0 0.47 42 85 223 51 235 52 
88 0.11659521863572572 0.1811841709224862 0.7332562954724423 0 0 0 0.13 42 86 217 18 220 30 
89 0.11678296084464361 0.1816655518415373 0.7345711737594465 0 0 0 0.51 42 87 220 31 222 18 223 52 
90 0.2504094106084516 0.16193035763202573 0.6596348642214936 0 0 0 0.68 42 88 220 32 223 53 
91 0.16914771961284875 0.1758836149556253 0.7039919017565064 0 0 0 0.2 42 89 222 19 223 54 
92 0.15353459949794898 0.17919750166612092 0.7124165743940861 0 0 0 0.27 42 90 222 20 235 53 
93 0.27691537298075936 0.16186733097135533 0.6489270388673525 0 0 0 0.44 42 91 223 55 235 54 
94 0.26947657078045534 0.1683437987406591 0.644507585800368 0 0 0 0.54 42 92 217 19 220 33 222 21 
95 0.2947629767840236 0.1691763110047969 0.6416277328837042 0 0 0 0.63 42 93 223 56 235 55 
96 0.06435677029942044 -0.05421016292941555 0.8506313211229729 0 0 0 0.28 42 94 220 34 222 22 227 16 
97 0.2906757781069456 0.02214404716777175 0.6894055246805593 0 0 0 0.33 42 95 217 20 223 57 235 56 
98 0.28719546380610766 0.0410263660071367 0.6822032336193655 0 0 0 0.22 42 96 217 21 222 23 235 57 
99 0.1486086796090991 0.1660021518952824 0.721797307915666 0 0 0 0.36 42 97 220 35 223 58 235 58 
100 0.25841942448542754 0.16336272865945994 0.6544752682762827 0 0 0 0.25 42 98 220 36 223 59 
101 0.0522510329467082 -0.01276778311606044 0.8422493641717486 0 0 0 0.24 42 99 217 22 220 37 
102 0.29648883183116403 0.014900865278138133 0.6907204273011778 0 0 0 0.7 42 100 220 38 222 24 223 60 
103 0.2871182746333065 0.02768660943081677 0.6861802968324844 0 0 0 0.1 42 101 217 23 222 25 232 19 235 59 
104 0.31636388292484746 0.04748172375565609 0.6781902166468443 0 0 0 0.71 42 102 223 61 235 60 
105 0.26671488934299403 -0.056580159969754316 0.7252871643098192 0 0 0 0.68 42 103 217 24 220 39 227 17 232 20 235 61 
106 0.13221487999140386 -0.01993248674931267 0.7936732557353089 0 0 0 0.52 42 104 222 26 235 62 
107 0.29152399928648715 0.16221413167915089 0.6436606192987637 0 0 0 0.5 220 40 222 27 223 62 235 63 
108 -0.11169338913277951 0.19455737097381837 0.8679795449326057 0 0 0 0.63 42 105 227 18 232 21 
109 0.28057926079974077 0.16383180645243886 0.6443899429477431 0 0 0 0.21 42 106 217 25 220 41 222 28 235 64 
110 0.16273412429615 -0.04059828110053804 0.7831969520695418 0 0 0 0.57 42 107 217 26 222 29 223 63 232 22 235 65 
111 0.16319883187667086 -0.04104724987146112 0.7852076434150035 0 0 0 0.26 42 108 217 27 223 64 
112 0.21555839496700646 -0.008129733020639423 0.74269819497265 0 0 0 0.48 42 109 223 65 232 23 235 66 
113 0.2152048225101431 -0.008053960979732433 0.7418539962589465 0 0 0 0.35 42 110 223 66 235 67 
114 0.1805793253366378 -0.0022000616476383224 0.7632105031677725 0 0 0 0.51 42 111 223 67 232 24 
115 0.05278276114837184 0.0049193448792358594 0.8372229682108153 0 0 0 0.39 42 112 217 28 222 30 232 25 
116 0.2671044921783127 0.15671301646529087 0.6543516901263599 0 0 0 0.47 42 113 217 29 222 31 223 68 235 68 
117 0.26706241417819504 0.15651749410003876 0.6541940502296827 0 0 0 0.33 42 114 223 69 235 69 
