# 3D point list with one line of data per point:
#   POINT3D_ID, X, Y, Z, R, G, B, ERROR, TRACK[] as (IMAGE_ID, POINT2D_IDX)
# Number of points: 291, mean track length: 9.52
235 -0.4931928856005488 -0.0967225362067778 0.8344136921492874 0 0 0 0.23 7 47 8 23 18 18 30 35 31 51 55 100 57 37 59 35 86 42 90 10 94 52 99 18 106 59 116 76 119 32 122 15 125 45 139 34 140 80 144 51 145 50 149 70 151 83 154 63 161 45 166 47 173 54 177 98 178 11 183 60 193 91 205 59 210 40 211 30 212 30 216 74 218 85 225 13 226 61 228 53 233 37 
236 -0.4843367401404467 -0.11654141247526772 1.018407225950371 0 0 0 0.4 7 48 37 26 46 22 47 57 55 101 57 38 59 36 86 43 116 77 119 33 125 46 137 25 140 81 144 52 145 51 150 25 151 84 166 48 183 61 189 12 191 12 193 92 202 25 212 31 216 75 228 54 233 38 
237 -0.564919965216199 -0.07310729814452968 0.6427923012178991 0 0 0 0.29 23 59 58 16 72 45 183 62 205 60 210 41 216 76 226 62 
238 -0.5090167704030546 -0.09282257580748333 0.8263900328990561 0 0 0 0.25 31 52 47 58 55 102 102 52 106 60 116 78 125 47 131 21 140 82 149 71 161 46 166 49 177 99 193 93 210 42 218 86 228 55 
239 -0.10355467970847058 -0.14395820635413895 1.3031194591934359 0 0 0 0.2 23 60 24 6 31 53 55 103 99 19 106 61 
240 -0.10343328002778848 -0.14389237201071858 1.3034323227547022 0 0 0 0.29 23 61 24 7 31 54 57 39 99 20 102 53 177 100 
241 -0.48200912068161866 -0.11090835149087615 1.00469369079874 0 0 0 0.41 34 50 46 23 47 59 55 104 59 37 86 44 94 53 116 79 119 34 139 35 140 83 143 39 145 52 166 50 183 63 193 94 216 77 226 63 
242 -0.48391128635171826 -0.1138074734357706 1.0287086642953795 0 0 0 0.44 57 40 116 80 119 35 139 36 140 84 161 47 166 51 191 13 205 61 218 87 226 64 
243 -0.28413660341944186 -0.14541713967115633 1.342037233723404 0 0 0 0.41 55 105 140 85 143 40 177 101 205 62 
244 -0.5486689477001079 -0.07983471368136316 0.7310340546118951 0 0 0 0.23 55 106 58 17 125 48 151 85 205 63 226 65 228 56 
245 -0.4542374164217563 -0.12506232946539114 1.1610795113485206 0 0 0 0.25 23 62 24 8 30 36 31 55 34 51 47 60 55 107 57 41 59 38 72 46 94 54 102 54 106 62 116 81 140 86 143 41 144 53 145 53 151 86 173 55 177 102 178 12 180 35 193 95 212 32 218 88 226 66 228 57 233 39 
246 -0.5061749191331082 -0.08925162776519711 0.8260288965406147 0 0 0 0.29 8 24 18 19 31 56 34 52 46 24 47 61 57 42 72 47 86 45 94 55 102 55 106 63 116 82 125 49 139 37 140 87 143 42 145 54 149 72 151 87 154 64 161 48 166 52 171 9 173 56 177 103 180 36 193 96 205 64 210 43 218 89 226 67 228 58 
247 0.12054236972909159 -0.13698580886722667 1.2842803107786174 0 0 0 0.26 23 63 106 64 177 104 
248 0.03594148222499676 -0.1396623986232694 1.3340787390430737 0 0 0 0.23 23 64 24 9 31 57 55 108 106 65 150 26 177 105 
249 0.03619137805834686 -0.13987116425328383 1.3391714476209646 0 0 0 0.11 23 65 24 10 106 66 177 106 
250 -0.4485027529627836 -0.12251284658592848 1.1946232539723027 0 0 0 0.26 18 20 24 11 55 109 72 48 102 56 106 67 173 57 178 13 210 44 216 78 218 90 226 68 
251 -0.44794276288824164 -0.12247448578978169 1.1931160001506933 0 0 0 0.23 55 110 72 49 102 57 106 68 131 22 137 26 154 65 173 58 178 14 226 69 
252 -0.5203336585331538 -0.08392475591361677 0.8338390922961365 0 0 0 0.22 31 58 57 43 212 33 
253 -0.27730743131183305 -0.13230686658501453 1.3333697270369742 0 0 0 0.26 23 66 57 44 59 39 72 50 102 58 106 69 131 23 137 27 140 88 143 43 144 54 150 27 161 49 177 107 189 13 191 14 202 26 205 65 212 34 216 79 228 59 
254 -0.4460559087503727 -0.11833012883848494 1.2011100015959868 0 0 0 0.34 18 21 24 12 31 59 72 51 106 70 119 36 140 89 143 44 173 59 177 108 178 15 180 37 189 14 193 97 210 45 216 80 218 91 225 14 226 70 233 40 
255 -0.29541453163344283 -0.12843269208734448 1.3422794936465108 0 0 0 0.32 8 25 23 67 24 13 31 60 55 111 57 45 59 40 102 59 106 71 131 24 137 28 140 90 143 45 144 55 150 28 171 10 177 109 178 16 180 38 189 15 202 27 210 46 212 35 216 81 225 15 228 60 
256 -0.49215103809968164 -0.09642674346768686 1.0060660308473823 0 0 0 0.31 34 53 94 56 116 83 193 98 216 82 226 71 
257 -0.5548193437933776 -0.06339713081859484 0.6652945316275158 0 0 0 0.26 55 112 58 18 228 61 
258 -0.46525062799967043 -0.10324107119449732 1.1059192930358235 0 0 0 0.63 47 62 59 41 72 52 106 72 119 37 144 56 145 55 173 60 183 64 
259 -0.4474994137461351 -0.10849831987092269 1.172995244379037 0 0 0 0.14 116 84 177 110 218 92 
260 -0.03292578612606395 -0.11921280559150127 1.3013776134543416 0 0 0 0.3 24 14 57 46 177 111 
261 -0.00942885115014452 -0.11888294788602739 1.2929553898381843 0 0 0 0.08 24 15 102 60 140 91 177 112 
262 -0.549326890605005 -0.06860282271122471 0.7390370659199118 0 0 0 0.18 55 113 72 53 226 72 
263 -0.5367993348459229 -0.06964289945431114 0.7589722569416248 0 0 0 0.4 18 22 30 37 177 113 193 99 205 66 226 73 
264 -0.4885561220426738 -0.0804716734064071 0.8843398907695282 0 0 0 0.59 24 16 31 61 34 54 55 114 99 21 102 61 106 73 154 66 193 100 228 62 
265 -0.48813386942787274 -0.08056421060290508 0.8835226726798125 0 0 0 0.53 24 17 99 22 102 62 106 74 119 38 121 0 
266 -0.4792439349392381 -0.08306968307379646 0.9273248334119527 0 0 0 0.25 7 49 8 26 18 23 24 18 30 38 31 62 34 55 37 27 45 6 46 25 47 63 55 115 57 47 59 42 72 54 86 46 94 57 99 23 102 63 106 75 116 85 119 39 122 16 125 50 131 25 137 29 140 92 143 46 144 57 145 56 149 73 150 29 151 88 154 67 161 50 166 53 171 11 173 61 177 114 180 39 183 65 189 16 191 15 193 101 202 28 205 67 210 47 211 31 216 83 218 93 226 74 228 63 233 41 
267 -0.3628184996311845 -0.12004437483855485 1.3572843657338447 0 0 0 0.51 102 64 119 40 140 93 177 115 191 16 193 102 
268 -0.48444825894756 -0.07740783151887076 0.8845484742887516 0 0 0 0.35 7 50 18 24 24 19 34 56 55 116 57 48 59 43 72 55 94 58 99 24 102 65 106 76 116 86 119 41 121 1 122 17 125 51 131 26 137 30 140 94 143 47 144 58 145 57 149 74 151 89 154 68 161 51 166 54 173 62 177 116 178 17 180 40 183 66 191 17 193 103 202 29 210 48 212 36 216 84 218 94 225 16 226 75 228 64 233 42 
269 -0.4854766048023092 -0.08073036737673046 0.9166427982834927 0 0 0 0.37 37 28 47 64 59 44 116 87 125 52 139 38 140 95 151 90 161 52 193 104 211 32 216 85 228 65 233 43 
270 -0.028361776225534787 -0.11369160088977474 1.2944770370486696 0 0 0 0.22 23 68 24 20 55 117 99 25 102 66 177 117 
271 0.1667668037823443 -0.11386503470641886 1.304441958694495 0 0 0 0.24 23 69 24 21 31 63 57 49 106 77 
272 -0.43941711389999366 -0.10443442153910233 1.2099048669720465 0 0 0 0.4 7 51 34 57 37 29 59 45 94 59 122 18 140 96 191 18 193 105 225 17 
273 -0.4399160382618137 -0.10456310971195712 1.21133827316501 0 0 0 0.4 7 52 34 58 37 30 45 7 59 46 94 60 122 19 139 39 140 97 166 55 191 19 193 106 225 18 
274 -0.37572271934060225 -0.11766760213620756 1.3615176970653673 0 0 0 0.26 55 118 72 56 102 67 143 48 177 118 226 76 
275 -0.37567586782606105 -0.11757117786083907 1.3610950484756301 0 0 0 0.24 55 119 72 57 102 68 143 49 226 77 
276 -0.006848168833952234 -0.11198695444347473 1.2919185087081544 0 0 0 0.24 8 27 23 70 24 22 31 64 57 50 102 69 106 78 140 98 150 30 177 119 189 17 202 30 
277 -0.5383760221428328 -0.06788342395798093 0.7826648883792848 0 0 0 0.22 30 39 94 61 102 70 116 88 139 40 140 99 177 120 183 67 205 68 210 49 211 33 226 78 
278 -0.3197404094552155 -0.11568645983263538 1.350229990883095 0 0 0 0.26 23 71 24 23 31 65 55 120 57 51 59 47 102 71 106 79 119 42 131 27 137 31 140 100 143 50 144 59 150 31 161 53 177 121 178 18 180 41 189 18 191 20 193 107 225 19 228 66 
279 -0.30771738253672776 -0.11564174639146862 1.3463802634796598 0 0 0 0.15 55 121 57 52 106 80 131 28 140 101 144 60 161 54 171 12 180 42 205 69 216 86 
280 -0.5649124276215233 -0.055878980699595585 0.6528860247588332 0 0 0 0.24 116 89 140 102 149 75 216 87 228 67 
281 -0.4747132439560198 -0.0826898332438119 0.9707025389933993 0 0 0 0.43 94 62 166 56 191 21 193 108 216 88 
282 -0.47030432992805576 -0.08229403653811587 0.9614114237363911 0 0 0 0.53 94 63 116 90 149 76 166 57 191 22 193 109 216 89 
283 -0.5516240031731958 -0.06027156853708563 0.7041702515277936 0 0 0 0.29 7 53 30 40 37 31 46 26 58 19 94 64 116 91 149 77 161 55 183 68 205 70 211 34 216 90 228 68 
284 -0.3371480972233274 -0.10993237980109502 1.3563989221226658 0 0 0 0.37 55 122 177 122 193 110 
285 -0.41913784106931995 -0.09883459441362491 1.2259348020953682 0 0 0 0.12 151 91 180 43 210 50 
286 -0.49442414562901366 -0.06646886391827808 0.8432077614100828 0 0 0 0.27 46 27 106 81 151 92 173 63 
287 -0.5492472125446369 -0.0568692336176442 0.7200120160097822 0 0 0 0.25 7 54 37 32 58 20 72 58 86 47 140 103 149 78 154 69 161 56 177 123 183 69 193 111 205 71 210 51 216 91 226 79 228 69 233 44 
288 -0.549067755505599 -0.0569103828082315 0.7197775147409063 0 0 0 0.29 30 41 34 59 55 123 58 21 90 11 116 92 140 104 149 79 161 57 183 70 193 112 205 72 210 52 216 92 226 80 233 45 
289 -0.4620863447863438 -0.08641885155700718 1.1084657528807658 0 0 0 0.23 24 24 37 33 47 65 59 48 94 65 102 72 116 93 119 43 143 51 149 80 166 58 178 19 189 19 202 31 216 93 226 81 
290 -0.49992685263779485 -0.06376679350133374 0.8244801492154403 0 0 0 0.38 31 66 94 66 99 26 139 41 140 105 143 52 154 70 171 13 183 71 216 94 
291 -0.49243608415858986 -0.0783135963368634 1.0143249248147166 0 0 0 0.43 37 34 55 124 86 48 94 67 116 94 125 53 139 42 140 106 145 58 
292 -0.4739560999754486 -0.0724295193879251 0.9389467270179935 0 0 0 0.41 7 55 18 25 24 25 31 67 34 60 47 66 55 125 57 53 59 49 72 59 90 12 94 68 99 27 102 73 106 82 116 95 121 2 122 20 125 54 139 43 140 107 143 53 144 61 149 81 150 32 151 93 154 71 161 58 166 59 173 64 177 124 180 44 193 113 202 32 211 35 212 37 216 95 218 95 226 82 228 70 
293 -0.47390247827235116 -0.07246635698511816 0.9389405808591436 0 0 0 0.41 7 56 18 26 24 26 30 42 31 68 34 61 37 35 46 28 47 67 57 54 59 50 72 60 86 49 90 13 94 69 99 28 102 74 106 83 116 96 121 3 122 21 125 55 139 44 140 108 143 54 144 62 149 82 150 33 151 94 154 72 166 60 173 65 177 125 180 45 183 72 189 20 191 23 193 114 202 33 210 53 211 36 212 38 216 96 218 96 226 83 228 71 233 46 
294 -0.4851275829681187 -0.08017102931240172 1.0426514982566613 0 0 0 0.85 34 62 47 68 94 70 189 21 191 24 202 34 210 54 211 37 
295 -0.47185546961313146 -0.07989661464131156 1.0818383012312487 0 0 0 0.23 7 57 24 27 30 43 31 69 46 29 55 126 59 51 72 61 99 29 102 75 106 84 116 97 119 44 131 29 137 32 140 109 143 55 144 63 145 59 149 83 150 34 154 73 173 66 177 126 178 20 193 115 202 35 205 73 210 55 212 39 216 97 233 47 
296 -0.4805077654551707 -0.06835037359822498 0.9189718850534442 0 0 0 0.32 31 70 34 63 37 36 46 30 57 55 72 62 86 50 90 14 94 71 102 76 106 85 122 22 125 56 137 33 139 45 140 110 143 56 145 60 149 84 151 95 154 74 173 67 177 127 180 46 183 73 189 22 193 116 202 36 205 74 212 40 218 97 226 84 228 72 233 48 
297 -0.4164786790966047 -0.08901608106418592 1.2301014647713562 0 0 0 0.27 31 71 34 64 55 127 57 56 59 52 72 63 94 72 106 86 119 45 122 23 140 111 143 57 144 64 151 96 166 61 173 68 177 128 193 117 202 37 212 41 218 98 228 73 233 49 
298 -0.41672091899236996 -0.08922030684678586 1.23117773860422 0 0 0 0.27 34 65 45 8 59 53 72 64 86 51 94 73 106 87 119 46 122 24 137 34 140 112 144 65 151 97 166 62 173 69 177 129 193 118 202 38 212 42 226 85 228 74 233 50 
299 -0.4959450697177654 -0.07219368085885718 1.0130067049228348 0 0 0 0.29 34 66 57 57 86 52 116 98 125 57 140 113 145 61 149 85 193 119 
300 -0.5529517506699076 -0.050294847168029753 0.7100714290217038 0 0 0 0.32 55 128 161 59 210 56 226 86 233 51 
301 -0.4486518883937799 -0.08302215675804633 1.1762311398946628 0 0 0 0.25 31 72 34 67 47 69 55 129 59 54 72 65 86 53 99 30 106 88 116 99 143 58 144 66 150 35 151 98 154 75 166 63 173 70 177 130 180 47 193 120 202 39 212 43 216 98 226 87 228 75 233 52 
302 -0.5516700083326224 -0.049907941072571675 0.7185769072389511 0 0 0 0.25 7 58 23 72 30 44 72 66 102 77 143 59 161 60 173 71 183 74 205 75 210 57 228 76 233 53 
303 -0.5371749514177313 -0.05300148806283625 0.762873870548146 0 0 0 0.25 30 45 34 68 55 130 57 58 125 58 139 46 140 114 183 75 205 76 216 99 226 88 228 77 233 54 
304 -0.5385603297586928 -0.05210807489162058 0.758860359218543 0 0 0 0.24 8 28 23 73 34 69 55 131 86 54 125 59 131 30 139 47 143 60 144 67 145 62 151 99 154 76 161 61 183 76 216 100 218 99 226 89 
305 -0.5342051731816421 -0.055073854134516015 0.7987832881124388 0 0 0 0.23 31 73 55 132 72 67 137 35 143 61 161 62 177 131 183 77 210 58 226 90 
306 -0.5334807084829641 -0.055131908912222236 0.7975432609028874 0 0 0 0.42 23 74 30 46 31 74 34 70 37 37 46 31 72 68 94 74 99 31 116 100 140 115 173 72 177 132 183 78 193 121 205 77 210 59 216 101 218 100 226 91 233 55 
307 -0.4354491800836087 -0.08203204249020793 1.2122325248052723 0 0 0 0.26 8 29 18 27 30 47 31 75 34 71 45 9 47 70 55 133 57 59 72 69 94 75 102 78 106 89 116 101 119 47 122 25 125 60 131 31 137 36 139 48 140 116 143 62 144 68 149 86 154 77 166 64 173 73 177 133 178 21 186 2 193 122 202 40 210 60 211 38 216 102 218 101 225 20 226 92 228 78 233 56 
308 -0.54592956932389 -0.050348746219537374 0.7481713689504439 0 0 0 0.2 125 61 145 63 149 87 151 100 154 78 177 134 183 79 205 78 210 61 218 102 228 79 
309 -0.5479934391740265 -0.04810677191780807 0.7348294552124811 0 0 0 0.28 23 75 55 134 58 22 72 70 102 79 139 49 140 117 161 63 180 48 226 93 
310 -0.5319390436937309 -0.053808461492309646 0.8171582182838619 0 0 0 0.24 31 76 143 63 166 65 
311 -0.5282173183893842 -0.05334543507240938 0.8109221119573957 0 0 0 0.57 31 77 55 135 72 71 94 76 139 50 140 118 143 64 149 88 151 101 161 64 166 66 173 74 177 135 193 123 210 62 211 39 216 103 
312 -0.4553803076429905 -0.0748227990673307 1.1501061871327567 0 0 0 0.31 57 60 86 55 102 80 125 62 144 69 166 67 218 103 228 80 
313 -0.494117069908678 -0.05387052000397256 0.8464807197135994 0 0 0 0.2 37 38 55 136 57 61 94 77 143 65 144 70 151 102 183 80 205 79 218 104 
314 -0.49432111116555577 -0.05395566764128385 0.8467092381907025 0 0 0 0.14 7 59 8 30 55 137 57 62 72 72 94 78 102 81 106 90 125 63 144 71 145 64 151 103 173 75 183 81 191 25 205 80 211 40 218 105 226 94 228 81 
315 -0.47690430214283797 -0.06157648102558585 0.973766351712031 0 0 0 0.32 37 39 46 32 55 138 119 48 137 37 183 82 216 104 
316 -0.4507552649297419 -0.07386371815358214 1.1924740374628018 0 0 0 0.17 24 28 72 73 86 56 102 82 173 76 
317 -0.543648163824695 -0.0468395929967619 0.7489759710080002 0 0 0 0.29 45 10 55 139 72 74 102 83 145 65 161 65 173 77 183 83 226 95 
318 -0.5274299985186351 -0.05055786919685451 0.8251686900486525 0 0 0 0.34 23 76 31 78 34 72 57 63 72 75 102 84 116 102 137 38 140 119 149 89 154 79 191 26 193 124 202 41 226 96 228 82 
319 -0.03739859751982869 -0.0772956478139688 1.2799209238004612 0 0 0 0.31 23 77 102 85 106 91 177 136 
320 -0.45933690881546985 -0.06577814446119476 1.1544600711297182 0 0 0 0.45 24 29 34 73 86 57 102 86 106 92 151 104 178 22 191 27 228 83 
321 -0.42158147230236803 -0.06659308865271767 1.2424134346648874 0 0 0 0.21 34 74 94 79 177 137 212 44 218 106 226 97 
322 -0.2959307640337058 -0.07495069316503605 1.3365194603067543 0 0 0 0.38 102 87 140 120 143 66 177 138 191 28 
323 -0.4896340693484553 -0.05492156475025442 1.0089619663983234 0 0 0 0.21 55 140 116 103 119 49 125 64 140 121 143 67 144 72 145 66 151 105 161 66 183 84 191 29 205 81 216 105 226 98 228 84 233 57 
324 -0.5543060293499424 -0.038823325200775985 0.7066050839926873 0 0 0 0.33 55 141 57 64 139 51 216 106 
325 -0.34739394967583526 -0.07154203064708292 1.3401030044726936 0 0 0 0.16 102 88 106 93 177 139 
326 -0.4925144238474444 -0.052654079588430276 1.0027487293888337 0 0 0 0.3 57 65 125 65 144 73 145 67 191 30 216 107 228 85 
327 -0.4167008470648352 -0.06978494608680548 1.3666232977085513 0 0 0 0.2 55 142 102 89 106 94 140 122 173 78 177 140 193 125 
328 -0.40770005426693134 -0.07022830557557481 1.3735368283301495 0 0 0 0.72 102 90 106 95 140 123 151 106 173 79 177 141 193 126 218 107 
329 -0.48038494439757706 -0.046140675823763 0.9161336657023266 0 0 0 0.25 30 48 55 143 57 66 72 76 106 96 177 142 218 108 
330 -0.46980895037973613 -0.04719599751461981 0.9385191991392249 0 0 0 0.36 30 49 55 144 102 91 137 39 216 108 
331 -0.48399512231326175 -0.050693266660646476 1.0272653423279465 0 0 0 0.45 24 30 154 80 166 68 177 143 
332 -0.5019481724573747 -0.038525388642665345 0.8194096511558008 0 0 0 0.21 7 60 18 28 24 31 30 50 86 58 94 80 99 32 102 92 116 104 119 50 125 66 139 52 140 124 143 68 149 90 151 107 166 69 171 14 180 49 193 127 202 42 210 63 211 41 216 109 226 99 228 86 233 58 
333 -0.5019974891509981 -0.03856818075752574 0.8195704833042018 0 0 0 0.25 7 61 8 31 18 29 23 78 24 32 30 51 31 79 34 75 55 145 59 55 72 77 86 59 94 81 99 33 102 93 106 97 116 105 119 51 125 67 131 32 139 53 140 125 143 69 144 74 145 68 149 91 151 108 161 67 166 70 171 15 173 80 177 144 180 50 183 85 193 128 202 43 205 82 210 64 211 42 212 45 216 110 218 109 225 21 226 100 228 87 233 59 
334 -0.2765586987738935 -0.06225438491876344 1.321652205492546 0 0 0 0.31 24 33 59 56 72 78 106 98 131 33 140 126 143 70 144 75 145 69 150 36 161 68 178 23 180 51 205 83 216 111 228 88 
335 -0.4754341875940948 -0.04481093657083141 0.9626329165556322 0 0 0 0.45 47 71 125 68 149 92 
336 0.20302746545915396 -0.0599261202680162 1.279203946558947 0 0 0 0.23 24 34 31 80 106 99 177 145 
337 0.21562599675762703 -0.05987153205455678 1.2719091805583733 0 0 0 0.18 24 35 106 100 177 146 
338 0.2149627234679167 -0.05970276434356524 1.2669491309824983 0 0 0 0.19 24 36 177 147 189 23 
339 -0.47492769534187673 -0.04306393077239622 0.9306168723813587 0 0 0 0.24 23 79 31 81 37 40 45 11 46 33 55 146 57 67 72 79 86 60 99 34 102 94 106 101 116 106 125 69 137 40 140 127 145 70 149 93 150 37 151 109 154 81 166 71 173 81 183 86 189 24 193 129 205 84 210 65 216 112 218 110 226 101 228 89 233 60 
340 -0.4762393742439071 -0.04821794374581606 1.0628516314092384 0 0 0 0.38 23 80 24 37 31 82 34 76 37 41 46 34 47 72 55 147 57 68 59 57 94 82 106 102 116 107 119 52 122 26 131 34 140 128 143 71 144 76 145 71 149 94 150 38 151 110 154 82 166 72 177 148 183 87 189 25 191 31 193 130 202 44 216 113 225 22 226 102 233 61 
341 -0.47658362346993066 -0.04806078893432747 1.0633432147205037 0 0 0 0.14 23 81 31 83 86 61 119 53 177 149 191 32 226 103 
342 -0.4714759894955028 -0.04865045292631685 1.06399754444053 0 0 0 0.45 31 84 34 77 47 73 57 69 106 103 116 108 119 54 131 35 143 72 145 72 173 82 178 24 202 45 212 46 
343 -0.49307699309170777 -0.037142017691701334 0.8413758376488393 0 0 0 0.37 8 32 23 82 31 85 57 70 72 80 86 62 106 104 116 109 119 55 125 70 131 36 139 54 143 73 144 77 149 95 151 111 161 69 173 83 183 88 189 26 191 33 193 131 210 66 211 43 216 114 218 111 226 104 228 90 233 62 
344 -0.4882680610142052 -0.04353433132042615 0.9972198331330839 0 0 0 0.2 7 62 55 148 150 39 216 115 
345 -0.5357727155809975 -0.03496029529421672 0.791895346454749 0 0 0 0.05 149 96 218 112 228 91 
346 -0.482121121595771 -0.04277873146734149 1.0054336078093238 0 0 0 0.5 47 74 57 71 94 83 116 110 139 55 143 74 149 97 166 73 177 150 205 85 216 116 218 113 226 105 
347 -0.44050986351669186 -0.05239654423391301 1.2082981501702408 0 0 0 0.38 18 30 23 83 24 38 31 86 34 78 55 149 57 72 59 58 72 81 94 84 99 35 102 95 106 105 116 111 122 27 131 37 137 41 140 129 143 75 149 98 150 40 171 16 173 84 177 151 178 25 180 52 191 34 193 132 202 46 210 67 212 47 216 117 218 114 226 106 233 63 
348 -0.44037350160109534 -0.052627606096241036 1.2076333336038698 0 0 0 0.35 23 84 34 79 55 150 59 59 72 82 94 85 131 38 137 42 140 130 143 76 150 41 151 112 177 152 180 53 193 133 233 64 
349 -0.47492600810007074 -0.039342309229522594 0.9310705098010682 0 0 0 0.47 7 63 18 31 23 85 24 39 34 80 37 42 47 75 55 151 86 63 99 36 106 106 116 112 119 56 139 56 140 131 143 77 144 78 145 73 149 99 151 113 161 70 166 74 173 85 180 54 183 89 193 134 210 68 211 44 226 107 228 92 233 65 
350 -0.43056101409962566 -0.04419029448685475 1.213300061985725 0 0 0 0.65 18 32 23 86 31 87 34 81 72 83 102 96 106 107 121 4 131 39 137 43 173 86 178 26 193 135 216 118 218 115 225 23 226 108 
351 -0.4237250807523313 -0.04470502437378992 1.2187884470527666 0 0 0 0.36 8 33 18 33 23 87 31 88 34 82 45 12 55 152 57 73 72 84 86 64 94 86 99 37 102 97 106 108 116 113 122 28 125 71 131 40 139 57 140 132 143 78 144 79 149 100 151 114 154 83 166 75 171 17 173 87 177 153 178 27 180 55 193 136 210 69 211 45 212 48 216 119 218 116 225 24 226 109 228 93 
352 -0.2610861893883594 -0.04827209263532576 1.318662127841093 0 0 0 0.37 8 34 24 40 30 52 57 74 59 60 99 38 106 109 119 57 131 41 137 44 139 58 140 133 144 80 145 74 150 42 154 84 161 71 171 18 177 154 180 56 189 27 191 35 202 47 205 86 212 49 216 120 228 94 
353 -0.46889199419179384 -0.0378772188593901 1.0510863878465753 0 0 0 0.43 47 76 119 58 125 72 145 75 202 48 228 95 233 66 
354 -0.4755290460838199 -0.038124767562042035 1.0642719599225487 0 0 0 0.23 23 88 24 41 31 89 72 85 102 98 106 110 125 73 145 76 149 101 154 85 173 88 177 155 178 28 210 70 218 117 
355 -0.5529992021871514 -0.02636342744709724 0.738749340233693 0 0 0 0.29 30 53 34 83 55 153 58 23 99 39 116 114 119 59 125 74 139 59 140 134 151 115 161 72 183 90 193 137 205 87 210 71 212 50 216 121 218 118 228 96 
356 -0.4984740981404701 -0.025709658147668617 0.8302279701080754 0 0 0 0.28 7 64 8 35 18 34 23 89 30 54 31 90 34 84 45 13 55 154 59 61 72 86 99 40 102 99 106 111 116 115 119 60 125 75 131 42 137 45 139 60 140 135 143 79 145 77 149 102 151 116 166 76 171 19 173 89 177 156 180 57 183 91 193 138 202 49 210 72 211 46 216 122 218 119 226 110 228 97 
357 -0.5494642331591539 -0.020609703099071383 0.7232067150783885 0 0 0 0.31 30 55 116 116 161 73 183 92 193 139 211 47 228 98 
358 -0.5487934069164652 -0.020241827455547107 0.7269664826591157 0 0 0 0.26 34 85 177 157 228 99 
359 -0.49348755086419105 -0.024194913349532873 0.8479750438992738 0 0 0 0.38 8 36 23 90 34 86 37 43 46 35 55 155 57 75 119 61 125 76 140 136 144 81 145 78 149 103 151 117 166 77 189 28 191 36 211 48 228 100 
360 -0.46376286527219734 -0.030260728419421866 1.1063760171533126 0 0 0 0.21 31 91 34 87 55 156 106 112 139 61 140 137 149 104 151 118 154 86 173 90 177 158 180 58 218 120 226 111 
361 -0.4417399177374245 -0.03451157748218776 1.2128809763871207 0 0 0 0.13 34 88 55 157 137 46 202 50 228 101 
362 -0.4971497933585017 -0.02145675113504641 0.8598867332107125 0 0 0 0.37 7 65 55 158 137 47 139 62 145 79 211 49 228 102 
363 -0.4664270562791916 -0.027661814198859894 1.099994624079339 0 0 0 0.68 72 87 102 100 106 113 116 117 140 138 143 80 149 105 177 159 193 140 218 121 226 112 
364 -0.4355058589609746 -0.02875960941509873 1.2112968192918085 0 0 0 0.41 23 91 31 92 55 159 57 76 59 62 72 88 99 41 102 101 106 114 119 62 122 29 137 48 139 63 140 139 143 81 149 106 154 87 171 20 173 91 177 160 178 29 191 37 193 141 210 73 216 123 218 122 225 25 226 113 228 103 
365 -0.4938394562344843 -0.016629928245174456 0.8416287980541909 0 0 0 0.29 23 92 31 93 55 160 59 63 72 89 102 102 106 115 116 118 125 77 140 140 144 82 151 119 166 78 173 92 177 161 183 93 193 142 218 123 226 114 
366 -0.439092773177436 -0.022601916291896153 1.2053098195502643 0 0 0 0.44 24 42 99 42 102 103 106 116 149 107 171 21 173 93 177 162 178 30 180 59 212 51 
367 -0.4946707252290191 -0.01742581370403589 0.8494880225376337 0 0 0 0.92 119 63 144 83 173 94 189 29 
368 -0.486113273395056 -0.01909536556630598 1.0201535562541524 0 0 0 0.44 7 66 23 93 46 36 55 161 57 77 94 87 119 64 140 141 143 82 144 84 149 108 166 79 191 38 193 143 212 52 216 124 218 124 225 26 226 115 228 104 
369 -0.5509567007903147 -0.013385957227030553 0.7238909275445969 0 0 0 0.13 72 90 161 74 205 88 228 105 
370 -0.5507023003726651 -0.013716698598797927 0.7303999805573116 0 0 0 0.54 34 89 37 44 55 162 57 78 58 24 183 94 
371 -0.480010525730756 -0.02026509490513137 1.0685138558216756 0 0 0 0.07 122 30 125 78 161 75 
372 -0.4647033139156819 -0.017994523166933157 1.107984508167335 0 0 0 0.29 8 37 31 94 72 91 99 43 102 104 106 117 173 95 218 125 226 116 
373 -0.43533304217057656 -0.018013518757967934 1.2093498315671452 0 0 0 0.37 23 94 24 43 31 95 34 90 37 45 59 64 72 92 102 105 106 118 116 119 119 65 122 31 131 43 137 49 140 142 143 83 144 85 149 109 151 120 154 88 173 96 177 163 178 31 180 60 193 144 202 51 210 74 211 50 216 125 218 126 225 27 226 117 
374 -0.4733837873720296 -0.016881349489557655 1.097291037530614 0 0 0 0.11 23 95 55 163 145 80 193 145 
375 -0.47196497916927593 -0.017174850085873557 1.0941983619213131 0 0 0 0.3 55 164 145 81 177 164 178 32 193 146 202 52 
376 -0.4394572488992424 -0.01759518834103942 1.2027549527718828 0 0 0 0.42 23 96 30 56 37 46 57 79 72 93 125 79 149 110 202 53 
377 -0.536074586657183 -0.010551518809384836 0.7955952518262854 0 0 0 0.33 7 67 55 165 57 80 122 32 125 80 140 143 144 86 145 82 205 89 233 67 
378 -0.44745621629090754 -0.011310067495553498 1.1659037536148003 0 0 0 0.4 116 120 140 144 143 84 149 111 154 89 177 165 218 127 
379 -0.4359317905089995 -0.0059243475120745155 1.2079211329814616 0 0 0 0.34 23 97 24 44 31 96 34 91 45 14 57 81 59 65 72 94 94 88 99 44 102 106 106 119 116 121 121 5 125 81 137 50 139 64 140 145 143 85 144 87 149 112 151 121 154 90 166 80 171 22 178 33 189 30 202 54 210 75 211 51 212 53 218 128 226 118 228 106 
380 -0.49678398417179187 -0.004898304938529768 0.8446484078252452 0 0 0 0.3 7 68 30 57 55 166 90 15 119 66 125 82 137 51 139 65 202 55 211 52 
381 -0.48852542651996705 -0.004824055824322795 1.0094629797131645 0 0 0 0.35 55 167 57 82 119 67 137 52 143 86 144 88 145 83 161 76 183 95 205 90 212 54 226 119 
382 -0.4707616456292459 -0.003918397629637985 1.0746426612574895 0 0 0 0.17 8 38 23 98 24 45 31 97 45 15 55 168 57 83 59 66 72 95 90 16 94 89 99 45 102 107 106 120 116 122 140 146 143 87 144 89 145 84 151 122 154 91 166 81 173 97 177 166 178 34 180 61 202 56 211 53 212 55 216 126 218 129 225 28 228 107 
383 -0.47125578966098464 -0.0039035168371901706 1.0756598033245457 0 0 0 0.14 7 69 59 67 125 83 143 88 166 82 202 57 211 54 228 108 
384 -0.5494792581315707 -0.0014674393476461754 0.7324850588513139 0 0 0 0.16 161 77 177 167 216 127 
385 -0.495673913456531 -0.0006487538239298601 0.8484614170709094 0 0 0 0.59 7 70 8 39 30 58 31 98 34 92 37 47 45 16 57 84 90 17 106 121 119 68 122 33 125 84 131 44 137 53 139 66 143 89 144 90 151 123 177 168 183 96 189 31 191 39 211 55 212 56 228 109 
386 -0.4955108653916938 0.0006453586117071714 0.8546587299790661 0 0 0 0.68 34 93 37 48 106 122 116 123 140 147 193 147 218 130 
387 -0.47245878219608667 -0.009635100970232785 1.0750189456664447 0 0 0 0.22 23 99 31 99 55 169 72 96 99 46 102 108 106 123 140 148 143 90 144 91 145 85 149 113 173 98 177 169 178 35 180 62 193 148 205 91 218 131 
388 -0.4728392877260943 -0.00033498593918697146 1.0942408067428708 0 0 0 0.36 7 71 8 40 23 100 24 46 31 100 34 94 46 37 55 170 59 68 72 97 94 90 106 124 116 124 131 45 140 149 143 91 144 92 145 86 150 43 166 83 177 170 191 40 193 149 202 58 212 57 216 128 218 132 226 120 228 110 
389 -0.49328339955614503 0.001849298677553592 0.8719478261189022 0 0 0 0.29 7 72 23 101 24 47 30 59 31 101 34 95 37 49 55 171 57 85 59 69 72 98 94 91 99 47 102 109 106 125 119 69 121 6 125 85 137 54 139 67 140 150 143 92 144 93 151 124 166 84 171 23 173 99 177 171 180 63 186 3 189 32 191 41 202 59 211 56 212 58 218 133 226 121 228 111 233 68 
390 -0.4775837632317561 0.0026826596381684595 0.920982214908732 0 0 0 0.21 7 73 8 41 23 102 24 48 30 60 31 102 34 96 37 50 46 38 55 172 57 86 59 70 72 99 90 18 94 92 99 48 102 110 106 126 116 125 119 70 125 86 131 46 137 55 139 68 140 151 143 93 144 94 145 87 149 114 151 125 161 78 166 85 173 100 177 172 178 36 180 64 183 97 189 33 191 42 193 150 205 92 211 57 212 59 216 129 218 134 226 122 228 112 233 69 
391 -0.46540314799489846 0.002730214554769886 1.121812767876603 0 0 0 0.27 7 74 57 87 202 60 228 113 
392 -0.4355731887048146 0.004014691461256114 1.2050477813896676 0 0 0 0.38 23 103 24 49 31 103 57 88 59 71 72 100 94 93 99 49 102 111 106 127 116 126 137 56 140 152 143 94 144 95 149 115 150 44 151 126 154 92 166 86 171 24 173 101 178 37 180 65 186 4 191 43 193 151 211 58 212 60 216 130 218 135 226 123 
393 -0.5450278322043481 0.0034023182779825216 0.6176126131389429 0 0 0 0.36 116 127 151 127 193 152 205 93 228 114 
394 -0.47321345568019946 0.00895614894162491 1.0941197007477539 0 0 0 0.25 23 104 34 97 59 72 116 128 140 153 216 131 
395 -0.5322331595971377 0.005714967490743101 0.6823774233262081 0 0 0 0.34 58 25 116 129 143 95 151 128 161 79 228 115 
396 -0.4600236663360975 0.008914205105587903 1.1306133787969728 0 0 0 0.23 24 50 59 73 72 101 106 128 137 57 143 96 173 102 218 136 
397 -0.48918102327899216 0.010912554784984681 0.875827447350141 0 0 0 0.47 55 173 72 102 102 112 137 58 143 97 173 103 
398 -0.4870210318351816 0.00948717305151508 0.9093569505467135 0 0 0 0.23 7 75 23 105 34 98 37 51 46 39 116 130 119 71 125 87 137 59 139 69 143 98 151 129 193 153 211 59 216 132 226 124 228 116 
399 -0.5268728160486668 0.007691256882131567 0.6564638805637298 0 0 0 0.32 30 61 55 174 116 131 228 117 
400 -0.5206048336040391 0.008520974324073973 0.7431935543776428 0 0 0 0.41 55 175 143 99 177 173 
401 -0.4912118222835098 0.01207137024998295 1.0218742902203706 0 0 0 0.37 23 106 31 104 94 94 106 129 140 154 145 88 151 130 173 104 183 98 212 61 
402 -0.2325675933322464 0.015019963366189128 1.305032025137527 0 0 0 0.36 24 51 57 89 59 74 72 103 99 50 106 130 119 72 139 70 140 155 144 96 150 45 154 93 212 62 216 133 
403 -0.4843839786875554 0.013891829573936067 0.9021731372747672 0 0 0 0.24 7 76 30 62 31 105 34 99 37 52 45 17 55 176 57 90 72 104 116 132 119 73 125 88 131 47 137 60 139 71 143 100 149 116 178 38 189 34 193 154 202 61 211 60 212 63 218 137 226 125 228 118 233 70 
404 0.18482949746985824 0.019001929127306773 1.2705403947504814 0 0 0 0.25 23 107 30 63 55 177 57 91 106 131 
405 -0.5276794125236235 0.01065335582054524 0.6606440066140133 0 0 0 0.6 30 64 116 133 125 89 211 61 228 119 
406 -0.49770395953493585 0.014347243839572756 0.8356328015803183 0 0 0 0.44 31 106 57 92 102 113 143 101 
407 -0.49360329087939325 0.014705598855968846 0.8611446551017098 0 0 0 0.33 7 77 23 108 24 52 31 107 55 178 57 93 72 105 99 51 119 74 131 48 137 61 139 72 140 156 143 102 145 89 149 117 151 131 166 87 173 105 180 66 191 44 193 155 216 134 218 138 226 126 228 120 
408 -0.4500685461026772 0.020416865074599957 1.1692747240043788 0 0 0 0.27 8 42 23 109 31 108 34 100 46 40 57 94 59 75 72 106 106 132 116 134 131 49 144 97 149 118 154 94 177 174 189 35 191 45 218 139 226 127 228 121 
409 -0.4861052454790332 0.01751598953545344 0.8887028564721338 0 0 0 0.31 23 110 31 109 45 18 46 41 55 179 116 135 119 75 122 34 143 103 144 98 145 90 173 106 177 175 193 156 211 62 218 140 228 122 233 71 
410 -0.5262233581089131 0.0154262626068852 0.7138282928439516 0 0 0 0.2 137 62 180 67 193 157 
411 -0.47098446539771754 0.024889901655689436 1.1859388248008587 0 0 0 0.34 144 99 202 62 212 64 
412 -0.5283229011812317 0.01671918265015139 0.6967452890918308 0 0 0 0.22 55 180 137 63 143 104 228 123 
413 -0.5249948418616955 0.017096813350234656 0.6995367670629178 0 0 0 0.2 30 65 102 114 143 105 228 124 
414 -0.5177303138299877 0.021287813516112544 0.7422892328876258 0 0 0 0.22 7 78 55 181 72 107 102 115 140 157 144 100 154 95 177 176 193 158 205 94 228 125 
415 -0.5114195414123293 0.022016674757191657 0.7828812138934184 0 0 0 0.08 55 182 143 106 151 132 
416 -0.5104795739545874 0.022195124935897655 0.7818335856551162 0 0 0 0.2 55 183 102 116 125 90 161 80 180 68 228 126 
417 -0.21505840237857143 0.0374989817608129 1.3089340279629555 0 0 0 0.44 24 53 55 184 99 52 119 76 171 25 
418 0.1839398456786576 0.03420318950685058 1.2644274785506482 0 0 0 0.27 23 111 24 54 55 185 57 95 106 133 177 177 189 36 
419 0.1839398456786576 0.03420318950685058 1.2644274785506482 0 0 0 0.27 23 112 24 55 55 186 57 96 106 134 177 178 189 37 
420 -0.5117951893401175 0.023577653866908507 0.7710326570914664 0 0 0 0.14 7 79 31 110 102 117 125 91 
421 -0.49633338755585116 0.030040521098968497 0.8472645004393108 0 0 0 0.3 34 101 45 19 183 99 
422 -0.45001130787026444 0.03819552312774002 1.0373026886200971 0 0 0 0.26 8 43 23 113 55 187 59 76 116 136 119 77 125 92 137 64 139 73 140 158 143 107 150 46 166 88 173 107 191 46 193 159 202 63 211 63 212 65 216 135 228 127 
423 -0.346749036837716 0.0503600927235905 1.3355848386220426 0 0 0 0.35 8 44 31 111 57 97 106 135 131 50 139 74 140 159 143 108 144 101 173 108 189 38 191 47 202 64 212 66 228 128 
424 -0.4932606445621945 0.03455987659434473 0.842057305747339 0 0 0 0.35 7 80 31 112 37 53 116 137 119 78 137 65 144 102 145 91 177 179 183 100 191 48 202 65 218 141 228 129 233 72 
425 -0.5398104351007113 0.026733630572342088 0.6068420006193364 0 0 0 0.34 55 188 116 138 140 160 151 133 154 96 228 130 
426 -0.49505625655376356 0.03672891072809833 0.8378569691572373 0 0 0 0.22 23 114 31 113 34 102 55 189 57 98 72 108 106 136 116 139 131 51 144 103 145 92 151 134 173 109 177 180 180 69 183 101 189 39 193 160 218 142 
427 -0.5080133965806557 0.034972032560902575 0.795090658999671 0 0 0 0.4 30 66 102 118 137 66 
428 -0.4768564409730157 0.042472032921085395 0.9330335585719102 0 0 0 0.27 7 81 31 114 59 77 99 53 102 119 116 140 125 93 137 67 143 109 144 104 151 135 173 110 233 73 
429 -0.515971553593173 0.045890859632759455 0.7100338441975156 0 0 0 0.2 116 141 125 94 140 161 228 131 
430 -0.5205235505570536 0.047899717481213605 0.7111539219512978 0 0 0 0.22 116 142 119 79 125 95 137 68 
431 -0.4743220002507672 0.06394599032317198 0.9531666794198258 0 0 0 0.44 8 45 143 110 151 136 193 161 216 136 
432 -0.4994848004756323 0.05965406580427958 0.8610986626216096 0 0 0 0.34 23 115 34 103 57 99 137 69 139 75 144 105 166 89 183 102 191 49 218 143 228 132 233 74 
433 -0.47645002166496175 0.06879114819104441 0.9308965512896694 0 0 0 0.21 55 190 59 78 137 70 143 111 211 64 233 75 
434 -0.5111143078582897 0.060987032686814234 0.7796033725307655 0 0 0 0.46 23 116 55 191 143 112 177 181 
435 -0.48915000835358907 0.07329828875684033 0.9236198988382202 0 0 0 0.24 137 71 144 106 228 133 
436 -0.4792637866120369 0.07174907298741667 0.9064949533588897 0 0 0 0.3 131 52 144 107 202 66 228 134 
437 -0.4626974190485268 0.07811860519614129 0.9730389425505531 0 0 0 0.37 55 192 139 76 140 162 212 67 
438 -0.43721276771376966 0.09328664776955126 1.1846160669836554 0 0 0 0.34 37 54 119 80 150 47 191 50 212 68 
439 -0.5057846455356331 -0.5059535612244069 0.8572932966582807 0 0 0 0.03 55 193 177 182 218 144 
440 -0.5580042476126849 -0.526396779236646 0.8941220500482497 0 0 0 0.25 45 20 55 194 143 113 177 183 218 145 226 128 
441 -0.4972938953259118 -0.49870357979403335 0.8610347323148948 0 0 0 0.44 143 114 161 81 177 184 193 162 205 95 218 146 
442 -0.4948065907656528 -0.5371074797103706 0.9323145837247432 0 0 0 0.46 55 195 57 100 59 79 86 65 94 95 102 120 116 143 131 53 137 72 149 119 151 137 161 82 166 90 177 185 178 39 193 163 202 67 205 96 212 69 216 137 218 147 225 29 
443 -0.5540476799244507 -0.5139502084867485 0.8976617793196205 0 0 0 0.25 55 196 102 121 177 186 193 164 218 148 
444 -0.49495340487584966 -0.5238603099894544 0.9314572830724605 0 0 0 0.39 34 104 55 197 59 80 86 66 94 96 102 122 116 144 119 81 125 96 131 54 139 77 143 115 144 108 149 120 151 138 166 91 173 111 177 187 178 40 193 165 202 68 205 97 212 70 218 149 225 30 
445 -0.6103313848936948 -0.5089242138608807 0.9159931277772484 0 0 0 0.38 34 105 102 123 116 145 
446 -0.48977508895044103 -0.5061516428809916 0.9238042403699874 0 0 0 0.5 55 198 116 146 161 83 166 92 
447 -0.4849326474269186 -0.5369915968564043 0.986795018020013 0 0 0 0.66 102 124 119 82 161 84 177 188 183 103 
448 -0.4938669450506209 -0.4973051308195085 0.9276239886231958 0 0 0 0.33 8 46 34 106 55 199 57 101 59 81 86 67 94 97 102 125 116 147 125 97 137 73 144 109 145 93 151 139 154 97 161 85 173 112 177 189 178 41 189 40 193 166 205 98 212 71 216 138 218 150 225 31 
449 -0.6037365264437917 -0.4913993238753612 0.9206911921226204 0 0 0 0.29 94 98 116 148 177 190 
450 -0.4871147967727928 -0.492695487940833 0.9270050843097136 0 0 0 0.53 23 117 55 200 94 99 102 126 116 149 131 55 137 74 144 110 177 191 178 42 193 167 218 151 
451 -0.5571602909400541 -0.4608180084737466 0.8733412520884578 0 0 0 0.27 8 47 37 55 57 102 86 68 94 100 102 127 116 150 143 116 144 111 154 98 177 192 189 41 191 51 
452 -0.4708943476596833 -0.509751233131823 0.9765147706790865 0 0 0 0.37 55 201 102 128 116 151 131 56 139 78 166 93 173 113 177 193 
453 -0.6023825137393347 -0.45360898140332073 0.8946046121625425 0 0 0 0.27 7 82 46 42 55 202 58 26 86 69 94 101 125 98 139 79 144 112 149 121 177 194 189 42 193 168 202 69 210 76 212 72 218 152 
454 -0.48583643725331704 -0.46129058887628654 0.9262180415739442 0 0 0 0.53 47 77 55 203 116 152 137 75 151 140 154 99 161 86 177 195 193 169 212 73 216 139 218 153 
455 -0.48638792830522654 -0.4615443948846243 0.9271066355823292 0 0 0 0.61 24 56 47 78 55 204 57 103 59 82 116 153 144 113 154 100 166 94 177 196 180 70 202 70 212 74 216 140 218 154 
456 -0.49998801204941795 -0.486779947563502 0.982595087676718 0 0 0 0.57 34 107 47 79 55 205 94 102 116 154 144 114 145 94 211 65 216 141 
457 -0.48984262630505165 -0.4823844137778806 0.9769168183872584 0 0 0 0.4 34 108 37 56 46 43 55 206 94 103 116 155 119 83 131 57 137 76 139 80 144 115 149 122 151 141 154 101 161 87 166 95 177 197 183 104 189 43 191 52 193 170 205 99 211 66 215 27 216 142 218 155 
458 -0.6072395669226113 -0.42205479147574765 0.8858783577876875 0 0 0 0.32 55 207 58 27 166 96 212 75 
459 -0.4845496847628726 -0.43524316238428146 0.9148378489755451 0 0 0 0.52 34 109 59 83 102 129 116 156 144 116 145 95 149 123 166 97 177 198 180 71 193 171 218 156 
460 -0.5502104227883807 -0.41963247290739564 0.8919871263077659 0 0 0 0.24 23 118 72 109 173 114 177 199 193 172 218 157 
461 -0.5439487845343773 -0.4589113957564246 0.9748680596021991 0 0 0 0.27 34 110 94 104 125 99 144 117 151 142 189 44 216 143 
462 -0.48186469289893574 -0.44915494843050596 0.9706684025552273 0 0 0 0.4 23 119 47 80 55 208 72 110 94 105 119 84 143 117 144 118 149 124 161 88 177 200 180 72 183 105 193 173 212 76 226 129 
463 -0.48960452629842044 -0.4319148865637669 0.9747576584105597 0 0 0 0.41 23 120 34 111 37 57 46 44 47 81 55 209 59 84 72 111 94 106 115 2 116 157 119 85 125 100 131 58 133 0 137 77 139 81 143 118 145 96 154 102 166 98 177 201 180 73 189 45 193 174 205 100 211 67 212 77 215 28 216 144 218 158 226 130 
464 -0.5600978404671577 -0.37550790541637646 0.8586961470478266 0 0 0 0.06 55 210 177 202 218 159 
465 -0.5067098262844943 -0.3603343248348021 0.8390681057219243 0 0 0 0.08 55 211 140 163 143 119 193 175 
466 -0.47365042828709086 -0.41629655998599435 0.9684472056586786 0 0 0 0.39 55 212 102 130 131 59 137 78 139 82 151 143 161 89 173 115 225 32 
467 -0.49106790975254044 -0.3703609036291143 0.8750254672100902 0 0 0 0.32 116 158 132 6 161 90 205 101 
468 -0.5334980624879924 -0.3594510013191652 0.8597597164642569 0 0 0 0.23 23 121 55 213 102 131 106 137 140 164 145 97 150 48 173 116 177 203 193 176 205 102 218 160 
469 -0.6277351974609066 -0.3641836317365981 0.8731852881155994 0 0 0 0.49 46 45 173 117 177 204 178 43 189 46 211 68 
470 -0.6173839803999653 -0.3500239120468828 0.8671533766071096 0 0 0 0.2 23 122 177 205 218 161 
471 -0.5400889734517927 -0.32937975638890915 0.836569255700181 0 0 0 1.51 47 82 102 132 177 206 
472 -0.6181786728152252 -0.29049249785383435 0.7448495231516308 0 0 0 0.45 23 123 119 86 154 103 177 207 
473 -0.5849719884677332 -0.25163090535859073 0.6813257351443274 0 0 0 1.26 58 28 119 87 154 104 215 29 
474 -0.4773387931829568 -0.3442160389318385 0.9539277213037538 0 0 0 0.47 18 35 24 57 34 112 37 58 47 83 59 85 94 107 102 133 106 138 119 88 139 83 143 120 144 119 149 125 150 49 151 144 161 91 166 99 173 118 180 74 189 47 193 177 205 103 210 77 211 69 215 30 
475 -0.4950080784898519 -0.32368930945269186 0.9005396033587478 0 0 0 0.28 23 124 55 214 72 112 106 139 137 79 173 119 177 208 210 78 215 31 218 162 226 131 
476 -0.5447557938979775 -0.30610289647026434 0.862419480104128 0 0 0 0.5 18 36 31 115 34 113 106 140 143 121 144 120 171 26 173 120 189 48 193 178 228 135 
477 -0.4755785857029503 -0.3414061941847188 0.968738725995047 0 0 0 0.41 24 58 72 113 215 32 
478 -0.49160452424764833 -0.3175992237911368 0.9036018403503063 0 0 0 0.54 23 125 30 67 31 116 55 215 72 114 102 134 145 98 154 105 178 44 193 179 210 79 
479 -0.4917572906149339 -0.3081872724917708 0.9029744723661972 0 0 0 0.37 7 83 18 37 23 126 34 114 37 59 45 21 47 84 55 216 59 86 72 115 86 70 94 108 106 141 116 159 119 89 125 101 137 80 140 165 143 122 144 121 145 99 149 126 150 50 154 106 161 92 166 100 171 27 173 121 177 209 180 75 191 53 193 180 202 71 205 104 211 70 212 78 215 33 218 163 226 132 
480 -0.49487131712183324 -0.2958081334090037 0.8984160262095566 0 0 0 0.24 7 84 31 117 34 115 37 60 46 46 47 85 55 217 59 87 72 116 86 71 94 109 106 142 119 90 125 102 137 81 139 84 140 166 143 123 144 122 145 100 149 127 151 145 154 107 166 101 173 122 177 210 178 45 189 49 191 54 193 181 211 71 215 34 218 164 226 133 228 136 
481 -0.492132050890118 -0.27474216961359016 0.89960772776861 0 0 0 0.5 149 128 150 51 177 211 183 106 205 105 216 145 
482 -0.5713910906828024 -0.22912619501161152 0.7643299243629165 0 0 0 0.17 55 218 58 29 116 160 119 91 
483 -0.5142254966416833 -0.2537366754856219 0.8441941269591529 0 0 0 0.27 102 135 177 212 193 182 218 165 
484 -0.48439661247570687 -0.26025716003104454 0.9004574758775112 0 0 0 0.64 102 136 140 167 143 124 
485 -0.48074361999527543 -0.25383121696155275 0.8974478547249239 0 0 0 0.33 23 127 55 219 72 117 106 143 137 82 140 168 144 123 145 101 154 108 173 123 205 106 225 33 
486 -0.5598884263527865 -0.22970078271943364 0.8578924663117737 0 0 0 0.34 86 72 183 107 205 107 228 137 233 76 
487 -0.47239443991413327 -0.2496401387567608 0.9557303692665535 0 0 0 0.4 23 128 34 116 37 61 47 86 55 220 59 88 72 118 86 73 94 110 106 144 115 3 119 92 125 103 137 83 140 169 144 124 145 102 150 52 151 146 154 109 161 93 166 102 173 124 177 213 178 46 183 108 191 55 193 183 205 108 211 72 212 79 216 146 218 166 225 34 228 138 
488 -0.5426497991303691 -0.1854805272016106 0.7652276974621053 0 0 0 0.26 57 104 58 30 125 104 132 7 144 125 150 53 
489 -0.55521505442342 -0.16664392460899735 0.7221863216404575 0 0 0 0.14 30 68 55 221 72 119 102 137 119 93 161 94 177 214 183 109 205 109 210 80 
490 -0.555247148979082 -0.16678291016117466 0.7223943619444563 0 0 0 0.35 23 129 30 69 55 222 72 120 102 138 119 94 131 60 154 110 173 125 178 47 183 110 205 110 210 81 215 35 216 147 
491 -0.494179702324356 -0.19772703464667632 0.8875583055941451 0 0 0 0.22 86 74 102 139 228 139 
492 -0.5631394137033383 -0.1472998697201006 0.66562414077957 0 0 0 0.45 34 117 59 89 72 121 116 161 137 84 140 170 144 126 145 103 154 111 177 215 218 167 226 134 228 140 
493 -0.5481798356500719 -0.16308435918329636 0.7530167883055935 0 0 0 0.18 23 130 55 223 102 140 137 85 143 125 145 104 161 95 177 216 183 111 216 148 226 135 
494 -0.5657733528873432 -0.13034455053264452 0.6341816208845065 0 0 0 0.29 57 105 116 162 119 95 183 112 210 82 216 149 226 136 
495 -0.5314935695805172 -0.1592020316767552 0.7791139323414848 0 0 0 0.42 55 224 119 96 137 86 215 36 
496 -0.5405960990779184 -0.16030384161392894 0.7909842800206393 0 0 0 0.26 30 70 57 106 140 171 145 105 154 112 161 96 183 113 228 141 
497 -0.4932153071612064 -0.17811465216349257 0.8833922032923043 0 0 0 0.48 7 85 23 131 31 118 55 225 57 107 90 19 94 111 106 145 116 163 125 105 137 87 139 85 149 129 151 147 154 113 173 126 216 150 218 168 226 137 228 142 
498 -0.5710922725692548 -0.12912908939830037 0.6432302011687387 0 0 0 0.31 137 88 150 54 216 151 
499 -0.5514473669182296 -0.1479818546709346 0.7534704875218579 0 0 0 0.27 30 71 55 226 57 108 137 89 161 97 177 217 183 114 226 138 
500 -0.5395141439588818 -0.15375537521432153 0.7849676856248308 0 0 0 0.63 189 50 210 83 215 37 233 77 
501 -0.580338768622424 -0.12844650025147109 0.6584037454653313 0 0 0 0.29 150 55 183 115 216 152 
502 -0.5510204352782562 -0.14116729088691715 0.7586034153043156 0 0 0 0.15 30 72 45 22 119 97 183 116 210 84 
503 -0.4951634093312067 -0.15945760359473404 0.8640755480948796 0 0 0 0.23 55 227 102 141 205 111 226 139 
504 -0.5241212834299274 -0.1503061720067151 0.8378833738576081 0 0 0 0.59 8 48 31 119 102 142 106 146 116 164 125 106 144 127 145 106 151 148 166 103 173 127 177 218 178 48 205 112 212 80 216 153 218 169 225 35 
505 -0.5521948086371664 -0.13446374977793746 0.748136657052891 0 0 0 0.31 55 228 57 109 58 31 99 54 137 90 139 86 144 128 149 130 183 117 212 81 216 154 
506 -0.47847276359524793 -0.16642661984025922 0.9381009870576097 0 0 0 0.2 30 73 34 118 59 90 72 122 102 143 106 147 139 87 140 172 143 126 149 131 150 56 151 149 161 98 173 128 177 219 202 72 205 113 210 85 216 155 218 170 228 143 
507 -0.47889547341855365 -0.1612817687499072 0.9266253069833272 0 0 0 0.57 8 49 94 112 143 127 149 132 151 150 173 129 193 184 205 114 210 86 
508 -0.4924800968981467 -0.1517102234385449 0.876430926329559 0 0 0 0.45 31 120 55 229 57 110 106 148 131 61 137 91 143 128 161 99 173 130 178 49 205 115 218 171 228 144 
509 -0.4933564104338119 -0.15129830102710165 0.8780227775487335 0 0 0 0.35 8 50 30 74 55 230 116 165 137 92 143 129 
510 -0.4958012070963869 -0.14846136933540827 0.8725733555261782 0 0 0 0.5 31 121 47 87 55 231 99 55 106 149 131 62 140 173 143 130 173 131 178 50 
511 -0.4954792459515871 -0.14847025157801985 0.8718777750776121 0 0 0 0.49 31 122 55 232 106 150 119 98 131 63 140 174 143 131 173 132 178 51 
512 -0.5482771264688381 -0.12526729788475405 0.7351310637186228 0 0 0 0.32 30 75 34 119 46 47 55 233 116 166 119 99 137 93 145 107 149 133 150 57 151 151 161 100 183 118 205 116 210 87 211 73 216 156 228 145 
513 -0.4771565750136305 -0.15775555544465603 0.9349500166559173 0 0 0 0.33 7 86 30 76 31 123 47 88 57 111 59 91 72 123 94 113 102 144 106 151 116 167 119 100 139 88 143 132 144 129 149 134 151 152 173 133 177 220 193 185 210 88 218 172 
514 -0.477348151128379 -0.15848100362310744 0.935257066821799 0 0 0 0.24 55 234 72 124 137 94 143 133 145 108 183 119 226 140 
515 -0.5653910596901881 -0.11154771047049672 0.6639834532170603 0 0 0 0.27 7 87 34 120 57 112 58 32 72 125 119 101 137 95 144 130 149 135 150 58 151 153 161 101 183 120 205 117 211 74 216 157 226 141 228 146 
516 -0.5649782486554861 -0.11144040520346696 0.6635009132017591 0 0 0 0.25 7 88 23 132 58 33 72 126 119 102 140 175 149 136 150 59 151 154 177 221 183 121 193 186 210 89 211 75 216 158 226 142 228 147 
517 -0.5533062484108475 -0.1206120386890992 0.7475455178474715 0 0 0 0.24 7 89 30 77 119 103 137 96 144 131 145 109 149 137 183 122 205 118 216 159 226 143 233 78 
518 -0.47241472239717236 -0.15095428497402838 0.9467698966194192 0 0 0 0.44 7 90 23 133 30 78 34 121 47 89 55 235 57 113 72 127 94 114 102 145 106 152 115 4 116 168 125 107 137 97 140 176 143 134 144 132 145 110 149 138 150 60 151 155 154 114 161 102 166 104 173 134 177 222 178 52 183 123 191 56 193 187 202 73 205 119 210 90 212 82 216 160 218 173 225 36 226 144 228 148 233 79 
519 -0.4726286816082515 -0.15112971586633134 0.947379769152137 0 0 0 0.51 31 124 57 114 72 128 115 5 116 169 125 108 143 135 166 105 210 91 212 83 226 145 
520 -0.5449671975324889 -0.12400989813145898 0.7970294890622457 0 0 0 0.22 46 48 55 236 119 104 144 133 154 115 183 124 205 120 
521 -0.47142568040967686 -0.14399186016380022 0.938889680306275 0 0 0 0.54 106 153 131 64 140 177 145 111 161 103 178 53 226 146 
522 -0.4747667206659605 -0.1451031490406731 0.9463700774970591 0 0 0 0.45 18 38 23 134 31 125 34 122 47 90 72 129 94 115 99 56 106 154 131 65 140 178 143 136 149 139 151 156 154 116 178 54 193 188 202 74 210 92 211 76 216 161 218 174 226 147 233 80 
523 -0.5564003013138469 -0.10482316481817944 0.693057301068039 0 0 0 0.55 7 91 23 135 24 59 30 79 72 130 139 89 140 179 151 157 173 135 225 37 226 148 
524 -0.45067623958976216 -0.17777168576012845 1.2198592526661816 0 0 0 0.82 46 49 59 92 86 75 166 106 178 55 
525 -0.5427455768845276 -0.1162226405231598 0.7935148285285555 0 0 0 0.1 37 62 46 50 55 237 119 105 137 98 149 140 183 125 216 162 
