# 3D point list with one line of data per point:
#   POINT3D_ID, X, Y, Z, R, G, B, ERROR, TRACK[] as (IMAGE_ID, POINT2D_IDX)
# Number of points: 367, mean track length: 6.98
18 0.22088724970022866 0.29701301640401956 0.9958741112113425 0 0 0 0.35 1 18 21 7 50 10 73 6 111 14 172 8 209 18 217 3 227 7 
19 0.23052354091278837 0.3030391184430386 0.9889000761783833 0 0 0 0.21 1 19 111 15 209 19 
20 0.1839825583348911 0.3260988790379425 1.0033186125608036 0 0 0 0.3 1 20 25 4 43 4 44 7 50 11 53 5 60 7 61 3 65 6 71 8 73 7 77 4 81 6 96 9 103 6 110 2 111 16 113 3 118 6 128 8 148 5 162 5 164 7 172 9 209 20 217 4 220 5 221 4 224 6 
21 0.23433533222066347 0.3328655820680194 0.9771525488922315 0 0 0 0.22 1 21 21 8 25 5 44 8 50 12 60 8 71 9 96 10 111 17 113 4 157 6 162 6 164 8 176 8 209 21 213 6 217 5 224 7 232 7 
22 0.21686105346892467 0.3472747792615166 0.9774554185351355 0 0 0 0.17 1 22 209 22 227 8 
23 0.17902700217310638 0.23198920505079831 1.0457458507880801 0 0 0 0.35 1 23 43 5 50 13 53 6 61 4 65 7 81 7 96 11 103 7 111 18 113 5 118 7 128 9 146 4 157 7 172 10 179 4 190 2 209 23 213 7 221 5 227 9 232 8 
24 0.1834123145596386 0.24134770597210495 1.0376056516196877 0 0 0 0.28 1 24 21 9 25 6 43 6 44 9 53 7 60 9 61 5 65 8 71 10 77 5 81 8 92 3 96 12 103 8 111 19 113 6 118 8 126 0 127 4 128 10 146 5 148 6 157 8 162 7 164 9 172 11 176 9 179 5 190 3 196 3 198 0 199 1 204 3 209 24 213 8 219 5 220 6 221 6 224 8 227 10 232 9 
25 0.18693003226909988 0.33404175694198224 0.9964644403599339 0 0 0 0.33 1 25 43 7 44 10 50 14 53 8 60 10 61 6 71 11 81 9 96 13 111 20 118 9 148 7 162 8 164 10 176 10 190 4 209 25 213 9 217 6 219 6 220 7 221 7 224 9 232 10 
26 0.19970886928125334 0.21726731437405666 1.0365149591896856 0 0 0 0.42 1 26 53 9 60 11 71 12 73 8 81 10 111 21 179 6 198 1 209 26 
27 0.17193256178647556 0.23498372117366947 1.048176182922249 0 0 0 0.36 1 27 50 15 53 10 65 9 81 11 111 22 118 10 190 5 209 27 227 11 232 11 
28 0.17201418670293447 0.23513086544987502 1.0488185217448713 0 0 0 0.32 1 28 21 10 50 16 53 11 65 10 81 12 111 23 118 11 128 11 190 6 209 28 221 8 227 12 232 12 
29 0.21555889507113507 0.2403659383059755 1.025509265081134 0 0 0 0.38 1 29 43 8 53 12 60 12 61 7 65 11 71 13 81 13 92 4 96 14 114 4 118 12 146 6 157 9 158 1 172 12 209 29 213 10 217 7 219 7 227 13 232 13 
30 0.21546515972470615 0.24029135640180282 1.0250696688307184 0 0 0 0.37 1 30 25 7 43 9 50 17 53 13 60 13 61 8 65 12 71 14 96 15 114 5 118 13 146 7 157 10 158 2 164 11 172 13 190 7 209 30 213 11 217 8 219 8 227 14 232 14 
31 0.19092538695484512 0.24457545486653862 1.0350036033679386 0 0 0 0.45 1 31 21 11 25 8 43 10 50 18 53 14 60 14 65 13 71 15 73 9 77 6 81 14 96 16 103 9 110 3 111 24 113 7 118 14 126 1 127 5 128 12 146 8 157 11 158 3 164 12 172 14 176 11 190 8 198 2 204 4 209 31 219 9 221 9 232 15 
32 0.19445288886128492 0.32637395294375166 0.9981842079150987 0 0 0 0.51 1 32 21 12 43 11 50 19 60 15 65 14 71 16 73 10 81 15 96 17 103 10 111 25 128 13 162 9 164 13 196 4 198 3 199 2 209 32 217 9 224 10 
33 0.22829504068544146 0.24078637457641763 1.0196155225186152 0 0 0 0.5 1 33 53 15 65 15 118 15 146 9 158 4 190 9 209 33 213 12 217 10 
34 0.22815717471886773 0.2406628095190258 1.0188146263366964 0 0 0 0.51 1 34 21 13 43 12 53 16 65 16 118 16 146 10 190 10 209 34 213 13 217 11 
35 0.20375151110726258 0.24688172682198675 1.0283983901421394 0 0 0 0.61 1 35 21 14 25 9 43 13 65 17 71 17 73 11 81 16 103 11 111 26 113 8 114 6 126 2 146 11 176 12 209 35 217 12 
36 0.2037104601180519 0.24681124846349553 1.0275383544072352 0 0 0 0.66 1 36 21 15 25 10 43 14 65 18 71 18 73 12 77 7 81 17 111 27 113 9 114 7 127 6 146 12 176 13 209 36 217 13 224 11 
37 0.22867763959294543 0.2582356514085349 1.0080509653898442 0 0 0 0.61 1 37 111 28 158 5 172 15 209 37 
38 0.22883534254092322 0.2583099055462202 1.0086764180572543 0 0 0 0.64 1 38 158 6 172 16 209 38 
39 0.23136465107118365 0.31671593658898894 0.9829496036265309 0 0 0 0.52 1 39 21 16 53 17 92 5 146 13 209 39 219 10 232 16 
40 0.2079288469006917 0.3463336747033944 0.9841738798447506 0 0 0 0.43 1 40 21 17 162 10 209 40 220 8 221 10 
41 0.19119748466476985 0.26135234975559163 1.0275602413046625 0 0 0 0.63 1 41 21 18 25 11 65 19 71 19 73 13 77 8 103 12 113 10 114 8 118 17 127 7 128 14 164 14 190 11 209 41 217 14 220 9 221 11 224 12 232 17 
42 0.22146957519724156 0.330017344321202 0.9829482089970701 0 0 0 0.57 1 42 21 19 25 12 50 20 60 16 81 18 111 29 157 12 176 14 199 3 209 42 220 10 232 18 
43 0.22130622811664702 0.33002488050657564 0.98290398341358 0 0 0 0.42 1 43 21 20 50 21 118 18 209 43 220 11 232 19 
44 0.2227275897696929 0.1569247265593882 1.0532783281729143 0 0 0 0.37 21 21 77 9 146 14 164 15 209 44 224 13 
45 0.23024593002053825 0.18971312869478268 1.0358517371800335 0 0 0 0.34 21 22 50 22 53 18 103 13 111 30 127 8 128 15 146 15 157 13 158 7 172 17 204 5 209 45 227 15 
46 0.1493849848995087 0.19553620444135017 1.0750463498456824 0 0 0 0.23 21 23 50 23 60 17 77 10 103 14 111 31 118 19 128 16 148 8 164 16 176 15 196 5 209 46 224 14 
47 0.2765937909224683 0.20168308908408966 1.0062190596942482 0 0 0 0.27 21 24 44 11 60 18 61 9 92 6 110 4 113 11 127 9 146 16 148 9 157 14 158 8 164 17 176 16 209 47 213 14 219 11 
48 0.26581314237552434 0.202423336667548 1.0107369070694723 0 0 0 0.29 21 25 103 15 110 5 113 12 126 3 148 10 162 11 172 18 179 7 209 48 
49 0.26624700210156116 0.20428726747937534 1.0104907460614811 0 0 0 0.23 21 26 44 12 50 24 60 19 61 10 77 11 96 18 103 16 110 6 111 32 113 13 118 20 148 11 157 15 158 9 162 12 164 18 172 19 179 8 190 12 204 6 209 49 213 15 227 16 
50 0.2559665683386268 0.20494479955991143 1.0161110774534452 0 0 0 0.08 21 27 158 10 209 50 
51 0.25314951770481087 0.20568588899359536 1.0168913106022444 0 0 0 0.26 21 28 60 20 110 7 113 14 148 12 158 11 172 20 209 51 
52 0.24826702512724216 0.20661831757391855 1.018850919952934 0 0 0 0.18 21 29 110 8 113 15 176 17 179 9 209 52 
53 0.2517662574302103 0.20760565759776303 1.0166249214001797 0 0 0 0.19 21 30 44 13 50 25 60 21 61 11 92 7 113 16 118 21 128 17 146 17 157 16 158 12 176 18 209 53 213 16 
54 0.22716987623143817 0.21137951510599176 1.027113047297682 0 0 0 0.34 21 31 60 22 92 8 179 10 209 54 219 12 
55 0.23438935222542737 0.21147692799093787 1.0221381840582462 0 0 0 0.22 21 32 172 21 196 6 209 55 
56 0.22129870076185867 0.21277305904902985 1.0295371367283055 0 0 0 0.28 21 33 44 14 110 9 148 13 176 19 209 56 
57 0.22881721776498806 0.21293234708145173 1.0262423134257268 0 0 0 0.23 21 34 44 15 50 26 60 23 110 10 113 17 114 9 157 17 158 13 162 13 179 11 204 7 209 57 213 17 219 13 
58 0.225853793457154 0.21344286884475597 1.0273035458293207 0 0 0 0.23 21 35 44 16 50 27 60 24 77 12 92 9 110 11 113 18 118 22 127 10 128 18 148 14 157 18 162 14 164 19 176 20 196 7 209 58 213 18 224 15 
59 0.2213710731032907 0.2148329897102252 1.0306982467040993 0 0 0 0.3 21 36 118 23 179 12 209 59 224 16 
60 0.20865817514809976 0.21591536209039805 1.0350108396584345 0 0 0 0.2 21 37 44 17 50 28 53 19 60 25 110 12 111 33 113 19 118 24 148 15 157 19 158 14 162 15 164 20 172 22 176 21 204 8 209 60 213 19 219 14 224 17 227 17 
61 0.2087073987440859 0.21595619613873235 1.0351487582436814 0 0 0 0.15 21 38 110 13 113 20 118 25 158 15 162 16 164 21 209 61 224 18 
62 0.20997550744796742 0.2174782546568054 1.0348678036823902 0 0 0 0.38 21 39 50 29 60 26 113 21 118 26 127 11 146 18 157 20 158 16 164 22 209 62 213 20 224 19 
63 0.029415859148864815 0.13861324771245676 0.6258617534302539 0 0 0 0.27 21 40 209 63 224 20 
64 0.1865130503885279 0.22116736419399538 1.0438180600039242 0 0 0 0.39 21 41 50 30 113 22 146 19 176 22 179 13 209 64 
65 0.15391554598528512 0.2216534385352865 1.0609965683262548 0 0 0 0.14 21 42 44 18 77 13 148 16 164 23 209 65 224 21 
66 0.1873828482738996 0.22279607203621002 1.0428210143671486 0 0 0 0.41 21 43 204 9 209 66 219 15 
67 0.1668526779161345 0.2270553793221008 1.0536461977451597 0 0 0 0.29 21 44 44 19 60 27 92 10 113 23 157 21 176 23 179 14 209 67 
68 0.24417544535476687 0.22798909871542794 1.0161674796971563 0 0 0 0.22 21 45 44 20 60 28 146 20 164 24 209 68 
69 0.16332884985793267 0.22783635399733518 1.0551971727468465 0 0 0 0.4 21 46 44 21 53 20 60 29 71 20 77 14 103 17 113 24 118 27 128 19 148 17 164 25 172 23 196 8 209 69 224 22 
70 0.14469610713344555 0.23235299512527086 1.0627599431586914 0 0 0 0.12 21 47 60 30 148 18 209 70 
71 0.14626149504042496 0.23366236508891947 1.0599670164496788 0 0 0 0.26 21 48 60 31 209 71 
72 0.1501747053475805 0.23442724739276558 1.0614442007714082 0 0 0 0.24 21 49 44 22 60 32 164 26 209 72 
73 0.14857195148064178 0.24045545406815372 1.0566495104649953 0 0 0 0.26 21 50 60 33 164 27 209 73 
74 0.16344470889613902 0.24097307707652968 1.0499331540420325 0 0 0 0.32 21 51 44 23 50 31 127 12 148 19 162 17 209 74 
75 0.16367984357509802 0.24072754627067056 1.0487841272403768 0 0 0 0.36 21 52 127 13 148 20 209 75 
76 0.19505218288798318 0.2504898636355426 1.0316455940996145 0 0 0 0.12 21 53 44 24 209 76 
77 0.224559915474186 0.25014642783065855 1.01621321598088 0 0 0 0.19 21 54 50 32 61 12 158 17 209 77 
78 0.14880973098466418 0.25260601079822104 1.0540899386250138 0 0 0 0.47 21 55 60 34 209 78 
79 0.25579641476878423 0.2518069703187158 0.9993601151683611 0 0 0 0.25 21 56 50 33 61 13 146 21 157 22 209 79 213 21 
80 0.2458815869947768 0.2530833322606595 1.0041727277933927 0 0 0 0.12 21 57 50 34 61 14 146 22 209 80 224 23 
81 0.25021063129067644 0.253185574363168 1.0019904134703428 0 0 0 0.24 21 58 44 25 61 15 110 14 128 20 148 21 164 28 209 81 
82 0.16511552098246565 0.2586739310753893 1.0420905013278852 0 0 0 0.22 21 59 209 82 221 12 
83 0.24524932827264548 0.256940037071019 1.00340814404095 0 0 0 0.23 21 60 50 35 53 21 60 35 61 16 77 15 96 19 126 4 128 21 148 22 162 18 164 29 172 24 190 13 196 9 209 83 213 22 227 18 232 20 
84 0.24582971924246594 0.26003677342809667 1.001194728285049 0 0 0 0.36 21 61 44 26 146 23 148 23 164 30 209 84 
85 0.22089081852127895 0.26387646716677676 1.0130912382928279 0 0 0 0.32 21 62 50 36 164 31 209 85 224 24 
86 0.18843596318026612 0.2724084702198932 1.0229490521681357 0 0 0 0.3 21 63 61 17 77 16 118 28 127 14 128 22 146 24 162 19 164 32 209 86 213 23 
87 0.18731319392224782 0.27869084259349497 1.0210196977027937 0 0 0 0.3 21 64 50 37 60 36 61 18 146 25 158 18 162 20 209 87 213 24 
88 0.18349889893668056 0.27854381640380815 1.019488556769348 0 0 0 0.27 21 65 60 37 176 24 209 88 
89 0.1619528465755392 0.2831073218295913 1.0323357969663833 0 0 0 0.3 21 66 114 10 209 89 220 12 
90 0.24267538901940103 0.2937048539042391 0.9837193890445162 0 0 0 0.3 21 67 44 27 77 17 148 24 209 90 
91 0.23096988375500183 0.3004010688756158 0.9918276079802569 0 0 0 0.22 21 68 44 28 50 38 60 38 61 19 77 18 110 15 113 25 118 29 128 23 146 26 148 25 157 23 158 19 164 33 172 25 176 25 204 10 209 91 213 25 219 16 224 25 
92 0.23013685512004506 0.30250392388004027 0.9920241665777113 0 0 0 0.3 21 69 50 39 61 20 110 16 127 15 128 24 148 26 157 24 164 34 176 26 209 92 213 26 219 17 
93 0.26364977553226326 0.3001100423415976 0.9707359296117521 0 0 0 0.14 21 70 209 93 219 18 
94 0.22548149022942524 0.3079903221328711 0.9897199095032886 0 0 0 0.08 21 71 172 26 209 94 
95 0.24394420436606337 0.30628756648523786 0.9801380771480802 0 0 0 0.09 21 72 60 39 209 95 
96 0.1959655421354145 0.3157801423171835 1.0004887013339299 0 0 0 0.29 21 73 172 27 209 96 224 26 
97 0.184755579211162 0.3193089893238748 1.006318996052391 0 0 0 0.29 21 74 61 21 113 26 172 28 209 97 
98 0.1895795602010862 0.3191614628210024 1.002213639644705 0 0 0 0.39 21 75 43 15 209 98 
99 0.24851986716056804 0.33395729853475387 0.9648524652850455 0 0 0 0.07 21 76 50 40 209 99 
100 0.24853231845114088 0.33386050629904807 0.9647720850003146 0 0 0 0.13 21 77 60 40 209 100 
101 0.2400383700897979 0.33675881817279674 0.9694885980846274 0 0 0 0.17 21 78 44 29 209 101 
102 0.21543349470103293 0.3427291119768846 0.979807115893019 0 0 0 0.21 21 79 44 30 50 41 209 102 224 27 
103 0.024509649920067864 0.06377313481701999 0.6553088990838255 0 0 0 0.4 21 80 209 103 224 28 
104 0.025706782901197836 0.06476004005650869 0.6577763714095933 0 0 0 0.24 21 81 209 104 224 29 
105 0.024791569124152004 0.06521325487750378 0.6564544306389287 0 0 0 0.39 21 82 209 105 224 30 
106 0.28235041800147515 0.19882432868003208 1.0041249110908392 0 0 0 0.2 21 83 172 29 209 106 
107 0.2701908047868888 0.19927582955205378 1.010591194272478 0 0 0 0.27 21 84 60 41 111 34 162 21 172 30 209 107 
108 0.050405232130986355 0.13930290853142668 0.688383625611115 0 0 0 0.06 21 85 209 108 224 31 
109 0.1439808910898616 0.20339535986322257 1.0754295022661222 0 0 0 0.22 21 86 60 42 110 17 127 16 148 27 164 35 209 109 
110 0.15394167195385206 0.2026545549983354 1.0677730441396036 0 0 0 0.41 21 87 25 13 71 21 77 19 92 11 96 20 110 18 127 17 209 110 232 21 
111 0.1518867043335507 0.20543209940900492 1.0687305521902835 0 0 0 0.22 21 88 43 16 50 42 65 20 96 21 103 18 111 35 113 27 114 11 118 30 148 28 164 36 209 111 220 13 232 22 
112 0.22786698126369126 0.20933380490834758 1.0284631454109723 0 0 0 0.29 21 89 111 36 172 31 209 112 
113 0.20891556167157052 0.2106831913617875 1.0364485209870902 0 0 0 0.35 21 90 113 28 172 32 209 113 
114 0.2168442960692776 0.2118407968782578 1.0334772784458328 0 0 0 0.32 21 91 96 22 110 19 111 37 113 29 114 12 172 33 190 14 209 114 
115 0.20471996239022977 0.21447961054409084 1.0376920473089848 0 0 0 0.29 21 92 60 43 111 38 113 30 114 13 148 29 157 25 158 20 162 22 172 34 209 115 
116 0.029464819810719318 0.13691492055790905 0.6263283061975221 0 0 0 0.33 21 93 209 116 224 32 
117 0.18621919107457746 0.21899498182122296 1.0454322664602564 0 0 0 0.25 21 94 111 39 172 35 209 117 
118 0.19383773387954067 0.22094204055943306 1.0396500597204015 0 0 0 0.42 21 95 53 22 77 20 96 23 103 19 111 40 113 31 114 14 126 5 157 26 158 21 164 37 179 15 209 118 213 27 227 19 
119 0.19377061282229407 0.221030791710872 1.0402249437146476 0 0 0 0.42 21 96 103 20 111 41 113 32 164 38 179 16 209 119 219 19 
120 0.1475516284182222 0.22174318729926865 1.0634051242992724 0 0 0 0.3 21 97 44 31 92 12 110 20 164 39 209 120 220 14 
121 0.1889098454375304 0.22485531698263017 1.0419327482934266 0 0 0 0.74 21 98 25 14 44 32 60 44 77 21 110 21 126 6 148 30 158 22 162 23 164 40 176 27 209 121 213 28 224 33 
122 0.19191091715633063 0.22617617482344898 1.0391689937017319 0 0 0 0.27 21 99 44 33 60 45 77 22 103 21 111 42 118 31 126 7 148 31 162 24 164 41 209 122 220 15 
123 0.15124870685825048 0.2268167478944258 1.0608698777366061 0 0 0 0.35 21 100 60 46 103 22 110 22 113 33 164 42 209 123 
124 0.14554675238837403 0.22835683461363945 1.0638630377760898 0 0 0 0.2 21 101 44 34 111 43 209 124 
125 0.1638329341680057 0.22999308366716462 1.0547959239640514 0 0 0 0.24 21 102 44 35 50 43 60 47 96 24 111 44 128 25 157 27 162 25 172 36 176 28 179 17 209 125 224 34 227 20 
126 0.16385475020766807 0.22997910010487813 1.0546296078945168 0 0 0 0.21 21 103 96 25 111 45 162 26 179 18 209 126 219 20 224 35 227 21 
127 0.1634668924712758 0.23395070174273008 1.0541714406605498 0 0 0 0.27 21 104 111 46 209 127 
128 0.16858051197827942 0.2357530575784107 1.051564749208085 0 0 0 0.32 21 105 50 44 60 48 103 23 111 47 127 18 128 26 157 28 176 29 209 128 232 23 
129 0.15083049125795223 0.2375472322753738 1.058836351833106 0 0 0 0.18 21 106 25 15 44 36 71 22 164 43 209 129 
130 0.14769194086241497 0.24409958789843056 1.054391148906955 0 0 0 0.17 21 107 44 37 60 49 164 44 209 130 220 16 
131 0.19630773390439935 0.2644307175286954 1.0243224974128602 0 0 0 0.24 21 108 50 45 60 50 77 23 111 48 118 32 127 19 128 27 146 27 148 32 162 27 164 45 196 10 209 131 213 29 224 36 
132 0.2263519194845333 0.29753522378069225 0.996731008025837 0 0 0 0.06 21 109 172 37 209 132 
133 0.2243068614992667 0.2990949636776532 0.9954793728996884 0 0 0 0.25 21 110 50 46 172 38 209 133 
134 0.21949053278864547 0.3006560628991148 0.9931112208095505 0 0 0 0.16 21 111 111 49 209 134 
135 0.19928153018473074 0.31647258505655057 1.000729129227664 0 0 0 0.19 21 112 96 26 209 135 224 37 227 22 
136 0.19791738875369946 0.320842779213199 0.9977896526476934 0 0 0 0.26 21 113 50 47 60 51 71 23 111 50 118 33 162 28 204 11 209 136 224 38 227 23 232 24 
137 0.18805351405627527 0.32856278541119455 0.9997286783563257 0 0 0 0.38 21 114 43 17 50 48 53 23 71 24 111 51 118 34 146 28 148 33 209 137 220 17 224 39 
138 0.2094147109939973 0.3301622955660848 0.98971957922591 0 0 0 0.4 21 115 61 22 113 34 157 29 209 138 
139 0.20276678061104295 0.33253499827618577 0.993557501142611 0 0 0 0.36 21 116 25 16 50 49 61 23 111 52 118 35 148 34 157 30 162 29 172 39 209 139 227 24 
140 0.1859228966141184 0.3393268832112412 0.9984008842306782 0 0 0 0.25 21 117 60 52 111 53 113 35 114 15 148 35 162 30 209 140 224 40 
141 0.18592196177527795 0.3506227322773093 0.9938722484545749 0 0 0 0.18 21 118 60 53 111 54 209 141 217 15 
142 0.19034895790622 0.361637354082693 0.9859042440454927 0 0 0 0.29 21 119 44 38 162 31 164 46 209 142 220 18 
143 0.020154207479622526 0.06574194322450874 0.6393913199675761 0 0 0 0.29 21 120 209 143 224 41 
144 0.2662170849510049 0.20900766995835793 1.007067275460291 0 0 0 0.24 21 121 111 55 209 144 
145 0.16665151684782692 0.21857279896921172 1.0594942456671044 0 0 0 0.28 21 122 53 24 96 27 111 56 114 16 176 30 209 145 219 21 227 25 
146 0.24602377633175812 0.22578742027846652 1.0155936819490536 0 0 0 0.19 21 123 146 29 209 146 
147 0.15059356715555916 0.23080823287296637 1.0614539189210668 0 0 0 0.14 21 124 25 17 44 39 60 54 71 25 111 57 126 8 148 36 209 147 
148 0.18084922771067144 0.24036805670776124 1.0383631800202024 0 0 0 0.31 21 125 111 58 209 148 232 25 
149 0.08178419745511811 0.2031708158263487 0.7469902963976878 0 0 0 0.35 21 126 209 149 224 42 
150 0.18277471635182363 0.2771437342164511 1.0242727110278327 0 0 0 0.34 21 127 60 55 73 14 113 36 114 17 126 9 146 30 162 32 172 40 176 31 209 150 219 22 
151 0.2632894545922421 0.2868974194792023 0.977956890474924 0 0 0 0.15 21 128 61 24 209 151 
152 0.23075126034504412 0.2964186963886662 0.9939869541540924 0 0 0 0.21 21 129 50 50 61 25 111 59 158 23 172 41 204 12 209 152 217 16 
153 0.24430832230165905 0.3008260894511857 0.9812608238471234 0 0 0 0.2 21 130 111 60 209 153 227 26 
154 0.2198004528612488 0.3071002216568466 0.9928969416458464 0 0 0 0.08 21 131 111 61 209 154 
155 0.24436938195900956 0.3160137777337991 0.9762516942481466 0 0 0 0.26 21 132 50 51 53 25 77 24 111 62 146 31 158 24 164 47 172 42 209 155 213 30 
156 0.072190362885691 0.2298913042355392 0.7019707610984848 0 0 0 0.1 21 133 73 15 209 156 
157 0.22655618134284078 0.3270901090903398 0.9830415996055362 0 0 0 0.27 21 134 111 63 146 32 162 33 209 157 224 43 
158 0.2096837151224434 0.3386765310381038 0.9867794454508453 0 0 0 0.43 21 135 50 52 60 56 73 16 77 25 81 19 92 13 111 64 162 34 164 48 176 32 204 13 209 158 217 17 220 19 
159 0.18806368815376248 0.3521388863023824 0.9911148260630128 0 0 0 0.38 21 136 60 57 73 17 111 65 162 35 164 49 209 159 
160 0.19108616246697754 0.3632456816573414 0.9812003633458832 0 0 0 0.36 21 137 92 14 164 50 209 160 
161 0.045808866894772045 0.07279886068967714 0.7172093276463049 0 0 0 0.48 21 138 25 18 73 18 81 20 209 161 221 13 
162 0.23068185414287645 0.21834888570190927 1.0234294642352644 0 0 0 0.43 21 139 60 58 114 18 146 33 179 19 209 162 
163 0.13617675301386215 0.21131597718722567 0.9477631235724974 0 0 0 0.44 21 140 164 51 209 163 
164 0.18322064049688994 0.23487290910244882 1.041328652137649 0 0 0 0.33 21 141 50 53 60 59 65 21 81 21 103 24 111 66 113 37 118 36 127 20 146 34 157 31 162 36 164 52 172 43 176 33 179 20 209 164 213 31 221 14 232 26 
165 0.18328943716057383 0.23528167953579332 1.0423120718360281 0 0 0 0.34 21 142 92 15 111 67 209 165 
166 0.19851150039579016 0.26712785626391367 1.0233163677588508 0 0 0 0.18 21 143 25 19 50 54 77 26 128 28 158 25 162 37 179 21 209 166 213 32 217 18 224 44 
167 0.18625031043424153 0.2870884997430833 1.0195712261930787 0 0 0 0.32 21 144 43 18 73 19 77 27 96 28 111 68 113 38 146 35 172 44 190 15 209 167 227 27 
168 0.25984546769185385 0.31937680567360094 0.9692144391188442 0 0 0 0.23 21 145 158 26 190 16 209 168 
169 0.23738976770866735 0.33452002105606865 0.9725034422010567 0 0 0 0.45 21 146 50 55 111 69 157 32 209 169 217 19 224 45 
170 0.21287332309782736 0.166789756555101 1.060380746503524 0 0 0 0.4 21 147 146 36 209 170 
171 0.05573660034351229 0.14502096888276964 0.7047187535164475 0 0 0 0.36 21 148 71 26 73 20 209 171 221 15 224 46 
172 0.15258523498568094 0.21313491498196963 1.0668717168026285 0 0 0 0.25 21 149 43 19 44 40 71 27 73 21 76 0 77 28 81 22 92 16 110 23 198 4 199 4 209 172 220 20 
173 0.15267197671325183 0.21311156710834106 1.0661888210626167 0 0 0 0.28 21 150 44 41 60 60 71 28 73 22 76 1 81 23 92 17 110 24 111 70 126 10 148 37 164 53 209 173 220 21 224 47 
174 0.22387723608382093 0.21601795014046166 1.027713605394891 0 0 0 0.57 21 151 60 61 73 23 81 24 96 29 114 19 148 38 158 27 162 38 204 14 209 174 219 23 
175 0.16585732231085765 0.2607559628010136 1.0417621451191021 0 0 0 0.34 21 152 50 56 71 29 113 39 114 20 209 175 
176 0.19508976633370842 0.26947852579820264 1.0225040874530664 0 0 0 0.25 21 153 44 42 50 57 65 22 71 30 73 24 77 29 81 25 114 21 128 29 146 37 148 39 162 39 164 54 176 34 199 5 204 15 209 176 217 20 219 24 
177 0.22827511884323365 0.3091791176582414 0.9885769606930088 0 0 0 0.28 21 154 111 71 209 177 227 28 
178 0.15282851392830807 0.19278182018567294 1.0765784629129211 0 0 0 0.32 21 155 25 20 43 20 60 62 71 31 73 25 76 2 77 30 81 26 92 18 96 30 103 25 111 72 114 22 126 11 127 21 148 40 162 40 164 55 196 11 198 5 199 6 209 178 220 22 224 48 
179 0.15281868230101975 0.19280000788159468 1.0767111827130955 0 0 0 0.31 21 156 44 43 60 63 71 32 73 26 76 3 77 31 81 27 96 31 103 26 111 73 114 23 126 12 127 22 148 41 162 41 164 56 196 12 198 6 199 7 209 179 220 23 224 49 
180 0.2729128925731481 0.20374672732972962 1.007079698490493 0 0 0 0.17 21 157 44 44 53 26 77 32 128 30 162 42 209 180 213 33 
181 0.24536757085551913 0.21530447766254532 1.018964945236592 0 0 0 0.33 21 158 71 33 81 28 110 25 114 24 162 43 209 181 227 29 
182 0.22091154412091932 0.2210392437436363 1.0288075697482264 0 0 0 0.36 21 159 60 64 81 29 114 25 146 38 158 28 179 22 209 182 213 34 219 25 227 30 
183 0.2038926370274571 0.22497429864901808 1.0361674768497013 0 0 0 0.38 21 160 111 74 114 26 164 57 176 35 198 7 209 183 217 21 224 50 
184 0.19603458683073322 0.22656967615015308 1.038268540546643 0 0 0 0.42 21 161 73 27 103 27 111 75 114 27 118 37 128 31 158 29 162 44 164 58 204 16 209 184 213 35 219 26 
185 0.15318189802246945 0.22887711777644573 1.0612661655950322 0 0 0 0.5 21 162 71 34 76 4 81 30 111 76 164 59 209 185 
186 0.13620042921409325 0.24924166027201855 0.9233484796085176 0 0 0 0.1 21 163 76 5 111 77 209 186 
187 0.16697027438232281 0.27945603135047936 1.0323681034766137 0 0 0 0.42 21 164 96 32 103 28 114 28 176 36 198 8 199 8 209 187 
188 0.16682763237047984 0.279930915583763 1.0334356635207982 0 0 0 0.27 21 165 96 33 103 29 126 13 198 9 209 188 
189 0.13758323730487232 0.27401894132546656 0.9135744869763635 0 0 0 0.42 21 166 76 6 209 189 
190 0.13758323730487232 0.27401894132546656 0.9135744869763635 0 0 0 0.42 21 167 76 7 209 190 
191 0.22803692073878298 0.33755468126111066 0.9756585581586844 0 0 0 0.4 21 168 111 78 176 37 209 191 
192 0.26367567827852767 0.1974277737645602 1.0136947888416226 0 0 0 0.39 21 169 162 45 209 192 
193 0.11181268669554618 0.24153240555864913 0.8456484726009766 0 0 0 0.5 21 170 76 8 199 9 209 193 
194 0.070425373815753 0.22934638576660699 0.6982056881371507 0 0 0 0.19 21 171 73 28 209 194 
195 0.25058165173194175 0.3240923523822802 0.9720426921533883 0 0 0 0.64 21 172 44 45 60 65 77 33 111 79 162 46 209 195 217 22 232 27 
196 0.23506531052202573 0.18895291112924664 1.035529952657254 0 0 0 0.46 21 173 60 66 81 31 111 80 179 23 209 196 
197 0.2134390716653169 0.19224047785469908 1.0420757891591916 0 0 0 0.32 21 174 60 67 162 47 172 45 209 197 
198 0.09470792984640664 0.19510979058630254 0.8169745183882552 0 0 0 0.28 21 175 71 35 73 29 103 30 198 10 199 10 209 198 
199 0.20512852452800592 0.33398375159211624 0.9865927628444409 0 0 0 0.31 21 176 111 81 209 199 217 23 
200 0.2240692755042084 0.19095710326362547 1.0394406189526613 0 0 0 0.22 21 177 103 31 111 82 172 46 179 24 209 200 
201 0.19085867019649275 0.24484044978513078 1.0343690713225324 0 0 0 0.54 21 178 77 34 103 32 146 39 158 30 176 38 209 201 
202 0.22064493667264778 0.3494768609848888 0.977214016550585 0 0 0 1.35 21 179 146 40 209 202 
203 0.1736431813805165 0.2022495470534349 1.0578197450867894 0 0 0 0.15 21 180 103 33 209 203 
204 0.19705651838989083 0.3364295831558612 0.993227707012415 0 0 0 0.42 21 181 60 68 65 23 81 32 111 83 118 38 209 204 220 24 232 28 
205 0.1638258085016591 0.20186999575466266 1.0681657824986888 0 0 0 0.25 25 21 50 58 53 27 71 36 81 33 114 29 118 39 157 33 179 25 209 205 219 27 
206 0.22264089067359022 0.210507299904655 1.0302072008148382 0 0 0 0.3 25 22 44 46 60 69 111 84 113 40 157 34 158 31 172 47 179 26 190 17 209 206 
207 0.21042458035159178 0.2575369827918626 1.0179716260781428 0 0 0 0.33 25 23 50 59 60 70 71 37 92 19 110 26 113 41 114 30 118 40 126 14 146 41 158 32 176 39 204 17 209 207 213 36 219 28 232 29 
208 0.16511954150187222 0.2740254863172639 1.036648680313261 0 0 0 0.37 25 24 50 60 113 42 162 48 209 208 
209 0.18886947198264356 0.2774217646804338 1.0209183467234324 0 0 0 0.64 25 25 61 26 111 85 146 42 172 48 209 209 227 31 
210 0.16481472541148479 0.2953259438756748 1.0252846112324876 0 0 0 0.3 25 26 44 47 77 35 164 60 209 210 224 51 
211 0.17173945638367816 0.32950665653532 1.0105701430616236 0 0 0 0.22 25 27 50 61 53 28 61 27 71 38 73 30 77 36 96 34 111 86 118 41 148 42 209 211 232 30 
212 0.17170521180040774 0.32961728743143004 1.0106325908894866 0 0 0 0.26 25 28 43 21 44 48 50 62 53 29 60 71 71 39 73 31 77 37 96 35 111 87 118 42 148 43 162 49 190 18 209 212 232 31 
213 0.21546336442557404 0.3385290310279864 0.9815879070011364 0 0 0 0.26 25 29 50 63 73 32 110 27 111 88 162 50 164 61 172 49 204 18 209 213 227 32 232 32 
214 0.1484996458186113 0.20386995628391233 1.0719443915474756 0 0 0 0.24 25 30 71 40 73 33 96 36 110 28 111 89 114 31 162 51 164 62 209 214 
215 0.15889300130376 0.23048186488947242 1.0556104458982225 0 0 0 0.32 25 31 44 49 60 72 71 41 77 38 103 34 110 29 111 90 126 15 148 44 164 63 176 40 196 13 209 215 220 25 221 16 224 52 232 33 
216 0.10934448516553154 0.2097587842305019 0.8560976964906801 0 0 0 0.56 25 32 73 34 103 35 199 11 209 216 224 53 
217 0.1621235152898925 0.20502692761717226 1.066236754111543 0 0 0 0.33 25 33 50 64 53 30 60 73 71 42 73 35 111 91 128 32 164 64 179 27 209 217 
218 0.10612896119088765 0.2079129996431469 0.8518027532045196 0 0 0 0.44 25 34 71 43 73 36 76 9 103 36 126 16 198 11 199 12 209 218 
219 0.1891945383139645 0.26874953204739593 1.024540322406789 0 0 0 0.3 25 35 61 28 114 32 190 19 198 12 209 219 221 17 232 34 
220 0.10844833444874208 0.2367618244833946 0.8363519726156863 0 0 0 0.62 25 36 73 37 198 13 199 13 209 220 224 54 
221 0.12850950532437505 0.28689004647148597 0.8838386256679663 0 0 0 0.29 25 37 73 38 198 14 199 14 209 221 
222 0.22370485196162623 0.3443883362667717 0.9741371139425727 0 0 0 0.26 25 38 50 65 209 222 213 37 
223 0.17122954978423455 0.24953656407833605 1.0416628990244094 0 0 0 0.42 25 39 43 22 50 66 53 31 60 74 71 44 73 39 76 10 81 34 92 20 96 37 111 92 113 43 118 43 148 45 164 65 176 41 196 14 198 15 199 15 209 223 219 29 220 26 221 18 224 55 232 35 
224 0.20570789187635585 0.2793167352615328 1.0606301551962969 0 0 0 0.92 25 40 65 24 71 45 113 44 209 224 217 24 
225 0.20570789187635585 0.2793167352615328 1.0606301551962969 0 0 0 0.92 25 41 65 25 71 46 113 45 209 225 217 25 
226 0.21920803153140614 0.16147997482458804 1.047879474925329 0 0 0 0.21 60 75 146 43 209 226 
227 0.26218594303817844 0.22079545053414903 1.0061826892481804 0 0 0 0.17 60 76 146 44 148 46 157 35 209 227 
228 0.19271562852601237 0.23536476109325916 1.0372024495886587 0 0 0 0.24 50 67 77 39 164 66 209 228 
229 0.21271599782887657 0.2573512163522045 1.0165334188237622 0 0 0 0.2 50 68 60 77 61 29 164 67 209 229 213 38 
230 0.16602780471559975 0.29762986268384745 1.0253856764764042 0 0 0 0.22 60 78 77 40 148 47 209 230 224 56 
231 0.16460280467649543 0.29820089571630665 1.023694477260143 0 0 0 0.19 50 69 60 79 127 23 128 33 209 231 
232 0.24077003659988888 0.312262434118624 0.9802134094464723 0 0 0 0.18 44 50 146 45 176 42 209 232 
233 0.26182967911975963 0.17194048414758445 1.0279593824619837 0 0 0 0.5 92 21 164 68 176 43 209 233 
234 0.16139453751433094 0.19970332589468456 1.0693662344517862 0 0 0 0.18 50 70 53 32 60 80 61 30 96 38 103 37 118 44 128 34 157 36 176 44 179 28 209 234 232 36 
235 0.15032909611208886 0.21778954608181716 1.0654797638625095 0 0 0 0.23 44 51 60 81 77 41 103 38 111 93 114 33 148 48 164 69 209 235 224 57 
236 0.15303647709989196 0.2198488503065763 1.0617491220255595 0 0 0 0.2 60 82 92 22 103 39 113 46 209 236 221 19 
237 0.22405487301863042 0.2123605668383885 1.028703282637736 0 0 0 0.23 44 52 50 71 53 33 60 83 77 42 92 23 110 30 113 47 127 24 128 35 146 46 158 33 162 52 164 70 172 50 176 45 179 29 204 19 209 237 213 39 219 30 224 58 227 33 
238 0.15648304387899153 0.22985233264260446 1.059926837888724 0 0 0 0.15 60 84 110 31 209 238 
239 0.15679675407283616 0.2328391456310626 1.0574884974806773 0 0 0 0.34 60 85 92 24 110 32 209 239 
240 0.17781279981137574 0.23451038978820454 1.0459757822400995 0 0 0 0.3 50 72 60 86 61 31 77 43 92 25 110 33 111 94 127 25 146 47 157 37 164 71 172 51 176 46 209 240 224 59 
241 0.2113039051692452 0.2338828953114246 1.0261409635399823 0 0 0 0.27 60 87 111 95 176 47 209 241 
242 0.23379360767702578 0.24777573293479083 1.0120707825499229 0 0 0 0.14 60 88 127 26 146 48 209 242 213 40 
243 0.16500159557822788 0.28830622158372654 1.027441625952327 0 0 0 0.24 60 89 162 53 164 72 209 243 224 60 
244 0.24011467384158697 0.2947190735867366 0.9851824530565414 0 0 0 0.15 118 45 209 244 213 41 
245 0.23095520081608534 0.3004069914289424 0.9919729680580441 0 0 0 0.18 44 53 50 73 77 44 110 34 113 48 118 46 146 49 148 49 157 38 164 73 172 52 204 20 209 245 213 42 
246 0.17821571769942837 0.35076098779259607 0.9995086990470213 0 0 0 0.22 60 90 209 246 232 37 
247 0.1884037138618648 0.1945544918323575 1.0543438604469761 0 0 0 0.24 77 45 127 27 146 50 162 54 209 247 
248 0.17932087396280916 0.21066362874057248 1.0488721418075098 0 0 0 0.26 71 47 111 96 114 34 209 248 
249 0.16882264409229014 0.2495332497451085 1.0451532307857085 0 0 0 0.3 44 54 50 74 77 46 111 97 118 47 127 28 148 50 162 55 164 74 172 53 196 15 209 249 221 20 224 61 
250 0.16687907158408022 0.3297015291547091 1.008974504464699 0 0 0 0.41 111 98 209 250 224 62 
251 0.1902792943069008 0.1926748687344702 1.0609830516472523 0 0 0 0.7 60 91 71 48 73 40 77 47 110 35 114 35 127 29 146 51 162 56 164 75 209 251 224 63 
252 0.20633099776683558 0.22399110169829292 1.0333498277231241 0 0 0 0.26 50 75 73 41 114 36 146 52 157 39 209 252 
253 0.18433673910215262 0.2317373323268802 1.042838106046159 0 0 0 0.39 44 55 50 76 60 92 71 49 73 42 77 48 146 53 158 34 209 253 224 64 227 34 
254 0.21875265887038314 0.1925740383948549 1.0425707323645363 0 0 0 0.32 50 77 71 50 73 43 81 35 162 57 209 254 227 35 
255 0.16164211146088517 0.2570755123759371 1.0407903738340913 0 0 0 0.27 113 49 198 16 209 255 
256 0.25335184221265683 0.25379900756068574 0.9997026364439876 0 0 0 0.28 50 78 53 34 71 51 92 26 96 39 111 99 113 50 118 48 128 36 146 54 148 51 157 40 158 35 164 76 176 48 179 30 190 20 209 256 217 26 220 27 227 36 232 38 
257 0.19457335470843412 0.1918560517150909 1.0675674051050912 0 0 0 0.66 73 44 77 49 103 40 111 100 114 37 146 55 199 16 209 257 
258 0.2214871693590397 0.31652250955993466 0.9862298627659404 0 0 0 0.29 50 79 61 32 81 36 103 41 111 101 209 258 213 43 227 37 
259 0.17761197827769884 0.33238504997854545 1.0042880985730713 0 0 0 0.55 50 80 81 37 111 102 118 49 162 58 199 17 209 259 221 21 
260 0.16677364391180488 0.20911452483890894 1.0648128282600204 0 0 0 0.24 50 81 53 35 65 26 71 52 73 45 81 38 111 103 114 38 118 50 128 37 146 56 172 54 176 49 179 31 209 260 219 31 232 39 
261 0.166791520371064 0.2091026459914921 1.0650260478428295 0 0 0 0.27 50 82 65 27 71 53 73 46 103 42 111 104 114 39 118 51 128 38 172 55 179 32 209 261 
262 0.20526796912916237 0.33552528097761847 0.9903410857514866 0 0 0 0.5 43 23 111 105 118 52 128 39 209 262 217 27 224 65 
263 0.2068202995407442 0.32325269838699616 0.9948642212333725 0 0 0 0.48 50 83 53 36 65 28 92 27 96 40 103 43 111 106 148 52 162 59 164 77 176 50 209 263 217 28 220 28 
264 0.1953622672617749 0.18213635383465065 1.0747052357003013 0 0 0 0.64 43 24 60 93 71 54 77 50 81 39 103 44 110 36 111 107 113 51 114 40 157 41 162 60 164 78 209 264 224 66 
265 0.2635968262123309 0.17738421195888246 1.0236907260411074 0 0 0 0.28 43 25 60 94 71 55 111 108 179 33 209 265 219 32 
266 0.16245015313728212 0.21582998230767622 1.063882024900192 0 0 0 0.29 43 26 53 37 71 56 111 109 128 40 209 266 
267 0.15780269729659305 0.22027118621214203 1.0601456814700807 0 0 0 0.35 43 27 50 84 73 47 103 45 111 110 148 53 164 79 196 16 209 267 220 29 224 67 
268 0.1596383849926191 0.2416068218858789 1.051819048570401 0 0 0 0.14 43 28 111 111 209 268 
269 0.20665322758503346 0.25806546916456297 1.0211194812462516 0 0 0 0.34 43 29 53 38 110 37 172 56 176 51 209 269 219 33 220 30 
270 0.18840793706292733 0.3400878268911243 0.9937120048403891 0 0 0 0.32 43 30 50 85 71 57 111 112 162 61 172 57 209 270 217 29 221 22 232 40 
271 0.14906241118188376 0.19095583496693183 1.0769982916397003 0 0 0 0.29 43 31 50 86 71 58 77 51 103 46 111 113 118 53 148 54 162 62 196 17 209 271 221 23 224 68 
272 0.15912807455950992 0.22792697662981 1.0566141811820695 0 0 0 0.36 43 32 44 56 60 95 65 29 71 59 73 48 77 52 81 40 92 28 96 41 110 38 111 114 118 54 126 17 148 55 162 63 164 80 176 52 196 18 209 272 220 31 221 24 232 41 
273 0.20987414476939323 0.26402807953031937 1.0172406927489916 0 0 0 0.26 43 33 60 96 77 53 103 47 118 55 158 36 204 21 209 273 220 32 
274 0.17855200407897684 0.3422583521747766 0.9930433831367982 0 0 0 0.51 43 34 71 60 209 274 
275 0.19348293142583867 0.2892020284461964 1.022286897924239 0 0 0 0.81 43 35 60 97 209 275 
276 0.19348293142583867 0.2892020284461964 1.022286897924239 0 0 0 0.81 43 36 60 98 209 276 
277 0.2865829609942135 0.15725573409753324 1.0207004416888894 0 0 0 0.74 44 57 128 41 209 277 
278 0.2617630133119915 0.175353251741238 1.0239856726612189 0 0 0 0.39 44 58 77 54 146 57 209 278 
279 0.14974624146860793 0.21038957493865645 1.0693784530968609 0 0 0 0.38 44 59 92 29 209 279 
280 0.1441344775443669 0.21548417985046164 1.0718091787336845 0 0 0 0.5 44 60 71 61 77 55 92 30 110 39 111 115 148 56 164 81 209 280 
281 0.23404357680924437 0.20986738811015235 1.0246586616117694 0 0 0 0.31 44 61 60 99 157 42 158 37 172 58 204 22 209 281 
282 0.1540079484755618 0.22545651543901443 1.0615431889732656 0 0 0 0.47 44 62 60 100 209 282 
283 0.23991998071331108 0.21035899533109673 1.0218866193810596 0 0 0 0.41 44 63 50 87 148 57 157 43 164 82 172 59 176 53 179 34 209 283 
284 0.23738785832612094 0.21096451764935412 1.0230008724248993 0 0 0 0.28 44 64 92 31 157 44 172 60 196 19 209 284 
285 0.20729165020413484 0.21788287629262637 1.0342398865998317 0 0 0 0.32 44 65 50 88 60 101 96 42 110 40 128 42 146 58 157 45 172 61 176 54 179 35 204 23 209 285 213 44 219 34 220 33 224 69 227 38 
286 0.16680050304326613 0.24208810711374237 1.049419846410972 0 0 0 0.2 44 66 77 56 148 58 209 286 
287 0.2175815542253223 0.24521696616196548 1.0194312292717898 0 0 0 0.2 44 67 50 89 157 46 209 287 
288 0.24914523746334788 0.2514895239761803 1.0015309624694677 0 0 0 0.22 44 68 50 90 60 102 92 32 146 59 157 47 176 55 209 288 213 45 
289 0.26337364687755216 0.3050518003811768 0.9709196213665396 0 0 0 0.36 44 69 50 91 60 103 162 64 176 56 209 289 
290 0.24695693709695224 0.3359632020668557 0.9672039997580698 0 0 0 0.2 44 70 60 104 209 290 
291 0.25932393399443754 0.1780662371979445 1.025872867731722 0 0 0 0.21 44 71 60 105 176 57 209 291 
292 0.23839667123275893 0.20902345494967073 1.0229477725629703 0 0 0 0.18 44 72 50 92 53 39 60 106 77 57 92 33 103 48 110 41 111 116 113 52 146 60 148 59 157 48 164 83 172 62 176 58 204 24 209 292 213 46 219 35 220 34 224 70 
293 0.23837718094539398 0.20904193060285622 1.0230709919641647 0 0 0 0.2 44 73 50 93 60 107 77 58 92 34 110 42 111 117 113 53 118 56 128 43 146 61 148 60 157 49 158 38 162 65 164 84 172 63 176 59 204 25 209 293 213 47 220 35 224 71 227 39 
294 0.22882444316121606 0.21290680662824277 1.026062623535917 0 0 0 0.18 44 74 50 94 60 108 157 50 158 39 162 66 179 36 204 26 209 294 213 48 
295 0.19591590205137263 0.21897140484063934 1.0403126188879126 0 0 0 0.28 44 75 50 95 60 109 77 59 92 35 96 43 103 49 111 118 113 54 114 41 126 18 146 62 148 61 157 51 162 67 164 85 172 64 196 20 204 27 209 295 213 49 219 36 224 72 227 40 
296 0.1960188141726821 0.21891957531731693 1.0399421103319049 0 0 0 0.22 44 76 77 60 111 119 127 30 148 62 162 68 164 86 179 37 196 21 209 296 213 50 224 73 
297 0.22123246556122386 0.2179432964008649 1.0292223364303357 0 0 0 0.24 44 77 50 96 92 36 110 43 158 40 209 297 221 25 224 74 
298 0.2244624068059146 0.21714339595462406 1.0272932167286868 0 0 0 0.38 44 78 53 40 60 110 110 44 113 55 162 69 172 65 176 60 204 28 209 298 224 75 
299 0.26030359234587164 0.2208560768488703 1.0065452736608562 0 0 0 0.27 44 79 50 97 92 37 111 120 113 56 146 63 204 29 209 299 227 41 
300 0.14823918930645769 0.27699005059546045 1.0443559881171534 0 0 0 0.18 44 80 209 300 224 76 
301 0.19601219964554084 0.26827427895353534 1.0232446717769372 0 0 0 0.18 44 81 77 61 128 44 209 301 
302 0.19020996310220745 0.33045570119084644 0.9974199947755318 0 0 0 0.31 44 82 50 98 53 41 60 111 61 33 71 62 111 121 118 57 128 45 157 52 162 70 164 87 209 302 227 42 232 42 
303 0.1857699404042041 0.33284040178976493 0.998606604770396 0 0 0 0.72 50 99 61 34 118 58 146 64 162 71 176 61 209 303 213 51 224 77 
304 0.19409860181311708 0.3591663156637815 0.9848521175139595 0 0 0 0.3 44 83 50 100 111 122 209 304 
305 0.24391531319660947 0.2057201098586672 1.0222939615265876 0 0 0 0.48 44 84 60 112 61 35 96 44 103 50 110 45 113 57 114 42 128 46 148 63 157 53 158 41 162 72 172 66 176 62 179 38 204 30 209 305 213 52 217 30 220 36 224 78 232 43 
306 0.2475256781140532 0.2557693901345832 1.0029705255478765 0 0 0 0.33 44 85 53 42 71 63 77 62 92 38 96 45 110 46 111 123 113 58 118 59 126 19 146 65 148 64 157 54 158 42 162 73 164 88 176 63 179 39 190 21 196 22 209 306 213 53 220 37 221 26 224 79 227 43 232 44 
307 0.2348821751694881 0.2584730229045609 1.0070834883123772 0 0 0 0.26 44 86 50 101 77 63 111 124 113 59 114 43 126 20 146 66 162 74 164 89 172 67 176 64 179 40 209 307 213 54 220 38 224 80 232 45 
308 0.16462453913322395 0.2954850884961987 1.0261807547319486 0 0 0 0.26 44 87 77 64 209 308 
309 0.16776241177025186 0.29892092699585837 1.0240943851436413 0 0 0 0.34 44 88 50 102 77 65 103 51 148 65 196 23 209 309 227 44 
310 0.23640836495133788 0.3099912389855694 0.9813442426856529 0 0 0 0.37 44 89 50 103 111 125 113 60 209 310 
311 0.22150193203691876 0.33785100729631395 0.9789205035950937 0 0 0 0.29 44 90 77 66 164 90 172 68 209 311 224 81 
312 0.1598332479851885 0.24157479535270085 1.0510231363600668 0 0 0 0.18 44 91 60 113 77 67 103 52 209 312 220 39 
313 0.18464618024655066 0.32993389268936046 1.000525067977871 0 0 0 0.31 44 92 50 104 60 114 61 36 71 64 81 41 111 126 209 313 217 31 220 40 221 27 
314 0.26204186845400634 0.18348417170549608 1.0201998660419027 0 0 0 0.34 44 93 92 39 114 44 209 314 
315 0.21801480062371523 0.2824498095450534 1.0071862431682352 0 0 0 0.29 44 94 81 42 162 75 209 315 
316 0.21801480062371523 0.2824498095450534 1.0071862431682352 0 0 0 0.29 44 95 81 43 162 76 209 316 
317 0.12398916947105738 0.1542565368090918 0.9417676469824843 0 0 0 0.56 50 105 209 317 224 82 
318 0.12471494082700021 0.15588547288636753 0.9431361420436026 0 0 0 0.66 50 106 209 318 224 83 
319 0.2572320951889386 0.18171237341439328 1.0271949161000717 0 0 0 0.31 50 107 146 67 209 319 
320 0.20906955823292597 0.1973291752915324 1.0435711110790507 0 0 0 0.17 50 108 176 65 209 320 213 55 
321 0.2507879973387108 0.2061762497845468 1.0183800002851897 0 0 0 0.31 50 109 113 61 157 55 176 66 179 41 209 321 
322 0.18498179226896985 0.22335662735183884 1.0444014006598192 0 0 0 0.24 50 110 118 60 128 47 146 68 157 56 164 91 209 322 213 56 
323 0.2572998519095229 0.21485455667260087 1.0132882875963638 0 0 0 0.44 50 111 146 69 209 323 
324 0.2658508628039452 0.21926718984456617 1.0047845162784634 0 0 0 0.25 50 112 146 70 157 57 209 324 213 57 
325 0.26446985767922054 0.22035336199574512 1.0056165183025338 0 0 0 0.17 50 113 60 115 113 62 146 71 157 58 209 325 213 58 
326 0.17898065107503763 0.24846922672441307 1.03702951041471 0 0 0 0.2 50 114 110 47 146 72 176 67 209 326 213 59 
327 0.22018892446358618 0.2498809341231041 1.0195838485633206 0 0 0 0.27 50 115 61 37 118 61 164 92 172 69 209 327 224 84 227 45 
328 0.24489990898704636 0.24385408748375415 1.0099838544230415 0 0 0 0.44 50 116 60 116 209 328 227 46 
329 0.2225240335398487 0.2505563474736944 1.0167912018291534 0 0 0 0.17 50 117 61 38 113 63 146 73 158 43 209 329 213 60 
330 0.2330326670028026 0.25635338186239764 1.0469578514981495 0 0 0 1.45 50 118 176 68 209 330 
331 0.19262227904370716 0.2720516477525318 1.0205995306910791 0 0 0 0.11 50 119 61 39 209 331 
332 0.23192105728188164 0.3024758775132933 0.9919675693226307 0 0 0 0.23 50 120 157 59 158 44 176 69 209 332 213 61 
333 0.24099174498501783 0.31455487226438184 0.9793689657170969 0 0 0 0.27 50 121 157 60 176 70 209 333 213 62 
334 0.21315198485055425 0.32847226311470074 0.9864790369512986 0 0 0 0.17 50 122 61 40 157 61 176 71 209 334 
335 0.230897683717939 0.3308947218310575 0.9795227104815433 0 0 0 0.31 50 123 61 41 162 77 209 335 224 85 
336 0.23819827751331007 0.33058723733590156 0.9732009968986565 0 0 0 0.39 50 124 61 42 176 72 209 336 227 47 
337 0.25103129921655887 0.3366157240056138 0.965266898262612 0 0 0 0.25 50 125 110 48 196 24 209 337 
338 0.17136322310426352 0.20864353153749537 1.0622423935007785 0 0 0 0.18 50 126 53 43 61 43 96 46 103 53 128 48 146 74 157 62 172 70 179 42 204 31 209 338 213 63 
339 0.1713533109688388 0.20866252142933617 1.062197050868081 0 0 0 0.2 50 127 53 44 61 44 96 47 103 54 113 64 128 49 146 75 157 63 172 71 179 43 209 339 213 64 
340 0.16429425049509555 0.21149513639263856 1.0640976771681412 0 0 0 0.53 50 128 53 45 103 55 128 50 179 44 209 340 219 37 
341 0.15725546667907309 0.2359721919906175 1.0546133677810383 0 0 0 0.17 50 129 164 93 209 341 
342 0.17588233534373884 0.23382462648383937 1.0472008597511704 0 0 0 0.35 50 130 53 46 60 117 77 68 103 56 111 127 128 51 157 64 164 94 176 73 190 22 209 342 227 48 
343 0.16151905084230922 0.23946331191946063 1.0504373017738047 0 0 0 0.64 50 131 60 118 77 69 110 49 113 65 127 31 128 52 209 343 224 86 
344 0.23831081402407156 0.2218270563754291 1.0186838452142288 0 0 0 0.18 50 132 118 62 146 76 209 344 224 87 
345 0.2629576390423174 0.21672182012019406 1.0073909692926801 0 0 0 0.25 50 133 158 45 172 72 204 32 209 345 219 38 
346 0.19558539282666015 0.2579249710459823 1.0259705114931181 0 0 0 0.25 50 134 162 78 209 346 
347 0.20998338330463356 0.2540189427054597 1.0192281091890574 0 0 0 0.29 50 135 61 45 128 53 146 77 209 347 
348 0.25415167588372223 0.24514967795688236 1.0021446755533463 0 0 0 0.24 50 136 146 78 158 46 209 348 213 65 219 39 
349 0.2355382192103671 0.25415868989765744 1.008240750792725 0 0 0 0.31 50 137 53 47 103 57 110 50 172 73 176 74 179 45 204 33 209 349 
350 0.21318928027120368 0.27088215419847206 1.010937844286938 0 0 0 0.22 50 138 158 47 209 350 
351 0.2554027945538145 0.2656261857452766 0.9935896596325663 0 0 0 0.42 50 139 146 79 158 48 209 351 
352 0.24757116714516475 0.3182650262188132 0.9735563656376701 0 0 0 0.38 50 140 164 95 176 75 209 352 227 49 
353 0.18505307629655912 0.19277272726946082 1.0579622068583334 0 0 0 0.34 50 141 71 65 77 70 103 58 111 128 127 32 146 80 148 66 164 96 209 353 224 88 
354 0.1767277883035733 0.22611460568355507 1.0496374411864697 0 0 0 0.27 50 142 128 54 172 74 209 354 
355 0.18424768428952554 0.22791798962246293 1.0415607027873843 0 0 0 0.24 50 143 53 48 96 48 103 59 111 129 113 66 128 55 146 81 157 65 176 76 209 355 213 66 219 40 221 28 232 46 
356 0.25843626037282147 0.2108141825591363 1.0102451104832635 0 0 0 0.44 50 144 61 46 157 66 158 49 209 356 227 50 
357 0.2439157780442533 0.23447004542623742 1.012930624105045 0 0 0 0.19 50 145 77 71 128 56 146 82 158 50 162 79 209 357 
358 0.18201202051345672 0.25499832163549585 1.0349377848073356 0 0 0 0.29 50 146 60 119 71 66 92 40 111 130 113 67 114 45 146 83 164 97 172 75 176 77 179 46 209 358 219 41 224 89 232 47 
359 0.25624136319943214 0.24602216249891415 1.0002103604113493 0 0 0 0.25 50 147 77 72 111 131 158 51 204 34 209 359 232 48 
360 0.2129746551552806 0.26332720060730286 1.0143264990767995 0 0 0 0.46 50 148 60 120 96 49 113 68 118 63 164 98 172 76 179 47 209 360 227 51 
361 0.248110771934338 0.2680032501167097 0.999281649338766 0 0 0 0.22 50 149 60 121 71 67 96 50 146 84 209 361 232 49 
362 0.23453517213885766 0.2949841858670329 0.9909414903706103 0 0 0 0.14 50 150 61 47 110 51 209 362 
363 0.18750010730279523 0.3229383986466386 1.0018951384098924 0 0 0 0.33 50 151 111 132 113 69 162 80 190 23 209 363 227 52 
364 0.21505726676145145 0.3341036582800862 0.9827044804619265 0 0 0 0.41 50 152 162 81 209 364 
365 0.23017824943963608 0.33463505544723043 0.9790358463725932 0 0 0 0.42 50 153 61 48 146 85 157 67 209 365 213 67 
366 0.22504014864452282 0.18526263879350915 1.042964965580823 0 0 0 0.37 50 154 103 60 111 133 157 68 158 52 162 82 179 48 209 366 227 53 232 50 
367 0.1968630184053608 0.23736239965293202 1.0343817740880472 0 0 0 0.41 50 155 114 46 118 64 176 78 209 367 
368 0.20296076699246496 0.2534016672654668 1.0279957439459206 0 0 0 0.22 50 156 53 49 61 49 71 68 73 49 77 73 96 51 113 70 146 86 157 69 209 368 217 32 232 51 
369 0.17127821530347093 0.2141855189933551 1.063735468043162 0 0 0 0.73 50 157 53 50 65 30 81 44 114 47 118 65 128 57 146 87 157 70 176 79 179 49 190 24 209 369 
370 0.18270672446444036 0.21750421271232473 1.0512117161765575 0 0 0 0.33 50 158 81 45 111 134 146 88 209 370 
371 0.2553534856773408 0.212114993656378 1.0121842669600594 0 0 0 0.35 50 159 81 46 164 99 179 50 190 25 209 371 227 54 
372 0.21891988761768408 0.24418669448874453 1.0203437867438976 0 0 0 0.24 50 160 81 47 176 80 204 35 209 372 
373 0.235752959857277 0.2706146094277773 1.0028940321796749 0 0 0 0.34 50 161 111 135 209 373 
374 0.18950248664418945 0.2829927238293493 1.0179597775276903 0 0 0 0.29 50 162 73 50 157 71 209 374 
375 0.17916987631645312 0.33450847411827767 0.9977765876246056 0 0 0 0.34 50 163 190 26 209 375 219 42 
376 0.2523753938421594 0.21399030609646377 1.0181852488071084 0 0 0 0.33 50 164 172 77 179 51 198 17 209 376 227 55 
377 0.15755848593717292 0.28942511051797937 1.0281249614023948 0 0 0 0.26 50 165 60 122 76 11 96 52 103 61 111 136 209 377 
378 0.20310462468547905 0.30956738522538746 1.0075461295327481 0 0 0 0.6 50 166 111 137 172 78 209 378 
379 0.17718667955618359 0.21815033367586883 1.0566820702298196 0 0 0 0.47 50 167 53 51 65 31 81 48 103 62 111 138 118 66 128 58 146 89 157 72 209 379 
380 0.1771953961888718 0.21804209474619604 1.0557220475090225 0 0 0 0.47 50 168 53 52 65 32 81 49 103 63 111 139 128 59 146 90 209 380 
381 0.07780713686690093 0.04772036857269822 0.8154231229296018 0 0 0 0.35 53 53 103 64 209 381 
382 0.16949223033762986 0.22482059513372996 1.0522173744656114 0 0 0 0.25 53 54 111 140 209 382 
383 0.17657908140549525 0.23137732244516349 1.0476737801188094 0 0 0 0.25 53 55 103 65 146 91 157 73 172 79 176 81 179 52 209 383 213 68 219 43 
384 0.18784235439560157 0.3158494323819995 1.002563674510739 0 0 0 0.26 53 56 60 123 61 50 209 384 
