# 3D point list with one line of data per point:
#   POINT3D_ID, X, Y, Z, R, G, B, ERROR, TRACK[] as (IMAGE_ID, POINT2D_IDX)
# Number of points: 444, mean track length: 7.08
2298 0.3692325371222527 0.10746961284015447 0.7702708608869832 0 0 0 0.29 11 405 28 546 53 156 91 51 118 241 165 18 175 301 201 291 204 154 235 53 
2299 0.4068087757594163 0.11036814441123768 0.7796544559964421 0 0 0 0.39 11 406 15 89 17 222 27 150 44 439 50 527 82 1 165 19 170 5 197 34 201 292 204 155 234 284 235 54 
2300 0.06337138860792944 0.12324314745940294 0.6975369547386325 0 0 0 0.15 11 407 38 214 53 157 148 133 
2301 0.03169560227621444 -0.14511137781914654 0.7633174720726371 0 0 0 0.28 13 540 109 188 112 429 
2302 0.11248617307247426 -0.07470165803033454 0.7684838563587948 0 0 0 0.37 13 541 124 916 175 302 201 293 
2303 0.06157143722569927 -0.06955593095199751 0.7537129138668914 0 0 0 0.13 13 542 124 917 201 294 
2304 0.2556382519099541 0.07250661697707049 0.7599376223042726 0 0 0 0.14 13 543 112 430 201 295 
2305 0.08466416130030055 0.07227553525590015 0.719992246424758 0 0 0 0.41 13 544 28 547 93 249 124 918 175 303 187 782 201 296 231 145 200 539 
2306 0.25460985912012946 0.07636275783736662 0.7549637605965009 0 0 0 0.09 13 545 124 919 201 297 
2307 0.06519597993079602 0.0739990520591534 0.7076079478406812 0 0 0 0.3 13 546 16 492 28 548 112 431 201 298 
2308 0.23933136328796226 0.07988727027131733 0.7495077153246418 0 0 0 0.16 13 547 124 920 201 299 
2309 0.11777068951119768 0.07802028691085089 0.717525622695046 0 0 0 0.66 13 548 91 52 124 921 201 300 176 394 231 146 
2310 0.19105460808054095 0.08019292396900528 0.732975457797386 0 0 0 0.42 13 549 112 432 201 301 
2311 0.15865182687624924 0.08231734644586285 0.7315148198722303 0 0 0 0.17 13 550 175 304 201 302 
2312 0.1662931380899983 0.08297839709760894 0.7342324706632087 0 0 0 0.09 13 551 175 305 201 303 187 783 
2313 0.16997450151023685 0.08322641093254556 0.7349496560109762 0 0 0 0.07 13 552 175 306 201 304 
2314 0.07062031090710967 0.08107512397867062 0.709270428133977 0 0 0 0.28 13 553 175 307 176 395 187 784 201 305 231 147 
2315 0.2658565117417624 0.08574826625669325 0.7478694716205142 0 0 0 0.04 124 922 175 308 201 306 
2316 0.1341859027331524 0.08427754397413681 0.7275297385674849 0 0 0 0.17 13 554 124 923 201 307 175 309 
2317 0.2008446418959595 0.08686860409593268 0.7416388555920699 0 0 0 0.25 13 555 91 53 112 433 201 308 213 584 
2318 0.1323537977850061 0.08550860884396022 0.7256520665129702 0 0 0 0.14 13 556 124 924 146 580 201 309 
2319 0.1495024397846678 0.08742634335793194 0.7194932869537546 0 0 0 0.28 13 557 93 250 112 434 201 310 
2320 0.20649797556887692 0.09130234008424604 0.7404418036863 0 0 0 0.24 13 558 93 251 201 311 
2321 0.22941324547496195 0.09292990188917653 0.7371781193689673 0 0 0 0.11 13 559 112 435 201 312 
2322 0.19778269716109498 0.09334752176549188 0.7335096727323053 0 0 0 0.43 13 560 112 436 176 396 201 313 
2323 0.22909386144962252 0.1055557581401446 0.7368253596481728 0 0 0 0.43 13 561 109 189 201 314 
2324 0.2679291945204165 0.10708785160668431 0.7470636756511443 0 0 0 0.27 28 549 91 54 109 190 124 925 187 785 201 315 
2325 0.22921849141788747 0.1212655795366101 0.7272251637930589 0 0 0 0.12 124 926 175 310 201 316 
2326 0.09521473473122895 0.11917974592278857 0.7066279118691251 0 0 0 0.28 13 562 28 550 187 786 201 317 
2327 0.2437233532586713 0.13224145669852394 0.739650560324823 0 0 0 0.31 124 927 175 311 187 787 201 318 
2328 0.2865114850191345 0.1349504171721735 0.7469984575420217 0 0 0 0.18 164 226 175 312 201 319 213 585 
2329 0.23077508965038587 0.13690699740880233 0.7281739219067654 0 0 0 0.33 13 563 44 440 175 313 201 320 213 586 
2330 0.22006438133978445 0.14238775845978754 0.7236688462098494 0 0 0 0.25 28 551 175 314 187 788 201 321 
2331 0.07738588432154639 -0.08190846465958929 0.763259268305143 0 0 0 0.13 13 564 124 928 201 322 
2332 0.022711358456164014 0.05642176920989979 0.7080967237573567 0 0 0 0.19 13 565 28 552 93 252 176 397 201 323 
2333 0.14635840401084416 0.06669700101123076 0.725105904586954 0 0 0 0.25 13 566 28 553 112 437 128 95 146 581 175 315 176 398 197 35 201 324 234 285 
2334 0.16628806752426173 0.07071094371742362 0.7415324570983444 0 0 0 0.34 13 567 201 325 234 286 
2335 0.27482003058378396 0.07429866886722522 0.7589909902415403 0 0 0 0.29 13 568 112 438 201 326 
2336 0.10459916258894064 0.0746151159328202 0.7140359347282235 0 0 0 0.25 13 569 146 582 201 327 213 587 231 148 
2337 0.19458192538066385 0.08077726861803507 0.7379633194291618 0 0 0 0.25 13 570 175 316 176 399 201 328 
2338 0.13419498646891478 0.08192943328557407 0.7276213236131646 0 0 0 0.16 13 571 124 929 201 329 146 583 175 317 176 400 
2339 0.2615225615912417 0.09236470661824173 0.7460520148062253 0 0 0 0.17 28 554 157 538 175 318 201 330 
2340 0.2314316942453509 0.1254779295028359 0.7320488962457035 0 0 0 0.31 124 930 175 319 187 789 201 331 
2341 0.09707622347158948 0.12257026563300955 0.7039571747536838 0 0 0 0.24 13 572 28 555 201 332 
2342 0.07476006966091554 0.13262275592709127 0.6988114992265888 0 0 0 0.33 13 573 176 401 187 790 201 333 
2343 0.02895930585177879 -0.08247194754744558 0.7514215425888022 0 0 0 0.09 13 574 92 359 201 334 
2344 0.042031161800417355 -0.07899978220485417 0.753874269692221 0 0 0 0.09 13 575 124 931 201 335 
2345 0.15503956280766107 -0.06574868347453933 0.7752849383269653 0 0 0 0.13 13 576 92 360 201 336 
2346 0.21331739491048143 -0.06166377941603564 0.7863119884546875 0 0 0 0.17 13 577 187 791 201 337 
2347 0.318488876467689 -0.058312844706082986 0.8087900181978795 0 0 0 0.24 92 361 165 20 201 338 
2348 0.2637915366819782 0.07618744651275461 0.7533977723262563 0 0 0 0.21 61 362 175 320 176 402 201 339 112 439 146 584 187 792 234 287 
2349 0.1592058317162627 0.07485607306718098 0.7339267797566208 0 0 0 0.15 13 578 175 321 176 403 201 340 
2350 0.1629066217926769 0.07512155833473821 0.7354063974725356 0 0 0 0.11 13 579 28 556 201 341 234 288 
2351 0.2541443873334658 0.0792870122948637 0.7598037881703501 0 0 0 0.3 13 580 112 440 146 585 201 342 234 289 
2352 0.3254083025165501 0.08567749192835891 0.775126017331396 0 0 0 0.62 13 581 112 441 201 343 
2353 0.13429591898666696 0.08700238618719217 0.7225251437552269 0 0 0 0.26 13 582 50 528 61 363 146 586 176 404 201 344 
2354 0.19460239688892808 0.09045679326159231 0.7340852093884803 0 0 0 0.29 13 583 112 442 146 587 176 405 201 345 
2355 0.14312366743819577 -0.07403309889883437 0.773529004251791 0 0 0 0.32 13 584 197 36 201 346 
2356 0.38276700571189776 -0.05834194063353178 0.8230466169986818 0 0 0 0.39 92 362 197 37 201 347 
2357 0.2579633123707525 0.09177454386393215 0.7487403646625123 0 0 0 0.15 17 223 152 94 157 539 201 348 
2358 0.23275136224862075 0.0977684413883712 0.7399296412563748 0 0 0 0.16 17 224 28 557 118 242 201 349 
2359 0.35131669964258444 0.134946772438018 0.7552059193784428 0 0 0 0.42 50 529 61 364 172 112 234 290 
2360 0.2775174679980022 -0.06518188628023613 0.802556781289785 0 0 0 0.34 13 585 53 158 201 350 
2361 0.33903757846320515 -0.061567265609610074 0.8155040696314777 0 0 0 0.22 28 558 197 38 201 351 234 291 
2362 0.2302978575096247 0.1305102076238859 0.7312397121294922 0 0 0 0.27 175 322 201 352 232 134 
2363 0.234160068929054 0.13878678184731613 0.7279997125529225 0 0 0 0.43 118 243 172 113 175 323 201 353 
2364 0.25839420392422113 0.07758162365485884 0.7548650915978989 0 0 0 0.35 17 225 50 530 61 365 128 96 152 95 158 266 175 324 201 354 
2365 0.13334565673359136 0.11480243284187011 0.7131979283941129 0 0 0 0.56 13 586 28 559 187 793 194 40 201 355 190 19 234 292 
2366 0.22112189020150988 -0.08063099345939466 0.7989549442481338 0 0 0 0.22 13 587 92 363 201 356 
2367 0.2837240675211081 0.11551069775175221 0.7501728258586208 0 0 0 0.13 17 226 50 531 61 366 128 97 201 357 
2368 0.5382516865586277 -0.033196334195970144 0.7412200454729477 0 0 0 0.31 17 227 53 159 77 320 82 2 118 244 170 6 201 358 232 135 
2369 0.5343123105009348 -0.032063127855384996 0.7529950886098975 0 0 0 0.24 53 160 201 359 232 136 17 228 118 245 197 39 
2370 0.19430330334770982 0.040223701233017106 0.7551670173211553 0 0 0 0.31 15 90 28 560 53 161 118 246 146 588 152 96 158 267 172 114 175 325 201 360 213 588 
2371 0.32917085474341157 0.0896957343556147 0.7698430263277287 0 0 0 0.33 15 91 175 326 201 361 213 589 234 293 
2372 0.5435775471561405 -0.038122858752400846 0.7384744514634487 0 0 0 0.18 128 98 170 7 201 362 
2373 0.1896804167389657 0.040905467065057675 0.7518446758515906 0 0 0 0.33 15 92 53 162 61 367 172 115 201 363 
2374 0.26971135889308206 0.07088328833220942 0.7581307549548226 0 0 0 0.64 15 93 175 327 201 364 
2375 0.3392091628736594 0.08195361267518701 0.7714813578925452 0 0 0 0.17 175 328 187 794 201 365 
2376 0.0488964130734876 0.07353821669123807 0.7150202865698279 0 0 0 0.2 16 493 146 589 157 540 201 366 
2377 0.04675687868371033 0.07473088021985322 0.714406249498236 0 0 0 0.1 16 494 28 561 146 590 201 367 213 590 
2378 0.04682051339412971 0.08058734138051839 0.7117637082007899 0 0 0 0.09 16 495 146 591 201 368 213 591 
2379 0.21603845154528636 0.08877752564053261 0.7436126428071843 0 0 0 0.38 28 562 91 55 112 443 201 369 
2380 0.264425384929316 0.09366844083309613 0.7461534081880578 0 0 0 0.17 28 563 157 541 187 795 201 370 
2381 0.2561673625195414 0.09805317921242225 0.7498647123569523 0 0 0 0.42 112 444 124 932 146 592 176 406 201 371 
2382 0.03915151791336875 0.09009311357900096 0.7074205119941201 0 0 0 0.2 16 496 146 593 187 796 201 372 214 236 
2383 0.0707116188759255 0.09080026216387788 0.7087615375366284 0 0 0 0.18 16 497 85 184 146 594 176 407 201 373 
2384 0.18238533086638647 0.09733772750931514 0.7281379512966889 0 0 0 0.3 28 564 85 185 91 56 109 191 146 595 165 21 176 408 194 41 201 374 213 592 235 55 
2385 0.22847238159321975 0.10024739388405657 0.7378997468905318 0 0 0 0.34 146 596 164 227 165 22 201 375 235 56 
2386 0.11008278749744062 0.09479292291664396 0.7134042632144262 0 0 0 0.15 28 565 91 57 146 597 187 797 201 376 
2387 0.06038087806945918 0.12074445711593387 0.6972647557128326 0 0 0 0.18 28 566 38 215 201 377 
2388 0.13559827517919287 0.12445274273813195 0.7116245260752624 0 0 0 0.2 28 567 146 598 187 798 201 378 234 294 
2389 0.33598723240218764 0.14681086833392065 0.7494467614966841 0 0 0 0.17 201 379 213 593 235 57 
2390 0.14483028462534653 0.1368158376881739 0.7076678986555502 0 0 0 0.27 28 568 109 192 110 168 201 380 214 237 
2391 0.03407716275288754 0.006564290065696986 0.7334209254697367 0 0 0 0.06 16 498 176 409 201 381 
2392 0.30091961197969097 0.12731435569804928 0.748299935377646 0 0 0 0.26 85 186 187 799 201 382 
2393 0.3064810027295663 0.12820596515975344 0.7488609852415599 0 0 0 0.49 28 569 91 58 148 134 165 23 201 383 213 594 223 158 235 58 
2394 0.09691245430408399 0.12448993286964163 0.7024604940544786 0 0 0 0.11 28 570 146 599 187 800 201 384 175 329 
2395 0.41504525119474295 0.041309121568315336 0.8037218578229804 0 0 0 0.17 44 441 82 3 92 364 201 385 
2396 0.05744358295760616 0.06548053880080835 0.7136853663341616 0 0 0 0.34 16 499 50 532 61 368 98 991 128 99 146 600 152 97 175 330 201 386 
2397 0.5439269455146768 -0.0408671374019713 0.7326634061063536 0 0 0 0.35 17 229 61 369 77 321 82 4 91 59 165 24 170 8 201 387 235 59 
2398 0.5462154556455846 -0.026735524211108017 0.724310622255387 0 0 0 0.3 17 230 82 5 201 388 
2399 0.17618342523085154 0.08970213999598056 0.7304437508277996 0 0 0 0.16 17 231 146 601 175 331 176 410 201 389 
2400 0.10379374417554943 0.07866866786875869 0.7146994918110651 0 0 0 0.39 17 232 28 571 50 533 92 365 112 445 124 933 146 602 152 98 157 542 176 411 201 390 204 156 213 595 231 149 232 137 
2401 0.5435539782336268 -0.04775096301863359 0.7353450388547161 0 0 0 0.26 17 233 53 163 61 370 82 6 91 60 118 247 165 25 197 40 232 138 234 295 235 60 
2402 0.24761733734101113 0.04574837851171752 0.768227310969881 0 0 0 0.38 17 234 53 164 201 391 234 296 
2403 0.32113230181849184 -0.055397779532325324 0.809289525214984 0 0 0 0.32 27 151 85 187 91 61 92 366 148 135 165 26 197 41 201 392 204 157 235 61 
2404 0.33509703080615383 0.10348145245243132 0.759986952225553 0 0 0 0.28 27 152 28 572 118 248 197 42 201 393 
2405 0.12108503017252371 -0.10217867308376713 0.7736962116916984 0 0 0 0.27 28 573 39 469 124 934 146 603 201 394 
2406 0.02663268671947323 -0.0849330237206966 0.7523657751117291 0 0 0 0.61 28 574 109 193 201 395 
2407 0.07841900397069959 -0.07680260291473114 0.7622245505644714 0 0 0 0.29 28 575 92 367 124 935 146 604 187 801 201 396 234 297 
2408 0.10670417872544355 -0.067184412774294 0.764224825936254 0 0 0 0.1 28 576 39 470 201 397 
2409 0.018901217818697823 0.010812651781362516 0.7245975120138208 0 0 0 0.13 28 577 187 802 201 398 
2410 0.02100873344807072 0.010608183119075075 0.7254567111645411 0 0 0 0.3 28 578 109 194 112 446 175 332 176 412 187 803 201 399 214 238 231 150 
2411 0.025119761916734103 0.010676414715625856 0.7265292354630936 0 0 0 0.19 28 579 187 804 201 400 
2412 0.05649528856884752 0.01607060207574503 0.7307492561813224 0 0 0 0.19 28 580 124 936 175 333 187 805 201 401 
2413 0.6611859641067671 -0.012039272326184243 1.0396467392104292 0 0 0 0.28 82 7 201 402 234 298 
2414 0.1763291348368834 0.06525351555457717 0.7449563310430422 0 0 0 0.3 28 581 187 806 201 403 
2415 0.025679049235256667 0.06852624062804098 0.7008263516117701 0 0 0 0.13 28 582 112 447 175 334 201 404 
2416 0.03814759598206834 0.06907213824203341 0.7141978306449961 0 0 0 0.12 28 583 175 335 187 807 201 405 
2417 0.06324939103532824 0.07108802725297755 0.7092151055340591 0 0 0 0.18 28 584 187 808 201 406 
2418 0.18094861648655203 0.07564104263344716 0.7309744221645582 0 0 0 0.03 28 585 112 448 201 407 
2419 0.22101018778795464 0.07867641544064494 0.7397761321225904 0 0 0 0.18 28 586 175 336 201 408 
2420 0.05673906810373118 0.08209028723711151 0.7036694970281324 0 0 0 0.19 28 587 187 809 201 409 
2421 0.02041264454242917 0.08154735295005446 0.696798832303802 0 0 0 0.14 28 588 112 449 187 810 201 410 
2422 0.06270709731613672 0.08248272043395447 0.7055814990461872 0 0 0 0.11 28 589 112 450 201 411 
2423 0.06528780964535048 0.08267514519206687 0.7051086842064621 0 0 0 0.19 28 590 187 811 201 412 
2424 0.14172767553955457 0.08470574453163608 0.7211881328650486 0 0 0 0.24 28 591 124 937 187 812 201 413 
2425 0.2256849668122349 0.08986461756815473 0.7373626851536337 0 0 0 0.4 28 592 146 605 201 414 
2426 0.17558874409457287 0.09117378518144077 0.7259709286629511 0 0 0 0.18 28 593 187 813 201 415 
2427 0.0253086745780141 0.09011673695773732 0.6987585274185732 0 0 0 0.1 28 594 124 938 146 606 175 337 201 416 
2428 0.05699783785248049 0.0918222017125944 0.7044847009572744 0 0 0 0.05 28 595 175 338 187 814 201 417 
2429 0.059263162517117725 0.09189857232280695 0.7043821067998651 0 0 0 0.29 28 596 187 815 201 418 
2430 0.05431617832902472 0.09235292425594042 0.7043426018197312 0 0 0 0.17 28 597 187 816 201 419 
2431 0.10171240726586343 0.09441833274395946 0.7117940597205373 0 0 0 0.19 28 598 187 817 201 420 214 239 
2432 0.05562717910496718 0.09369198116517712 0.7039910083974317 0 0 0 0.28 28 599 175 339 187 818 201 421 234 299 
2433 0.06789650712110536 0.09392035620366926 0.7042891121619058 0 0 0 0.17 28 600 187 819 201 422 
2434 0.10783250823851413 0.09669177989178744 0.7131117095494706 0 0 0 0.14 28 601 91 62 109 195 201 423 214 240 
2435 0.1398503954876726 0.09852478179263774 0.7181461454350198 0 0 0 0.23 28 602 109 196 187 820 201 424 
2436 0.10571713704768025 0.09813408743772395 0.7121878770635615 0 0 0 0.11 28 603 187 821 201 425 
2437 0.3004805325817738 0.10483387215243 0.7540637979097692 0 0 0 0.11 28 604 91 63 110 169 201 426 
2438 0.3377400204887553 0.10687453756889082 0.7612225877633162 0 0 0 0.25 28 605 91 64 201 427 
2439 0.34401342424495485 0.10749748913516652 0.7625308837983017 0 0 0 0.35 28 606 85 188 201 428 
2440 0.1059126064283429 0.10120711530759631 0.7121783332742319 0 0 0 0.22 28 607 109 197 187 822 201 429 
2441 0.055831465696387625 0.10070367491119775 0.7025632726606232 0 0 0 0.2 28 608 187 823 201 430 
2442 0.22178635004823624 0.10708321362462597 0.7362965655900585 0 0 0 0.22 28 609 187 824 201 431 
2443 0.06065573396612411 0.10291891705066242 0.7030457374825257 0 0 0 0.11 28 610 187 825 201 432 
2444 0.10580556363051795 0.1089280429959842 0.7095208923214636 0 0 0 0.15 28 611 201 433 213 596 214 241 
2445 0.06062318925027075 0.10772270802571031 0.7018333358419165 0 0 0 0.08 28 612 187 826 201 434 
2446 0.02618412300359177 0.11064772674234864 0.692855304036295 0 0 0 0.34 28 613 187 827 201 435 
2447 0.04961059977223689 0.11434497479189641 0.7016981451583415 0 0 0 0.2 28 614 187 828 201 436 213 597 
2448 0.054415232832384704 0.11489483193628704 0.7002700375030515 0 0 0 0.13 28 615 187 829 201 437 
2449 0.09252154881680257 0.11696766147471928 0.7100779261955532 0 0 0 0.24 28 616 187 830 201 438 
2450 0.22825366723722385 0.12229146131525465 0.7325404202663303 0 0 0 0.08 28 617 187 831 201 439 
2451 0.07326878922075845 0.11695373381425898 0.7019999310492564 0 0 0 0.24 28 618 187 832 201 440 
2452 0.03925950834636997 0.11769010727341625 0.6993138017505919 0 0 0 0.11 28 619 187 833 201 441 
2453 0.175120076542714 0.12334311434596681 0.7256125662046388 0 0 0 0.1 28 620 187 834 201 442 
2454 0.023345307553851762 0.11750564905563766 0.6941624044911707 0 0 0 0.33 28 621 187 835 201 443 
2455 0.046978600553053085 0.11930239030689316 0.7004921651080286 0 0 0 0.2 28 622 187 836 201 444 
2456 0.1454358056646702 0.1229412019037049 0.7122349318875408 0 0 0 0.1 28 623 109 198 194 42 201 445 
2457 0.02572799059858449 0.11926282601477818 0.6892022457508663 0 0 0 0.09 28 624 187 837 201 446 
2458 0.025314739614835522 0.12120086056712574 0.6917825455026536 0 0 0 0.13 28 625 187 838 201 447 
2459 0.14537881987783863 0.12624755748770472 0.7111626105601094 0 0 0 0.11 28 626 187 839 201 448 214 242 
2460 0.030958493333724735 0.12265215461397493 0.6913556785471687 0 0 0 0.02 28 627 187 840 201 449 
2461 0.06049809656901684 0.12471796703119045 0.6961798141808244 0 0 0 0.21 28 628 187 841 201 450 146 607 214 243 
2462 0.14502534763573185 0.13004086799117356 0.7095279768261545 0 0 0 0.1 28 629 187 842 201 451 
2463 0.10730102192085858 0.12864565248603682 0.7039160776706554 0 0 0 0.09 28 630 187 843 201 452 
2464 0.30633976341555424 0.13970471528153713 0.7457807566403177 0 0 0 0.24 28 631 175 340 201 453 
2465 0.027735005883033508 0.12600016644235232 0.689092829422096 0 0 0 0.11 28 632 187 844 201 454 
2466 0.15241092796563876 0.1317105190307502 0.7097650103069334 0 0 0 0.3 28 633 201 455 214 244 
2467 0.14327367263917518 0.13274353215402007 0.7084348583219906 0 0 0 0.19 28 634 109 199 187 845 201 456 
2468 0.1375959618608382 0.13359971189177422 0.7072381789059703 0 0 0 0.04 28 635 187 846 201 457 
2469 0.15218974507389232 0.1342212516010905 0.7086465534593507 0 0 0 0.23 28 636 124 939 175 341 187 847 201 458 
2470 0.03418757903052481 0.13022454466495756 0.6916191032579833 0 0 0 0.33 28 637 175 342 201 459 
2471 0.21452044629526057 -0.14174808388879334 0.807580995201524 0 0 0 0.42 28 638 146 608 201 460 234 300 
2472 0.29307697368897223 -0.056890789879105765 0.8027264164992215 0 0 0 0.29 28 639 91 65 201 461 61 371 
2473 0.3362846856294077 -0.05432375702211404 0.8105045432071739 0 0 0 0.34 28 640 118 249 201 462 232 139 
2474 0.11300828153119112 0.004347839281597916 0.7470303458423767 0 0 0 0.29 28 641 175 343 201 463 
2475 0.19447210981678892 0.05577401037916412 0.7518254200909511 0 0 0 0.26 28 642 124 940 172 116 175 344 201 464 234 301 
2476 0.07134065792740096 0.06814059801069104 0.7153081598401861 0 0 0 0.25 28 643 112 451 146 609 187 848 201 465 
2477 0.09526681322368231 0.06919502161794178 0.7194520660418265 0 0 0 0.23 28 644 175 345 187 849 201 466 
2478 0.038006825327194904 0.07439617126135249 0.7127242655804366 0 0 0 0.17 28 645 175 346 187 850 201 467 176 413 
2479 0.17023928962141233 0.07571669765639293 0.736657854819015 0 0 0 0.18 28 646 175 347 201 468 234 302 
2480 0.04232956582545393 0.07469181901613021 0.7135558198421669 0 0 0 0.12 28 647 201 469 146 610 213 598 
2481 0.044505663045294824 0.07696466752596577 0.7132827361944017 0 0 0 0.18 28 648 50 534 146 611 201 470 
2482 0.025770485302724473 0.07872470436650791 0.6989162102851417 0 0 0 0.22 28 649 109 200 175 348 187 851 201 471 
2483 0.18256757681451427 0.08733728935424194 0.7302416445047992 0 0 0 0.09 28 650 91 66 112 452 146 612 201 472 
2484 0.1705712159496325 0.09447393568570217 0.7295295246826538 0 0 0 0.17 28 651 201 473 234 303 
2485 0.13218717983830647 0.09563255122482768 0.7215078836026694 0 0 0 0.29 28 652 187 852 201 474 
2486 0.18636988978942026 0.09740730182044416 0.7284380128024331 0 0 0 0.17 28 653 91 67 109 201 201 475 165 27 235 62 
2487 0.16761202224694166 0.09773603004488449 0.7292015509517479 0 0 0 0.06 28 654 109 202 201 476 234 304 
2488 0.10409551259364563 0.0963988442487059 0.7120523233815643 0 0 0 0.45 28 655 146 613 187 853 201 477 213 599 234 305 
2489 0.2210904004666003 0.09982240745576637 0.7368138053571368 0 0 0 0.21 28 656 176 414 197 43 201 478 213 600 223 159 234 306 235 63 
2490 0.11182862371679242 0.09732494791389476 0.7141414543217389 0 0 0 0.1 28 657 201 479 234 307 
2491 0.14339602719215228 0.09891858232212426 0.7188563651590326 0 0 0 0.11 28 658 91 68 109 203 187 854 201 480 214 245 
2492 0.3713654575940357 0.10899508200966633 0.767230470391264 0 0 0 0.08 28 659 170 9 201 481 
2493 0.3661325634550074 0.10985478969238437 0.7717798776039938 0 0 0 0.13 28 660 91 69 201 482 
2494 0.14570649481853953 0.10825025325132921 0.7168435293929177 0 0 0 0.17 28 661 38 216 85 189 109 204 110 170 194 43 201 483 
2495 0.09672970854929396 0.11503111168030417 0.7052580069702183 0 0 0 0.08 28 662 187 855 201 484 
2496 0.09000969414994306 0.11662470403753711 0.708184513118127 0 0 0 0.12 28 663 175 349 201 485 
2497 0.054429959324195136 0.12091756488799012 0.6981025531207213 0 0 0 0.2 28 664 187 856 201 486 
2498 0.02224457936404276 0.12580516794035995 0.688585385644798 0 0 0 0.21 28 665 146 614 187 857 201 487 
2499 0.02424294519785646 0.1277759767907499 0.6884210533677068 0 0 0 0.16 28 666 187 858 201 488 214 246 146 615 234 308 
2500 0.05853821864843618 0.1320338019874123 0.6945958614260749 0 0 0 0.09 28 667 187 859 201 489 
2501 0.11932462407051561 0.07191918661535153 0.7267888795596752 0 0 0 0.18 28 668 112 453 157 543 175 350 201 490 234 309 
2502 0.1282628982527816 0.07255684003408691 0.7286309263146179 0 0 0 0.31 28 669 112 454 157 544 175 351 201 491 
2503 0.21456026277359883 0.07630088250903047 0.751105513016065 0 0 0 0.34 28 670 112 455 146 616 175 352 201 492 
2504 0.05184123697930596 0.08248220769410211 0.7046005159462204 0 0 0 0.19 28 671 124 941 157 545 175 353 187 860 201 493 
2505 0.08474340143262903 0.08687602184107181 0.7141794469205746 0 0 0 0.29 28 672 38 217 92 368 201 494 213 601 214 247 231 151 234 310 
2506 0.09786745406516628 0.08896452274933443 0.7123179286487886 0 0 0 0.41 28 673 197 44 201 495 
2507 0.1304102312323209 0.09165168780299437 0.7220700914461602 0 0 0 0.15 28 674 176 415 201 496 
2508 0.1271598615804937 0.09514903431873602 0.7214689959027893 0 0 0 0.34 28 675 187 861 201 497 234 311 
2509 0.1731266396715406 0.09777218446990316 0.7314851054395206 0 0 0 0.33 28 676 146 617 201 498 234 312 
2510 0.40434864574864565 0.11575920475389626 0.7787535533168217 0 0 0 0.51 28 677 53 165 234 313 
2511 0.06882747244673508 0.1181604932019847 0.7003495883374634 0 0 0 0.42 28 678 38 218 110 171 201 499 214 248 
2512 0.09462025910578689 0.12112390283365881 0.7040549995191534 0 0 0 0.2 28 679 164 228 187 862 201 500 
2513 0.24872842832921813 0.12995467176737105 0.7412363827713581 0 0 0 0.28 28 680 148 136 194 44 201 501 213 602 234 314 
2514 0.36968668128514176 0.13977005877950424 0.7602726262420841 0 0 0 0.18 28 681 165 28 201 502 235 64 
2515 0.2550721796641801 0.14161482863468336 0.731573196548174 0 0 0 0.29 28 682 201 503 234 315 
2516 0.06890326635877306 0.010372045578537058 0.7362908588427263 0 0 0 0.24 28 683 187 863 201 504 172 117 175 354 
2517 0.15248371646483735 0.007396792957405955 0.7548219376475022 0 0 0 0.54 28 684 36 150 53 166 124 942 146 618 157 546 187 864 197 45 201 505 
2518 0.18658392651602035 0.06100811497605394 0.7450514359956658 0 0 0 0.31 28 685 201 506 204 158 
2519 0.1932950963049072 0.0949476541690217 0.7315266729803899 0 0 0 0.39 28 686 176 416 187 865 201 507 232 140 234 316 175 355 
2520 0.2185789048177115 0.09684265844717477 0.7381743074626477 0 0 0 0.16 28 687 201 508 213 603 234 317 
2521 0.20362360438260302 0.12616568418664414 0.7301091546235764 0 0 0 0.08 28 688 201 509 234 318 
2522 0.14588136050981976 -0.171762902327121 0.8044946398706919 0 0 0 0.41 28 689 124 943 234 319 
2523 0.23022532711844626 0.1261235079319839 0.731461389789443 0 0 0 0.7 28 690 175 356 201 510 
2524 0.12904465721847058 0.1344929745177483 0.7095620739836139 0 0 0 0.18 28 691 92 369 172 118 201 511 
2525 0.0748081140762686 0.1114087663711021 0.7027680494486195 0 0 0 0.62 28 692 187 866 201 512 
2526 0.3779877178808633 0.12298267969037018 0.7674401502385413 0 0 0 0.45 28 693 50 535 118 250 
2527 0.0919423684893476 0.0030089740520753286 0.7446111384312076 0 0 0 0.25 36 151 109 205 112 456 157 547 175 357 201 513 231 152 
2528 0.09226843107349599 -0.12923974682413555 0.7705980990646081 0 0 0 0.18 36 152 77 322 85 190 176 417 201 514 
2529 0.11492024786383777 0.009307068658908393 0.7486278894374712 0 0 0 0.53 36 153 172 119 175 358 201 515 204 159 
2530 0.2249799311945864 0.07276924109843176 0.7443632614379432 0 0 0 0.17 146 619 175 359 187 867 201 516 234 320 235 65 
2531 0.287088018876562 0.10189435287312441 0.7549409217813803 0 0 0 0.61 91 70 109 206 110 172 201 517 213 604 235 66 
2532 0.06220004785801864 0.09013681812437847 0.7062671683708172 0 0 0 0.13 38 219 110 173 201 518 214 249 
2533 0.07772574128672312 -0.1315783495031138 0.769705204742504 0 0 0 0.44 39 471 187 868 201 519 
2534 0.1863539336254942 -0.11049702181939822 0.7933836724333986 0 0 0 0.28 39 472 112 457 201 520 
2535 0.13950268581179262 -0.09621705148889886 0.7711768225531447 0 0 0 0.29 39 473 109 207 201 521 
2536 0.1396682113238662 -0.09414147926417561 0.7710757142514301 0 0 0 0.28 39 474 112 458 201 522 
2537 0.06804655875197613 -0.09073922000739289 0.7628925453321286 0 0 0 0.26 39 475 124 944 201 523 
2538 0.16543871099262955 -0.06380724006930162 0.7769253657426044 0 0 0 0.1 39 476 112 459 201 524 
2539 0.19983492205022046 -0.0590996104301963 0.7847892577288932 0 0 0 0.32 39 477 112 460 201 525 
2540 0.1214862764226668 0.0013705245411391807 0.7496350768125646 0 0 0 0.33 39 478 175 360 201 526 231 153 
2541 0.1034840916406902 0.0027053749384265318 0.743512082028963 0 0 0 0.3 39 479 112 461 201 527 
2542 0.09413953304120355 0.0034959978624683388 0.7442039784710335 0 0 0 0.35 39 480 112 462 201 528 214 250 
2543 0.07229538224169099 0.004050458435915963 0.7398063861936354 0 0 0 0.14 39 481 112 463 201 529 
2544 0.05488189069986315 0.004823470189393332 0.7359848785105527 0 0 0 0.07 39 482 112 464 201 530 
2545 0.09400327146252174 0.005225876681808052 0.7441841908821248 0 0 0 0.05 39 483 112 465 201 531 
2546 0.09582118536144324 0.024665362645709316 0.7384919822310496 0 0 0 0.24 39 484 124 945 201 532 
2547 0.12141148957640807 -0.10465154470637225 0.774600706586126 0 0 0 0.6 39 485 124 946 187 869 201 533 
2548 0.12698599451730513 -0.09937802750427782 0.7713655814503607 0 0 0 0.34 39 486 124 947 201 534 
2549 0.019553121596050885 -0.09306199767521513 0.753634593557012 0 0 0 0.14 39 487 201 535 231 154 
2550 0.06823123541153893 -0.06931929969833268 0.7569303180124318 0 0 0 0.1 39 488 109 208 112 466 201 536 231 155 
2551 0.2531192041356649 0.02666855243835503 0.7767488707703222 0 0 0 0.3 146 620 175 361 201 537 
2552 0.06124278840178772 -0.08568699106280968 0.7604676830707656 0 0 0 0.27 39 489 110 174 201 538 
2553 0.10194461678335535 -0.0694168606187036 0.7634968027522471 0 0 0 0.23 39 490 146 621 148 137 201 539 
2554 0.11104906277023172 -0.0685518032055133 0.7642641903618946 0 0 0 0.28 39 491 93 253 146 622 201 540 
2555 0.13786728441756035 0.007457052603920351 0.7496719422291991 0 0 0 0.28 39 492 124 948 146 623 201 541 
2556 0.03580214873161009 0.0790955875546944 0.7098724418593281 0 0 0 0.45 39 493 175 362 187 870 201 542 
2557 0.4119326998800521 -0.048657376575556785 0.8288935356186333 0 0 0 0.27 44 442 170 10 201 543 
2558 0.33742671780186895 0.08820275444384267 0.766021958590276 0 0 0 0.29 44 443 50 536 175 363 201 544 
2559 0.09734269676368842 0.07702492963318028 0.7180962344365348 0 0 0 0.19 44 444 61 372 201 545 
2560 0.34119205389412477 0.08402996018238551 0.7687151731937191 0 0 0 0.43 44 445 50 537 61 373 92 370 175 364 201 546 204 160 
2561 0.0933249592087585 0.06802493393213974 0.7253914391505039 0 0 0 0.23 50 538 61 374 124 949 146 624 176 418 201 547 175 365 231 156 187 871 234 321 
2562 0.04893478778144299 0.0771323804644681 0.7140216318078235 0 0 0 0.18 50 539 146 625 201 548 213 605 
2563 0.4270828610695748 0.049452158961067444 0.8112779515764192 0 0 0 0.18 50 540 82 8 170 11 201 549 204 161 234 322 
2564 0.1784843740834544 0.07941180173733756 0.7331665689132086 0 0 0 0.2 50 541 61 375 146 626 152 99 176 419 197 46 201 550 204 162 
2565 0.4177799306757539 0.11237102370368303 0.783699951485463 0 0 0 0.15 50 542 82 9 234 323 
2566 0.26001360326955825 0.0694093786668311 0.7574602722993837 0 0 0 0.2 50 543 61 376 201 551 
2567 0.05692778454873528 0.07531028431939903 0.7148052410435731 0 0 0 0.3 50 544 61 377 201 552 
2568 0.3662004416619033 0.06697953040569105 0.7867045459911586 0 0 0 0.19 50 545 128 100 201 553 234 324 
2569 0.2002186908441663 0.07287986700064994 0.7475976611150671 0 0 0 0.5 50 546 124 950 175 366 201 554 
2570 0.26784745008670796 0.09272734776986696 0.7493993823456936 0 0 0 0.36 50 547 61 378 124 951 152 100 157 548 201 555 
2571 0.5517916117309888 -0.02363629598605191 0.7154349311815251 0 0 0 0.4 53 167 77 323 118 251 165 29 170 12 197 47 201 556 235 67 
2572 0.5287929298945796 0.003618736503864818 0.7445798157620411 0 0 0 0.23 53 168 77 324 91 71 118 252 165 30 197 48 201 557 232 141 234 325 235 68 
2573 0.19480033360327018 0.014585366445969312 0.7627712525502188 0 0 0 0.28 53 169 124 952 201 558 
2574 0.2533179702571673 0.060354894147408224 0.7656813213203256 0 0 0 0.22 53 170 61 379 158 268 201 559 
2575 0.40519550911022684 0.13455565471494838 0.7749738828869391 0 0 0 0.13 53 171 165 31 234 326 
2576 0.2249678851273807 0.07434381531055936 0.7423896797350137 0 0 0 0.43 53 172 92 371 124 953 158 269 175 367 201 560 232 142 
2577 0.2056009312591757 -0.10207350828764805 0.7977337279275947 0 0 0 0.21 53 173 109 209 128 101 197 49 201 561 
2578 0.2704672207187754 -0.07545420109643307 0.79765977216933 0 0 0 0.83 53 174 152 101 201 562 
2579 0.20312317931458135 -0.002150852585868867 0.7692647852866356 0 0 0 0.14 61 380 146 627 175 368 201 563 
2580 0.09369482617319892 0.06406285936092616 0.7276926557601018 0 0 0 0.15 61 381 124 954 176 420 201 564 204 163 
2581 0.09085677495171715 0.06571916153852854 0.724699834091933 0 0 0 0.18 61 382 201 565 213 606 
2582 0.20703661436653323 0.07306659255128677 0.7527551387237018 0 0 0 0.12 61 383 157 549 201 566 
2583 0.21901867851545426 0.0751301393545264 0.7447818885515604 0 0 0 0.19 61 384 146 628 152 102 157 550 201 567 204 164 
2584 0.5392143345589323 -0.06048797340627269 0.7410225331932097 0 0 0 0.46 61 385 128 102 201 568 235 69 
2585 0.531993359147008 -0.028842822640537155 0.7525349327632356 0 0 0 0.29 77 325 165 32 201 569 234 327 235 70 
2586 0.5462904084952442 0.028014188028001402 0.7011811463584965 0 0 0 0.37 77 326 91 72 165 33 201 570 235 71 
2587 0.1239059190358876 0.09159270941824876 0.7201637939532022 0 0 0 0.34 77 327 201 571 234 328 
2588 0.5432149454840336 -0.06336465161293602 0.7410524861634902 0 0 0 0.12 118 253 232 143 234 329 
2589 0.5291698117812541 0.08844166643333591 0.7244512306225488 0 0 0 0.39 77 328 197 50 201 572 
2590 0.5454097911275108 -0.07173351564465562 0.7421209434291066 0 0 0 0.3 77 329 118 254 165 34 201 573 232 144 235 72 
2591 0.40744126404728903 -0.09398508319992621 0.8416893855843209 0 0 0 0.16 82 10 124 955 201 574 
2592 0.503370267422541 0.07540617152785896 0.86732558702265 0 0 0 0.27 82 11 92 372 201 575 
2593 0.5211074659186852 0.09754301389082885 0.8754503530163549 0 0 0 0.12 82 12 172 120 201 576 
2594 0.5347337067080806 -0.04884899413310174 0.7422963233567191 0 0 0 0.23 82 13 170 13 234 330 
2595 0.4293570118401502 0.07995856857031895 0.804390839584023 0 0 0 0.37 82 14 152 103 170 14 201 577 
2596 0.6649500864397843 -0.022440349059531104 1.0446436684101945 0 0 0 0.17 82 15 170 15 201 578 
2597 0.42892373404958983 0.06203677678861543 0.809634869414365 0 0 0 0.38 128 103 170 16 201 579 
2598 0.07454205835246024 -0.07188096330311043 0.7597520986771017 0 0 0 0.22 85 191 201 580 223 160 
2599 0.3831646468434157 0.11002559708749461 0.7700539581792346 0 0 0 0.3 91 73 148 138 164 229 165 35 176 421 201 581 235 73 
2600 0.27127136621706655 0.1329365243657446 0.7390525152882347 0 0 0 0.08 91 74 175 369 201 582 
2601 0.3719706654080731 -0.051868590597037946 0.8164797490004391 0 0 0 0.2 91 75 92 373 201 583 
2602 0.30847831980592916 0.10221380139300774 0.7554415893811249 0 0 0 0.1 91 76 201 584 234 331 
2603 0.5488740837066024 -0.07044095961731475 0.7390630105749249 0 0 0 0.19 91 77 165 36 197 51 234 332 
2604 0.06251799516031273 0.015710039251216876 0.7312313440605032 0 0 0 0.36 92 374 124 956 201 585 231 157 
2605 0.14237988426172296 0.02069805913177434 0.746230406571165 0 0 0 0.15 92 375 187 872 201 586 
2606 0.2745047828124492 0.07431949244488929 0.7576794246653995 0 0 0 0.27 92 376 124 957 175 370 201 587 
2607 0.25051174041400165 -0.057503471141450886 0.7914821986754733 0 0 0 0.23 92 377 187 873 201 588 
2608 0.0739068395454577 -0.07428960294102784 0.760397594737818 0 0 0 0.37 93 254 124 958 201 589 
2609 0.16347354272085943 0.004737032340300721 0.7568919498615958 0 0 0 0.17 93 255 112 467 175 371 201 590 
2610 0.27197770717444797 0.07497504706327786 0.7570297808615205 0 0 0 0.08 112 468 175 372 201 591 
2611 0.2934004820422445 0.1310884430842054 0.7506581161746623 0 0 0 0.23 124 959 175 373 201 592 
2612 0.054696153008806016 -0.03029583003925918 0.7460784845194436 0 0 0 0.28 98 992 124 960 201 593 231 158 
2613 0.12465490856980366 0.005232901664154996 0.7458949982865959 0 0 0 0.24 98 993 124 961 146 629 201 594 
2614 0.05442879202984934 0.04960283280381752 0.721944546408119 0 0 0 0.29 98 994 112 469 201 595 
2615 0.3837985408060569 0.11887692459877028 0.7680277856733504 0 0 0 0.37 170 17 201 596 234 333 
2616 0.0609621734623024 0.013307600869732976 0.7328643880834111 0 0 0 0.14 109 210 187 874 201 597 
2617 0.10349161086856905 0.0683055782944345 0.7181130058072659 0 0 0 0.12 109 211 176 422 201 598 231 159 
2618 0.1456905962719032 0.08747864075953339 0.7195224592897037 0 0 0 0.08 109 212 112 470 187 875 201 599 
2619 0.10727980363200183 0.08360254714565617 0.714475583258999 0 0 0 0.31 109 213 124 962 175 374 201 600 
2620 0.10659038057401957 0.08531164265209154 0.7134738482001509 0 0 0 0.1 109 214 112 471 187 876 201 601 
2621 0.14809830869868923 0.10533614949377906 0.7180457685928643 0 0 0 0.21 110 175 194 45 201 602 
2622 0.059759315120340675 -0.0782850205737745 0.7577460746043544 0 0 0 0.17 110 176 201 603 231 160 
2623 0.189425198077883 0.0764013162902443 0.7320433506786606 0 0 0 0.06 112 472 175 375 201 604 
2624 0.35015025906139297 -0.07338620141310416 0.8158131261825392 0 0 0 0.26 112 473 175 376 201 605 
2625 0.2010845352817235 0.008847246717470858 0.7671240562681085 0 0 0 0.17 112 474 175 377 201 606 
2626 0.02317956816276668 0.010007589641899524 0.7257719200197783 0 0 0 0.53 112 475 187 877 201 607 
2627 0.20272727821834427 0.027967009700384505 0.7612816315556715 0 0 0 0.11 112 476 175 378 201 608 
2628 0.018638738087601296 0.05834840009256646 0.706299678386206 0 0 0 0.34 112 477 175 379 187 878 201 609 
2629 0.06806757825420157 0.06136254900793194 0.7158215081567156 0 0 0 0.16 175 380 187 879 201 610 
2630 0.0179932593795041 0.05966169880060999 0.7067043507050949 0 0 0 0.06 112 478 187 880 201 611 
2631 0.0994733755573166 0.06411923626075394 0.7207445436127619 0 0 0 0.24 175 381 187 881 201 612 
2632 0.142577758078184 0.06578227921050807 0.7275901113636706 0 0 0 0.1 112 479 175 382 201 613 
2633 0.13612000033124336 0.06770904680865603 0.7271530618116305 0 0 0 0.18 112 480 175 383 201 614 
2634 0.2365289493823984 0.07967521275785545 0.7506484796808481 0 0 0 0.29 112 481 124 963 201 615 
2635 0.04669436850121932 0.07174101019421503 0.715224473293577 0 0 0 0.03 112 482 187 882 201 616 
2636 0.17390044946661345 0.08358160088978167 0.7366453760080838 0 0 0 0.15 112 483 175 384 201 617 
2637 0.05917607691514155 0.08218733990119059 0.7045172056962196 0 0 0 0.11 112 484 187 883 201 618 
2638 0.21700728566820462 0.09058956955088406 0.7347415362163249 0 0 0 0.34 112 485 175 385 201 619 
2639 0.17572733454662529 -0.07861685384079099 0.781656434753221 0 0 0 0.06 112 486 165 37 201 620 235 74 
2640 0.0851569136966303 -0.07575427249560432 0.7637295010652808 0 0 0 0.37 112 487 201 621 231 161 
2641 0.1798958049868437 0.016440352478553837 0.7580347919737752 0 0 0 0.47 112 488 124 964 201 622 
2642 0.13725306201038007 0.05794626460267083 0.7313475532876297 0 0 0 0.17 175 386 187 884 201 623 
2643 0.31543497153763755 0.07691632478702085 0.7725342872902385 0 0 0 0.2 112 489 175 387 201 624 
2644 0.2948023987447921 0.0763519487042458 0.7617101068437074 0 0 0 0.27 112 490 175 388 201 625 
2645 0.22616248142263182 0.07901494842660324 0.7401903277117144 0 0 0 0.26 112 491 175 389 176 423 201 626 
2646 0.2306284997752002 0.08222625265286058 0.7421390044832615 0 0 0 0.34 112 492 175 390 201 627 
2647 0.22260304349445992 0.09408652926334492 0.7365478629750014 0 0 0 0.15 112 493 201 628 213 607 
2648 0.13661698365863806 0.00035811177433437254 0.7530429095487887 0 0 0 0.46 112 494 146 630 201 629 
2649 0.19433194393954703 0.034724110888780926 0.7574109890412244 0 0 0 0.3 112 495 118 255 157 551 201 630 234 334 
2650 0.2151098094301139 0.07222293443656806 0.7520983691946359 0 0 0 0.24 112 496 146 631 201 631 
2651 0.2757459568795433 0.08572510996100804 0.7543429309738081 0 0 0 0.55 112 497 175 391 201 632 204 165 
2652 0.23766397479802448 0.07568577677435429 0.7501210320173332 0 0 0 0.22 112 498 124 965 175 392 201 633 234 335 
2653 0.1379071617230123 0.07988387127637209 0.7241154337916703 0 0 0 0.22 112 499 152 104 176 424 201 634 231 162 
2654 0.1659282669189053 0.020478174165897468 0.755572860238992 0 0 0 0.5 112 500 197 52 201 635 234 336 
2655 0.0907739272447374 0.024237035905711315 0.7383349522835144 0 0 0 0.14 118 256 201 636 232 145 
2656 0.12357721124183028 0.0700491021624675 0.7351686860949763 0 0 0 0.31 118 257 157 552 175 393 201 637 
2657 0.056261574944970486 0.06822009428298635 0.7089195171628501 0 0 0 0.26 118 258 152 105 197 53 201 638 
2658 0.15508234360140194 0.09271130207699343 0.7217852754953328 0 0 0 0.49 118 259 152 106 176 425 201 639 232 146 234 337 175 394 187 885 
2659 0.030602144379880895 -0.08507782084698508 0.7559142857406753 0 0 0 0.25 124 966 176 426 201 640 
2660 0.13622663933982568 0.06052714806020982 0.730274671721404 0 0 0 0.2 124 967 175 395 201 641 
2661 0.19825088270186006 0.08096440435302267 0.7402101972583098 0 0 0 0.25 124 968 157 553 176 427 201 642 
2662 0.07899530559371597 0.0755417282933604 0.7181861195194541 0 0 0 0.1 124 969 201 643 231 163 
2663 0.07100813201652428 0.07872413143884145 0.7125129542921262 0 0 0 0.16 124 970 175 396 201 644 
2664 0.21874960499718193 0.08828177225605957 0.7396462357296171 0 0 0 0.25 124 971 187 886 201 645 
2665 0.10286284724797139 0.08326363251181079 0.7152010217984346 0 0 0 0.21 124 972 175 397 201 646 
2666 0.211871115461736 0.09160750543129849 0.7416064465657289 0 0 0 0.3 124 973 157 554 175 398 201 647 
2667 0.02971062668939307 0.09049312598728836 0.6998034222424209 0 0 0 0.15 124 974 175 399 201 648 
2668 0.23731138637959373 0.12939244460471855 0.7369810316132761 0 0 0 0.11 124 975 175 400 201 649 
2669 0.2814126438441503 0.08295340544125566 0.7613671472253895 0 0 0 0.17 124 976 157 555 175 401 201 650 
2670 0.28369708777254643 0.10201822031341752 0.7552563911183877 0 0 0 0.38 124 977 201 651 234 338 175 402 187 887 
2671 0.15001949691082833 -0.09976723905314955 0.781773375183652 0 0 0 0.67 124 978 175 403 201 652 
2672 0.1907306491836467 0.056848636484059606 0.750845467509369 0 0 0 0.19 124 979 175 404 201 653 
2673 0.23448350971581608 0.12950290520495544 0.7290901455098036 0 0 0 0.4 124 980 175 405 201 654 
2674 0.2126988526718157 0.07384021026940737 0.7507236497887441 0 0 0 0.23 124 981 146 632 157 556 172 121 201 655 232 147 
2675 0.2521910047079161 0.12225108863199753 0.7430941561312983 0 0 0 0.33 124 982 201 656 234 339 
2676 0.1151123985840009 0.006286723492545224 0.7464543104435899 0 0 0 0.11 146 633 187 888 201 657 
2677 0.10491675294020777 0.06991203499316369 0.7171016936824189 0 0 0 0.23 146 634 201 658 231 164 
2678 0.1495319818538399 0.07369258210911114 0.7264450555462241 0 0 0 0.35 146 635 176 428 201 659 213 608 
2679 0.13423742226802765 0.07835087429447947 0.7285540660113158 0 0 0 0.12 146 636 176 429 201 660 
2680 0.1783732038937408 0.08827698703872729 0.7286356684185188 0 0 0 0.14 146 637 157 557 201 661 
2681 0.09130170564764555 0.08734403705816013 0.714647028618274 0 0 0 0.22 146 638 201 662 234 340 176 430 187 889 
2682 0.16059695622857786 0.12025139147751651 0.7186612228806578 0 0 0 0.14 146 639 201 663 213 609 
2683 0.03303813138805205 0.11528510878014689 0.6998984207157107 0 0 0 0.14 146 640 175 406 201 664 
2684 0.05336851283162341 0.07016046720120805 0.7150071424382196 0 0 0 0.26 146 641 175 407 201 665 
2685 0.040143688846213194 0.06991395689524484 0.7134598673163555 0 0 0 0.18 146 642 175 408 176 431 201 666 
2686 0.05153780303987989 -0.06258148250638121 0.7537954897694477 0 0 0 0.28 146 643 176 432 201 667 231 165 
2687 0.030124983220349597 0.07331089137110898 0.6992617856002098 0 0 0 0.33 152 107 201 668 204 166 
2688 0.13830339658520327 0.06949393595359579 0.7282001403895875 0 0 0 0.36 152 108 158 270 175 409 201 669 
2689 0.11437165246140864 0.0015032352843470638 0.7480201837215508 0 0 0 0.49 157 558 175 410 201 670 
2690 0.05802939739226778 0.059168302638802656 0.7143249106596864 0 0 0 0.13 157 559 201 671 213 610 231 166 
2691 0.06837302999219629 0.0068586524250070155 0.7337552846944779 0 0 0 0.27 158 271 201 672 204 167 231 167 
2692 0.2310569367245615 0.06714744514382785 0.7512520961980449 0 0 0 0.15 158 272 175 411 201 673 
2693 0.5069457133035126 0.05225603975212167 0.8769842725735285 0 0 0 0.39 170 18 201 674 234 341 
2694 0.49021473818333583 0.05463267226767135 0.8615731266653647 0 0 0 0.33 170 19 201 675 234 342 
2695 0.14751465544794068 0.08360896013063708 0.721261306498459 0 0 0 0.17 158 273 187 890 201 676 175 412 
2696 0.09234717121144002 0.12011718279074124 0.7067337135068866 0 0 0 0.44 164 230 172 122 204 168 213 611 
2697 0.1784270879825581 -0.10064454381662609 0.794911524795093 0 0 0 0.09 165 38 201 677 235 75 
2698 0.5432786938798102 0.010873754025846715 0.7153003488380452 0 0 0 0.06 165 39 201 678 235 76 
2699 0.4237078851544862 0.11539404618726211 0.7840149657396162 0 0 0 0.17 170 20 175 413 201 679 
2700 0.47727637410667156 0.0626945936201148 0.8482458610666246 0 0 0 0.38 170 21 201 680 234 343 
2701 0.5172455409073694 0.07973009066700938 0.8714445453542546 0 0 0 0.28 170 22 201 681 234 344 
2702 0.11170430779092207 0.008821285918340553 0.746172812349642 0 0 0 0.53 175 414 201 682 223 161 
2703 0.12553060976777874 0.0072583965976812 0.7476369036740134 0 0 0 0.43 175 415 187 891 201 683 
2704 0.05448709636287724 0.05425292052305469 0.7218672836572338 0 0 0 0.26 175 416 187 892 201 684 
2705 0.10305293499351795 0.062927069209694 0.7211925983770835 0 0 0 0.27 175 417 187 893 201 685 
2706 0.1446081796740237 0.07738193062452714 0.7202000357854164 0 0 0 0.22 175 418 187 894 201 686 
2707 0.03475316961469126 0.11729186122551323 0.6983438399352467 0 0 0 0.07 175 419 187 895 201 687 
2708 0.21652417347443562 0.08511795555246185 0.7454835865128828 0 0 0 0.24 175 420 187 896 201 688 
2709 0.22834069400106313 0.13548256149003363 0.7294152760731969 0 0 0 0.33 175 421 187 897 201 689 
2710 0.035907650414810206 0.068726583460519 0.7140300954429675 0 0 0 0.09 175 422 187 898 201 690 
2711 0.23570464266601532 0.12079337670666604 0.7338660004887219 0 0 0 0.32 175 423 201 691 234 345 
2712 0.1216571237402007 0.07520013127417743 0.7280960968647355 0 0 0 0.45 176 433 201 692 223 162 
2713 0.11161120715548765 0.08289063587495028 0.7151826513349675 0 0 0 0.43 176 434 201 693 234 346 
2714 0.09392938342722856 0.058239397985437286 0.7250989200947708 0 0 0 0.25 176 435 201 694 204 169 
2715 0.041640155287786786 0.024872241242112816 0.728906567780936 0 0 0 0.15 176 436 201 695 204 170 
2716 0.09397911202553971 0.022180505612147197 0.7392275874963674 0 0 0 0.15 197 54 201 696 204 171 
2717 0.3247074415832886 0.10462369067543237 0.7630329650139901 0 0 0 0.76 201 697 213 612 223 163 235 77 
2718 0.36825269046432263 0.0918963468257516 0.7785479165160654 0 0 0 0.29 201 698 204 172 232 148 
2719 0.04735025181247485 0.03211266701525546 0.7341966280743211 0 0 0 0.24 201 699 204 173 231 168 
2720 -0.09342680441238962 -0.09837837134485854 0.7288294678847973 0 0 0 0.19 128 104 146 644 148 139 164 231 185 79 196 82 213 613 214 251 
2721 0.018369163918180578 -0.02410505090364288 0.7352404459172457 0 0 0 0.2 128 105 146 645 175 424 187 899 234 347 
2722 -0.08171845890176431 -0.0031016023078243296 0.7108606439753354 0 0 0 0.21 128 106 146 646 159 86 176 437 213 614 214 252 222 71 232 149 
2723 -0.05740751398791475 -0.002251494752830524 0.7120467348687871 0 0 0 0.16 128 107 157 560 158 274 172 123 185 80 219 105 
2724 -0.15273827110969393 -0.0038284347400236013 0.7099214554194913 0 0 0 0.15 128 108 172 124 176 438 
2725 -0.025519030417917848 0.006403715603046094 0.7238041038993507 0 0 0 0.17 128 109 213 615 232 150 
2726 -0.10207890854783928 0.05908474304413284 0.6869703677508159 0 0 0 0.26 128 110 176 439 204 174 
2727 -0.09003126040577725 0.060832486243731575 0.6812975120983014 0 0 0 0.19 128 111 221 66 232 151 164 232 222 72 
2728 -0.0464539710391548 0.0741423007288277 0.6916541021614879 0 0 0 0.21 128 112 146 647 176 440 222 73 158 275 231 169 
2729 -0.0096751520077784 -0.07261734240709188 0.742202586351191 0 0 0 0.27 128 113 187 900 234 348 
2730 -0.03849263451554791 -0.07319866428187852 0.7372575353083282 0 0 0 0.3 128 114 146 648 158 276 232 152 
2731 -0.0448462438899928 0.00022967569687210054 0.726285398242908 0 0 0 0.24 128 115 157 561 176 441 219 106 
2732 -0.08726782720499099 0.0019322372325007678 0.7066196972110691 0 0 0 0.16 128 116 172 125 213 616 222 74 231 170 
2733 0.019127221998057633 0.06863719700364691 0.7028679534610989 0 0 0 0.44 128 117 146 649 152 109 158 277 175 425 176 442 187 901 213 617 222 75 231 171 232 153 234 349 
2734 -0.08670125419344706 0.07790048495978114 0.6769974943926748 0 0 0 0.31 128 118 146 650 164 233 176 443 204 175 213 618 221 67 
2735 -0.1580845971675084 0.10546383952558502 0.6759979148003971 0 0 0 0.04 128 119 176 444 213 619 
2736 0.26266427408037535 0.13840050023197048 0.7361032337298851 0 0 0 0.12 128 120 187 902 234 350 
2737 -0.035696662526709944 0.0005111470695508139 0.720742298769844 0 0 0 0.22 128 121 146 651 172 126 176 445 204 176 213 620 219 107 
2738 -0.006149292238379386 0.0018076277412737796 0.7267461853248693 0 0 0 0.27 128 122 172 127 175 426 187 903 204 177 
2739 0.21299479169265284 0.016776681530377053 0.7662909529641827 0 0 0 0.25 128 123 176 446 187 904 204 178 219 108 227 71 234 351 
2740 -0.01971574573706247 0.0032083241888848364 0.7205699727753003 0 0 0 0.31 128 124 176 447 187 905 204 179 219 109 234 352 
2741 -0.14434498583034952 0.05685278573099759 0.6951265253749187 0 0 0 0.25 128 125 172 128 190 20 
