# 3D point list with one line of data per point:
#   POINT3D_ID, X, Y, Z, R, G, B, ERROR, TRACK[] as (IMAGE_ID, POINT2D_IDX)
# Number of points: 310, mean track length: 6.63
58 -0.1310738028387055 0.08665084347751825 0.4973602270393905 0 0 0 0.19 2 49 16 34 33 11 38 11 44 26 50 24 77 12 92 20 124 25 
59 0.02492519972878413 0.09649262260461794 0.558337831153596 0 0 0 0.38 2 50 11 17 16 35 17 7 38 12 
60 -0.05274470108518743 0.0948550557524558 0.5216384432296375 0 0 0 0.35 2 51 4 25 11 18 16 36 38 13 98 38 124 26 
61 0.4587881849927176 0.12765612429331682 0.7463898391849861 0 0 0 0.26 2 52 44 27 118 6 187 32 
62 0.29113901919067997 0.13458083386996963 0.6592355053412142 0 0 0 0.3 2 53 91 3 187 33 13 18 19 3 98 39 124 27 135 3 175 16 200 16 158 8 213 16 
63 -0.039818021664761546 0.12972540455982962 0.5096979709730993 0 0 0 0.28 2 54 4 26 11 19 13 19 44 28 50 25 77 13 85 13 92 21 110 7 
64 -0.030355237219134634 -0.2186208583514011 0.6432103518188861 0 0 0 0.36 2 55 4 27 9 15 15 2 16 37 19 4 32 4 33 12 36 5 44 29 50 26 52 1 61 9 77 14 85 14 92 22 98 40 112 25 124 28 13 20 28 12 39 12 60 0 109 12 146 20 157 18 176 11 200 17 204 0 219 2 128 1 148 4 164 12 196 3 222 1 
65 -0.026175688451986794 -0.21273542150163802 0.6471976521692987 0 0 0 0.26 2 56 4 28 9 16 15 3 16 38 17 8 19 5 27 7 32 5 33 13 36 6 38 14 44 30 50 27 52 2 53 2 77 15 85 15 96 0 98 41 109 13 112 26 118 7 124 29 28 13 29 0 39 13 60 1 61 10 71 0 92 23 136 2 146 21 148 5 157 19 158 9 159 2 172 1 176 12 185 3 200 18 204 1 213 17 231 7 164 13 187 34 224 4 232 0 234 21 
66 0.14133321072307073 -0.1814672654408106 0.7067351289119546 0 0 0 0.27 2 57 4 29 36 7 44 31 92 24 124 30 187 35 9 17 16 39 17 9 112 27 201 8 
67 -0.027571526060214964 -0.1927365478591304 0.6410097080093797 0 0 0 0.47 2 58 61 11 77 16 96 1 112 28 
68 0.14585937854920486 -0.17823600288641245 0.7072504263096896 0 0 0 0.21 2 59 9 18 32 6 93 17 187 36 
69 0.14984876780534342 -0.17492231253136406 0.708359119749422 0 0 0 0.28 2 60 32 7 36 8 44 32 93 18 98 42 124 31 187 37 201 9 157 20 146 22 
70 0.005006346329940966 -0.18040493176951536 0.6516151768516631 0 0 0 0.33 2 61 4 30 11 20 16 40 17 10 27 8 44 33 50 28 61 12 77 17 93 19 98 43 111 2 112 29 118 8 124 32 187 38 128 2 136 3 146 23 148 6 152 5 157 21 159 3 164 14 172 2 176 13 196 4 200 19 213 18 221 0 222 2 223 7 224 5 231 8 234 22 
71 0.00018638212078749306 -0.17336787762574246 0.6467019620087859 0 0 0 0.3 2 62 9 19 11 21 13 21 16 41 38 15 43 0 44 34 77 18 96 2 98 44 112 30 118 9 124 33 187 39 146 24 157 22 164 15 185 4 200 20 213 19 214 9 222 3 232 1 234 23 
72 0.14100263479035596 -0.16235498455987232 0.7073269096762522 0 0 0 0.32 2 63 4 31 9 20 11 22 16 42 17 11 27 9 33 14 38 16 44 35 50 29 77 19 92 25 93 20 110 8 111 3 112 31 118 10 124 34 187 40 19 6 28 14 29 1 39 14 60 2 61 13 85 16 146 25 148 7 157 23 159 4 162 0 164 16 172 3 175 17 176 14 185 5 196 5 213 20 223 8 234 24 36 9 201 10 232 2 128 3 214 10 221 1 222 4 227 8 
73 -0.12658099345419854 -0.17465675572891864 0.5896165279035863 0 0 0 0.2 2 64 4 32 11 23 16 43 17 12 38 17 77 20 85 17 92 26 109 14 112 32 
74 -0.09881347928894725 -0.1717868033271896 0.5995202531371965 0 0 0 0.2 2 65 11 24 16 44 38 18 44 36 85 18 109 15 
75 -0.017819008668478457 -0.16182613128866227 0.6337959032872681 0 0 0 0.46 2 66 9 21 27 10 44 37 77 21 92 27 93 21 98 45 124 35 187 41 96 3 128 4 146 26 157 24 176 15 196 6 200 21 213 21 214 11 223 9 234 25 
76 0.08948599997937758 -0.1532277066247232 0.6802886507614339 0 0 0 0.49 2 67 16 45 38 19 50 30 61 14 98 46 112 33 124 36 187 42 36 10 92 28 201 11 175 18 213 22 223 10 234 26 
77 0.1678436969652946 -0.14194063785303382 0.7109891125305379 0 0 0 0.26 2 68 9 22 11 25 16 46 17 13 32 8 33 15 44 38 50 31 61 15 77 22 92 29 93 22 98 47 112 34 118 11 124 37 187 43 4 33 13 22 28 15 39 15 146 27 157 25 158 10 164 17 175 19 176 16 185 6 196 7 200 22 204 2 213 23 223 11 232 3 234 27 128 5 152 6 214 12 221 2 222 5 
78 -0.15444004395000205 -0.16239747533682417 0.5843484960069615 0 0 0 0.24 2 69 9 23 16 47 32 9 33 16 44 39 98 48 124 38 4 34 39 16 85 19 157 26 164 18 200 23 204 3 213 24 
79 -0.16245926411250317 -0.16235423255867412 0.5827389211300921 0 0 0 0.22 2 70 9 24 13 23 16 48 98 49 109 16 
80 0.08407173984207136 -0.14316587799158234 0.6718069584241089 0 0 0 0.32 2 71 4 35 9 25 11 26 13 24 16 49 32 10 33 17 38 20 44 40 50 32 61 16 77 23 85 20 92 30 98 50 109 17 118 12 124 39 187 44 15 4 112 35 28 16 36 11 39 17 146 28 158 11 175 20 200 24 213 25 223 12 110 9 152 7 176 17 201 12 157 27 164 19 214 13 234 28 
81 0.1397634781496505 -0.13956467903424644 0.6962910825091151 0 0 0 0.26 2 72 4 36 11 27 13 25 17 14 44 41 77 24 91 4 98 51 112 36 124 40 187 45 9 26 28 17 50 33 85 21 92 31 93 23 109 18 146 29 157 28 175 21 201 13 213 26 223 13 234 29 148 8 159 5 164 20 176 18 200 25 219 3 
82 -0.023630057966976637 -0.14804973056726778 0.6253876368506398 0 0 0 0.33 2 73 4 37 9 27 13 26 16 50 32 11 33 18 38 21 44 42 50 34 53 3 61 17 77 25 92 32 98 52 112 37 187 46 39 18 124 41 231 9 128 6 146 30 157 29 158 12 164 21 176 19 185 7 196 8 200 26 213 27 224 6 
83 0.2888440595882775 -0.1229691845188453 0.7628351205693948 0 0 0 0.48 2 74 19 7 44 43 61 18 98 53 187 47 11 28 52 3 135 4 158 13 204 4 
84 0.38149370254393367 -0.11568993212570788 0.803679930463782 0 0 0 0.25 2 75 4 38 9 28 13 27 33 19 44 44 50 35 61 19 187 48 
85 -0.12030859762682006 -0.14745729109883954 0.5875853581195393 0 0 0 0.36 2 76 4 39 11 29 16 51 17 15 27 11 44 45 50 36 61 20 77 26 98 54 112 38 118 13 124 42 9 29 39 19 92 33 110 10 146 31 213 28 
86 0.19825338807422055 -0.12422896476263412 0.7219574279810369 0 0 0 0.59 2 77 11 30 36 12 44 46 50 37 61 21 91 5 93 24 109 19 124 43 187 49 118 14 148 9 201 14 223 14 135 5 164 22 234 30 
87 -0.15784341893348194 -0.07792540127797658 0.5546134235287646 0 0 0 0.16 2 78 38 22 118 15 
88 -0.12215612542799584 -0.0728155007797142 0.5629308816316287 0 0 0 0.29 2 79 44 47 50 38 53 4 61 22 77 27 92 34 98 55 124 44 9 30 11 31 16 52 19 8 28 18 29 2 32 12 33 20 38 23 39 20 110 11 136 4 146 32 157 30 158 14 159 6 162 1 164 23 172 4 185 8 200 27 213 29 231 10 4 40 71 1 93 25 176 20 204 5 232 4 
89 0.07043560567371351 -0.051867495871613135 0.6354630240047943 0 0 0 0.3 2 80 4 41 11 32 16 53 17 16 33 21 44 48 50 39 77 28 112 39 118 16 187 50 136 5 146 33 157 31 158 15 159 7 164 24 172 5 175 22 176 21 213 30 214 14 219 4 232 5 234 31 
90 0.2196987901154156 -0.039250280062528245 0.6977985241746477 0 0 0 0.52 2 81 77 29 112 40 187 51 93 26 4 42 53 5 85 22 124 45 201 15 
91 -0.14371700089001513 0.01516033760317094 0.5118713174813029 0 0 0 0.17 2 82 33 22 50 40 77 30 118 17 
92 0.00010644264047313948 0.02385178056326978 0.565291924729732 0 0 0 0.31 2 83 9 31 16 54 50 41 61 23 92 35 98 56 112 41 118 18 
93 -0.09076261731419902 0.03731616678260852 0.5162660780476845 0 0 0 0.25 2 84 11 33 16 55 44 49 50 42 61 24 77 31 93 27 4 43 32 13 36 13 124 46 146 34 158 16 214 15 
94 -0.0417113915085553 0.04203216319041824 0.5402938867954067 0 0 0 0.25 2 85 16 56 38 24 44 50 50 43 92 36 118 19 124 47 33 23 85 23 32 14 39 21 204 6 214 16 231 11 128 7 146 35 157 32 185 9 164 25 176 22 
95 -0.1325469295864166 0.03834532286871759 0.5117384827566408 0 0 0 0.28 2 86 4 44 16 57 17 17 33 24 77 32 11 34 19 9 27 12 93 28 96 4 
96 0.04903703112251332 0.048367745669784946 0.5781685581082208 0 0 0 0.24 2 87 4 45 17 18 27 13 32 15 36 14 44 51 50 44 53 6 61 25 92 37 118 20 124 48 11 35 16 58 28 19 146 36 157 33 175 23 188 1 201 16 204 7 213 31 214 17 231 12 187 52 234 32 
97 0.034083624924714014 0.04902529037126589 0.5752335632829405 0 0 0 0.49 2 88 9 32 44 52 50 45 187 53 159 8 188 2 214 18 234 33 
98 0.1379178185675695 0.05439577950341122 0.6154140127799851 0 0 0 0.27 2 89 11 36 15 5 16 59 44 53 50 46 77 33 85 24 91 6 109 20 124 49 187 54 146 37 148 10 157 34 164 26 176 23 185 10 194 1 204 8 213 32 214 19 219 5 223 15 234 34 
99 0.4494665526086635 0.07975790589358996 0.7573402483895203 0 0 0 0.48 2 90 44 54 61 26 187 55 11 37 28 20 77 34 85 25 92 38 148 11 164 27 165 0 201 17 
100 0.007083160658572457 0.08371434099949164 0.5485273833470606 0 0 0 0.26 2 91 4 46 9 33 16 60 17 19 27 14 33 25 38 25 44 55 61 27 77 35 92 39 96 5 111 4 118 21 
101 0.09642031166794403 0.101099579158805 0.5814828304313195 0 0 0 0.26 2 92 4 47 11 38 13 28 16 61 17 20 19 10 33 26 44 56 50 47 77 36 85 26 92 40 93 29 118 22 38 26 201 18 223 16 136 6 146 38 148 12 158 17 164 28 175 24 187 56 196 9 213 33 214 20 234 35 
102 0.09991997646258158 0.10373153927752635 0.5819578452489319 0 0 0 0.25 2 93 4 48 11 39 13 29 16 62 17 21 19 11 27 15 33 27 44 57 61 28 77 37 92 41 93 30 96 6 98 57 124 50 187 57 136 7 146 39 164 29 175 25 196 10 200 28 213 34 214 21 231 13 234 36 
103 0.14583919741107282 0.13724940474483546 0.5895867922335412 0 0 0 0.32 2 94 4 49 32 16 33 28 38 27 44 58 77 38 85 27 92 42 98 58 110 12 118 23 187 58 135 6 146 40 148 13 164 30 175 26 194 2 196 11 200 29 213 35 214 22 223 17 234 37 
104 0.46137802612369183 0.15993789932958144 0.7350083618342177 0 0 0 0.34 2 95 17 22 19 12 36 15 50 48 98 59 187 59 
105 0.14250384840889727 0.14439842528181338 0.5861797948432025 0 0 0 0.38 2 96 4 50 13 30 16 63 27 16 33 29 50 49 61 29 92 43 93 31 124 51 187 60 146 41 164 31 200 30 213 36 214 23 223 18 232 6 234 38 
106 0.10056439408359376 0.14231874001839778 0.5672014435299246 0 0 0 0.22 2 97 17 23 19 13 33 30 44 59 50 50 77 39 124 52 187 61 11 40 38 28 118 24 146 42 164 32 213 37 214 24 223 19 
107 0.4620594136398997 0.1671535811014632 0.7329613410839878 0 0 0 0.35 2 98 19 14 36 16 44 60 50 51 61 30 77 40 98 60 111 5 118 25 187 62 
108 0.06021493203688276 -0.20057531962375966 0.6850426694443564 0 0 0 0.34 2 99 4 51 53 7 61 31 77 41 98 61 187 63 39 22 92 44 124 53 
109 0.10147155754723435 -0.17661607937650717 0.6964941896318629 0 0 0 0.4 2 100 4 52 11 41 15 6 16 64 17 24 27 17 33 31 44 61 50 52 61 32 77 42 85 28 93 32 96 7 98 62 111 6 112 42 187 64 28 21 32 17 39 23 53 8 92 45 97 0 109 21 110 13 124 54 146 43 157 35 176 24 213 38 219 6 223 20 232 7 159 9 164 33 200 31 222 6 234 39 
110 -0.059317947009588555 -0.18414540090336082 0.6242426263029969 0 0 0 0.38 2 101 4 53 9 34 16 65 27 18 44 62 50 53 52 4 77 43 85 29 112 43 
111 0.1457634273569934 -0.16717812392768708 0.7096069978442532 0 0 0 0.5 2 102 9 35 16 66 44 63 50 54 53 9 61 33 77 44 98 63 109 22 112 44 124 55 187 65 27 19 29 3 33 32 39 24 196 12 200 32 223 21 234 40 36 17 110 14 146 44 176 25 185 11 213 39 219 7 201 19 152 8 157 36 158 18 175 27 
112 -0.1026148662636611 -0.16186184900432016 0.5959723565419576 0 0 0 0.27 2 103 17 25 38 29 44 64 77 45 28 22 39 25 85 30 97 1 124 56 158 19 
113 0.25007456832967223 -0.13436808250507998 0.7497505534038641 0 0 0 0.32 2 104 17 26 50 55 53 10 61 34 85 31 92 46 112 45 124 57 187 66 28 23 29 4 32 18 33 33 60 3 71 2 118 26 146 45 148 14 157 37 158 20 162 2 164 34 175 28 185 12 196 13 204 9 234 41 9 36 13 31 176 26 197 2 201 20 135 7 227 9 
114 0.2663370521852326 -0.1335211286787351 0.758152849372586 0 0 0 0.29 2 105 4 54 9 37 13 32 17 27 19 15 44 65 50 56 53 11 77 46 85 32 91 7 92 47 93 33 109 23 118 27 124 58 187 67 11 42 27 20 29 5 71 3 159 10 197 3 201 21 213 40 148 15 157 38 158 21 185 13 196 14 200 33 221 3 234 42 
115 0.27623523866014393 -0.13251231297784233 0.7608542155607164 0 0 0 0.34 2 106 9 38 13 33 15 7 17 28 19 16 33 34 44 66 50 57 53 12 61 35 77 47 91 8 93 34 98 64 109 24 118 28 124 59 187 68 28 24 71 4 146 46 148 16 158 22 159 11 164 35 185 14 196 15 200 34 232 8 234 43 175 29 176 27 204 10 213 41 219 8 221 4 
116 0.15255690956246667 -0.055320269820358016 0.6715236825986405 0 0 0 0.2 2 107 4 55 9 39 15 8 16 67 17 29 38 30 44 67 50 58 61 36 77 48 187 69 103 1 111 7 128 8 146 47 175 30 204 11 213 42 214 25 219 9 222 7 232 9 234 44 148 17 152 9 158 23 159 12 164 36 185 15 200 35 
117 0.16563558080796803 -0.045441351112992016 0.6749706012041072 0 0 0 0.31 2 108 15 9 16 68 17 30 53 13 85 33 91 9 98 65 112 46 118 29 187 70 146 48 176 28 201 22 204 12 223 22 231 14 136 8 172 6 213 43 219 10 222 8 234 45 
118 0.00032781426119718373 0.019221564074820133 0.567813216260938 0 0 0 0.24 2 109 4 56 15 10 16 69 17 31 38 31 61 37 77 49 112 47 118 30 103 2 187 71 
119 -0.08012643579875196 0.02858081933501783 0.5231153879762785 0 0 0 0.34 2 110 11 43 16 70 96 8 
120 0.034704522994436535 0.07652838408412835 0.5674386369189911 0 0 0 0.15 2 111 4 57 17 32 118 31 
121 0.0801330423904605 0.10005287722885071 0.5840870079643202 0 0 0 0.47 2 112 11 44 15 11 43 1 187 72 17 33 44 68 53 14 118 32 124 60 146 49 200 36 213 44 
122 0.010407181976888431 0.1215866943091343 0.5341736194759822 0 0 0 0.31 2 113 4 58 11 45 13 34 15 12 16 71 17 34 27 21 43 2 50 59 53 15 61 38 77 50 92 48 96 9 110 15 118 33 
123 0.14178043922614567 0.12980090967811392 0.5907889803611384 0 0 0 0.35 2 114 4 59 13 35 16 72 17 35 36 18 50 60 53 16 61 39 77 51 85 34 92 49 187 73 135 8 146 50 158 24 172 7 175 31 194 3 213 45 214 26 234 46 
124 -0.13533929692071983 0.12722271605764007 0.47598721606833 0 0 0 0.32 2 115 16 73 27 22 33 35 43 3 53 17 77 52 96 10 118 34 
125 0.1064728705507659 -0.187196032774254 0.7010439921432806 0 0 0 0.49 2 116 11 46 15 13 17 36 19 17 27 23 33 36 44 69 50 61 61 40 85 35 98 66 109 25 111 8 187 74 146 51 148 18 152 10 157 39 158 25 164 37 185 16 200 37 204 13 223 23 227 10 232 10 234 47 
126 -0.08730174444173529 -0.1746257105331701 0.607571117192686 0 0 0 0.3 2 117 4 60 9 40 11 47 16 74 17 37 19 18 27 24 32 19 33 37 36 19 38 32 43 4 44 70 50 62 52 5 53 18 61 41 77 53 85 36 92 50 93 35 96 11 98 67 109 26 118 35 39 26 
127 0.00501186268703094 -0.16111944677651432 0.6436700369067504 0 0 0 0.47 2 118 15 14 50 63 187 75 223 24 234 48 
128 -0.11136860155758889 -0.1670589551410916 0.5953042389161693 0 0 0 0.34 2 119 9 41 16 75 44 71 50 64 53 19 61 42 92 51 96 12 98 68 109 27 112 48 
129 -0.0554087021054242 -0.06359655189440096 0.5790829478918983 0 0 0 0.36 2 120 4 61 16 76 38 33 50 65 77 54 92 52 96 13 112 49 118 36 
130 -0.04563191972534738 -0.06328394601567501 0.5844329989583341 0 0 0 0.38 2 121 4 62 11 48 16 77 50 66 61 43 118 37 124 61 
131 -0.1473357346837284 0.009258433836154515 0.5118985905153302 0 0 0 0.2 2 122 4 63 16 78 17 38 50 67 96 14 
132 -0.14632624936206112 0.045633446722662986 0.5036008438048476 0 0 0 0.06 2 123 17 39 118 38 
133 0.23072306084427746 0.10458400283358164 0.6412249397552111 0 0 0 0.47 2 124 61 44 187 76 227 11 232 11 
134 0.1541973003308028 0.1472793578321298 0.5896309229915937 0 0 0 0.09 2 125 16 79 77 55 187 77 
135 -0.00894370968685157 -0.21015001112733675 0.6532872424600932 0 0 0 0.44 2 126 4 64 9 42 16 80 17 40 27 25 33 38 36 20 44 72 50 68 53 20 61 45 77 56 85 37 92 53 98 69 111 9 112 50 118 39 124 62 13 36 29 6 32 20 39 27 71 5 97 2 109 28 148 19 157 40 159 13 164 38 176 29 185 17 196 16 204 14 219 11 223 25 146 52 158 26 213 46 221 5 
136 0.012822890825078611 -0.19780548026741707 0.6624226299777126 0 0 0 0.28 2 127 4 65 16 81 33 39 50 69 98 70 187 78 9 43 19 19 44 73 53 21 93 36 96 15 111 10 112 51 136 9 158 27 172 8 200 38 204 15 219 12 227 12 146 53 157 41 164 39 176 30 213 47 214 27 221 6 232 12 
137 0.08991876897606649 0.10254787994944459 0.5777363459984131 0 0 0 0.46 2 128 4 66 13 37 15 15 16 82 19 20 33 40 43 5 50 70 53 22 61 46 85 38 118 40 
138 -0.019102454810050865 -0.20682660080471657 0.6480035208900449 0 0 0 0.56 2 129 4 67 9 44 16 83 44 74 50 71 61 47 77 57 96 16 98 71 
139 -0.07652819144100724 -0.13551555734179924 0.5938705078210206 0 0 0 0.77 2 130 16 84 17 41 44 75 77 58 111 11 118 41 
140 -0.08595619022230405 0.05646558804648497 0.5144966509522008 0 0 0 0.31 2 131 4 68 11 49 16 85 17 42 27 26 44 76 50 72 53 23 77 59 98 72 118 42 
141 0.04666178610146964 0.07035874549299312 0.5728521215975899 0 0 0 0.31 2 132 15 16 16 86 17 43 27 27 33 41 38 34 50 73 77 60 85 39 98 73 118 43 
142 0.04561547208040505 -0.1985867549967804 0.6777826376637636 0 0 0 0.13 4 69 16 87 187 79 98 74 146 54 157 42 200 39 213 48 
143 0.04683736930573996 -0.19493631736375766 0.6758095212752406 0 0 0 0.45 4 70 112 52 187 80 39 28 157 43 146 55 234 49 
144 0.08936593284776362 -0.18542400850200258 0.6928796165186002 0 0 0 0.22 4 71 16 88 50 74 61 48 124 63 187 81 157 44 234 50 
145 0.11056117063427809 -0.17257057314399796 0.6976269175524605 0 0 0 0.45 4 72 112 53 187 82 157 45 175 32 
146 -0.02358262616386359 -0.17703136762852617 0.6378154122452354 0 0 0 0.26 4 73 16 89 92 54 98 75 112 54 187 83 
147 0.011003326973481378 -0.17193537146876622 0.6516687118681819 0 0 0 0.33 4 74 9 45 32 21 36 21 38 35 92 55 187 84 124 64 28 25 39 29 146 56 128 9 157 46 213 49 
148 -0.04684271260976391 -0.17604416762854164 0.6265221725858237 0 0 0 0.16 4 75 15 17 38 36 61 49 77 61 93 37 98 76 112 55 118 44 187 85 
149 -0.02805406319812674 -0.17110744771312014 0.6346384207058058 0 0 0 0.32 4 76 11 50 16 90 33 42 38 37 187 86 
150 -0.02795064449337868 -0.16793474049497123 0.6326299197505388 0 0 0 0.19 4 77 9 46 16 91 33 43 44 77 50 75 98 77 112 56 187 87 
151 -0.028381637028663236 -0.16471336621089183 0.6309384960517515 0 0 0 0.27 4 78 11 51 33 44 187 88 
152 -0.08588229447739873 -0.1674918599349732 0.605990295502752 0 0 0 0.22 4 79 9 47 16 92 38 38 50 76 92 56 98 78 109 29 112 57 118 45 124 65 
153 -0.1401034738098375 -0.16499664673098918 0.5905422735479571 0 0 0 0.11 4 80 16 93 98 79 
154 -0.08443215734312344 -0.16050495652770919 0.6034594180017511 0 0 0 0.15 4 81 16 94 38 39 98 80 112 58 124 66 33 45 39 30 110 16 146 57 157 47 176 31 213 50 
155 0.10686019614613344 -0.14234998021115755 0.6829369991429628 0 0 0 0.3 4 82 9 48 13 38 44 78 187 89 175 33 200 40 
156 0.17512855030531882 -0.13662723446664812 0.7107274426179282 0 0 0 0.31 4 83 44 79 91 10 93 38 98 81 112 59 124 67 187 90 2 133 9 49 28 26 32 22 33 46 39 31 50 77 109 30 146 58 157 48 175 34 200 41 213 51 234 51 176 32 
157 -0.025759983841875753 -0.1512751159737763 0.6250259549313913 0 0 0 0.33 4 84 11 52 16 95 33 47 38 40 44 80 93 39 98 82 112 60 124 68 187 91 146 59 148 20 157 49 185 18 196 17 200 42 213 52 214 28 224 7 234 52 
158 -0.10618386834378762 -0.15731740265786087 0.5919709387174692 0 0 0 0.4 4 85 11 53 16 96 98 83 187 92 
159 -0.034688092799528704 -0.1518726432355792 0.6207309815288283 0 0 0 0.28 4 86 13 39 33 48 44 81 85 40 92 57 124 69 
160 0.07772149795203877 -0.1403340472329378 0.667975730571652 0 0 0 0.29 4 87 16 97 50 78 98 84 110 17 112 61 187 93 28 27 39 32 146 60 175 35 234 53 
161 0.08595806356435547 -0.1397547556892872 0.6714977713796828 0 0 0 0.42 4 88 16 98 33 49 50 79 77 62 187 94 176 33 234 54 
162 -0.03875524369113289 -0.14923157739471374 0.618531982625851 0 0 0 0.4 4 89 13 40 36 22 98 85 124 70 187 95 
163 -0.009187255256889027 -0.14687708303546207 0.6306732684937107 0 0 0 0.37 4 90 16 99 110 18 187 96 
164 -0.004020225607905325 -0.14654238137264114 0.6326440266975839 0 0 0 0.19 4 91 16 100 110 19 112 62 187 97 11 54 27 28 39 33 50 80 124 71 157 50 158 28 176 34 204 16 213 53 219 13 231 15 128 10 146 61 234 55 
165 0.006442129527909667 -0.1455036421062483 0.6370495455923579 0 0 0 0.21 4 92 11 55 13 41 16 101 32 23 36 23 44 82 77 63 85 41 92 58 93 40 109 31 110 20 112 63 118 46 2 134 9 50 19 21 28 28 33 50 39 34 50 81 98 86 124 72 146 62 157 51 158 29 176 35 200 43 231 16 164 40 185 19 187 98 213 54 214 29 223 26 224 8 234 56 
166 -0.08189932134688231 -0.15257071250277843 0.6001083533549092 0 0 0 0.37 4 93 9 51 13 42 16 102 36 24 44 83 93 41 109 32 110 21 112 64 124 73 32 24 39 35 
167 -0.09848594182427772 -0.1196559160326516 0.5819430321533139 0 0 0 0.4 4 94 16 103 112 65 
168 0.16820022108219393 -0.09454263187783647 0.6935154181589245 0 0 0 0.4 4 95 38 41 112 66 187 99 146 63 157 52 
169 0.07753940567258975 -0.10047343220455916 0.6549270221924893 0 0 0 0.25 4 96 11 56 16 104 33 51 85 42 93 42 98 87 109 33 112 67 118 47 187 100 135 9 136 10 146 64 148 21 157 53 164 41 176 36 200 44 204 17 213 55 214 30 231 17 234 57 
170 0.07933618304713169 -0.07556789247589255 0.6464925478425193 0 0 0 0.19 4 97 16 105 38 42 50 82 187 101 
171 0.11590225232887276 -0.06823664438603799 0.6637242319644207 0 0 0 0.48 4 98 11 57 112 68 187 102 
172 0.07400788899139918 -0.06337553325104786 0.6403352572036723 0 0 0 0.28 4 99 11 58 16 106 38 43 44 84 112 69 187 103 135 10 146 65 157 54 175 36 176 37 200 45 213 56 234 58 
173 0.11973435995987115 -0.05923713553116019 0.6603055272644844 0 0 0 0.25 4 100 98 88 187 104 
174 0.07718038453434087 -0.061483126644800296 0.6397108452813527 0 0 0 0.33 4 101 38 44 92 59 98 89 187 105 146 66 157 55 175 37 200 46 214 31 234 59 
175 0.06597188802002593 -0.05338133236786428 0.6329100504148967 0 0 0 0.34 4 102 9 52 112 70 124 74 187 106 146 67 157 56 159 14 175 38 213 57 
176 0.13077461370383406 -0.04802565829854712 0.658616854555861 0 0 0 0.16 4 103 16 107 38 45 44 85 92 60 98 90 124 75 187 107 11 59 33 52 50 83 52 6 85 43 91 11 93 43 109 34 112 71 13 43 146 68 175 39 176 38 201 23 213 58 223 27 231 18 234 60 136 11 200 47 148 22 157 57 159 15 164 42 185 20 196 18 214 32 
177 0.037058125519108844 -0.05426803223262566 0.6184027142888707 0 0 0 0.1 4 104 11 60 16 108 33 53 44 86 112 72 187 108 136 12 148 23 157 58 159 16 164 43 175 40 176 39 213 59 214 33 234 61 
178 -0.05126169505409488 -0.05965881946880858 0.5806922751570485 0 0 0 0.13 4 105 9 53 16 109 33 54 44 87 50 84 92 61 93 44 109 35 112 73 
179 -0.0843554532613091 0.00888555963052879 0.5303765866094708 0 0 0 0.11 4 106 16 110 44 88 
180 0.040477805371348846 0.02854374582373954 0.5820087628100368 0 0 0 0.31 4 107 11 61 16 111 17 44 50 85 92 62 96 17 112 74 118 48 
181 -0.003195092334962638 0.0258881445172015 0.5631749604530465 0 0 0 0.18 4 108 50 86 92 63 98 91 187 109 9 54 38 46 61 50 112 75 
182 -0.006129213037425023 0.027391030262171538 0.5616713584660736 0 0 0 0.26 4 109 38 47 44 89 187 110 39 36 124 76 176 40 
183 0.07340467597162163 0.03963913196044387 0.6026465385619744 0 0 0 0.12 4 110 11 62 112 76 187 111 
184 -0.17991871082889477 0.024308970991587197 0.5078082911757617 0 0 0 0.35 4 111 16 112 33 55 98 92 124 77 
185 -0.03929616105802131 0.03383577810087336 0.541033422119828 0 0 0 0.14 4 112 33 56 38 48 98 93 109 36 
186 0.04464843689426882 0.04810400592382277 0.57663070704747 0 0 0 0.28 4 113 11 63 16 113 38 49 50 87 77 64 85 44 92 64 93 45 110 22 124 78 2 135 32 25 39 37 44 90 98 94 157 59 164 44 175 41 200 48 28 29 146 69 148 24 201 24 213 60 214 34 231 19 159 17 187 112 188 3 196 19 223 28 234 62 
187 -0.003683807142779161 0.044600728780080263 0.5566400734617486 0 0 0 0.24 4 114 16 114 187 113 146 70 176 41 214 35 
188 -0.014965995893152069 0.04511589250498527 0.5565704296388694 0 0 0 0.27 4 115 11 64 16 115 44 91 92 65 
189 0.025882899175393867 0.04890206416485215 0.5745942819665376 0 0 0 0.29 4 116 16 116 33 57 44 92 50 88 92 66 93 46 187 114 146 71 157 60 164 45 213 61 214 36 234 63 
190 0.26225638862482004 0.07027597935870813 0.6781858964753821 0 0 0 0.27 4 117 11 65 13 44 27 29 38 50 187 115 201 25 213 62 164 46 223 29 234 64 
191 -0.11845319158822144 0.03948618147763255 0.5177701496098741 0 0 0 0.32 4 118 33 58 38 51 77 65 110 23 
192 0.1351114253156302 0.05848640762833531 0.6146598789743867 0 0 0 0.18 4 119 38 52 109 37 187 116 11 66 16 117 36 25 50 89 85 45 146 72 201 26 214 37 194 4 223 30 176 42 234 65 
193 0.14482870502879672 0.05899673302409577 0.6183045283170804 0 0 0 0.2 4 120 13 45 109 38 187 117 38 53 77 66 85 46 91 12 110 24 146 73 176 43 197 4 201 27 213 63 214 38 223 31 
194 0.1847942245028551 0.06212688291407083 0.6341590725048114 0 0 0 0.25 4 121 11 67 13 46 16 118 36 26 85 47 91 13 92 67 93 47 109 39 110 25 187 118 38 54 148 25 176 44 194 5 201 28 213 64 214 39 234 66 196 20 
195 0.042442369456812803 0.051788236193310855 0.5762346235374208 0 0 0 0.2 4 122 16 119 38 55 85 48 146 74 187 119 201 29 175 42 188 4 213 65 234 67 
196 0.04633834016708026 0.05181826247509711 0.5774220956065012 0 0 0 0.21 4 123 9 55 16 120 33 59 38 56 50 90 93 48 98 95 110 26 124 79 187 120 28 30 44 93 92 68 146 75 157 61 175 43 188 5 201 30 213 66 214 40 200 49 223 32 234 68 
197 -0.0378437230429179 0.04545274005350155 0.5413359893675856 0 0 0 0.23 4 124 38 57 85 49 92 69 93 49 124 80 11 68 16 121 33 60 50 91 
198 -0.08305067008737625 0.04296902273842137 0.5242648403269452 0 0 0 0.21 4 125 11 69 16 122 33 61 
199 -0.07742835798986963 0.04293754281367564 0.5251610362273268 0 0 0 0.21 4 126 16 123 33 62 92 70 
200 -0.1411244215292656 0.04035933753685338 0.5067750539329133 0 0 0 0.22 4 127 13 47 16 124 38 58 44 94 50 92 92 71 93 50 110 27 124 81 
201 -0.12919578284530955 0.042185704905753796 0.5135086347156085 0 0 0 0.09 4 128 11 70 16 125 38 59 
202 -0.13527133578745826 0.04673951373262964 0.5072538712998506 0 0 0 0.18 4 129 11 71 16 126 38 60 50 93 77 67 110 28 113 0 
203 -0.03277573566417461 0.06239405885887746 0.5391799207583048 0 0 0 0.1 4 130 16 127 38 61 
204 0.0004098395094097453 0.06561639711398567 0.551934386874238 0 0 0 0.11 4 131 11 72 187 121 146 76 213 67 
205 0.09753055527539647 0.07393436679486524 0.5930456303540342 0 0 0 0.35 4 132 9 56 38 62 187 122 28 31 164 47 201 31 
206 0.09726396591306516 0.07680802660890457 0.5913072164972208 0 0 0 0.21 4 133 92 72 187 123 164 48 223 33 
207 0.18766114283018356 0.08585724593587249 0.6272744387818656 0 0 0 0.18 4 134 85 50 187 124 
208 0.13705391168639358 0.08534257320569519 0.6056098887756713 0 0 0 0.3 4 135 77 68 118 49 187 125 28 32 110 29 146 77 194 6 201 32 
209 -0.036550870597184246 0.07222070787647342 0.5342533765958736 0 0 0 0.22 4 136 11 73 16 128 38 63 
210 0.14075711806729563 0.08729146631998876 0.6060137736665775 0 0 0 0.25 4 137 38 64 187 126 
211 0.09232803848528864 0.08815192150122127 0.5847836437940284 0 0 0 0.23 4 138 11 74 16 129 38 65 110 30 118 50 187 127 27 30 28 33 201 33 213 68 214 41 
212 0.031548008807442504 0.08855329477779644 0.56763598946481 0 0 0 0.19 4 139 50 94 61 51 92 73 124 82 187 128 146 78 158 30 175 44 213 69 231 20 
213 0.14722194314297396 0.0955061026591863 0.6055700435009658 0 0 0 0.23 4 140 16 130 38 66 187 129 
214 -0.017374426634667997 0.08399658622264423 0.5409880095239908 0 0 0 0.17 4 141 16 131 187 130 
215 -0.13175559226825287 0.0775386652553217 0.500170791111523 0 0 0 0.31 4 142 11 75 16 132 27 31 38 67 44 95 50 95 85 51 92 74 113 1 
216 -0.037007374475973076 0.0832859336257504 0.5326398385768425 0 0 0 0.24 4 143 38 68 92 75 
217 -0.039136831377276006 0.08233683336455165 0.5258114689379422 0 0 0 0.24 4 144 11 76 16 133 38 69 92 76 
218 0.1374791693780417 0.09775081382859206 0.6008125844214346 0 0 0 0.38 4 145 11 77 16 134 38 70 52 7 13 48 110 31 146 79 148 26 164 49 187 131 201 34 214 42 136 13 213 70 234 69 
219 -0.13255487359802218 0.08062832837059773 0.4940200843268154 0 0 0 0.26 4 146 11 78 38 71 
220 -0.0869927308843264 0.08222837791714899 0.5035481779559511 0 0 0 0.42 4 147 33 63 44 96 93 51 
221 -0.03928281377745661 0.08744105318904263 0.5250740007705152 0 0 0 0.22 4 148 11 79 16 135 38 72 92 77 
222 -0.12575703576128233 0.0867691094824518 0.5018842551577641 0 0 0 0.3 4 149 11 80 16 136 17 45 38 73 52 8 92 78 110 32 113 2 
223 0.19427114756589317 0.11266847066333009 0.6195384715449417 0 0 0 0.21 4 150 16 137 85 52 110 33 187 132 28 34 109 40 146 80 194 7 201 35 213 71 214 43 
224 0.13836796398663648 0.10842102674046193 0.5973406076339921 0 0 0 0.22 4 151 13 49 38 74 52 9 110 34 187 133 28 35 201 36 136 14 146 81 214 44 
225 -0.0259350072141572 0.09663317053511346 0.5339449952527046 0 0 0 0.18 4 152 16 138 17 46 38 75 
226 -0.011303557191281944 0.0987577065493072 0.5423132012688471 0 0 0 0.18 4 153 16 139 17 47 38 76 
227 -0.131852820357756 0.09169438656041651 0.49163156897181465 0 0 0 0.23 4 154 11 81 16 140 38 77 50 96 77 69 92 79 113 3 
228 0.004704074138452306 0.1008831695005055 0.5406187129285198 0 0 0 0.19 4 155 38 78 92 80 93 52 110 35 13 50 61 52 
229 -0.03834799152381255 0.0971447697301141 0.5209338996953591 0 0 0 0.17 4 156 38 79 110 36 
230 -0.14327686723271887 0.09649593457583318 0.48774303284112197 0 0 0 0.19 4 157 11 82 16 141 38 80 
231 0.10106147276287052 0.11333591004244165 0.5787096460776094 0 0 0 0.26 4 158 11 83 16 142 92 81 187 134 146 82 164 50 213 72 214 45 223 34 
232 0.14464670695474063 0.12029698249891485 0.5957363708534009 0 0 0 0.26 4 159 16 143 36 27 85 53 98 96 110 37 124 83 187 135 13 51 17 48 52 10 92 82 135 11 136 15 164 51 214 46 223 35 234 70 
233 0.1891308622522576 0.12292933706566046 0.6133372251763348 0 0 0 0.28 4 160 109 41 110 38 187 136 194 8 223 36 234 71 
234 0.014525931812151295 0.11127675037393815 0.5409561698697251 0 0 0 0.27 4 161 11 84 13 52 38 81 77 70 103 3 110 39 118 51 
235 -0.041256991057949444 0.11105686987281362 0.5158792088139083 0 0 0 0.16 4 162 11 85 16 144 38 82 110 40 
236 0.030261856559454715 0.11621824165719927 0.5414182531399971 0 0 0 0.11 4 163 11 86 16 145 38 83 92 83 
237 -0.13733801938913484 0.10763168336997032 0.4834666114230935 0 0 0 0.26 4 164 16 146 38 84 113 4 
238 0.462744508627533 0.16331775963311 0.7341711065119868 0 0 0 0.3 4 165 44 97 85 54 91 14 187 137 
239 -0.03989842930118768 0.12227111351074649 0.5120848937797979 0 0 0 0.29 4 166 11 87 13 53 33 64 38 85 52 11 92 84 93 53 98 97 110 41 
240 -0.037530863998981284 0.12442101343059771 0.5126756994421274 0 0 0 0.23 4 167 13 54 16 147 33 65 38 86 92 85 110 42 
241 -0.03399256764467195 0.12558481486018264 0.5172380951222687 0 0 0 0.06 4 168 13 55 16 148 
242 0.14906922355078842 0.13979774807170817 0.5898060436295017 0 0 0 0.27 4 169 11 88 16 149 38 87 50 97 52 12 92 86 93 54 109 42 110 43 187 138 146 83 148 27 164 52 194 9 213 73 214 47 223 37 175 45 
243 -0.1363586141574141 0.12154586741058085 0.48025211807488766 0 0 0 0.08 4 170 16 150 113 5 
244 -0.03756592270331307 0.12725188239664642 0.5110649100044904 0 0 0 0.23 4 171 13 56 16 151 50 98 52 13 92 87 93 55 
245 0.08758808615176729 -0.210132421279765 0.6935393327546572 0 0 0 0.31 4 172 9 57 16 152 17 49 32 26 36 28 61 53 77 71 92 88 93 56 109 43 110 44 112 77 124 84 187 139 11 89 27 32 33 66 39 38 44 98 146 84 157 62 164 53 185 21 196 21 213 74 223 38 201 37 176 45 234 72 
246 0.08060471004591876 -0.20523480203254243 0.6935602068529502 0 0 0 0.26 4 173 9 58 11 90 16 153 17 50 27 33 32 27 33 67 38 88 44 99 50 99 77 72 85 55 93 57 96 18 98 98 109 44 110 45 112 78 118 52 124 85 187 140 2 136 28 36 29 7 36 29 39 39 60 4 61 54 92 89 146 85 148 28 157 63 159 18 164 54 172 9 176 46 185 22 196 22 200 50 204 18 213 75 223 39 222 9 227 13 234 73 
247 0.12045502889976706 -0.19486615969742338 0.7029240552284329 0 0 0 0.23 4 174 9 59 44 100 50 100 77 73 92 90 93 58 98 99 112 79 187 141 28 37 39 40 146 86 157 64 176 47 201 38 223 40 234 74 
248 -0.09727871024959173 -0.2062751438948136 0.6139569558592772 0 0 0 0.21 4 175 38 89 77 74 
249 0.11446813227402347 -0.17815131318505317 0.6997663468126404 0 0 0 0.43 4 176 11 91 17 51 33 68 38 90 61 55 187 142 157 65 159 19 164 55 185 23 213 76 219 14 222 10 234 75 
250 0.17706088992909258 -0.15417201301949734 0.7125744411624825 0 0 0 0.25 4 177 15 18 16 154 27 34 38 91 77 75 85 56 187 143 146 87 148 29 159 20 175 46 213 77 234 76 
251 -0.10515354077217026 -0.17501176082962383 0.594408305538688 0 0 0 0.44 4 178 11 92 16 155 27 35 38 92 44 101 77 76 85 57 112 80 118 53 
252 -0.10361818118619485 -0.16749840224620152 0.5956342077319791 0 0 0 0.36 4 179 9 60 16 156 17 52 36 30 98 100 112 81 
253 0.08591164444086945 -0.14689140172221052 0.6759190513571092 0 0 0 0.22 4 180 11 93 13 57 16 157 33 69 44 102 50 101 61 56 77 77 92 91 98 101 124 86 187 144 2 137 9 61 27 36 36 31 38 93 85 58 93 59 146 88 148 30 157 66 164 56 175 47 176 48 201 39 213 78 223 41 128 11 231 21 234 77 
254 0.2171583683819886 -0.13251016445018543 0.7333421480550454 0 0 0 0.59 4 181 13 58 92 92 118 54 187 145 27 37 29 8 39 41 124 87 172 10 201 40 223 42 
255 -0.015575130645104783 -0.1505509122825032 0.6292647125336812 0 0 0 0.27 4 182 16 158 17 53 77 78 96 19 124 88 187 146 146 89 157 67 158 31 176 49 200 51 204 19 213 79 214 48 
256 0.16037231711279232 -0.13451705850614581 0.7040498347815008 0 0 0 0.3 4 183 16 159 61 57 92 93 112 82 187 147 2 138 28 38 39 42 124 89 158 32 197 5 201 41 234 78 13 59 152 11 164 57 213 80 214 49 232 13 
257 0.1475899062895672 -0.1354723296719555 0.6982741771688525 0 0 0 0.2 4 184 9 62 11 94 13 60 16 160 36 32 44 103 50 102 52 14 77 79 85 59 92 94 93 60 98 102 109 45 112 83 124 90 187 148 2 139 28 39 33 70 39 43 146 90 148 31 157 68 175 48 176 50 200 52 234 79 201 42 213 81 
258 -0.08628037277133635 -0.15305779724816565 0.5990080307925445 0 0 0 0.08 4 185 44 104 92 95 124 91 
259 -0.14152207350199783 -0.15451271004627565 0.5846493232540153 0 0 0 0.31 4 186 9 63 16 161 27 38 77 80 98 103 124 92 2 140 33 71 39 44 50 103 92 96 93 61 148 32 157 69 164 58 176 51 196 23 200 53 159 21 204 20 
260 -0.050608834006699716 -0.07429744628247241 0.5877639720254113 0 0 0 0.26 4 187 11 95 44 105 50 104 92 97 187 149 146 91 158 33 
261 0.1898684604379249 -0.05186084282164205 0.6883957796264656 0 0 0 0.23 4 188 98 104 187 150 
262 -0.06372981160725014 -0.05734355902546822 0.5789450986469653 0 0 0 0.1 4 189 11 96 16 162 17 54 118 55 
263 -0.0471355173394425 0.008065943823226448 0.5511493996513634 0 0 0 0.23 4 190 16 163 19 22 77 81 98 105 112 84 
264 -0.051744143590895346 0.01307223737422747 0.5496353186956482 0 0 0 0.24 4 191 16 164 17 55 50 105 61 58 98 106 118 56 
265 -0.0707980772112517 0.016766319266247835 0.5399192677328424 0 0 0 0.11 4 192 11 97 17 56 50 106 103 4 
266 -0.06631213590782185 0.01757873021323752 0.5429773143734319 0 0 0 0.36 4 193 11 98 27 39 
267 -0.03785049884118298 0.0306063397786143 0.5429165493086262 0 0 0 0.23 4 194 16 165 50 107 77 82 98 107 11 99 61 59 187 151 
268 -0.03424655069566108 0.03366686086964152 0.5472413223896442 0 0 0 0.18 4 195 50 108 124 93 187 152 38 94 98 108 
269 0.09289795138375191 0.050984424475199915 0.5970051151535007 0 0 0 0.35 4 196 11 100 15 19 16 166 17 57 38 95 44 106 53 24 77 83 93 62 96 20 118 57 124 94 9 64 61 60 28 40 85 60 146 92 148 33 176 52 187 153 197 6 201 43 213 82 214 50 231 22 232 14 175 49 234 80 
270 0.08599199012961233 0.05088918293090333 0.5953685792533975 0 0 0 0.32 4 197 44 107 112 85 124 95 187 154 11 101 28 41 146 93 157 70 175 50 201 44 213 83 231 23 135 12 234 81 
271 -0.07846094141790869 0.03751530878192899 0.51968938720596 0 0 0 0.16 4 198 16 167 77 84 92 98 
272 -0.03533241970384823 0.04203940211177426 0.5423400120049903 0 0 0 0.21 4 199 11 102 33 72 38 96 50 109 77 85 92 99 124 96 
273 -0.1383174114903113 0.03658072617097387 0.5072444187530296 0 0 0 0.27 4 200 11 103 16 168 33 73 38 97 53 25 61 61 77 86 92 100 110 46 113 6 118 58 
274 -0.1255944189561008 0.038750538653818056 0.5153704373749068 0 0 0 0.18 4 201 16 169 38 98 92 101 93 63 
275 -0.15761371866026616 0.03779829773238397 0.502607140349232 0 0 0 0.21 4 202 11 104 16 170 17 58 27 40 38 99 50 110 77 87 118 59 
276 -0.0390814786882534 0.055303967581339354 0.5398342868617553 0 0 0 0.26 4 203 15 20 16 171 27 41 38 100 77 88 
277 -0.13190431673347283 0.06203898673026208 0.5154050365116897 0 0 0 0.37 4 204 53 26 92 102 96 21 
278 -0.04421345886492386 0.06471638211957258 0.5320053420023796 0 0 0 0.26 4 205 11 105 13 61 16 172 17 59 27 42 52 15 77 89 85 61 118 60 
279 0.13727289653419092 0.08115292621246335 0.6077157396673846 0 0 0 0.42 4 206 16 173 77 90 110 47 187 155 11 106 28 42 36 33 85 62 92 103 176 53 201 45 213 84 214 51 223 43 234 82 
280 -0.13386009381896585 0.06966709814142515 0.5088342957767598 0 0 0 0.22 4 207 11 107 16 174 113 7 
281 -0.04302742923322572 0.07352436624066162 0.5282482856791232 0 0 0 0.27 4 208 11 108 16 175 38 101 77 91 85 63 92 104 96 22 
282 0.14681514393167136 0.08893184765311385 0.6080128252730382 0 0 0 0.23 4 209 13 62 16 176 187 156 175 51 213 85 
283 0.09527571170796603 0.08554797243061024 0.587218365147394 0 0 0 0.13 4 210 11 109 13 63 16 177 17 60 38 102 53 27 77 92 85 64 92 105 110 48 118 61 28 43 146 94 148 34 214 52 223 44 232 15 136 16 164 59 172 11 187 157 196 24 213 86 234 83 
284 0.13687035111757284 0.08953252686333636 0.6050971029984161 0 0 0 0.4 4 211 16 178 187 158 11 110 17 61 38 103 53 28 77 93 92 106 110 49 118 62 164 60 204 21 223 45 146 95 172 12 234 84 
285 -0.16621199793312627 0.07451972342852145 0.4938790877520479 0 0 0 0.21 4 212 11 111 16 179 17 62 118 63 
286 0.23829576996541663 0.10268623147326346 0.6458053965691877 0 0 0 0.24 4 213 17 63 77 94 187 159 213 87 214 53 
287 0.09913457585528211 0.09174502661479247 0.5862783335892399 0 0 0 0.32 4 214 16 180 17 64 77 95 92 107 98 109 187 160 28 44 38 104 110 50 146 96 148 35 201 46 213 88 214 54 223 46 136 17 164 61 234 85 
288 -0.04293902420175235 0.08308595530934844 0.5258865813634906 0 0 0 0.24 4 215 11 112 16 181 17 65 77 96 85 65 92 108 118 64 
289 0.12750879396875425 0.10818812576854417 0.5973327829647617 0 0 0 0.28 4 216 11 113 16 182 27 43 38 105 50 111 96 23 118 65 187 161 146 97 204 22 222 11 223 47 234 86 
290 0.011107147651319677 0.10597774359481466 0.5410007681147676 0 0 0 0.32 4 217 11 114 38 106 77 97 
291 -0.13182877600298468 0.09816165378810716 0.490099388315828 0 0 0 0.25 4 218 11 115 16 183 38 107 43 6 77 98 92 109 96 24 110 51 
292 0.06213676126028953 0.1126785172988259 0.5632860163133707 0 0 0 0.41 4 219 11 116 16 184 36 34 53 29 
293 -0.1410570732910938 0.10691823062136142 0.4813155386171907 0 0 0 0.28 4 220 11 117 16 185 38 108 53 30 77 99 92 110 110 52 113 8 118 66 
294 -0.038476158153968515 0.11433897831970809 0.5157503042927037 0 0 0 0.22 4 221 11 118 16 186 17 66 27 44 38 109 77 100 85 66 92 111 93 64 103 5 110 53 118 67 
295 -0.14055454622280356 0.12250876890836886 0.4764218266145048 0 0 0 0.31 4 222 16 187 17 67 43 7 77 101 92 112 113 9 118 68 
296 0.40131405719436813 -0.12220040067209745 0.8168336597297492 0 0 0 0.38 4 223 77 102 92 113 187 162 
297 0.17092105258932375 -0.13375288721458287 0.7085952549539531 0 0 0 0.29 4 224 33 74 50 112 85 67 91 15 187 163 
298 -0.11923364636290147 -0.06833118158272646 0.5612172956223395 0 0 0 0.35 4 225 44 108 50 113 53 31 61 62 92 114 98 110 103 6 110 54 111 12 112 86 16 188 28 45 32 28 39 45 71 6 77 103 146 98 148 36 157 71 158 34 162 3 172 13 214 55 231 24 232 16 9 65 93 65 185 24 128 12 
299 -0.04491478920487385 -0.05487655784901111 0.5835990074633577 0 0 0 0.22 4 226 17 68 50 114 61 63 118 69 124 97 
300 0.1255503441751162 0.037009704454610604 0.6234853385361572 0 0 0 0.24 4 227 15 21 16 189 50 115 61 64 98 111 111 13 112 87 124 98 187 164 97 3 157 72 175 52 176 54 219 15 231 25 234 87 13 64 146 99 158 35 201 47 204 23 128 13 152 12 200 54 213 89 221 7 
301 -0.07805795081818145 0.023310551931393968 0.5286422150198515 0 0 0 0.41 4 228 15 22 17 69 27 45 33 75 43 8 44 109 50 116 61 65 77 104 96 25 103 7 112 88 
302 -0.14236013463966404 0.022546596139769757 0.5074441833282822 0 0 0 0.13 4 229 38 110 77 105 118 70 
303 0.27906382410206637 0.06575523661480645 0.6789263807779983 0 0 0 0.22 4 230 11 119 53 32 77 106 85 68 91 16 92 115 93 66 109 46 110 55 118 71 187 165 13 65 17 70 27 46 28 46 146 100 165 1 201 48 204 24 213 90 223 48 232 17 234 88 235 1 148 37 164 62 176 55 194 10 221 8 222 12 
304 -0.07371695923750714 0.03844800104949291 0.5243577423036531 0 0 0 0.2 4 231 11 120 15 23 16 190 38 111 77 107 92 116 
305 0.001282197415742244 0.044901681826691936 0.5573367341068024 0 0 0 0.17 4 232 16 191 38 112 53 33 77 108 92 117 96 26 118 72 
306 0.2794078271298276 0.08357032578960226 0.6752955184981206 0 0 0 0.3 4 233 11 121 13 66 15 24 17 71 53 34 77 109 85 69 91 17 93 67 103 8 109 47 118 73 187 166 148 38 164 63 194 11 196 25 213 91 214 56 222 13 232 18 234 89 
307 0.07892950060869984 0.08854202108105877 0.5855776477468672 0 0 0 0.36 4 234 11 122 15 25 16 192 33 76 118 74 187 167 213 92 234 90 
308 -0.1188441915156069 0.07598831808751223 0.5068112767826063 0 0 0 0.2 4 235 11 123 16 193 17 72 27 47 38 113 77 110 118 75 43 9 113 10 
309 0.36978467494843403 0.11699793146064436 0.7066417346716689 0 0 0 0.33 4 236 11 124 17 73 27 48 43 10 52 16 77 111 96 27 118 76 187 168 85 70 91 18 28 47 234 91 128 14 164 64 172 14 232 19 
310 0.17757045711019934 0.10625107686983168 0.6182998206834626 0 0 0 0.27 4 237 11 125 16 194 27 49 43 11 77 112 92 118 96 28 187 169 164 65 232 20 234 92 
311 0.029754077497021046 0.10228515079166499 0.5650620543352733 0 0 0 0.31 4 238 11 126 13 67 15 26 43 12 50 117 92 119 103 9 
312 0.07772417714209985 0.10408318674554909 0.5781412366496879 0 0 0 0.19 4 239 11 127 15 27 16 195 17 74 27 50 38 114 50 118 61 66 118 77 
313 -0.1550316999561382 0.09467213833867517 0.48715674845627827 0 0 0 0.32 4 240 17 75 38 115 98 112 113 11 
314 0.04344270361012922 0.1177572107019227 0.5479783852941658 0 0 0 0.22 4 241 13 68 15 28 16 196 17 76 50 119 96 29 98 113 118 78 124 99 
315 0.009780111665215883 0.11645309073831324 0.5356221799500247 0 0 0 0.35 4 242 11 128 13 69 16 197 17 77 50 120 53 35 61 67 92 120 96 30 98 114 118 79 
316 0.016571097328615284 0.12230494736431109 0.5369341814580268 0 0 0 0.56 4 243 17 78 44 110 50 121 53 36 61 68 98 115 124 100 
317 -0.06058858636285439 -0.1647289332379572 0.6137674951733733 0 0 0 0.41 4 244 50 122 98 116 112 89 118 80 187 170 
318 0.03256106934185886 -0.057890050518228396 0.6172916079163877 0 0 0 0.39 4 245 16 198 44 111 112 90 187 171 158 36 176 56 213 93 222 14 
319 -0.08798388407063557 -0.060009885434467364 0.5634853091536974 0 0 0 0.17 4 246 11 129 16 199 17 79 38 116 77 113 103 10 118 81 
320 -0.006681781701162327 0.017945664615481048 0.567603877341903 0 0 0 0.21 4 247 17 80 50 123 61 69 
321 0.118465587132711 0.03849811609619662 0.6180843503393012 0 0 0 0.41 4 248 11 130 15 29 16 200 17 81 38 117 50 124 61 70 98 117 110 56 112 91 118 82 187 172 19 23 111 14 97 4 124 101 146 101 28 48 128 15 152 13 158 37 175 53 176 57 201 49 204 25 234 93 13 70 172 15 200 55 213 94 221 9 232 21 136 18 219 16 223 49 
322 0.12601576523352284 0.042941937615004956 0.6209073194038205 0 0 0 0.49 4 249 43 13 61 71 98 118 112 92 187 173 9 66 11 131 16 201 17 82 27 51 44 112 50 125 77 114 93 68 118 83 128 16 164 66 201 50 204 26 232 22 53 37 152 14 158 38 146 102 176 58 219 17 222 15 
323 -0.07640201244551256 0.08795893576925119 0.5039156632475595 0 0 0 0.26 4 250 11 132 15 30 17 83 27 52 38 118 43 14 53 38 77 115 96 31 103 11 118 84 
324 -0.05813793539653036 0.09186171606124792 0.5197867031326312 0 0 0 0.18 4 251 11 133 16 202 17 84 38 119 43 15 92 121 103 12 118 85 
325 0.0690793494988963 0.10278158629978948 0.5723115489736241 0 0 0 0.15 4 252 11 134 53 39 96 32 98 119 103 13 118 86 
326 -0.050350439366876006 0.09728789230400113 0.5172586521783349 0 0 0 0.2 4 253 11 135 15 31 16 203 17 85 43 16 96 33 118 87 
327 0.2812418744464993 0.12544610935506348 0.657079027315397 0 0 0 0.33 4 254 11 136 13 71 17 86 27 53 44 113 50 126 53 40 61 72 77 116 98 120 103 14 124 102 187 174 158 39 175 54 190 0 213 95 234 94 
328 -0.12699221602169258 0.09558691261853783 0.4937629136413862 0 0 0 0.19 17 87 38 120 43 17 53 41 
329 0.0001431875322909341 0.10274813848700362 0.5376163148093703 0 0 0 0.3 4 255 11 137 15 32 16 204 17 88 27 54 38 121 44 114 92 122 96 34 111 15 118 88 
330 -0.14598789558768377 0.11149868346186166 0.4795101928306529 0 0 0 0.2 4 256 38 122 77 117 118 89 
331 0.15401333915908794 0.1332442133551697 0.5917382630447919 0 0 0 0.27 4 257 11 138 16 205 17 89 27 55 96 35 
332 0.05392896950133368 0.06292659161962934 0.5769300442930865 0 0 0 0.28 4 258 11 139 15 33 33 77 98 121 187 175 
333 -0.10684550860085446 0.08964639145133757 0.5022121285617898 0 0 0 0.21 4 259 11 140 15 34 16 206 17 90 38 123 103 15 113 12 118 90 
334 -0.10393887603552941 0.09698578234158774 0.5020610794272742 0 0 0 0.19 4 260 11 141 16 207 17 91 53 42 77 118 92 123 110 57 
335 -0.1270503888180412 0.11314104046372483 0.4922102449549818 0 0 0 0.29 4 261 16 208 38 124 43 18 92 124 96 36 
336 -0.08293630855498656 0.08209796989172531 0.5025570052807837 0 0 0 0.35 4 262 11 142 17 92 27 56 38 125 77 119 118 91 
337 -0.03311893681553026 -0.15998312436754503 0.6237256918060095 0 0 0 0.41 4 263 16 209 44 115 50 127 53 43 77 120 96 37 111 16 112 93 118 92 
338 0.006871386971927883 0.03418180320201877 0.5582338511367421 0 0 0 0.4 4 264 16 210 50 128 53 44 61 73 
339 0.020589290374131427 0.04642834607878707 0.5717586733056241 0 0 0 0.58 4 265 16 211 17 93 43 19 53 45 118 93 
340 0.1278492963157242 -0.16541993926762813 0.703163048637498 0 0 0 0.51 4 266 15 35 50 129 85 71 98 122 187 176 146 103 157 73 213 96 214 57 221 10 222 16 223 50 234 95 
341 -0.09697756710918992 -0.15612815545202086 0.5973133142233994 0 0 0 0.49 4 267 11 143 16 212 17 94 27 57 38 126 77 121 118 94 
342 0.1400801465843492 0.07250582957537324 0.6132850239382691 0 0 0 0.35 4 268 15 36 16 213 17 95 77 122 118 95 187 177 146 104 213 97 223 51 
343 0.008123879803337947 0.10910586303378385 0.5368387955988427 0 0 0 0.42 4 269 11 144 16 214 17 96 27 58 32 29 36 35 43 20 53 46 77 123 92 125 96 38 110 58 
344 0.15677189056259233 -0.2235158412176428 0.7372096018737923 0 0 0 0.4 9 67 50 130 93 69 112 94 124 103 187 178 11 145 13 72 28 49 33 78 39 46 110 59 136 19 157 74 213 98 201 51 
345 0.05896716402879356 -0.18269113755413594 0.6778591195793275 0 0 0 0.13 9 68 93 70 98 123 124 104 187 179 
346 0.16779808311642114 -0.1541727364621277 0.7108831268262176 0 0 0 0.31 9 69 16 215 50 131 112 95 187 180 175 55 213 99 
347 0.17404529102490202 -0.15047913897011245 0.7122440229301336 0 0 0 0.31 9 70 93 71 187 181 146 105 175 56 
348 0.027006227251045834 -0.16529793048999752 0.655941697006423 0 0 0 0.31 9 71 93 72 187 182 
349 0.07787728264229397 -0.15460553479743427 0.6745463041744221 0 0 0 0.36 9 72 50 132 61 74 92 126 98 124 187 183 176 59 200 56 
350 0.12229361689760847 -0.14099470611720363 0.6884722866285395 0 0 0 0.37 9 73 13 73 16 216 44 116 92 127 93 73 110 60 187 184 28 50 39 47 200 57 109 48 201 52 135 13 
351 -0.0247958612054738 -0.1543813502553887 0.6255903139210892 0 0 0 0.24 9 74 16 217 85 72 93 74 112 96 
352 0.2660467813593474 -0.09314461695321928 0.742355714909987 0 0 0 0.26 9 75 112 97 187 185 175 57 200 58 
353 0.2177744376130669 -0.09706842749247302 0.7202955062246285 0 0 0 0.18 9 76 112 98 187 186 175 58 200 59 
354 0.148260644302303 -0.05454538983544488 0.6694105774256477 0 0 0 0.22 9 77 13 74 16 218 33 79 38 127 91 19 93 75 98 125 112 99 187 187 39 48 124 105 28 51 146 106 157 75 164 67 175 59 176 60 201 53 148 39 159 22 200 60 213 100 214 58 231 26 234 96 
355 0.12509641642047328 -0.052784297109091875 0.6572143920820293 0 0 0 0.41 9 78 38 128 98 126 112 100 187 188 146 107 234 97 
356 -0.08618854246082239 0.029915173035893472 0.5186783132743875 0 0 0 0.31 9 79 16 219 33 80 93 76 98 127 112 101 
357 -0.13977533690803248 0.05757737248882097 0.5009046375036995 0 0 0 0.31 9 80 11 146 16 220 33 81 44 117 50 133 61 75 92 128 113 13 124 106 
358 0.22537811718089315 -0.22429135138154002 0.7666548060492953 0 0 0 0.39 9 81 36 36 187 189 39 49 44 118 234 98 
359 0.3961867550754736 -0.12866106886483653 0.815564572393676 0 0 0 0.28 9 82 77 124 187 190 
360 0.08738629078663544 -0.16005118020160575 0.6830719153802882 0 0 0 0.21 9 83 50 134 187 191 93 77 
361 0.07627978601585587 -0.1439235208143849 0.666800297327825 0 0 0 0.44 9 84 13 75 16 221 32 30 36 37 44 119 50 135 124 107 187 192 201 54 213 101 
362 0.2955211721082116 -0.11611177836613391 0.7639325327242547 0 0 0 0.15 9 85 93 78 124 108 187 193 
363 -0.06673759441171477 -0.1515608732840506 0.6065953942720107 0 0 0 0.31 9 86 11 147 33 82 38 129 61 76 77 125 98 128 112 102 16 222 187 194 
364 0.06639780793703248 -0.15692060864772148 0.6702312524859743 0 0 0 0.34 9 87 15 37 16 223 44 120 50 136 61 77 77 126 98 129 187 195 146 108 234 99 
365 -0.0332486826160068 -0.16800828871579465 0.6299775633059936 0 0 0 0.32 9 88 15 38 44 121 50 137 77 127 98 130 
366 0.023400987954437243 -0.1593670692334895 0.6523054201394783 0 0 0 0.46 9 89 16 224 19 24 36 38 44 122 50 138 53 47 61 78 77 128 85 73 92 129 93 79 109 49 124 109 187 196 39 50 112 103 118 96 157 76 232 23 146 109 200 61 214 59 223 52 224 9 234 100 
367 -0.11489753545728168 -0.17489155473953538 0.5919621939596237 0 0 0 0.62 9 90 11 148 16 225 17 97 27 59 44 123 92 130 112 104 61 79 96 39 98 131 
