# 3D point list with one line of data per point:
#   POINT3D_ID, X, Y, Z, R, G, B, ERROR, TRACK[] as (IMAGE_ID, POINT2D_IDX)
# Number of points: 361, mean track length: 6.78
1248 -0.007516958511165451 -0.28238060553719035 0.9916164261081373 0 0 0 0.28 18 1197 23 239 55 22 59 16 72 191 102 100 149 299 
1249 -0.07628108028132558 -0.20049864520871452 1.0815327516075803 0 0 0 0.44 18 1198 23 240 37 53 59 17 94 333 116 269 131 13 139 22 144 12 151 178 154 236 161 75 166 126 171 461 173 130 177 102 180 451 193 262 211 71 212 20 218 147 
1250 -0.07799329819306032 -0.1997827402414776 1.080886965556891 0 0 0 0.36 18 1199 23 241 161 76 173 131 210 198 
1251 -0.41277754145444967 0.0961189774543845 1.321003055373153 0 0 0 0.36 18 1200 151 179 166 127 202 12 
1252 -0.057054894958062034 -0.23423268805920525 1.0134758216116957 0 0 0 0.33 18 1201 23 242 86 83 116 270 149 300 171 462 173 132 177 103 216 136 218 148 
1253 -0.07738779209509364 -0.191036065319357 1.076875245681252 0 0 0 0.55 18 1202 37 54 47 86 57 14 59 18 86 84 94 334 119 6 125 91 139 23 143 22 144 13 149 301 154 237 166 128 173 133 178 9 180 452 210 199 211 72 226 134 
1254 -0.5235923062888281 0.10448334664055134 1.1273639813241765 0 0 0 0.31 18 1203 58 81 86 85 116 271 153 92 154 238 161 77 166 129 173 134 180 453 193 263 218 149 
1255 -0.5026804015224369 0.0934062648433289 1.1198486346746621 0 0 0 0.2 18 1204 72 192 171 463 178 10 180 454 228 146 
1256 -0.4058581624746284 0.11316528953095573 1.3193944185528619 0 0 0 0.38 18 1205 58 82 151 180 166 130 171 464 180 455 228 147 
1257 -0.5235708102284421 0.11287940922826574 1.119542652609265 0 0 0 0.29 18 1206 151 181 166 131 
1258 -0.010033713306531517 -0.23549224196638505 0.9859582475411638 0 0 0 0.17 18 1207 102 101 171 465 180 456 
1259 -0.41366471750607475 0.11258903805555838 1.2825893776257864 0 0 0 0.41 18 1208 57 15 58 83 59 19 144 14 
1260 -0.07052365058911209 -0.16175146287487363 1.0563579910568395 0 0 0 0.28 18 1209 23 243 59 20 94 335 161 78 173 135 178 11 180 457 189 4 212 21 
1261 -0.46409819761837945 0.11945198939939002 1.1997014172249394 0 0 0 0.06 18 1210 153 93 180 458 
1262 -0.05767878531637826 -0.14075669641876568 1.123075914538006 0 0 0 0.44 18 1211 86 86 125 92 149 302 153 94 166 132 180 459 189 5 212 22 
1263 -0.4107559027204876 0.1370591432512947 1.3004868912934298 0 0 0 1.06 18 1212 57 16 166 133 193 264 
1264 -0.1444855336885043 -0.12657401193307044 0.9910137077386078 0 0 0 0.22 18 1213 57 17 94 336 116 272 
1265 -0.14208601921619332 -0.1263571956313745 0.9865259339504283 0 0 0 0.1 18 1214 59 21 151 182 
1266 -0.14179940575951838 -0.12641746398794576 0.9864899997501037 0 0 0 0.44 18 1215 59 22 116 273 151 183 154 239 178 12 180 460 212 23 225 6 
1267 -0.413141682043503 0.14568653904652068 1.3028633571885 0 0 0 0.29 18 1216 57 18 58 84 125 93 211 73 
1268 -0.142767478426676 -0.11925730979174867 0.9765667311435431 0 0 0 0.34 18 1217 30 33 45 11 90 18 94 337 116 274 125 94 131 14 140 182 144 15 149 303 154 240 161 79 171 466 173 136 180 461 193 265 218 150 
1269 -0.13610397461409374 -0.11219847958850986 0.9958001794519925 0 0 0 0.3 18 1218 171 467 180 462 
1270 -0.413521099355288 0.15362275887306184 1.2907444023285541 0 0 0 0.48 18 1219 34 50 46 71 57 19 151 184 166 134 171 468 216 137 
1271 -0.12616544174464395 -0.12459784583315411 0.9646802228996205 0 0 0 0.3 18 1220 173 137 180 463 
1272 -0.4423151366171089 0.14563151299879395 1.2248680586289333 0 0 0 0.35 18 1221 180 464 202 13 
1273 -0.40935657492165584 0.15242395521614566 1.2867256687643942 0 0 0 0.23 18 1222 171 469 180 465 
1274 -0.10175281482534955 -0.10583031291104661 1.0362684691986412 0 0 0 0.27 18 1223 46 72 116 275 144 16 151 185 178 13 180 466 205 70 212 24 
1275 -0.10184915283153102 -0.105593454696407 1.0359731549092464 0 0 0 0.32 18 1224 23 244 178 14 180 467 
1276 -0.05195257269868989 -0.1046988948821478 1.0988784977536845 0 0 0 0.26 18 1225 59 23 86 87 180 468 
1277 -0.1266746218739411 -0.1136479191351564 0.9681250746283184 0 0 0 0.35 18 1226 149 304 180 469 
1278 -0.540031724839201 0.15828384132217116 1.1091957505254506 0 0 0 0.45 18 1227 34 51 145 22 161 80 
1279 -0.12068963134472281 -0.10309072764148972 0.9987414710632769 0 0 0 0.16 18 1228 23 245 116 276 171 470 
1280 -0.41307766306094534 0.1669224240597764 1.2889021998777879 0 0 0 0.37 18 1229 161 81 171 471 
1281 -0.5388233165420082 0.15903484342917096 1.0985349474025714 0 0 0 0.26 18 1230 57 20 58 85 94 338 102 102 151 186 166 135 173 138 180 470 193 266 218 151 
1282 -0.41342182028590924 0.17051727364256397 1.2923109956571892 0 0 0 0.36 18 1231 34 52 58 86 180 471 
1283 -0.4480325159879616 0.15574567265910788 1.2081332174227395 0 0 0 0.27 18 1232 86 88 166 136 
1284 -0.4473550883072541 0.1556666670735924 1.208762141170643 0 0 0 0.34 18 1233 86 89 166 137 173 139 
1285 -0.07724979176853683 -0.08102324028199816 1.0920703696218017 0 0 0 1.68 18 1234 86 90 186 25 
1286 -0.40874889931642305 0.16788685169721546 1.287359311226242 0 0 0 0.26 18 1235 51 7 228 148 
1287 -0.10071906349803894 -0.08724119949588124 1.0259957412471343 0 0 0 0.59 18 1236 47 87 116 277 125 95 144 17 151 187 171 472 186 26 212 25 
1288 -0.09124928859462139 -0.11465628299403066 0.9617726521247735 0 0 0 0.18 18 1237 171 473 210 200 
1289 -0.07471518839989497 -0.12451427401144878 0.9536448338923219 0 0 0 0.14 18 1238 149 305 180 472 210 201 
1290 -0.41289464148970223 0.18131246916628566 1.2962083578361405 0 0 0 0.5 18 1239 86 91 125 96 228 149 
1291 -0.4077375985092575 0.1762870644998435 1.284826730661726 0 0 0 0.53 18 1240 125 97 153 95 166 138 171 474 180 473 211 74 
1292 -0.4077628709600735 0.1762094856039174 1.284770499241206 0 0 0 0.65 18 1241 125 98 166 139 171 475 211 75 
1293 -0.4104847870482198 0.1847609227155324 1.2946026522777432 0 0 0 0.34 18 1242 46 73 51 8 86 92 151 188 
1294 -0.06309712331733922 -0.06474119958583682 1.0980079973797547 0 0 0 0.23 18 1243 116 278 125 99 
1295 -0.07017529538131989 -0.06541596632663677 1.0893689239859214 0 0 0 0.68 18 1244 37 55 116 279 125 100 144 18 149 306 151 189 166 140 171 476 210 202 
1296 -0.023009744251737924 -0.151292901539001 0.9276805664024445 0 0 0 0.22 18 1245 72 193 102 103 116 280 149 307 154 241 171 477 180 474 193 267 210 203 218 152 226 135 
1297 -0.021241166960943515 -0.15418695225254453 0.9217419015986612 0 0 0 0.27 18 1246 102 104 171 478 210 204 
1298 -0.08006529629207472 -0.07136597029390285 1.0593299667240577 0 0 0 1.02 18 1247 23 246 140 183 180 475 193 268 
1299 -0.020347361985366397 -0.15179437331838186 0.9163681187751151 0 0 0 0.27 144 19 149 308 177 104 189 6 212 26 218 153 
1300 -0.5409360438705278 0.1817103461734278 1.1110321599473871 0 0 0 0.21 18 1248 154 242 166 141 
1301 -0.07017062415481393 -0.06482304961781911 1.0719899666059447 0 0 0 0.65 18 1249 58 87 59 24 86 93 94 339 116 281 125 101 151 190 166 142 180 476 186 27 218 154 228 150 
1302 -0.07051180546197348 -0.11335016398514601 0.9425480050981884 0 0 0 0.35 18 1250 72 194 140 184 149 309 166 143 180 477 193 269 
1303 -0.5316046854026744 0.16756006071313895 1.0800884299343163 0 0 0 0.22 18 1251 34 53 102 105 171 479 
1304 -0.1030394671338172 -0.06642159991425164 1.0085092024788194 0 0 0 0.42 18 1252 23 247 30 34 34 54 37 56 45 12 46 74 47 88 59 25 94 340 116 282 125 102 131 15 139 24 149 310 150 34 151 191 154 243 166 144 173 140 180 478 186 28 202 14 210 205 211 76 212 27 216 138 228 151 
1305 -0.10287208479428225 -0.06628683150983522 1.0086248278376364 0 0 0 0.37 18 1253 23 248 154 244 202 15 210 206 212 28 
1306 -0.10769703755322559 -0.06423200800998143 0.9999363083314683 0 0 0 0.58 18 1254 23 249 30 35 47 89 94 341 116 283 125 103 139 25 151 192 166 145 180 479 186 29 210 207 212 29 228 152 
1307 -0.02082316999384069 -0.13581443403898485 0.9230437623554372 0 0 0 0.56 18 1255 45 13 59 26 90 19 94 342 140 185 151 193 180 480 202 16 218 155 
1308 -0.07056930278198541 -0.10199986101291543 0.9380466614289095 0 0 0 0.44 18 1256 72 195 94 343 116 284 140 186 149 311 151 194 173 141 180 481 210 208 211 77 218 156 226 136 
1309 -0.31530963898638603 0.08210917385881297 1.1079981029129655 0 0 0 0.28 18 1257 58 88 59 27 154 245 183 33 
1310 -0.0044658055659533655 -0.14331089090675223 0.9079708970424525 0 0 0 0.15 18 1258 72 196 177 105 
1311 -0.07921766480429986 -0.05032178330147516 1.0476129703479042 0 0 0 0.73 18 1259 149 312 166 146 173 142 186 30 210 209 211 78 
1312 -0.06897398350729916 -0.04796320375078408 1.0561079638026274 0 0 0 0.33 18 1260 23 250 30 36 37 57 46 75 57 21 58 89 59 28 94 344 116 285 125 104 144 20 151 195 154 246 166 147 171 480 189 7 212 30 228 153 
1313 -0.5353281695322263 0.18593518516969698 1.0946308889710221 0 0 0 0.24 18 1261 46 76 86 94 102 106 171 481 
1314 -0.41524541361755035 0.20775956535726367 1.2730712018520436 0 0 0 0.48 18 1262 34 55 51 9 58 90 59 29 125 105 151 196 154 247 166 148 180 482 186 31 202 17 228 154 
1315 -0.47309903173191536 0.2027559982314134 1.1867429508806253 0 0 0 0.12 18 1263 86 95 171 482 
1316 -0.5341991296784985 0.1917197698501654 1.0908909916603768 0 0 0 0.39 18 1264 37 58 46 77 51 10 58 91 86 96 90 20 139 26 153 96 171 483 173 143 183 34 218 157 
1317 -0.5135105178362902 0.1763487210926451 1.073248560884922 0 0 0 0.31 18 1265 34 56 37 59 58 92 94 345 116 286 193 270 
1318 -0.07455760854082494 -0.0757301961342524 0.934941567621301 0 0 0 0.22 18 1266 72 197 171 484 173 144 180 483 
1319 -0.06834652521156905 -0.07835810021412012 0.9271027497517146 0 0 0 0.78 18 1267 47 90 102 107 140 187 149 313 151 197 173 145 
1320 -0.4168541517406799 0.21958623570569832 1.2761586966221967 0 0 0 0.29 18 1268 186 32 212 31 
1321 -0.4131481726807143 0.2173512741306528 1.274350049260261 0 0 0 0.39 18 1269 34 57 51 11 86 97 228 155 
1322 -0.41247582251242976 0.21568125026627935 1.2703203924700892 0 0 0 0.45 18 1270 34 58 46 78 59 30 180 484 186 33 
1323 -0.41164888471212974 0.21559932148316238 1.2708522639562005 0 0 0 0.49 18 1271 34 59 46 79 180 485 186 34 211 79 
1324 -0.5171843579888739 0.18362035144818525 1.074392378948374 0 0 0 0.4 18 1272 34 60 58 93 72 198 94 346 102 108 116 287 145 23 151 198 171 485 180 486 183 35 193 271 216 139 
1325 -0.5196743081356658 0.18630122968880217 1.075081354662534 0 0 0 0.3 18 1273 55 23 58 94 86 98 94 347 116 288 125 106 143 23 145 24 151 199 154 248 161 82 166 149 171 486 180 487 193 272 216 140 228 156 
1326 -0.24968716182372414 0.06897087147327953 1.076894334267245 0 0 0 0.27 18 1274 59 31 154 249 193 273 228 157 
1327 -0.5254250832787569 0.1918712754825136 1.0745144972653793 0 0 0 0.4 18 1275 51 12 55 24 58 95 59 32 86 99 94 348 102 109 116 289 143 24 151 200 153 97 166 150 171 487 173 146 180 488 193 274 211 80 218 158 228 158 
1328 -0.1030574412147799 -0.0205026630254893 0.9950286985193219 0 0 0 1.29 18 1276 47 91 94 349 
1329 -0.1030574412147799 -0.0205026630254893 0.9950286985193219 0 0 0 1.29 18 1277 47 92 94 350 
1330 -0.10458548288837113 -0.023015573718412535 0.9854900351917653 0 0 0 0.45 18 1278 37 60 47 93 57 22 59 33 86 100 94 351 102 110 116 290 140 188 145 25 149 314 154 250 166 151 193 275 211 81 216 141 218 159 228 159 
1331 -0.08022392734254429 -0.017021903843840412 1.0240166027672812 0 0 0 0.3 18 1279 23 251 37 61 58 96 72 199 94 352 143 25 166 152 212 32 
1332 -0.06820772901834571 -0.06329084998536302 0.9194448094985701 0 0 0 0.7 18 1280 47 94 72 200 102 111 140 189 143 26 149 315 180 489 226 137 
1333 -0.435775998655427 0.15936666018485018 1.0680108200664888 0 0 0 0.16 18 1281 72 201 154 251 166 153 
1334 -0.10462837475814613 -0.016653077207287474 0.9819051280461899 0 0 0 0.35 18 1282 30 37 59 34 144 21 151 201 
1335 -0.07327116755823342 -0.05626631223058998 0.91615472537207 0 0 0 0.06 18 1283 149 316 180 490 
1336 -0.43881813417892424 0.16296550719465672 1.0684280366167285 0 0 0 0.15 18 1284 23 252 116 291 125 107 166 154 
1337 -0.42012957862356515 0.15609093664369567 1.0622801786068254 0 0 0 0.26 18 1285 23 253 55 25 102 112 119 7 125 108 154 252 171 488 180 491 186 35 211 82 212 33 
1338 -0.48013906345331553 0.22193085501095414 1.1588537868225768 0 0 0 0.16 18 1286 86 101 180 492 
1339 -0.471169322020165 0.22725423273483522 1.1774592773142165 0 0 0 0.4 18 1287 46 80 125 109 
1340 -0.535697454715942 0.2099623241571073 1.0679774744639075 0 0 0 0.25 18 1288 59 35 102 113 116 292 137 1 166 155 180 493 
1341 -0.420090325509042 0.15914851443682443 1.05841166023266 0 0 0 0.33 18 1289 34 61 37 62 46 81 57 23 102 114 125 110 144 22 153 98 193 276 211 83 218 160 226 138 
1342 -0.45460380171219866 0.17955239741929363 1.068820448507221 0 0 0 0.4 18 1290 51 13 94 353 145 26 151 202 154 253 161 83 228 160 
1343 -0.47099013114727634 0.2370062853265873 1.176866512248778 0 0 0 0.25 18 1291 125 111 171 489 
1344 -0.471917584943706 0.2371633755167638 1.1760593520259517 0 0 0 0.27 18 1292 171 490 180 494 
1345 -0.3929888593218528 0.15378886783775597 1.0464807804290441 0 0 0 0.27 18 1293 23 254 125 112 
1346 -0.47205627609706347 0.2391622709810124 1.170716277407705 0 0 0 0.29 18 1294 171 491 180 495 
1347 -0.3844494857550689 0.15222974237800863 1.0441222319083598 0 0 0 0.27 18 1295 94 354 166 156 
1348 -0.5331294230251222 0.21892885664965883 1.0616383602003205 0 0 0 0.44 18 1296 137 2 153 99 154 254 166 157 171 492 193 277 228 161 
1349 0.31122062512077536 -0.21313312766404197 0.8087874775590173 0 0 0 0.39 18 1297 90 21 116 293 125 113 139 27 173 147 189 8 205 71 
1350 0.31247915508744617 -0.2131295940081946 0.8088167423241284 0 0 0 0.33 18 1298 125 114 139 28 189 9 211 84 
1351 -0.42026078075406814 0.17362843550803944 1.0517550923407204 0 0 0 0.27 18 1299 94 355 143 27 166 158 173 148 
1352 -0.37223199677549684 0.14968393021790483 1.0359002955556025 0 0 0 0.17 18 1300 23 255 171 493 212 34 
1353 -0.4170706954219813 0.17230882555706312 1.0463939130750708 0 0 0 0.34 18 1301 23 256 180 496 193 278 
1354 -0.08926536452321264 -0.011801956405283318 0.9093615613871617 0 0 0 0.27 18 1302 23 257 144 23 149 317 171 494 
1355 -0.4201106715287662 0.17455100371605622 1.0479335871193756 0 0 0 0.35 18 1303 58 97 94 356 102 115 116 294 143 28 180 497 
1356 -0.08330022610543408 0.026497990584224522 1.002038111115263 0 0 0 0.34 18 1304 23 258 102 116 131 16 153 100 154 255 166 159 173 149 177 106 180 498 193 279 202 18 212 35 218 161 228 162 
1357 -0.32860989238879235 0.12987017811947704 1.0219416312356506 0 0 0 0.34 18 1305 23 259 102 117 180 499 
1358 -0.4569014521336816 0.1969271347933464 1.0609229308286774 0 0 0 0.18 18 1306 37 63 171 495 
1359 -0.06903177576269558 -0.019271577213500403 0.8989248540054838 0 0 0 0.8 18 1307 47 95 149 318 
1360 -0.4122442034455252 0.1728751505915732 1.0440807834610755 0 0 0 0.31 18 1308 23 260 178 15 228 163 
1361 -0.09517473475592282 -0.0033632008324714475 0.9083249310039245 0 0 0 0.57 18 1309 72 202 94 357 131 17 143 29 149 319 171 496 173 150 180 500 202 19 210 210 218 162 225 7 
1362 -0.5334123888894066 0.24248822787353697 1.087298485605583 0 0 0 0.17 18 1310 153 101 173 151 180 501 
1363 -0.4327462345509986 0.19396868983436494 1.05725074165068 0 0 0 0.28 18 1311 139 29 151 203 171 497 
1364 -0.4334356431060543 0.1941294642272442 1.056803820491448 0 0 0 0.26 18 1312 139 30 171 498 
1365 -0.4768418238217857 0.2582448750827011 1.163249821607642 0 0 0 0.35 18 1313 58 98 125 115 153 102 171 499 180 502 
1366 -0.458612588545307 0.20927330128005203 1.0633608682107984 0 0 0 0.29 18 1314 86 102 166 160 171 500 
1367 -0.3928567545952868 0.1738999157565952 1.0367201227121101 0 0 0 0.46 18 1315 171 501 173 152 183 36 228 164 
1368 -0.2744056356097196 0.11678531753739058 0.9950180789013032 0 0 0 0.37 18 1316 171 502 211 85 
1369 -0.34426014641027286 0.15196078251713752 1.014945142099915 0 0 0 0.28 18 1317 144 24 171 503 
1370 -0.31015952891044135 0.13688485626668012 1.0039844150114676 0 0 0 0.23 18 1318 171 504 180 503 
1371 -0.5354469790536059 0.23963955428957082 1.0509098802690728 0 0 0 0.14 18 1319 55 26 102 118 145 27 153 103 154 256 173 153 180 504 
1372 -0.5349526749447318 0.24222784581863643 1.0528970862499987 0 0 0 0.31 18 1320 102 119 173 154 
1373 -0.41978351076974435 0.19927262165053183 1.0417077480309707 0 0 0 0.29 18 1321 58 99 72 203 94 358 143 30 151 204 154 257 180 505 218 163 
1374 -0.5135161831643628 0.23222651752430906 1.0426815091745059 0 0 0 0.15 18 1322 58 100 94 359 116 295 
1375 -0.45673203900399817 0.21549163556526124 1.047538687386317 0 0 0 0.43 18 1323 125 116 171 505 
1376 -0.47391838476077525 0.27150213646695276 1.1583554466002026 0 0 0 0.36 18 1324 125 117 171 506 
1377 -0.47295401460656494 0.2714368010891363 1.1591063469336536 0 0 0 0.29 18 1325 57 24 58 101 125 118 171 507 211 86 212 36 
1378 -0.35153048973338685 0.16931024177728332 1.0150369745670933 0 0 0 0.22 18 1326 94 360 116 296 166 161 171 508 191 3 
1379 -0.42287281063676346 0.2015060949328297 1.02900727702325 0 0 0 0.19 18 1327 23 261 34 62 72 204 125 119 143 31 145 28 151 205 171 509 183 37 193 280 211 87 216 142 228 165 
1380 -0.11676310380591137 0.05802469599473276 0.9337481465511289 0 0 0 0.23 18 1328 143 32 171 510 
1381 0.37992473805761184 -0.13648954396638988 0.8603049421483541 0 0 0 0.58 18 1329 34 63 55 27 59 36 86 103 90 22 94 361 125 120 151 206 173 155 180 506 228 166 
1382 -0.4232915779627031 0.20684115877340603 1.0300322489514175 0 0 0 0.1 18 1330 23 262 55 28 116 297 171 511 218 164 
1383 -0.11512351695580005 0.06254721384320097 0.9325430185116483 0 0 0 0.25 18 1331 30 38 55 29 57 25 86 104 94 362 116 298 125 121 149 320 151 207 166 162 171 512 177 107 183 38 218 165 228 167 
1384 -0.2814507243008052 0.14207466028727442 0.9886165368122639 0 0 0 0.29 18 1332 94 363 171 513 191 4 
1385 -0.45405840120311985 0.2249934977138291 1.0469184356178278 0 0 0 0.26 18 1333 37 64 94 364 151 208 153 104 166 163 180 507 193 281 
1386 -0.4750427857244231 0.28290761585403124 1.157937433081287 0 0 0 0.32 18 1334 46 82 57 26 86 105 151 209 154 258 171 514 180 508 228 168 
1387 -0.27419674139586186 0.14276452301291398 0.9840386304403015 0 0 0 0.2 18 1335 23 263 218 166 
1388 -0.27419674139586186 0.14276452301291398 0.9840386304403015 0 0 0 0.2 18 1336 23 264 218 167 
1389 0.32613410593032816 -0.1316233010925213 0.7997199845114171 0 0 0 0.4 18 1337 99 233 180 509 
1390 -0.5110391267815342 0.24733981442243816 1.0432394452947913 0 0 0 0.38 18 1338 72 205 116 299 153 105 171 515 218 168 
1391 -0.4566193047536163 0.23309183825695873 1.0506224076573254 0 0 0 0.22 18 1339 153 106 171 516 173 156 180 510 226 139 
1392 -0.12209168251008025 0.06924913473046287 0.9207149238418818 0 0 0 0.13 18 1340 86 106 99 234 102 120 140 190 145 29 151 210 154 259 193 282 
1393 -0.13712724883149224 0.0678134709920899 0.9041861577143027 0 0 0 0.25 18 1341 34 64 47 96 55 30 86 107 99 235 116 300 149 321 151 211 
1394 -0.21269597552693678 0.11760764212928024 0.9596109076319945 0 0 0 0.26 18 1342 23 265 94 365 99 236 180 511 
1395 0.30069677085295815 -0.13678468948885253 0.755667802307674 0 0 0 0.27 18 1343 59 37 180 512 191 5 
1396 -0.28451081132077644 0.15241479300687133 0.985760273201155 0 0 0 0.27 18 1344 116 301 140 191 166 164 171 517 177 108 
1397 -0.5290143153594218 0.256793918296733 1.0435912179109224 0 0 0 0.54 18 1345 34 65 58 102 116 302 139 31 154 260 161 84 166 165 180 513 193 283 216 143 228 169 
1398 -0.5138859160598468 0.25066377521239974 1.040454252032241 0 0 0 0.46 18 1346 72 206 173 157 193 284 
1399 -0.35148073102132626 0.18342339272771138 0.999197795916769 0 0 0 0.13 18 1347 102 121 151 212 
1400 -0.38095799435062844 0.20063242603737633 1.0174915546220336 0 0 0 0.31 18 1348 57 27 58 103 72 207 116 303 125 122 143 33 154 261 166 166 173 158 216 144 
1401 -0.13742946196623892 0.07325389992749469 0.9015334460472398 0 0 0 0.31 18 1349 47 97 55 31 86 108 99 237 125 123 144 25 145 30 149 322 151 213 218 169 
1402 -0.13675327071190121 0.07311327115183543 0.9017059109836408 0 0 0 0.23 18 1350 34 66 86 109 144 26 173 159 218 170 
1403 -0.5300233099197103 0.2608432741190327 1.042000702209222 0 0 0 0.25 18 1351 51 14 58 104 102 122 125 124 139 32 151 214 153 107 154 262 173 160 180 514 193 285 216 145 218 171 228 170 
1404 -0.3488333267126718 0.18704169173906962 1.0016336875547724 0 0 0 0.29 18 1352 23 266 58 105 72 208 86 110 94 366 171 518 
1405 -0.523339496804091 0.2580078350553856 1.0389483944926716 0 0 0 0.14 18 1353 94 367 153 108 154 263 161 85 173 161 193 286 211 88 228 171 
1406 -0.38037195037878774 0.20157024475027563 1.0069552238747042 0 0 0 0.34 18 1354 171 519 225 8 
1407 -0.3487420736501419 0.18768881960678283 0.99425500908886 0 0 0 0.13 18 1355 116 304 140 192 150 35 153 109 161 86 171 520 
1408 -0.4571275748299218 0.24409861710684647 1.0454197355744403 0 0 0 0.43 18 1356 72 209 143 34 153 110 173 162 180 515 218 172 226 140 
1409 -0.20629878435262308 0.1275391494672879 0.9536571893191089 0 0 0 0.27 18 1357 99 238 116 305 153 111 177 109 183 39 205 72 210 211 
1410 -0.5323380205906671 0.26557369989108387 1.0406585754968374 0 0 0 0.34 18 1358 94 368 102 123 125 125 145 31 151 215 153 112 173 163 180 516 193 287 216 146 218 173 
1411 -0.42346108892238793 0.22379665703727689 1.019312960003455 0 0 0 0.31 18 1359 151 216 180 517 218 174 
1412 -0.4767699830475577 0.29874202113814197 1.1475424218082597 0 0 0 0.35 18 1360 34 67 58 106 151 217 154 264 166 167 186 36 193 288 211 89 218 175 228 172 
1413 -0.45822289397854693 0.24920612001937983 1.0425234936073278 0 0 0 0.13 18 1361 72 210 171 521 218 176 
1414 -0.13933850232533945 0.10376055772823577 0.924019656408873 0 0 0 0.25 18 1362 23 267 94 369 140 193 144 27 149 323 154 265 193 289 218 177 228 173 
1415 -0.30888724773235227 0.18348656489544854 0.9897434533945073 0 0 0 0.25 18 1363 58 107 72 211 150 36 153 113 166 168 171 522 173 164 211 90 
1416 -0.47381243970259956 0.3028071803531364 1.1440679497854673 0 0 0 0.38 18 1364 58 108 86 111 154 266 171 523 180 518 186 37 211 91 216 147 
1417 -0.38242721325804246 0.21678838658097524 1.0068536521132796 0 0 0 0.27 18 1365 72 212 86 112 94 370 116 306 143 35 151 218 166 169 173 165 180 519 193 290 226 141 
1418 -0.49278712620653586 0.2612841929619728 1.0366374792832722 0 0 0 0.58 18 1366 131 18 180 520 
1419 -0.5149798100760786 0.2665641909439992 1.0298754098784855 0 0 0 0.22 18 1367 46 83 72 213 116 307 151 219 
1420 -0.381548185207105 0.21705069667833826 1.0032825030572805 0 0 0 0.18 18 1368 23 268 171 524 173 166 180 521 
1421 -0.3097762577498795 0.189402832293348 0.9869947736742852 0 0 0 0.25 18 1369 23 269 59 38 72 214 140 194 150 37 153 114 166 170 171 525 173 167 191 6 226 142 
1422 -0.42023928741923605 0.23516787693453234 1.0169026956312501 0 0 0 0.19 18 1370 37 65 51 15 94 371 116 308 171 526 173 168 216 148 
1423 -0.14574120378104066 0.1158316503485201 0.9235550869600605 0 0 0 0.3 18 1371 125 126 166 171 
1424 -0.05189783854935669 0.056259653227105265 0.8510058241826063 0 0 0 0.47 18 1372 173 169 180 522 
1425 -0.42235991524335176 0.24220967056258716 1.0276774563966549 0 0 0 0.29 18 1373 23 270 173 170 
1426 -0.5017255478149661 0.2998615908439227 1.1043822937967116 0 0 0 0.48 18 1374 178 16 180 523 
1427 -0.14023980877528117 0.09910562177819887 0.8795779438941747 0 0 0 0.28 18 1375 23 271 47 98 99 239 137 3 139 33 149 324 151 220 171 527 173 171 180 524 
1428 -0.5261667374685138 0.27547290322471946 1.0323104783988364 0 0 0 0.16 18 1376 37 66 46 84 94 372 116 309 151 221 166 172 171 528 180 525 193 291 218 178 228 174 
1429 -0.5172004681714569 0.27130275519343827 1.0290881270972083 0 0 0 0.21 18 1377 34 68 46 85 58 109 72 215 86 113 94 373 102 124 116 310 125 127 139 34 151 222 153 115 154 267 166 173 171 529 173 172 180 526 193 292 216 149 218 179 
1430 -0.42046974731765047 0.23922087089141703 1.0149823090806345 0 0 0 0.18 18 1378 23 272 51 16 72 216 86 114 94 374 102 125 116 311 125 128 153 116 166 174 173 173 180 527 193 293 
1431 -0.5210584989089193 0.2743191564460693 1.0301548126330002 0 0 0 0.19 18 1379 34 69 37 67 46 86 57 28 58 110 86 115 94 375 102 126 116 312 125 129 151 223 153 117 154 268 166 175 171 530 173 174 180 528 186 38 193 294 211 92 218 180 228 175 
1432 -0.47067889744245667 0.26360965436114525 1.037192299297972 0 0 0 0.25 18 1380 72 217 125 130 173 175 
1433 -0.47013358601187666 0.26355565168352874 1.0375068134415593 0 0 0 0.18 18 1381 72 218 193 295 
1434 -0.47056852668889865 0.31007988338060644 1.1393035573919754 0 0 0 0.38 18 1382 125 131 211 93 
1435 -0.5327559079242705 0.2806766031473951 1.0351293825407546 0 0 0 0.24 18 1383 34 70 51 17 57 29 58 111 86 116 125 132 145 32 151 224 154 269 180 529 193 296 211 94 216 150 228 176 
1436 -0.07870100766485966 0.07565335820849937 0.8550055122298384 0 0 0 0.22 18 1384 23 273 72 219 94 376 102 127 145 33 154 270 173 176 193 297 
1437 -0.5145705497793248 0.2727875036563232 1.0275952547380849 0 0 0 0.42 18 1385 72 220 166 176 173 177 180 530 
1438 -0.5338666311989041 0.28358204058605657 1.038542691744155 0 0 0 0.29 18 1386 171 531 180 531 
1439 -0.14339513628345646 0.10486568727854484 0.8782164231751511 0 0 0 0.35 18 1387 30 39 47 99 99 240 116 313 151 225 211 95 
1440 -0.4459029522725142 0.25585491241095465 1.029056775527385 0 0 0 0.32 18 1388 102 128 125 133 153 118 166 177 180 532 193 298 
1441 -0.27325703930214995 0.18438874258597876 0.9710047208244875 0 0 0 0.22 18 1389 86 117 171 532 202 20 
1442 -0.51487029057158 0.27673562221183257 1.028225514539357 0 0 0 0.17 18 1390 58 112 94 377 180 533 
1443 -0.5170468689080827 0.2768269068322824 1.0269794528562708 0 0 0 0.51 18 1391 58 113 72 221 86 118 94 378 125 134 131 19 151 226 153 119 154 271 180 534 189 10 193 299 212 37 218 181 228 177 
1444 -0.4734491343552558 0.26843811027108017 1.0340198195536103 0 0 0 0.05 18 1392 102 129 143 36 151 227 
1445 -0.09440213628890187 0.09257391911891319 0.8608485152227773 0 0 0 0.15 18 1393 57 30 119 8 121 2 125 135 178 17 
1446 -0.0943301497429133 0.09227816257738619 0.861163895115957 0 0 0 0.33 18 1394 178 18 218 182 
1447 -0.07773687365189878 0.0845461787834594 0.8501210032715996 0 0 0 0.37 18 1395 47 100 72 222 140 195 149 325 151 228 161 87 173 178 180 535 205 73 216 151 
1448 -0.1279714834647597 0.12419274780879061 0.9042209125387336 0 0 0 0.39 18 1396 102 130 171 533 173 179 
1449 -0.2838972339311918 0.19323786825017203 0.9639317281456329 0 0 0 0.48 18 1397 171 534 225 9 
1450 -0.10202587752887522 0.09907095989303127 0.862191894723168 0 0 0 0.31 18 1398 99 241 102 131 
1451 -0.532810994188264 0.28998593101053716 1.0343211004513353 0 0 0 0.26 18 1399 57 31 125 136 151 229 154 272 166 178 171 535 173 180 180 536 193 300 216 152 218 183 
1452 -0.5284577813361778 0.287733022314765 1.031390975722051 0 0 0 0.15 18 1400 151 230 153 120 173 181 180 537 193 301 
1453 -0.4085100942405821 0.2464374124531921 1.0077803054520376 0 0 0 0.21 18 1401 72 223 102 132 153 121 173 182 178 19 180 538 212 38 
1454 -0.035384942341038346 0.07298579970858064 0.8361694412189458 0 0 0 0.89 18 1402 99 242 144 28 171 536 225 10 
1455 -0.018921440607937007 0.06463616205354415 0.827399643406129 0 0 0 0.28 18 1403 57 32 59 39 149 326 
1456 -0.46615044042638326 0.27124921354181764 1.0276824511261768 0 0 0 0.07 18 1404 86 119 228 178 
1457 -0.3771418576855469 0.23501405004639903 0.9958801706829191 0 0 0 0.25 18 1405 86 120 102 133 
1458 -0.5346613466890872 0.2926850338870231 1.0347705701284282 0 0 0 0.08 18 1406 153 122 228 179 
1459 -0.1993335928725798 0.16263229884631297 0.9339197894558346 0 0 0 0.35 18 1407 99 243 140 196 153 123 171 537 178 20 193 302 211 96 226 143 
1460 -0.5281066814977867 0.2895181953666073 1.029225982566086 0 0 0 0.23 18 1408 94 379 153 124 171 538 193 303 216 153 
1461 -0.5275760655883679 0.289546923852663 1.029542732089307 0 0 0 0.09 18 1409 171 539 218 184 228 180 
1462 -0.30869054459616546 0.2108164198371466 0.9779506281003814 0 0 0 0.18 18 1410 171 540 180 539 
1463 -0.20470813252860362 0.16527369540420156 0.936215178777588 0 0 0 0.32 18 1411 121 3 171 541 178 21 
1464 -0.04032698606926684 0.0789203841292692 0.8368379716077827 0 0 0 0.41 18 1412 99 244 173 183 
1465 -0.27317011423516624 0.19684820243458295 0.96523201478808 0 0 0 0.16 18 1413 72 224 171 542 180 540 
1466 -0.5233606112211892 0.2891595419273825 1.0271746108107471 0 0 0 0.3 18 1414 58 114 72 225 94 380 125 137 151 231 180 541 218 185 
1467 -0.4486068786076676 0.2682127783250083 1.0197109825143849 0 0 0 0.27 18 1415 72 226 125 138 137 4 153 125 166 179 171 543 173 184 180 542 191 7 228 181 
1468 -0.44871699990083497 0.2682145115605116 1.0195991031308687 0 0 0 0.26 18 1416 34 71 58 115 125 139 166 180 171 544 
1469 -0.3088016925207999 0.21111674135204292 0.9707893014327889 0 0 0 0.27 18 1417 102 134 125 140 193 304 211 97 
1470 -0.14395935155941303 0.12884195667298542 0.877399749953358 0 0 0 0.29 18 1418 47 101 94 381 102 135 116 314 125 141 140 197 149 327 151 232 154 273 171 545 173 185 193 305 228 182 
1471 -0.12385473494519905 0.13514179076577376 0.9011182174273081 0 0 0 0.12 18 1419 154 274 218 186 
1472 -0.12745868917734876 0.13551806366482264 0.9004215863947114 0 0 0 0.33 18 1420 99 245 154 275 171 546 
1473 -0.4780144171902858 0.33236334653737976 1.1401470824597904 0 0 0 0.31 18 1421 34 72 180 543 
1474 -0.23354764375442771 0.18322508880361799 0.93876650379595 0 0 0 0.21 18 1422 23 274 99 246 125 142 171 547 
1475 -0.47908275456744365 0.33272407577849983 1.1352288818749854 0 0 0 0.38 18 1423 34 73 57 33 125 143 154 276 171 548 211 98 216 154 
1476 -0.5190973915992103 0.29222277414805214 1.0225882774828703 0 0 0 0.21 18 1424 154 277 171 549 173 186 180 544 193 306 218 187 
1477 -0.4644733743389373 0.2798486438718718 1.0240221427003622 0 0 0 0.26 18 1425 58 116 86 121 151 233 154 278 166 181 171 550 173 187 180 545 193 307 211 99 218 188 228 183 
1478 -0.30373009626712194 0.21536591787000167 0.9672034076833124 0 0 0 0.27 18 1426 72 227 99 247 102 136 140 198 166 182 180 546 193 308 218 189 
1479 -0.2758302204533052 0.2054369173377285 0.960390598882741 0 0 0 0.19 18 1427 58 117 72 228 140 199 171 551 180 547 226 144 
1480 -0.1404111281838145 0.13215891081301023 0.8703843056002134 0 0 0 0.13 18 1428 125 144 140 200 
1481 -0.13007670799721063 0.14082176303363725 0.8943584647865382 0 0 0 0.33 18 1429 23 275 72 229 86 122 145 34 171 552 177 110 218 190 
1482 -0.47688756949332567 0.3334733179204408 1.1305254197183312 0 0 0 0.35 18 1430 58 118 151 234 171 553 180 548 211 100 228 184 
1483 -0.14416516498760115 0.13327956009702727 0.8654210376439535 0 0 0 0.17 18 1431 46 87 99 248 102 137 116 315 125 145 149 328 151 235 171 554 193 309 210 212 211 101 
1484 -0.4612955087720777 0.2804577020033295 1.0204518212125666 0 0 0 0.43 18 1432 86 123 153 126 154 279 226 145 
1485 -0.45001709039408133 0.2763848969394968 1.0145827878301814 0 0 0 0.24 18 1433 143 37 166 183 180 549 
1486 -0.4409331506259454 0.2743136502561427 1.0144239246638336 0 0 0 0.16 18 1434 116 316 154 280 
1487 -0.43087775280695373 0.2698035709899409 1.0091553087092182 0 0 0 0.16 18 1435 72 230 151 236 154 281 
1488 -0.43199995634578797 0.26981706411130724 1.0086688389380958 0 0 0 0.09 18 1436 58 119 72 231 
1489 -0.20245724118803268 0.1798951700655702 0.9291254231317166 0 0 0 0.11 18 1437 143 38 171 555 
1490 -0.1286485558393523 0.1453487481373089 0.8909460877127935 0 0 0 0.19 18 1438 23 276 99 249 116 317 145 35 151 237 166 184 171 556 183 40 205 74 210 213 
1491 -0.42177868002554747 0.26553894510609494 0.9994985839251338 0 0 0 0.18 18 1439 23 277 45 14 58 120 72 232 94 382 116 318 145 36 151 238 153 127 154 282 171 557 183 41 193 310 216 155 218 191 228 185 
1492 -0.44222397842748007 0.27720214285794265 1.0126857494786083 0 0 0 0.26 18 1440 23 278 58 121 116 319 125 146 166 185 171 558 180 550 193 311 218 192 228 186 
1493 -0.17660286535877093 0.1700578789997316 0.9131677005570952 0 0 0 0.27 18 1441 102 138 171 559 173 188 180 551 
1494 -0.4572085726773574 0.28393529025896486 1.017998184554304 0 0 0 0.19 18 1442 23 279 72 233 86 124 102 139 116 320 125 147 151 239 153 128 154 283 173 189 180 552 193 312 216 156 218 193 226 146 228 187 
1495 -0.4564705765222738 0.2839201482767231 1.0183099591091758 0 0 0 0.17 18 1443 37 68 46 88 58 122 72 234 86 125 94 383 116 321 125 148 139 35 143 39 151 240 154 284 171 560 180 553 226 147 228 188 
1496 -0.5023383251755924 0.3290116054333702 1.0880765605737306 0 0 0 0.52 18 1444 166 186 171 561 180 554 
1497 -0.4707152142999162 0.29119503665943675 1.0197550446681822 0 0 0 0.3 18 1445 46 89 94 384 102 140 125 149 144 29 151 241 154 285 166 187 171 562 180 555 216 157 
1498 -0.46917303083692546 0.2912273409597303 1.020555314304842 0 0 0 0.22 18 1446 34 74 58 123 86 126 94 385 102 141 125 150 143 40 144 30 151 242 166 188 171 563 180 556 
1499 -0.439016113852355 0.279953019568239 1.0098586521527713 0 0 0 0.26 18 1447 23 280 37 69 46 90 51 18 57 34 72 235 94 386 116 322 125 151 145 37 151 243 153 129 154 286 166 189 171 564 180 557 193 313 216 158 228 189 
1500 -0.1398613208008184 0.13949244603850688 0.8498457943371347 0 0 0 0.24 18 1448 86 127 171 565 180 558 
1501 -0.3898899294988302 0.261510514636621 0.9910843337054484 0 0 0 0.06 18 1449 23 281 72 236 
1502 -0.23897373359053922 0.20472013686248433 0.9372686753960904 0 0 0 0.33 18 1450 99 250 171 566 177 111 180 559 
1503 -0.0780216483834986 0.11689279580137582 0.825080398938033 0 0 0 0.15 18 1451 121 4 171 567 210 214 
1504 -0.1397861894765634 0.14322803980433102 0.852120470524304 0 0 0 0.29 18 1452 23 282 94 387 99 251 102 142 149 329 154 287 171 568 173 190 180 560 193 314 218 194 
1505 -0.4865113951687429 0.34021799289591204 1.1105005832430244 0 0 0 0.43 18 1453 171 569 180 561 
1506 -0.39910868329071975 0.2666574618647188 0.9927478728178754 0 0 0 0.1 18 1454 180 562 218 195 
1507 -0.413389262344107 0.2723934497147471 0.9936117690420084 0 0 0 0.13 18 1455 178 22 180 563 
1508 -0.534497493693899 0.31376554320601674 1.0273416339974877 0 0 0 0.28 18 1456 58 124 166 190 171 570 228 190 
1509 -0.40382081780101176 0.26730468995029943 0.9867896686576778 0 0 0 0.13 18 1457 173 191 180 564 
1510 -0.08295257737285727 0.1279454666218845 0.8343467698909907 0 0 0 0.38 18 1458 94 388 151 244 171 571 177 112 
1511 0.09680144047213861 0.07086370532925938 0.7938444639497022 0 0 0 0.16 18 1459 102 143 210 215 
1512 -0.4753735471070841 0.3005892555545597 1.0218537637347165 0 0 0 0.19 18 1460 37 70 46 91 58 125 72 237 116 323 125 152 171 572 173 192 186 39 
1513 -0.2919549524257277 0.2283610947974209 0.9495460931166816 0 0 0 0.3 18 1461 59 40 171 573 202 21 
1514 -0.08441342182320019 0.126026155902301 0.8244386964240429 0 0 0 0.23 18 1462 72 238 102 144 
1515 -0.08312783361829948 0.12581316697369915 0.8244883838267665 0 0 0 0.25 18 1463 72 239 99 252 102 145 
1516 -0.3871447453621218 0.2664302912535702 0.9858136277996927 0 0 0 0.32 18 1464 23 283 55 32 94 389 125 153 139 36 151 245 153 130 154 288 173 193 180 565 183 42 193 315 218 196 
1517 -0.49881147071323567 0.3397822201282455 1.0934899802652924 0 0 0 0.36 18 1465 125 154 171 574 180 566 
1518 -0.49963434288922653 0.33965047890983135 1.0928323032546532 0 0 0 0.33 18 1466 125 155 171 575 
1519 0.11480063899775034 0.06739331504747578 0.7850051236075538 0 0 0 0.32 18 1467 99 253 121 5 210 216 
1520 -0.03406016167525489 0.11216979015826951 0.8118552602974612 0 0 0 0.19 18 1468 23 284 37 71 46 92 59 41 72 240 94 390 102 146 116 324 119 9 122 57 125 156 139 37 140 201 150 38 151 246 171 576 173 194 177 113 180 567 189 11 191 8 193 316 210 217 211 102 212 39 216 159 218 197 226 148 233 47 
1521 0.196899460526875 0.03717601657672883 0.7488714982282783 0 0 0 0.28 18 1469 23 285 59 42 116 325 122 58 140 202 149 330 151 247 173 195 180 568 193 317 216 160 218 198 233 48 
1522 -0.46392116322945814 0.2974075406151722 1.0130941433501188 0 0 0 0.19 18 1470 34 75 51 19 57 35 58 126 94 391 116 326 119 10 139 38 143 41 144 31 151 248 153 131 166 191 180 569 193 318 211 103 216 161 218 199 226 149 228 191 
1523 -0.4362536080731506 0.2879262660392461 1.0028255475840182 0 0 0 0.17 18 1471 23 286 51 20 72 241 94 392 171 577 173 196 180 570 193 319 228 192 
1524 -0.43657684865622676 0.28794055929282497 1.0027455490087558 0 0 0 0.21 18 1472 23 287 55 33 58 127 72 242 94 393 125 157 144 32 154 289 166 192 171 578 173 197 193 320 226 150 228 193 
1525 -0.4689012177704669 0.3014499048935729 1.016424333720859 0 0 0 0.22 18 1473 37 72 46 93 116 327 151 249 153 132 186 40 193 321 216 162 228 194 
1526 -0.20068474631336572 0.19600377161273774 0.9083962848171689 0 0 0 0.17 18 1474 23 288 30 40 57 36 72 243 99 254 102 147 121 6 153 133 171 579 180 571 211 104 
1527 -0.48375868426595603 0.35399792762950577 1.1222384214945165 0 0 0 0.53 18 1475 151 250 154 290 166 193 180 572 
1528 -0.08310638652196917 0.13480868145443886 0.8285897710686536 0 0 0 0.34 18 1476 34 76 47 102 94 394 102 148 125 158 140 203 171 580 173 198 177 114 180 573 210 218 218 200 
1529 -0.43035313832409494 0.28675757860576107 0.9993607445705449 0 0 0 0.16 18 1477 23 289 72 244 143 42 153 134 154 291 171 581 173 199 180 574 193 322 218 201 
1530 -0.430234822137035 0.2868086210999265 0.9994131538752279 0 0 0 0.22 18 1478 23 290 58 128 72 245 86 128 94 395 102 149 116 328 139 39 151 251 153 135 154 292 161 88 171 582 180 575 193 323 216 163 218 202 228 195 
1531 -0.47371658932159333 0.3061890294840865 1.0203384232533583 0 0 0 0.05 18 1479 116 329 143 43 151 252 171 583 
1532 0.20435044745522224 0.0373366307374092 0.7395648065053804 0 0 0 0.24 18 1480 99 255 149 331 218 203 
1533 -0.44047644539561776 0.2937582454439268 1.005649853620868 0 0 0 0.28 18 1481 23 291 58 129 86 129 94 396 116 330 125 159 154 293 166 194 173 200 211 105 216 164 
1534 -0.4311189973308049 0.28982351069147594 1.0002959609829918 0 0 0 0.24 18 1482 23 292 34 77 37 73 72 246 94 397 102 150 116 331 143 44 153 136 161 89 180 576 216 165 218 204 226 151 228 196 
1535 -0.4644840955056504 0.3044227324518621 1.0164830761854418 0 0 0 0.34 18 1483 37 74 46 94 72 247 116 332 143 45 180 577 218 205 228 197 
1536 0.24562227098166942 0.02899344952221895 0.7261064423853086 0 0 0 0.24 18 1484 99 256 149 332 
1537 0.2733583983372505 0.008751134649547547 0.6951362440599211 0 0 0 0.25 18 1485 23 293 34 78 37 75 45 15 46 95 55 34 59 43 86 130 94 398 99 257 102 151 122 59 125 160 137 5 140 204 144 33 149 333 150 39 151 253 166 195 173 201 177 115 180 578 191 9 193 324 210 219 211 106 212 40 216 166 218 206 228 198 233 49 
1538 -0.13593182049506009 0.1701874395358801 0.8656370172269555 0 0 0 0.09 18 1486 99 258 171 584 
1539 -0.4302446012246896 0.29072141792486106 0.9964053000691216 0 0 0 0.19 18 1487 23 294 58 130 94 399 102 152 116 333 151 254 153 137 154 294 180 579 193 325 216 167 218 207 228 199 
1540 -0.32976723159125587 0.25240571139683154 0.9560670680745986 0 0 0 0.18 18 1488 72 248 173 202 
1541 -0.3292256757602931 0.2524642518637556 0.9561650782610546 0 0 0 0.34 18 1489 166 196 218 208 
1542 -0.5338633381591316 0.32372426697533296 1.023319787495238 0 0 0 0.22 18 1490 102 153 166 197 
1543 -0.5343485230404086 0.3236017628177189 1.0231346929371103 0 0 0 0.25 18 1491 102 154 166 198 171 585 180 580 
1544 -0.08472568098218446 0.14339688173140552 0.8237342693386861 0 0 0 0.18 18 1492 102 155 173 203 193 326 
1545 -0.08456699098548692 0.14365291337996244 0.8238101855202732 0 0 0 0.28 18 1493 72 249 102 156 171 586 173 204 210 220 
1546 -0.1643171849208963 0.19270159162011655 0.894374129120014 0 0 0 0.13 18 1494 99 259 171 587 
1547 -0.14240449128648155 0.16633799511451255 0.848406911292496 0 0 0 0.22 18 1495 30 41 34 79 46 96 55 35 57 37 72 250 86 131 94 400 99 260 102 157 116 334 119 11 125 161 131 20 139 40 140 205 143 46 144 34 149 334 151 255 154 295 166 199 171 588 173 205 177 116 183 43 186 41 193 327 205 75 210 221 211 107 212 41 216 168 218 209 226 152 228 200 233 50 
1548 -0.12229467742587997 0.15802072826351835 0.8386046258071488 0 0 0 0.32 18 1496 99 261 171 589 210 222 
1549 -0.0277893946345674 0.12174129029615055 0.7968158031865882 0 0 0 0.27 18 1497 72 251 102 158 140 206 150 40 151 256 154 296 173 206 178 23 193 328 202 22 228 201 
1550 -0.3986615900699007 0.2830578849654657 0.9862022313267493 0 0 0 0.34 18 1498 58 131 72 252 119 12 125 162 143 47 151 257 153 138 154 297 166 200 171 590 211 108 226 153 228 202 
1551 -0.40528482807532284 0.28579563793386503 0.9861123175744442 0 0 0 0.26 18 1499 23 295 34 80 51 21 55 36 58 132 72 253 86 132 94 401 102 159 116 335 125 163 139 41 143 48 144 35 151 258 153 139 154 298 166 201 171 591 173 207 180 581 183 44 193 329 211 109 212 42 216 169 218 210 226 154 228 203 
1552 -0.3681675743975587 0.27048810746875274 0.9679006309543495 0 0 0 0.33 18 1500 23 296 72 254 153 140 173 208 180 582 218 211 
1553 -0.36847451286248073 0.27045960702517713 0.9678236704579773 0 0 0 0.39 18 1501 23 297 180 583 218 212 
1554 -0.28405187843517427 0.2409863855209298 0.938318327714553 0 0 0 0.23 18 1502 116 336 233 51 
1555 -0.4327453536113454 0.29774341882126254 0.9996569866520982 0 0 0 0.23 18 1503 125 164 143 49 154 299 166 202 180 584 
1556 -0.4329566819755642 0.29769474101101523 0.9997649336302794 0 0 0 0.17 18 1504 116 337 151 259 
1557 0.18375973679308163 0.06347697348794666 0.748494191581817 0 0 0 0.3 18 1505 99 262 210 223 
1558 -0.130405548287233 0.18636841344298039 0.8835132884999112 0 0 0 0.34 18 1506 23 298 37 76 99 263 102 160 116 338 119 13 140 207 149 335 171 592 193 330 
1559 0.25121753959264825 0.03794418830309619 0.7209820277620159 0 0 0 0.16 18 1507 121 7 131 21 143 50 178 24 189 12 210 224 216 170 218 213 
1560 0.28071962444471876 0.01958724708754633 0.6920757705318519 0 0 0 0.53 18 1508 45 16 55 37 149 336 151 260 193 331 210 225 233 52 
1561 -0.08816530352465386 0.15415485779224214 0.8297355284231368 0 0 0 0.31 18 1509 72 255 102 161 171 593 
1562 -0.40025428880816905 0.28454315266633345 0.9811908539586373 0 0 0 0.3 18 1510 116 339 125 165 131 22 143 51 153 141 166 203 183 45 193 332 218 214 228 204 
1563 -0.32840370816446135 0.25929477448151456 0.9545995473955784 0 0 0 0.24 18 1511 37 77 58 133 86 133 125 166 151 261 154 300 166 204 171 594 193 333 218 215 228 205 
1564 0.2822493716586753 0.01527782774157312 0.6800673822588379 0 0 0 0.32 18 1512 23 299 102 162 122 60 
1565 -0.2658437415913445 0.2355917311334366 0.925936086857424 0 0 0 0.22 18 1513 23 300 72 256 153 142 171 595 173 209 225 11 
1566 0.27989373934072964 0.02595315961450154 0.6930365638796575 0 0 0 0.51 18 1514 34 81 37 78 46 97 47 103 59 44 122 61 149 337 150 41 151 262 171 596 180 585 193 334 211 110 228 206 
1567 0.2771540986565965 0.021927983539549323 0.6832630384174289 0 0 0 0.23 18 1515 99 264 102 163 149 338 210 226 
1568 -0.08634174334381611 0.1575747587514575 0.8283297952108603 0 0 0 0.16 18 1516 72 257 171 597 210 227 
1569 -0.5330662677340234 0.33448167927862144 1.0263632690434037 0 0 0 0.24 18 1517 171 598 180 586 
1570 -0.2820562558460677 0.24688651400477574 0.9343263632615291 0 0 0 0.27 18 1518 140 208 173 210 228 207 
1571 -0.24248714174767177 0.23279468984572202 0.9197235147963151 0 0 0 0.26 18 1519 102 164 140 209 226 155 
1572 -0.19899299583492558 0.2130971870068281 0.8951738548370949 0 0 0 0.23 18 1520 34 82 37 79 86 134 94 402 99 265 116 340 125 167 140 210 143 52 145 38 151 263 161 90 166 205 171 599 180 587 210 228 211 111 216 171 226 156 228 208 
1573 -0.3211487173707729 0.26045152654174575 0.9482358034892003 0 0 0 0.23 18 1521 37 80 151 264 180 588 218 216 
1574 -0.32082406933503244 0.26041677614843134 0.9483895331875254 0 0 0 0.2 18 1522 37 81 86 135 151 265 180 589 183 46 
1575 -0.2770704429086901 0.24303424901302653 0.9274386492082949 0 0 0 0.24 18 1523 23 301 30 42 55 38 58 134 72 258 94 403 99 266 102 165 116 341 119 14 140 211 153 143 161 91 166 206 171 600 173 211 178 25 180 590 193 335 216 172 218 217 226 157 228 209 
1576 0.249682830223416 0.04972118128423352 0.7143648972777777 0 0 0 0.22 18 1524 99 267 210 229 
1577 -0.3638476729870639 0.27735003488092164 0.9655712011997468 0 0 0 0.19 18 1525 23 302 59 45 143 53 153 144 173 212 178 26 180 591 218 218 
1578 -0.23485374753764332 0.231271170614226 0.9152286843328716 0 0 0 0.28 18 1526 72 259 149 339 151 266 153 145 166 207 193 336 202 23 210 230 211 112 216 173 226 158 228 210 
1579 -0.2306588566135027 0.2298133670537854 0.9103175114006078 0 0 0 0.05 18 1527 99 268 171 601 
1580 -0.47022564123186067 0.321154609096051 1.0146237564953995 0 0 0 0.37 18 1528 153 146 171 602 
1581 -0.4521285423027411 0.3124821331344593 1.0012017927112742 0 0 0 0.16 18 1529 23 303 131 23 173 213 180 592 218 219 
1582 -0.2996158535897094 0.25668782591347994 0.9387416224559627 0 0 0 0.25 18 1530 23 304 72 260 86 136 94 404 102 166 116 342 119 15 125 168 137 6 140 212 143 54 151 267 153 147 154 301 161 92 166 208 171 603 173 214 177 117 180 593 183 47 193 337 216 174 218 220 226 159 
1583 -0.2153278266467134 0.22771126349269682 0.9074312908959383 0 0 0 0.11 18 1531 72 261 180 594 
1584 0.09779829643041565 0.11154840131439527 0.7786751525270038 0 0 0 0.23 18 1532 102 167 171 604 210 231 
1585 -0.24977317434254256 0.23972792616840688 0.9197946776253195 0 0 0 0.16 18 1533 23 305 171 605 
1586 -0.01995452898748423 0.13547959470475646 0.78493191966811 0 0 0 0.2 18 1534 34 83 46 98 72 262 94 405 102 168 116 343 140 213 144 36 149 340 154 302 177 118 216 175 218 221 226 160 
1587 -0.3598293531003555 0.2799618254015974 0.9638856008297563 0 0 0 0.24 18 1535 23 306 140 214 151 268 154 303 166 209 171 606 173 215 180 595 218 222 226 161 
1588 -0.28389861174916686 0.25258037924208265 0.9306877605041729 0 0 0 0.12 18 1536 23 307 72 263 102 169 166 210 171 607 
1589 -0.28365054824226443 0.25264084660661335 0.9306928119605867 0 0 0 0.18 18 1537 23 308 72 264 102 170 140 215 166 211 171 608 180 596 
1590 -0.20286151180108938 0.22178260661327223 0.8943473759665533 0 0 0 0.13 18 1538 72 265 102 171 171 609 
1591 -0.08430041555517277 0.16504655047430905 0.8170471443366458 0 0 0 0.37 18 1539 37 82 57 38 94 406 102 172 116 344 122 62 140 216 144 37 151 269 166 212 180 597 193 338 211 113 
1592 -0.08438278852429959 0.1646572926168044 0.8172193373409551 0 0 0 0.13 18 1540 57 39 116 345 
1593 -0.23441872902129227 0.23733388117909265 0.9103662413424418 0 0 0 0.36 18 1541 55 39 125 169 180 598 216 176 
1594 -0.04164403827910341 0.15232839640489831 0.8014106868998172 0 0 0 0.41 18 1542 102 173 171 610 
1595 -0.41516544947880135 0.300243310572646 0.9785990113694821 0 0 0 0.23 18 1543 23 309 153 148 173 216 180 599 
1596 -0.22148501285696628 0.23389642999304602 0.9069710682218695 0 0 0 0.35 18 1544 59 46 171 611 225 12 
1597 -0.0340200621897606 0.14679854625353633 0.7915573339313033 0 0 0 0.32 18 1545 72 266 102 174 
1598 -0.029694264768227296 0.14586077533412836 0.7917367188161537 0 0 0 0.45 18 1546 30 43 37 83 94 407 99 269 102 175 149 341 150 42 171 612 210 232 225 13 233 53 
1599 -0.02196064278405604 0.14157858176004265 0.7847326791207283 0 0 0 0.4 18 1547 99 270 102 176 122 63 150 43 
1600 -0.4779188663760059 0.3269749855505167 1.0115718404492386 0 0 0 0.53 18 1548 102 177 153 149 173 217 
1601 -0.3176667469721689 0.26768731661120604 0.9430951985783482 0 0 0 0.23 18 1549 23 310 30 44 58 135 72 267 86 137 99 271 102 178 143 55 153 150 166 213 171 613 173 218 180 600 193 339 
1602 -0.2956309459535088 0.25922199474129687 0.9323582033451835 0 0 0 0.34 18 1550 86 138 102 179 153 151 
1603 -0.3037697634213237 0.2655421812267966 0.9399301949749239 0 0 0 0.28 18 1551 59 47 72 268 144 38 154 304 180 601 
1604 0.26451455588381534 0.06180963813695032 0.7021829142565555 0 0 0 0.33 18 1552 94 408 102 180 166 214 171 614 210 233 
1605 -0.16207456987653962 0.21647574513113318 0.8795680616751813 0 0 0 0.13 18 1553 23 311 72 269 94 409 125 170 140 217 145 39 171 615 177 119 189 13 210 234 216 177 
1606 -0.16272437443507967 0.21659340026715734 0.8793821755172531 0 0 0 0.15 18 1554 72 270 210 235 218 223 
1607 -0.3899002621808804 0.29999211888925265 0.9758446548353449 0 0 0 0.19 18 1555 171 616 180 602 
1608 -0.3514452810770117 0.28154294104002653 0.9512800686101524 0 0 0 0.31 18 1556 72 271 171 617 
