# 3D point list with one line of data per point:
#   POINT3D_ID, X, Y, Z, R, G, B, ERROR, TRACK[] as (IMAGE_ID, POINT2D_IDX)
# Number of points: 388, mean track length: 8.07
662 -0.0663656685336069 0.0766955411655315 1.0196792711109284 0 0 0 0.75 1 318 25 91 26 126 56 374 71 87 81 125 89 95 97 49 100 23 118 119 129 90 147 163 181 87 190 172 198 102 217 240 220 114 221 117 224 46 232 227 
663 -0.15705735237386015 -0.4450098384461365 0.19083923865587926 0 0 0 0.46 1 319 56 375 208 35 
664 0.06089430720500399 0.10975087646526929 1.0257523701100073 0 0 0 1.28 1 320 56 376 63 33 81 126 89 96 97 50 128 114 147 164 190 173 222 109 232 228 
665 0.028999717155545838 0.029620568202919553 1.0543750730446317 0 0 0 0.3 1 321 56 377 97 51 118 120 147 165 152 282 217 241 232 229 
666 -0.09956999689158766 0.06129234096788883 1.0197681297657997 0 0 0 0.76 1 322 25 92 26 127 56 378 71 88 118 121 138 34 181 88 198 103 217 242 
667 0.4627606071112495 0.23440083122799762 1.1169357307266583 0 0 0 0.65 12 28 56 379 97 52 103 36 165 1 217 243 221 118 222 110 235 2 
668 0.27536986276841685 0.30401374484159643 0.9895066876611469 0 0 0 0.37 56 380 63 34 89 97 96 71 105 11 120 8 134 8 147 166 158 98 162 50 220 115 235 3 
669 0.3415848130142684 0.07492063801636344 1.1898488628618036 0 0 0 0.33 12 29 56 381 62 6 65 91 67 67 71 89 73 49 89 98 97 53 103 37 147 167 190 174 221 119 232 230 181 89 
670 0.18378552993811606 0.08567460164560892 1.062666571997617 0 0 0 0.09 12 30 56 382 103 38 
671 -0.13518152176307818 -0.04883282604770047 0.1197341443130126 0 0 0 0.49 12 31 56 383 65 92 
672 -0.1532202841689441 -0.01834705424730907 0.15899470607960792 0 0 0 0.43 12 32 56 384 65 93 
673 0.3686335307445562 0.28171405787149784 1.0241098710895278 0 0 0 0.32 12 33 56 385 71 90 73 50 181 90 190 175 198 104 217 244 222 111 
674 0.38087655116841324 0.2861018044032555 1.023643740691729 0 0 0 0.3 12 34 56 386 100 24 105 12 120 9 129 91 164 124 197 45 198 105 222 112 235 4 
675 0.2741547820997686 0.28787532957305617 0.9971632641103212 0 0 0 0.27 12 35 56 387 89 99 147 168 172 93 190 176 232 231 
676 0.2661353054444064 0.29402361487264345 0.9945304530775994 0 0 0 0.2 12 36 56 388 97 54 182 71 
677 0.35214807472835424 0.30186229949861776 1.006905490057158 0 0 0 0.34 12 37 56 389 71 91 73 51 120 10 197 46 222 113 
678 0.39886675012029355 0.31818118396075634 1.0268533020178048 0 0 0 0.32 12 38 56 390 105 13 118 122 120 11 147 169 
679 0.3942094896217579 0.31865323642614407 1.0276347533770562 0 0 0 0.37 56 391 97 55 120 12 162 51 163 11 165 2 
680 0.21198922904168999 0.30900654361596525 0.9715569034575483 0 0 0 0.42 12 39 25 93 56 392 69 57 71 92 103 39 111 63 120 13 158 99 162 52 164 125 182 72 217 245 222 114 232 232 
681 0.28112587800541605 0.3117568987758747 0.9843972455721337 0 0 0 0.22 12 40 56 393 73 52 147 170 222 115 
682 -0.19305288920954697 -0.15184350802317637 0.2670606697422352 0 0 0 0.48 12 41 56 394 65 94 81 127 
683 -0.19217838023229192 -0.13735110164790526 0.27622622501811894 0 0 0 0.33 12 42 56 395 81 128 
684 -0.007207614158064258 0.0358344036612866 1.0465506113804004 0 0 0 0.36 12 43 25 94 56 396 67 68 88 41 89 100 118 123 152 283 190 177 199 65 232 233 76 40 
685 0.3786270526464721 0.1985605510261623 1.0597118720357397 0 0 0 0.36 12 44 56 397 65 95 67 69 89 101 103 40 111 64 118 124 120 14 128 115 147 171 164 126 181 91 190 178 197 47 199 66 221 120 222 116 232 234 235 5 
686 -0.16024854633226104 -0.007769246440176789 0.18135103839925878 0 0 0 0.53 12 45 56 398 65 96 
687 0.3130198048621395 0.2552686945422516 1.0175702218331864 0 0 0 0.44 12 46 56 399 73 53 105 14 147 172 160 407 164 127 182 73 
688 0.2599249420093568 0.3084921928985562 0.9853890549802001 0 0 0 0.37 12 47 56 400 71 93 81 129 118 125 120 15 134 9 147 173 158 100 164 128 182 74 190 179 222 117 232 235 96 72 111 65 220 116 
689 0.24724066489203936 0.31094831172062165 0.9766642642075138 0 0 0 0.36 12 48 56 401 65 97 71 94 120 16 129 92 147 174 158 101 164 129 190 180 199 67 222 118 
690 0.38250103976556765 0.3208237031175607 1.012803155357367 0 0 0 0.13 12 49 56 402 69 58 129 93 
691 -0.1400831321568924 -0.03641020369841206 0.11046557734014309 0 0 0 0.17 12 50 56 403 65 98 
692 0.4672530679292009 0.23010663422157793 1.124876262753983 0 0 0 0.26 56 404 120 17 147 175 182 75 62 7 67 70 232 236 
693 0.38932576105596034 0.2521238990647554 1.0488200721277021 0 0 0 0.39 12 51 56 405 63 35 69 59 71 95 103 41 120 18 158 102 164 130 190 181 221 121 232 237 235 6 
694 0.3558609426476706 0.25239223164602986 1.0269024135852192 0 0 0 0.25 12 52 56 406 81 130 120 19 129 94 164 131 217 246 
695 0.2021712883893217 0.28698292210650495 0.9840099858776008 0 0 0 0.22 12 53 56 407 69 60 89 102 129 95 158 103 232 238 
696 0.30304603125394247 0.31501980156326476 0.9972656040105689 0 0 0 0.22 12 54 56 408 198 106 
697 0.3577835623519318 0.3154712769323674 1.0013813676187728 0 0 0 0.3 56 409 69 61 100 25 118 126 120 20 163 12 190 182 197 48 222 119 234 20 
698 0.3694581402270316 0.31709667675618675 1.007542002231385 0 0 0 0.45 12 55 56 410 73 54 103 42 111 66 129 96 163 13 164 132 165 3 190 183 197 49 220 117 221 122 235 7 
699 -0.10266061879289766 -0.2142842752288319 0.0858135790778799 0 0 0 0.34 12 56 56 411 65 99 
700 -0.11478929784842994 -0.12477014565911046 0.0927150708515096 0 0 0 0.19 12 57 56 412 65 100 
701 -0.12879043357933584 0.09213476886772562 1.0081886923392291 0 0 0 0.36 12 58 56 413 220 118 
702 0.2657412671371659 0.301743904556239 0.9927549860435061 0 0 0 0.75 12 59 56 414 63 36 65 101 71 96 97 56 220 119 232 239 
703 0.23760859294447614 0.30561022006328126 0.9790733109792517 0 0 0 0.31 12 60 56 415 89 103 118 127 158 104 182 76 
704 -0.11780422873754384 -0.12307534772730835 0.08231016458694246 0 0 0 0.4 12 61 56 416 65 102 
705 -0.05221086019929229 0.05405175914075778 1.1034445647603657 0 0 0 0.41 12 62 25 95 56 417 65 103 71 97 81 131 232 240 
706 0.3579213607951717 0.09588591376478375 1.1006185588996538 0 0 0 0.49 12 63 56 418 81 132 147 176 190 184 
707 0.41501247956400883 0.33244258064677845 1.0666034787967795 0 0 0 0.19 12 64 56 419 129 97 
708 0.3622782583673533 0.2874643508834373 1.0205307433597468 0 0 0 0.4 12 65 56 420 118 128 164 133 190 185 235 8 
709 0.3936661151460919 0.2990576483361719 1.032999478784466 0 0 0 0.62 56 421 65 104 71 98 100 26 105 15 111 67 118 129 120 21 129 98 147 177 164 134 165 4 198 107 221 123 235 9 
710 0.15657853254762077 0.0719268009641204 1.0640841658234257 0 0 0 0.71 12 66 25 96 56 422 96 73 138 35 179 60 
711 0.17045009044798284 0.062405979094398815 1.1240316023527213 0 0 0 0.81 25 97 56 423 81 133 217 247 
712 -0.15686244094588378 0.24043254226317293 0.9412810993785458 0 0 0 0.33 25 98 56 424 162 53 179 61 217 248 220 120 
713 -0.08111489753624021 0.08192330934443348 1.0141989840416041 0 0 0 0.42 25 99 26 128 56 425 67 71 81 134 89 104 96 74 118 130 127 62 222 120 232 241 
714 0.24786947649878227 0.14281036055043964 1.0510315066743334 0 0 0 0.17 56 426 163 14 164 135 182 77 
715 0.09633829827416267 0.1349073797322293 1.019293069037669 0 0 0 0.4 25 100 26 129 56 427 147 178 222 121 
716 0.060078597290825854 0.13457195130305455 1.0148208627550395 0 0 0 0.42 25 101 56 428 73 55 152 284 160 408 162 54 217 249 
717 0.1796931460389688 0.21272407187697076 1.0114078494118035 0 0 0 0.17 56 429 69 62 128 116 152 285 197 50 
718 0.18595795979100246 0.24477759349848796 0.9846519037284581 0 0 0 0.33 25 102 56 430 65 105 
719 0.0704768532230261 0.24290583407939373 0.9715424361540734 0 0 0 0.17 25 103 56 431 118 131 128 117 220 121 221 124 
720 0.33995680135669415 0.26335986453137544 1.0162622080672523 0 0 0 0.25 25 104 56 432 67 72 
721 0.22240932416538473 0.3085371964810996 0.9766862752206621 0 0 0 0.35 56 433 69 63 120 22 182 78 222 122 
722 0.2574542959135275 0.3143694194226095 0.979835830327061 0 0 0 0.49 56 434 69 64 118 132 120 23 158 105 164 136 182 79 234 21 
723 0.13483837470422338 0.05650768161339648 1.0670845199708183 0 0 0 0.35 25 105 56 435 71 99 147 179 197 51 232 242 
724 -0.13418711029721173 0.0393177165780137 1.0368317246121896 0 0 0 0.76 25 106 56 436 65 106 97 57 127 63 217 250 81 135 190 186 
725 0.3077085541431648 0.09873351426608029 1.0811284309820355 0 0 0 0.24 56 437 89 105 190 187 197 52 73 56 182 80 
726 -0.23718155410066377 0.08140925434070274 1.009912093345533 0 0 0 0.38 25 107 56 438 60 32 81 136 162 55 
727 -0.0581899381715613 0.1315936414104543 0.9927978259170264 0 0 0 0.21 25 108 56 439 60 33 127 64 128 118 158 106 224 47 
728 -0.08987154014356158 0.18099777123569383 0.9757797189158869 0 0 0 0.31 25 109 56 440 60 34 71 100 81 137 97 58 111 68 127 65 128 119 158 107 164 137 179 62 198 108 208 36 217 251 224 48 232 243 65 107 
729 0.04079705456126988 0.24463391882925045 0.9643387052843864 0 0 0 0.42 25 110 56 441 65 108 69 65 158 108 190 188 
730 -0.2225278611381416 0.2410694580594356 0.9359840573617497 0 0 0 0.28 25 111 56 442 190 189 
731 0.25383400304811393 0.3083409034875625 0.9829066767563351 0 0 0 0.39 56 443 63 37 65 109 69 66 81 138 89 106 96 75 118 133 120 24 147 180 158 109 162 56 163 15 181 92 190 190 198 109 199 68 222 123 232 244 
732 -0.07098448530175107 0.09328819455210174 1.002221781484474 0 0 0 0.96 25 112 56 444 71 101 88 42 118 134 221 125 232 245 103 43 
733 -0.30268228772437483 0.10489883745641254 0.9973297651026878 0 0 0 0.11 25 113 56 445 217 252 220 122 
734 0.3105023700938777 0.1538088110333577 1.0628541392507767 0 0 0 0.31 69 67 73 57 89 107 
735 0.0415229713507484 0.16323758263294813 1.0017384409391754 0 0 0 0.24 25 114 56 446 65 110 
736 -0.1821731896386772 0.1921239248426408 0.9652409965794687 0 0 0 0.3 25 115 26 130 56 447 128 120 164 138 
737 0.20123163423058735 0.27386864989021237 0.9865548080145238 0 0 0 0.28 25 116 56 448 73 58 118 135 129 99 
738 0.024896418835629302 0.2789147750516436 0.9510447313903672 0 0 0 0.4 25 117 26 131 56 449 103 44 118 136 172 94 217 253 222 124 232 246 
739 -0.10891183642556065 0.0946742079604303 1.0142137079084574 0 0 0 0.28 25 118 26 132 56 450 67 73 71 102 81 139 88 43 89 108 100 27 118 137 127 66 128 121 147 181 181 93 190 191 198 110 199 69 217 254 232 247 
740 0.014071846719189067 0.25174263862366625 0.9591964938551839 0 0 0 0.45 25 119 26 133 56 451 152 286 164 139 217 255 
741 -0.014271861914405787 0.2587655647784012 0.9483647354244228 0 0 0 0.5 25 120 56 452 118 138 198 111 217 256 220 123 221 126 
742 0.017814557955774524 0.26002912606956324 0.9534144781948293 0 0 0 0.34 25 121 56 453 81 140 118 139 152 287 
743 0.17817680722097945 0.0500305884695467 1.076552568182824 0 0 0 0.87 25 122 56 454 67 74 181 94 232 248 
744 -0.15077317494973547 0.03652464761883099 1.0305324141528502 0 0 0 0.45 25 123 56 455 67 75 81 141 
745 -0.04210217305313688 0.08678204907240027 1.0098047146397526 0 0 0 0.47 25 124 26 134 56 456 63 38 67 76 71 103 88 44 97 59 111 69 129 100 147 182 152 288 198 112 
746 -0.11873107620603725 0.11117657454818711 1.0099603454762476 0 0 0 0.69 25 125 26 135 56 457 67 77 71 104 89 109 118 140 128 122 190 192 199 70 232 249 88 45 
747 -0.15132804106488537 0.11073852883738874 1.0005837105956106 0 0 0 0.64 25 126 26 136 56 458 63 39 67 78 71 105 89 110 96 76 127 67 164 140 190 193 199 71 217 257 220 124 224 49 
748 0.03306699392334204 0.19887957993496547 0.9853067175772172 0 0 0 0.35 25 127 26 137 56 459 65 111 129 101 152 289 198 113 
749 -0.10967774224434731 0.21383303818339586 0.961852354692482 0 0 0 0.46 25 128 26 138 56 460 63 40 65 112 67 79 89 111 118 141 138 36 164 141 181 95 221 127 128 123 
750 -0.19648066937917638 0.126508727126437 0.9853204299944941 0 0 0 0.54 25 129 26 139 56 461 67 80 127 68 181 96 88 46 118 142 128 124 158 110 190 194 198 114 199 72 224 50 
751 0.036113220424967105 0.25108142989550664 0.9619583774718519 0 0 0 0.56 25 130 56 462 118 143 198 115 26 140 
752 0.228385409132774 0.2800425667299461 0.9868092952484989 0 0 0 0.61 56 463 65 113 69 68 81 142 89 112 96 77 111 70 129 102 147 183 158 111 163 16 164 142 182 81 199 73 221 128 222 125 25 131 
753 -0.006791509479398794 0.07807712293487185 1.0943327310952515 0 0 0 0.89 56 464 65 114 81 143 97 60 
754 0.12435832945779135 0.07416440293589532 1.0518739284126064 0 0 0 0.8 26 141 56 465 63 41 71 106 73 59 147 184 162 57 190 195 199 74 
755 -0.15070885862979438 0.24092421557815688 0.9406488985051705 0 0 0 0.51 26 142 56 466 118 144 217 258 
756 -0.04351345082483682 0.28338585218743784 0.9356778966970084 0 0 0 0.39 26 143 56 467 152 290 158 112 220 125 
757 -0.22141272030775586 -0.27077810941314 0.33439884844702167 0 0 0 0.66 26 144 56 468 65 115 
758 0.0581559523449305 0.025784302966964878 1.0604011456317062 0 0 0 0.43 56 469 71 107 111 71 118 145 162 58 232 250 
759 -0.2613455684826205 0.13476555462383713 0.9807323687479821 0 0 0 0.25 26 145 56 470 71 108 81 144 111 72 118 146 179 63 221 129 
760 -0.27309375926088375 0.1374817260808319 0.9793973560937104 0 0 0 0.31 26 146 56 471 60 35 81 145 97 61 160 409 
761 -0.24374036379165154 0.15069790567953004 0.9779354250505682 0 0 0 0.39 26 147 56 472 97 62 
762 -0.02966677901037027 0.19226235022711846 0.976684086257953 0 0 0 0.21 26 148 56 473 65 116 67 81 164 143 181 97 217 259 
763 -0.22519077423374037 0.1876903208416516 0.962266741073283 0 0 0 0.22 26 149 76 41 88 47 
764 0.17159537381926918 0.24755799656924804 0.9898629351986813 0 0 0 0.34 26 150 56 474 89 113 96 78 232 251 
765 0.1486666391434808 0.29436619243957496 0.9611454086143609 0 0 0 0.59 26 151 56 475 111 73 163 17 217 260 
766 -0.169562437137447 -0.33765898169611797 0.11175405327469062 0 0 0 0.24 26 152 56 476 76 42 
767 -0.20594289322319953 0.13255194821942204 0.9791270108103206 0 0 0 0.09 26 153 56 477 81 146 88 48 118 147 127 69 
768 -0.2236092148946196 0.13509550057174113 0.9857024644812107 0 0 0 0.12 26 154 56 478 217 261 
769 0.20101503725629613 0.24951186209483467 1.002198744495201 0 0 0 0.29 26 155 56 479 89 114 118 148 129 103 190 196 198 116 222 126 
770 -0.3069187658043344 0.25557790970867383 0.9267624347544005 0 0 0 0.32 26 156 56 480 198 117 
771 -0.12653098718637482 0.08263833568088963 1.013737617338904 0 0 0 0.25 56 481 63 42 81 147 138 37 164 144 199 75 220 126 
772 -0.09530619129635386 0.09431255426161335 1.0116284877170925 0 0 0 0.41 26 157 56 482 63 43 71 109 81 148 89 115 96 79 111 74 164 145 217 262 220 127 221 130 224 51 232 252 
773 0.11244102971885356 0.14622276850326313 1.0297376190297158 0 0 0 0.29 26 158 56 483 60 36 89 116 
774 -0.27309875679449946 0.11198977487478584 0.9940682631080784 0 0 0 0.43 26 159 56 484 67 82 127 70 217 263 221 131 
775 -0.07520338910135907 0.24664358195575364 0.9383361754050372 0 0 0 0.28 26 160 56 485 89 117 164 146 181 98 208 37 
776 -0.2863543200909532 0.25023218861675256 0.9327518909956132 0 0 0 0.61 26 161 56 486 198 118 220 128 162 59 
777 -0.214603769158885 -0.2159252800905786 0.3127505996019759 0 0 0 0.47 26 162 56 487 76 43 88 49 
778 -0.19494486039509298 0.1567976813434681 0.9789848237348784 0 0 0 0.39 26 163 56 488 67 83 71 110 81 149 103 45 111 75 127 71 138 38 179 64 224 52 164 147 
779 -0.2925811070947482 0.1461657007218647 0.9789565141713278 0 0 0 0.39 26 164 56 489 73 60 111 76 
780 -0.09126805406380717 0.16374426105774215 0.9842706013067416 0 0 0 0.77 26 165 56 490 127 72 128 125 164 148 179 65 221 132 88 50 111 77 
781 -0.19295601330689438 0.18205677114261756 0.9676297973737955 0 0 0 0.22 26 166 56 491 81 150 127 73 181 99 
782 -0.3086550325988878 0.182821135841038 0.9604302773427993 0 0 0 0.35 26 167 56 492 71 111 73 61 128 126 164 149 220 129 224 53 
783 -0.17222834683089938 0.19736711864168216 0.9623113619076956 0 0 0 0.47 26 168 56 493 81 151 88 51 164 150 181 100 217 264 220 130 224 54 
784 -0.13196354244465539 0.14289630681194343 0.9841879845959484 0 0 0 0.64 26 169 56 494 71 112 81 152 127 74 158 113 198 119 221 133 232 253 
785 0.10493985046183113 0.04129801334747448 1.124443182379382 0 0 0 0.44 56 495 65 117 138 39 
786 0.11734155565682233 0.04832873681327461 1.1152492273888164 0 0 0 0.38 56 496 65 118 89 118 
787 0.3364494282364077 0.08330027728519582 1.1662342332565863 0 0 0 0.7 56 497 67 84 89 119 103 46 
788 0.11865004570038054 0.05533275938988774 1.1002808624764029 0 0 0 0.48 56 498 89 120 217 265 
789 0.22443266275661442 0.07534911531673917 1.1032981605642251 0 0 0 0.46 56 499 96 80 138 40 222 127 
790 0.2807934418866555 0.08581237183419593 1.0841923711485701 0 0 0 0.16 56 500 62 8 67 85 71 113 118 149 120 25 
791 0.12707945429152662 0.06694109446760885 1.059890482411259 0 0 0 0.4 56 501 89 121 97 63 221 134 
792 0.36733398395617173 0.09947521231254167 1.1019742068529204 0 0 0 0.48 56 502 67 86 69 69 97 64 103 47 111 78 134 10 152 291 158 114 163 18 164 151 172 95 182 82 190 197 197 53 234 22 
793 0.29341611364669407 0.08907229649065672 1.077301672591696 0 0 0 0.19 56 503 62 9 164 152 197 54 222 128 
794 0.2725862988243894 0.09639756253517921 1.0775872293232138 0 0 0 0.22 56 504 152 292 160 410 217 266 
795 -0.07788653935687893 0.0628648911007178 1.026753198229701 0 0 0 0.23 56 505 71 114 89 122 217 267 222 129 
796 0.11341670829735809 0.08773188229152831 1.0437189614749562 0 0 0 0.27 56 506 81 153 96 81 160 411 
797 0.44520977793597816 0.14276917572620262 1.136559494420002 0 0 0 0.56 56 507 63 44 67 87 103 48 147 185 163 19 172 96 190 198 232 254 62 10 162 60 164 153 
798 0.3790805604486911 0.130500253253126 1.084164499152771 0 0 0 0.38 56 508 63 45 73 62 208 38 
799 0.4277669241873136 0.14317890690674784 1.1215953865253048 0 0 0 0.34 56 509 73 63 105 16 165 5 217 268 220 131 221 135 232 255 235 10 
800 0.19368980022361212 0.1117744598599863 1.056516105449446 0 0 0 0.55 56 510 89 123 152 293 181 101 160 412 
801 -0.05265316122311803 0.08268267470682654 1.0069335272128528 0 0 0 0.14 56 511 128 127 198 120 
802 0.10884812089878936 0.10456032386147211 1.0335752170400094 0 0 0 0.43 56 512 73 64 160 413 
803 0.3749102799922503 0.14673899053855424 1.0849128890615947 0 0 0 0.47 56 513 65 119 67 88 69 70 89 124 111 79 118 150 147 186 152 294 190 199 197 55 217 269 222 130 232 256 
804 0.3196070353795427 0.1391060680584069 1.0700583957638967 0 0 0 0.45 56 514 69 71 81 154 89 125 128 128 160 414 172 97 208 39 232 257 
805 -0.14452632093986678 0.08612058498113907 1.0131369327598203 0 0 0 0.41 56 515 65 120 164 154 199 76 
806 0.41632973548423907 0.159623408896955 1.1121456648639005 0 0 0 0.2 56 516 89 126 120 26 134 11 222 131 232 258 
807 0.3642907864863878 0.1504059713933411 1.076290867743333 0 0 0 0.35 56 517 62 11 81 155 89 127 118 151 152 295 158 115 164 155 172 98 190 200 232 259 
808 0.4510063071159096 0.17232447172202028 1.1356481117716815 0 0 0 0.35 56 518 71 115 105 17 147 187 165 6 217 270 232 260 235 11 65 121 67 89 89 128 103 49 111 80 118 152 120 27 134 12 
809 0.337106094399008 0.15535706005875757 1.0742677916700725 0 0 0 0.24 56 519 147 188 221 136 
810 0.42086983175632336 0.17072360055836247 1.1038609973999471 0 0 0 0.06 56 520 105 18 220 132 
811 0.2131128187058398 0.14109090508020225 1.042444827850438 0 0 0 0.2 56 521 111 81 160 415 232 261 
812 0.17711029932854563 0.13978244254292385 1.0411727102153705 0 0 0 0.18 56 522 96 82 199 77 
813 0.19718002146756772 0.1423433593722367 1.0432332068394101 0 0 0 0.27 56 523 89 129 164 156 190 201 217 271 
814 0.30922643006919026 0.15993013332396133 1.0603599337636684 0 0 0 0.27 56 524 120 28 172 99 221 137 
815 -0.2774543814032605 0.09955645807418832 0.9990186567817821 0 0 0 0.37 56 525 118 153 217 272 224 55 
816 -0.3245923092269782 0.09983069233828377 1.0025967240429527 0 0 0 0.45 56 526 81 156 111 82 118 154 
817 0.39649293687663173 0.18260587915452187 1.0825637255446248 0 0 0 0.29 56 527 62 12 71 116 73 65 89 130 97 65 103 50 111 83 118 155 120 29 147 189 162 61 164 157 182 83 190 202 197 56 217 273 221 138 222 132 232 262 
818 0.40339669296342684 0.18818870141432262 1.0866804377086992 0 0 0 0.26 56 528 71 117 73 66 105 19 111 84 120 30 163 20 164 158 165 7 182 84 217 274 220 133 232 263 235 12 
819 -0.3413960202538269 0.11001467179077191 0.9939284467863356 0 0 0 0.39 56 529 65 122 81 157 128 129 179 66 190 203 217 275 
820 0.18084163031351244 0.16065808967161 1.03244172449415 0 0 0 0.48 56 530 152 296 197 57 199 78 
821 0.10596729423171593 0.15200228277317349 1.016219213360273 0 0 0 0.19 56 531 160 416 217 276 
822 0.04044922754175 0.15045420527901857 1.0077656310853051 0 0 0 0.13 56 532 152 297 160 417 
823 0.18163413885049012 0.17000329175068182 1.0317116750231188 0 0 0 0.21 56 533 128 130 182 85 198 121 
824 0.4474312034335204 0.21370597086976548 1.1157308214485384 0 0 0 0.4 56 534 62 13 120 31 152 298 
825 0.4716229586603631 0.22046575436474158 1.1294774312732343 0 0 0 0.37 56 535 62 14 118 156 120 32 147 190 
826 -0.3309185949363029 0.1254270692589933 0.986485687508747 0 0 0 0.21 56 536 96 83 128 131 232 264 
827 -0.24418522743809037 0.1333434469047736 0.9771830794735343 0 0 0 0.18 56 537 179 67 190 204 221 139 
828 0.3185490930534173 0.1932288825099544 1.048298095639909 0 0 0 0.17 56 538 69 72 120 33 147 191 165 8 182 86 197 58 235 13 
829 0.16382217778668418 0.18163663430564456 1.0260986325991124 0 0 0 0.35 56 539 71 118 118 157 172 100 232 265 
830 0.19901409127543257 0.18793110169248126 1.0204871263900348 0 0 0 0.55 56 540 129 104 197 59 
831 0.3982140650543422 0.21776471220269777 1.0718067336989017 0 0 0 0.26 56 541 65 123 67 90 69 73 71 119 89 131 105 20 111 85 118 158 120 34 128 132 134 13 147 192 152 299 164 159 182 87 190 205 217 277 222 133 232 266 
832 -0.31961502903823086 0.14255387125254573 0.9735404056231718 0 0 0 0.27 56 542 67 91 81 158 172 101 179 68 
833 0.10881119625699347 0.1831147276191594 1.0075980665699351 0 0 0 0.31 56 543 100 28 152 300 158 116 197 60 
834 0.2670500725587841 0.20277280062914724 1.034462662855202 0 0 0 0.14 56 544 128 133 198 122 222 134 
835 0.43084331562198447 0.22986998250658502 1.092481636606584 0 0 0 0.33 56 545 111 86 118 159 120 35 147 193 162 62 163 21 164 160 182 88 190 206 197 61 222 135 
836 0.46022551331671785 0.2373014462394225 1.1131080191775293 0 0 0 0.52 56 546 69 74 97 66 118 160 120 36 134 14 147 194 152 301 158 117 165 9 182 89 217 278 222 136 235 14 
837 0.3811312731327065 0.22408568739360998 1.05385563190145 0 0 0 0.28 56 547 67 92 73 67 89 132 103 51 105 21 111 87 118 161 120 37 147 195 152 302 162 63 164 161 165 10 181 102 190 207 197 62 198 123 199 79 217 279 222 137 232 267 235 15 
838 -0.062240690718469126 0.17695529129927204 0.9802698177192591 0 0 0 0.26 56 548 67 93 198 124 
839 -0.08557130108374886 0.1763358491874056 0.9771033231321365 0 0 0 0.29 56 549 60 37 89 133 127 75 220 134 221 140 
840 0.23474629179984485 0.211485180069884 1.0260520274876748 0 0 0 0.2 56 550 128 134 181 103 
841 0.3792216964033739 0.22754761342531832 1.0482190329994223 0 0 0 0.2 56 551 67 94 120 38 147 196 164 162 181 104 232 268 
842 0.0728914496030368 0.19594691176534212 0.9939469740436567 0 0 0 0.19 56 552 164 163 199 80 
843 0.39832528870858663 0.23807590890621058 1.0636776299120096 0 0 0 0.34 56 553 67 95 71 120 111 88 118 162 120 39 128 135 147 197 152 303 164 164 165 11 182 90 190 208 221 141 222 138 232 269 235 16 
844 0.41376806438087954 0.24140053855785407 1.0726229359765862 0 0 0 0.39 56 554 164 165 182 91 198 125 
845 0.18327137775277602 0.21548915069945732 1.0096414285085986 0 0 0 0.23 56 555 118 163 172 102 190 209 
846 -0.17034579079581122 0.18725158274001247 0.9689831122170556 0 0 0 0.35 56 556 65 124 81 159 111 89 179 69 190 210 217 280 
847 0.17971412106241763 0.22168508811570328 1.0073973967217207 0 0 0 0.14 56 557 69 75 147 198 190 211 232 270 
848 0.3993522683639263 0.25399659341431957 1.0586787342475565 0 0 0 0.25 56 558 120 40 164 166 
849 0.423499405528109 0.26077857286407213 1.0760733258484125 0 0 0 0.21 56 559 71 121 89 134 
850 -0.1435072140007297 0.19994537477339694 0.9676267293939925 0 0 0 0.39 56 560 88 52 129 105 
851 -0.18722456549013 0.1968379166477685 0.9585099945949049 0 0 0 0.46 56 561 88 53 158 118 179 70 
852 0.004367748510918308 0.21147111758361567 0.9743005046745014 0 0 0 0.09 56 562 69 76 152 304 
853 -0.26303838573587524 0.19287452050009574 0.9531413344729375 0 0 0 0.23 56 563 81 160 138 41 
854 0.18377570487859557 0.23312604532587022 1.0021552477522442 0 0 0 0.23 56 564 89 135 128 136 190 212 
855 0.28346250223256136 0.24536464195208435 1.0155040617567288 0 0 0 0.29 56 565 120 41 134 15 152 305 
856 -0.29166221930423475 0.20799041291363926 0.9614553444389489 0 0 0 0.23 56 566 76 44 198 126 
857 -0.27182688840749275 0.20709205585721643 0.94792442993966 0 0 0 0.36 56 567 81 161 97 67 118 164 232 271 
858 0.2505690436849816 0.25012505426385134 1.0044417279415787 0 0 0 0.35 56 568 96 84 120 42 182 92 217 281 222 139 
859 0.23602900854414371 0.251465134864972 1.0109741880054157 0 0 0 0.57 56 569 128 137 134 16 
860 0.28457874297338626 0.2543501464028309 1.011662639726209 0 0 0 0.36 56 570 69 77 128 138 164 167 172 103 
861 -0.2618406152672326 0.20888933890242395 0.946574728169742 0 0 0 0.68 56 571 81 162 232 272 
862 0.1814716516283971 0.24635127272290364 0.9898874689688525 0 0 0 0.41 56 572 89 136 120 43 147 199 152 306 160 418 182 93 
863 0.1783400173899554 0.2525910347800716 0.9832293874888721 0 0 0 0.34 56 573 73 68 103 52 111 90 147 200 172 104 222 140 
864 0.37963348917541306 0.2765216557835299 1.0256574561980014 0 0 0 0.39 56 574 63 46 120 44 164 168 222 141 
865 0.034781984962246056 0.24202805987423898 0.9628758132335754 0 0 0 0.19 56 575 118 165 128 139 190 213 221 142 222 142 232 273 
866 0.19429359775614707 0.2602502415276566 0.9924689810136708 0 0 0 0.34 56 576 63 47 96 85 160 419 
867 0.0017090526341191758 0.24242081804003013 0.9581483309530279 0 0 0 0.33 56 577 111 91 127 76 152 307 158 119 164 169 217 282 232 274 103 53 128 140 224 56 
868 -0.07515325617958368 0.24265670425026786 0.9418365350452071 0 0 0 0.28 56 578 81 163 181 105 
869 0.16450404192598206 0.2676775536573221 0.976378180600712 0 0 0 0.24 56 579 152 308 160 420 
870 -0.24046693162041882 0.23885989256106482 0.9398003513241894 0 0 0 0.34 56 580 96 86 190 214 221 143 232 275 
871 0.42941125217205567 0.31347854788367996 1.0584800773177379 0 0 0 0.13 56 581 97 68 118 166 190 215 222 143 
872 0.3520981426772587 0.2943470106754691 1.0100925039997533 0 0 0 0.58 56 582 63 48 89 137 103 54 111 92 118 167 120 45 134 17 158 120 162 64 163 22 165 12 172 105 197 63 235 17 
873 -0.12031285751421784 0.2547541818025559 0.9337102741918553 0 0 0 0.73 56 583 71 122 220 135 221 144 224 57 
874 0.13713710851508729 0.2794086262247626 0.9692233368630566 0 0 0 0.24 56 584 69 78 152 309 
875 0.3855579356478483 0.3084178810695852 1.0251656378686371 0 0 0 0.3 56 585 147 201 190 216 198 127 
876 0.2900005635169019 0.2963320395229811 0.9938988420874998 0 0 0 0.39 56 586 69 79 73 69 118 168 160 421 182 94 232 276 
877 -0.09695756131902851 0.26499106327569766 0.9386840398366709 0 0 0 0.51 56 587 81 164 96 87 111 93 164 170 221 145 
878 0.3812735701631064 0.3098820358411984 1.0180522427393766 0 0 0 0.12 56 588 147 202 190 217 197 64 
879 -0.10210388448542278 0.2678993810351506 0.9390153291481785 0 0 0 0.27 56 589 67 96 181 106 
880 0.4118908965045636 0.32003849070587004 1.0383994067387865 0 0 0 0.56 56 590 164 171 208 40 217 283 
881 0.4321255404492773 0.33055369766025194 1.0688988286218661 0 0 0 0.88 56 591 118 169 217 284 
882 0.04234327055644275 0.2784917245158198 0.9511349003847872 0 0 0 0.19 56 592 152 310 190 218 
883 0.08720478670054159 0.287436796166721 0.959144878576674 0 0 0 0.56 56 593 69 80 152 311 158 121 
884 0.0827014747432107 0.2900388322317134 0.9558355817829159 0 0 0 0.3 56 594 69 81 111 94 158 122 
885 -0.18375070102838978 0.2734537215952331 0.9273753674918315 0 0 0 0.31 56 595 67 97 96 88 118 170 129 106 158 123 181 107 
886 0.19263984571301349 0.303926131295717 0.976540016095826 0 0 0 0.52 56 596 69 82 182 95 
887 0.2480905457408178 0.308189382176775 0.9830862545048654 0 0 0 0.4 56 597 69 83 96 89 118 171 120 46 147 203 162 65 164 172 172 106 182 96 190 219 222 144 232 277 
888 0.2864714866251866 0.31411972454977066 0.9880276245185478 0 0 0 0.38 56 598 118 172 120 47 134 18 147 204 220 136 
889 0.3530782309476499 0.3192258070360263 0.9993937359485995 0 0 0 0.35 56 599 103 55 158 124 163 23 164 173 165 13 172 107 234 23 235 18 
890 0.27222223523194844 0.3130342790018596 0.9788740660946549 0 0 0 0.44 56 600 69 84 165 14 
891 -0.11645276519753643 -0.1345032472548378 0.09805163625116708 0 0 0 0.41 56 601 65 125 76 45 88 54 
892 0.10677179190427541 0.04713428076837358 1.1196678777284441 0 0 0 0.4 56 602 81 165 111 95 217 285 
893 0.2183496985283314 0.06593148630724505 1.1391601710507753 0 0 0 0.13 56 603 81 166 138 42 
894 0.11460745048454168 0.062305049648298604 1.1134909592661066 0 0 0 0.73 56 604 65 126 89 138 147 205 152 312 160 422 197 65 221 146 
895 0.22017308830645235 0.07643791777304368 1.0770161892332668 0 0 0 0.45 56 605 81 167 89 139 96 90 179 71 
896 -0.0065222420318310085 0.045714957777237906 1.0393930135018747 0 0 0 0.28 56 606 67 98 81 168 118 173 217 286 232 278 
897 0.36601460276290704 0.11024467552457216 1.0997894514171314 0 0 0 0.36 56 607 65 127 67 99 71 123 81 169 89 140 97 69 103 56 105 22 111 96 118 174 129 107 163 24 164 174 190 220 199 81 217 287 232 279 
898 0.24612337933921366 0.1038295760959188 1.0628450563835679 0 0 0 0.18 56 608 96 91 111 97 129 108 217 288 222 145 232 280 
899 0.045237614800038226 0.08145414072555131 1.0392655458140758 0 0 0 0.35 56 609 158 125 208 41 
900 -0.11138209238302162 0.0677401961479232 1.0239170732000695 0 0 0 0.46 56 610 100 29 147 206 190 221 217 289 
901 0.4109630009493635 0.1370043967973004 1.1162696281707447 0 0 0 0.26 56 611 105 23 111 98 208 42 
902 0.4451041948831873 0.14852810574497988 1.1340310305580144 0 0 0 0.35 56 612 65 128 67 100 89 141 111 99 134 19 
903 0.45647660386030087 0.17582621050481334 1.1367158743739112 0 0 0 0.26 56 613 62 15 67 101 89 142 103 57 111 100 118 175 129 109 147 207 152 313 165 15 182 97 217 290 232 281 
904 0.46148862808189955 0.18140322196412717 1.133609235453851 0 0 0 0.21 56 614 89 143 103 58 111 101 129 110 
905 -0.05830634498187316 0.10887354450776675 1.0034697629834155 0 0 0 0.29 56 615 111 102 129 111 147 208 152 314 222 146 
906 0.12574407916666738 0.1325388279024504 1.0300856601982924 0 0 0 0.42 56 616 111 103 162 66 208 43 
907 0.35147198791303697 0.16428438390941724 1.071470831228917 0 0 0 0.2 56 617 152 315 172 108 
908 0.4300876493928421 0.18052715785773965 1.113372965327708 0 0 0 0.34 56 618 71 124 73 70 100 30 103 59 105 24 111 104 118 176 120 48 128 141 129 112 147 209 152 316 164 175 165 16 182 98 190 222 217 291 221 147 222 147 232 282 235 19 
909 0.43484558862926076 0.1841989358751211 1.1141633986653334 0 0 0 0.38 56 619 65 129 69 85 73 71 105 25 111 105 120 49 128 142 134 20 147 210 152 317 163 25 164 176 165 17 181 108 182 99 190 223 197 66 217 292 221 148 222 148 232 283 235 20 
910 0.4145640506011799 0.18425315905736575 1.0959762134241375 0 0 0 0.36 56 620 73 72 111 106 162 67 163 26 182 100 217 293 
911 -0.3531232925194113 0.10390948784605833 1.0069963943274047 0 0 0 0.58 56 621 65 130 103 60 217 294 
912 0.08680367804662965 0.14646417158886452 1.031872340387168 0 0 0 0.32 56 622 147 211 221 149 
913 0.459382525215985 0.20107000820125187 1.1292680528050472 0 0 0 0.17 56 623 65 131 67 102 89 144 111 107 129 113 165 18 235 21 
914 -0.12431985052663881 0.1316044268602196 0.9885956736918495 0 0 0 0.24 56 624 158 126 162 68 
915 0.36542708373537863 0.18769726323358013 1.0631194831895772 0 0 0 0.23 56 625 67 103 69 86 128 143 158 127 160 423 182 101 
916 -0.31870709443081113 0.11714055377036546 0.9800441411094802 0 0 0 0.06 56 626 67 104 81 170 
917 -0.11291462473800555 0.13573907451080228 0.9892974583134478 0 0 0 0.28 56 627 63 49 158 128 
918 0.3324133495934805 0.1864474707331206 1.0571251246216364 0 0 0 0.18 56 628 71 125 232 284 
919 0.021215492924909 0.15040656102782135 1.0054129431535859 0 0 0 0.18 56 629 88 55 129 114 
920 0.3890911551144176 0.20370557016478485 1.0693823719767164 0 0 0 0.28 56 630 62 16 67 105 89 145 100 31 111 108 118 177 120 50 128 144 129 115 147 212 152 318 172 109 190 224 197 67 198 128 220 137 222 149 232 285 
921 0.11178378318040076 0.17780533549892905 1.0107604659521208 0 0 0 0.16 56 631 65 132 118 178 
922 0.33339633610506425 0.2059962542680548 1.0477753556409357 0 0 0 0.11 56 632 81 171 134 21 198 129 
923 0.3800373588847644 0.2123966231223295 1.058646648611212 0 0 0 0.3 56 633 67 106 89 146 100 32 120 51 129 116 147 213 152 319 158 129 164 177 181 109 190 225 198 130 199 82 222 150 232 286 235 22 
924 -0.1458341522606359 0.17268350238801583 0.9839046545498661 0 0 0 0.26 56 634 128 145 138 43 179 72 198 131 
925 0.3664004922039048 0.2233775611805241 1.0479884493594276 0 0 0 0.39 56 635 65 133 67 107 69 87 163 27 217 295 
926 0.4482644281379899 0.24754397660351346 1.10105081902513 0 0 0 0.19 56 636 67 108 89 147 
927 0.4382410810436204 0.24807239948293103 1.0901565701616054 0 0 0 0.32 56 637 89 148 134 22 162 69 182 102 
928 -0.14458167280748502 0.1809460609909692 0.9749211237157144 0 0 0 0.22 56 638 65 134 81 172 88 56 129 117 138 44 181 110 198 132 
929 -0.26309774075433273 0.17427744758429758 0.9765761363550801 0 0 0 0.13 56 639 67 109 81 173 
930 -0.17354326491187114 0.1817872782440941 0.9690930510782325 0 0 0 0.21 56 640 71 126 81 174 88 57 111 109 118 179 128 146 158 130 179 73 
931 -0.09971745068137496 0.19048520085585288 0.9720356548647796 0 0 0 0.14 56 641 60 38 81 175 224 58 
932 0.3887528549895926 0.24285830006017198 1.051809589024062 0 0 0 0.49 56 642 65 135 71 127 73 73 105 26 118 180 120 52 134 23 147 214 158 131 164 178 165 19 190 226 222 151 232 287 235 23 
933 -0.2468397174830169 0.18443489152490947 0.9754483377623289 0 0 0 0.44 56 643 65 136 67 110 
934 0.38339067810194133 0.24387286979792658 1.0487499965966904 0 0 0 0.19 56 644 118 181 134 24 
935 -0.21734509401586502 0.18586175908160732 0.9665102121173673 0 0 0 0.23 56 645 81 176 88 58 111 110 220 138 
936 0.4138226554080319 0.25867779790527173 1.0667319032141196 0 0 0 0.28 56 646 63 50 71 128 105 27 198 133 
937 -0.29600134933039884 0.19210895293899777 0.952909014478247 0 0 0 0.09 56 647 118 182 190 227 
938 0.3172699468841893 0.2489044028039979 1.0269147487033443 0 0 0 0.19 56 648 81 177 147 215 
939 0.367408161037285 0.2550295396822668 1.0346149309986508 0 0 0 0.21 56 649 69 88 129 118 152 320 
940 0.3891792386459784 0.2671561738448016 1.0414827685060493 0 0 0 0.39 56 650 65 137 152 321 
941 0.2731913415416483 0.2528195057383696 1.012563495964378 0 0 0 0.17 56 651 182 103 232 288 
942 0.24554917571415782 0.2517353148114608 1.0029998469161023 0 0 0 0.11 56 652 96 92 160 424 
943 0.33846242786247394 0.2719675259995054 1.0172336892343388 0 0 0 0.15 56 653 198 134 199 83 
944 -0.27835176141737294 0.2263169618609504 0.9440649986069976 0 0 0 0.24 56 654 217 296 224 59 
945 -0.2636710229106295 0.22854088008624626 0.9456871231342212 0 0 0 0.04 56 655 129 119 220 139 
946 0.11085937171092079 0.2552874162751643 0.9738688066492813 0 0 0 0.28 56 656 118 183 147 216 152 322 158 132 190 228 221 150 
947 0.3558134898390808 0.27935739654105807 1.0149641345784093 0 0 0 0.28 56 657 100 33 190 229 
948 -0.14365053671686231 0.24244789129675895 0.94288703762883 0 0 0 0.29 56 658 129 120 158 133 190 230 232 289 
949 0.40051278605095125 0.29779613473228866 1.0413150208497626 0 0 0 0.54 56 659 164 179 165 20 197 68 235 24 
950 -0.09032298225491352 0.25165203959593274 0.9460029593611379 0 0 0 0.38 56 660 81 178 127 77 
951 0.3814180500415646 0.2969387322371034 1.0238567386992479 0 0 0 0.66 56 661 118 184 120 53 129 121 164 180 197 69 222 152 
952 0.30888956304746407 0.2933453566023614 1.0093301366849257 0 0 0 0.1 56 662 81 179 120 54 
953 0.2566683100665816 0.28753644941078627 0.9912188519517731 0 0 0 0.1 56 663 81 180 221 151 
954 0.21657025350679546 0.28525480905698414 0.9845587957993103 0 0 0 0.26 56 664 111 111 134 25 
955 0.22163185329330495 0.28516866896793763 0.9799240766790739 0 0 0 0.38 56 665 89 149 96 93 147 217 182 104 217 297 
956 0.18748315682043462 0.2850401703759916 0.9763415288322074 0 0 0 0.61 56 666 164 181 181 111 199 84 208 44 
957 0.4267656914317471 0.3211393122237386 1.057501672074486 0 0 0 0.27 56 667 89 150 129 122 
958 0.3635987892679075 0.3100737626463602 1.0008603986463647 0 0 0 0.2 56 668 81 181 129 123 163 28 190 231 
959 0.4185066753293637 0.32880145610912487 1.045801678288145 0 0 0 0.22 56 669 97 70 118 185 
960 -0.2598255218244969 0.26871078497012146 0.9213581197694564 0 0 0 0.52 56 670 103 61 199 85 221 152 232 290 
961 0.4099181841303487 0.3276090724779262 1.030883188962718 0 0 0 0.44 56 671 62 17 69 89 71 129 164 182 
962 0.3357077663793629 0.07984233845880723 1.184857832129756 0 0 0 0.27 56 672 62 18 67 111 71 130 97 71 
963 0.33603756009600716 0.08378325724946714 1.12413856529141 0 0 0 0.35 56 673 89 151 197 70 
964 0.12209595906039628 0.05998372378226882 1.1150475855110076 0 0 0 0.29 56 674 81 182 217 298 
965 -0.07131797095269611 0.038593216580352474 1.047340771585099 0 0 0 0.65 56 675 65 138 67 112 111 112 129 124 138 45 147 218 181 112 190 232 220 140 222 153 232 291 
966 0.3480340469286843 0.10062414091474396 1.101802192291479 0 0 0 0.17 56 676 81 183 129 125 
967 0.3715921366556883 0.10359144025370053 1.0992998736467918 0 0 0 0.17 56 677 103 62 128 147 134 26 190 233 
968 0.15458119919485536 0.10162180261576939 1.0521148625933423 0 0 0 0.61 56 678 60 39 69 90 73 74 111 113 129 126 147 219 158 134 162 70 198 135 222 154 234 24 
969 0.381435425198529 0.1482695287570357 1.0877990081846107 0 0 0 0.52 56 679 69 91 89 152 97 72 232 292 
970 -0.14858804697448513 0.10066917833509395 1.0038309202474673 0 0 0 0.43 56 680 63 51 127 78 164 183 220 141 217 299 
971 0.16167745042216053 0.14306642060237398 1.0411948948637533 0 0 0 0.29 56 681 147 220 221 153 
972 0.08189263384745 0.13862772248073071 1.0249938147791235 0 0 0 0.15 56 682 129 127 172 110 190 234 
973 -0.14246609520903986 0.13186128735905742 0.9825372092828584 0 0 0 0.31 56 683 128 148 158 135 
974 0.4649663043553048 0.22179106816064983 1.125198403118163 0 0 0 0.36 56 684 103 63 111 114 129 128 190 235 147 221 
975 0.3818567756885548 0.206853865217484 1.0622464794576516 0 0 0 0.43 56 685 67 113 69 92 118 186 120 55 128 149 152 323 158 136 164 184 165 21 182 105 235 25 
976 0.39302270352032587 0.21079454239140033 1.0715115155474821 0 0 0 0.41 56 686 62 19 71 131 129 129 164 185 197 71 198 136 221 154 
977 0.37853824403916675 0.215124568295389 1.0455007796308233 0 0 0 0.22 56 687 111 115 120 56 152 324 165 22 182 106 
978 0.3917070317821316 0.22400680535761885 1.06002258734885 0 0 0 0.42 56 688 62 20 67 114 73 75 89 153 105 28 118 187 120 57 134 27 147 222 152 325 162 71 165 23 182 107 190 236 217 300 221 155 232 293 235 26 
979 -0.09971789868123665 0.17129030840638473 0.9786402726489651 0 0 0 0.28 56 689 111 116 158 137 
980 0.40657400070833577 0.2303986533574156 1.0737693702815747 0 0 0 0.34 56 690 221 156 235 27 
981 0.4314666041082421 0.2374162910043681 1.0912417519307427 0 0 0 0.27 56 691 69 93 118 188 152 326 182 108 
982 0.45546800839315293 0.2435340459801016 1.107253133672907 0 0 0 0.26 56 692 120 58 134 28 182 109 222 155 
983 -0.24347210490074625 0.1702920897908556 0.9702906166943407 0 0 0 0.53 56 693 96 94 97 73 190 237 
984 0.14999387067773426 0.21045659260476504 1.0053416288298502 0 0 0 0.22 56 694 89 154 232 294 
985 -0.07917228671981887 0.190200951482052 0.9712663688830067 0 0 0 0.22 56 695 60 40 81 184 127 79 224 60 
986 -0.16351835965316608 0.19082127107250277 0.9646270154265926 0 0 0 0.35 56 696 128 150 158 138 181 113 
987 0.36680664858256135 0.24362696678126802 1.0412910071196109 0 0 0 0.28 56 697 69 94 89 155 100 34 111 117 118 189 120 59 147 223 152 327 165 24 198 137 199 86 217 301 221 157 235 28 
988 0.26636351696924915 0.24001450832942522 1.0201404420293692 0 0 0 0.24 56 698 217 302 222 156 
989 -0.16218422824584172 0.19925188236732672 0.9599328359462704 0 0 0 0.22 56 699 81 185 88 59 111 118 217 303 
990 0.17787488172529883 0.25864017689415886 0.9817458674288025 0 0 0 0.21 56 700 69 95 89 156 118 190 152 328 158 139 160 425 190 238 232 295 
991 0.013475725199478853 0.26886655750969435 0.9504722333822361 0 0 0 0.24 56 701 69 96 81 186 
992 -0.019250584640952136 0.26817044413664737 0.9460328060038838 0 0 0 0.4 56 702 158 140 217 304 
993 -0.2507229835576645 0.2602953407411289 0.9281039935076785 0 0 0 0.19 56 703 88 60 158 141 198 138 
994 0.38733762528319826 0.3153126471531965 1.0190280664387266 0 0 0 0.57 56 704 71 132 105 29 111 119 129 130 147 224 162 72 164 186 198 139 217 305 220 142 
995 0.013349001399188787 0.27884169155327415 0.9487015095718558 0 0 0 0.44 56 705 69 97 81 187 158 142 
996 -0.019454980921833856 0.27802811517589326 0.9401237550067718 0 0 0 0.27 56 706 81 188 179 74 
997 -0.2572018011159342 0.2702955841971935 0.9327756140898231 0 0 0 0.52 56 707 128 151 198 140 
998 0.2757719318223099 0.3085608379995228 0.9879162443166717 0 0 0 0.35 56 708 118 191 120 60 147 225 190 239 
999 0.22960582484770406 0.3064139862611797 0.9800921772833682 0 0 0 0.31 56 709 69 98 81 189 120 61 
1000 -0.06955137623751867 -0.18964087535234042 -0.11797211441464688 0 0 0 0.09 56 710 76 46 208 45 
1001 0.12374915131177275 0.031314549052150004 1.077945921743872 0 0 0 1.02 56 711 96 95 103 64 
1002 0.13511455003861125 0.07323399686804341 1.0573804588300226 0 0 0 0.49 56 712 65 139 71 133 73 76 81 190 89 157 96 96 118 192 147 226 179 75 208 46 232 296 
1003 -0.31568088241793235 0.07788081749724049 1.0178660359696632 0 0 0 0.35 56 713 81 191 118 193 217 306 232 297 
1004 -0.33315385111916773 0.118230735436902 0.993599255007622 0 0 0 0.38 56 714 81 192 103 65 111 120 118 194 128 152 
1005 0.4294863196655525 0.22020135781118694 1.0957296256191367 0 0 0 0.45 56 715 62 21 65 140 67 115 71 134 73 77 103 66 105 30 118 195 120 62 128 153 129 131 165 25 182 110 217 307 221 158 222 157 235 29 147 227 197 72 
1006 -0.166889969837149 0.15604850081656785 0.9825012655713155 0 0 0 0.34 56 716 181 114 217 308 
1007 -0.1815099057041311 0.1704534146084896 0.9759303313471006 0 0 0 0.16 56 717 138 46 217 309 220 143 
1008 -0.20358328230435965 0.1918989300404443 0.9585710465919574 0 0 0 0.17 56 718 158 143 179 76 
1009 0.18902162218458488 0.2467440617900497 0.9997133777886721 0 0 0 0.35 56 719 89 158 118 196 129 132 
1010 0.40680034067458337 0.2726716037065092 1.0541045284273793 0 0 0 0.44 56 720 164 187 190 240 
1011 0.4243836043612605 0.28559200421867537 1.0734788349436217 0 0 0 0.36 56 721 129 133 208 47 
1012 0.0050601695192778245 0.2547116649110815 0.9549222034398868 0 0 0 0.48 56 722 152 329 158 144 
1013 -0.16920137560558207 0.2578157816311991 0.9296790622836001 0 0 0 0.38 56 723 71 135 88 61 217 310 232 298 
1014 0.33133579440659755 0.3056077705300574 0.9976663089681327 0 0 0 0.35 56 724 65 141 73 78 
1015 0.10882895740995294 0.05094432914650838 1.1476117743187755 0 0 0 0.74 56 725 65 142 97 74 129 134 190 241 
1016 -0.07444130849319829 -0.14112706501651165 -0.13923596734047955 0 0 0 0.1 56 726 76 47 208 48 
1017 0.18689395880035506 0.07601797786004977 1.0682690547070266 0 0 0 0.41 56 727 71 136 73 79 89 159 190 242 197 73 221 159 232 299 
1018 -0.07691179251574805 -0.13700788085164764 -0.14151797374213798 0 0 0 0.3 56 728 76 48 208 49 
1019 0.35350214351419734 0.10843592220846118 1.1011386040714324 0 0 0 0.7 56 729 65 143 67 116 69 99 71 137 73 80 81 193 97 75 103 67 118 197 129 135 134 29 147 228 164 188 190 243 217 311 232 300 
1020 -0.0665074226846953 -0.13299435156137684 -0.13942633915803643 0 0 0 0.09 56 730 76 49 208 50 
1021 0.4388039186799044 0.14140112409782052 1.1350420900083675 0 0 0 0.68 56 731 67 117 105 31 162 73 165 26 222 158 235 30 
1022 0.13603769006595365 0.0987100284523482 1.0437089977034615 0 0 0 0.43 56 732 89 160 97 76 190 244 197 74 
1023 0.3291040950982406 0.12226740546930376 1.0710295671862742 0 0 0 0.35 56 733 69 100 105 32 129 136 152 330 182 111 
1024 0.40484260779774756 0.1473146914018899 1.119997699295805 0 0 0 0.52 56 734 62 22 65 144 67 118 71 138 73 81 89 161 111 121 118 198 147 229 164 189 172 111 190 245 197 75 217 312 232 301 
1025 0.4264981477604975 0.15225697432711946 1.1282701832221553 0 0 0 0.4 56 735 62 23 63 52 65 145 67 119 71 139 73 82 89 162 97 77 105 33 118 199 120 63 129 137 147 230 152 331 162 74 181 115 182 112 190 246 197 76 217 313 222 159 232 302 235 31 69 101 128 154 221 160 
1026 0.3252684174625884 0.1356785487214432 1.0696429947284978 0 0 0 0.63 56 736 105 34 120 64 69 102 73 83 160 426 217 314 
1027 0.40418743386802414 0.15578376155200752 1.105156021093642 0 0 0 0.81 56 737 67 120 89 163 118 200 129 138 147 231 172 112 217 315 
1028 0.4116835454193811 0.1805620882721043 1.0972287335708921 0 0 0 0.46 56 738 65 146 67 121 89 164 120 65 134 30 147 232 164 190 165 27 182 113 190 247 217 316 222 160 232 303 235 32 
1029 0.4174703904127854 0.20164742677616432 1.0932150267278862 0 0 0 0.64 56 739 62 24 65 147 67 122 71 140 73 84 89 165 100 35 103 68 105 35 111 122 120 66 128 155 129 139 162 75 164 191 165 28 182 114 190 248 217 317 222 161 232 304 235 33 147 233 172 113 221 161 
1030 0.4438603081740171 0.21015047671869672 1.11887374468569 0 0 0 0.45 56 740 62 25 67 123 89 166 103 69 129 140 165 29 190 249 197 77 221 162 222 162 232 305 235 34 
1031 0.37370402619221676 0.211015151778795 1.0533147069672864 0 0 0 0.37 56 741 65 148 69 103 73 85 103 70 105 36 111 123 118 201 120 67 128 156 129 141 147 234 152 332 158 145 164 192 165 30 182 115 190 250 197 78 217 318 221 163 232 306 235 35 
1032 -0.12401107732199346 0.16673416706036537 0.977455740198195 0 0 0 0.52 56 742 88 62 128 157 164 193 179 77 
1033 0.3736120855470361 0.22267588345229147 1.0486335592258547 0 0 0 0.39 56 743 62 26 69 104 73 86 89 167 103 71 118 202 120 68 129 142 134 31 158 146 164 194 165 31 182 116 190 251 199 87 221 164 232 307 235 36 
1034 0.4311118652427303 0.2554840881358392 1.0880472210107042 0 0 0 0.43 56 744 67 124 71 141 162 76 163 29 165 32 235 37 
1035 0.40601660995022154 0.24866947643364945 1.0649236439494114 0 0 0 0.63 56 745 69 105 89 168 235 38 
1036 -0.19329954406401736 0.1986534721688834 0.9630012425921586 0 0 0 0.43 56 746 81 194 118 203 128 158 129 143 127 80 198 141 
1037 0.19784650276237756 0.06713798729813926 1.1126010113225135 0 0 0 0.29 56 747 118 204 232 308 
1038 0.2893179308749071 0.10362180534235968 1.078302170400191 0 0 0 0.37 56 748 69 106 81 195 164 195 181 116 182 117 217 319 73 87 89 169 105 37 152 333 
1039 0.2023412972570268 0.11885730566423827 1.0464483793635044 0 0 0 0.55 56 749 69 107 89 170 
1040 0.34177407644193103 0.16983178882627953 1.0646704806424636 0 0 0 0.5 56 750 62 27 63 53 67 125 69 108 71 142 73 88 89 171 105 38 111 124 120 69 129 144 158 147 163 30 164 196 165 33 172 114 181 117 182 118 197 79 217 320 235 39 118 205 147 235 152 334 190 252 198 142 232 309 
1041 0.3089967859260424 0.17155333202855044 1.0593593130528443 0 0 0 0.33 56 751 69 109 89 172 120 70 165 34 197 80 235 40 
1042 0.2748680930774916 0.16841682971457309 1.050290080330546 0 0 0 0.29 56 752 67 126 172 115 182 119 
1043 0.24194549564111528 0.16710821778051357 1.0441982746926342 0 0 0 0.23 56 753 69 110 182 120 
1044 0.3860522406694666 0.18471022743956214 1.0741619738984063 0 0 0 0.76 56 754 65 149 71 143 129 145 182 121 217 321 221 165 222 163 232 310 73 89 97 78 147 236 164 197 197 81 
1045 0.4300440915591441 0.19755011525429964 1.1019691575046113 0 0 0 0.56 56 755 62 28 65 150 67 127 71 144 89 173 103 72 105 39 118 206 128 159 129 146 147 237 162 77 163 31 165 35 182 122 190 253 197 82 217 322 221 166 222 164 232 311 235 41 
1046 0.03149428361010666 0.15729218091666117 1.0007671812212569 0 0 0 0.49 56 756 65 151 69 111 111 125 118 207 129 147 152 335 217 323 221 167 
1047 0.46160077476748906 0.23220072295722424 1.1559841746024215 0 0 0 0.82 56 757 89 174 129 148 165 36 235 42 
1048 -0.11170742867634342 0.15574623225424278 0.9846760950560652 0 0 0 0.3 56 758 81 196 127 81 224 61 89 175 181 118 
1049 -0.15469343269557204 0.15704605923137502 0.982366708823526 0 0 0 0.26 56 759 81 197 128 160 179 78 198 143 138 47 232 312 
