# 3D point list with one line of data per point:
#   POINT3D_ID, X, Y, Z, R, G, B, ERROR, TRACK[] as (IMAGE_ID, POINT2D_IDX)
# Number of points: 239, mean track length: 11.23
8064 0.46599250256890024 -0.07021402588491386 0.8835492531102102 0 0 0 0.26 94 3331 218 2779 233 1638 46 2703 150 1099 173 2190 106 1032 
8065 0.7383201364302433 -0.11039310850283326 0.8877200329530305 0 0 0 0.28 151 3665 166 2710 211 2521 216 2606 46 2704 86 2335 173 2191 106 1033 
8066 0.7328115993105353 -0.10539512749677936 0.8886535172748757 0 0 0 0.32 139 2029 211 2522 216 2607 46 2705 122 1049 99 1295 68 417 
8067 0.5729580494661369 -0.06888746146584689 0.8566533628071 0 0 0 0.18 140 2495 193 3585 216 2608 233 1639 46 2706 186 1402 
8068 0.5517970723774455 -0.0683675907545058 0.8521723093788044 0 0 0 0.97 94 3332 143 1514 149 2274 151 3666 177 1757 211 2523 228 3503 233 1640 37 2341 46 2707 166 2711 86 2336 125 4218 189 1581 191 2103 150 1100 173 2192 186 1403 99 1296 102 1372 122 1050 178 997 31 934 230 338 
8069 -0.1403306820381012 0.019621036030713593 0.8331669802708682 0 0 0 0.36 116 3910 132 234 139 2030 140 2496 151 3667 161 1932 177 1758 183 1722 193 3586 205 1670 216 2609 226 1911 228 3504 46 2708 94 3333 7 1999 68 418 149 2275 
8070 0.1982178643124151 -0.007169259525281642 0.8557177365309322 0 0 0 0.23 139 2031 161 1933 233 1641 
8071 0.7372660409270468 -0.09531143889801898 0.8052910238292433 0 0 0 0.4 122 1051 139 2032 144 2358 166 2712 210 1065 211 2524 216 2610 233 1642 140 2497 228 3505 57 2305 86 2337 119 2017 212 2078 131 1168 99 1297 150 1101 171 1459 173 2193 180 2451 193 3587 106 1034 
8072 0.2522051543967105 -0.007619723881372425 0.8673093850373119 0 0 0 0.31 90 1202 94 3334 116 3911 140 2498 144 2359 145 1695 151 3668 154 3152 161 1934 166 2713 183 1723 193 3588 205 1671 211 2525 216 2611 226 1912 228 3506 233 1643 177 1759 218 2780 37 2342 46 2709 55 1705 86 2338 34 2020 131 1169 150 1102 7 2000 
8073 0.7389379944195217 -0.0923245877548138 0.7878121954731602 0 0 0 0.25 119 2018 139 2033 140 2499 166 2714 191 2104 193 3589 211 2526 212 2079 216 2612 228 3507 233 1644 150 1103 106 1035 180 2452 
8074 0.7440361565308435 -0.08611015863287412 0.7957341220209908 0 0 0 0.58 166 2715 211 2527 212 2080 57 2306 86 2339 150 1104 
8075 0.347812277879542 -0.008797296004950798 0.869080933388395 0 0 0 0.22 94 3335 125 4219 140 2500 145 1696 149 2276 151 3669 154 3153 177 1760 193 3590 211 2528 216 2613 218 2781 226 1913 228 3508 233 1645 34 2021 72 1704 173 2194 46 2710 150 1105 7 2001 37 2343 86 2340 183 1724 106 1036 
8076 0.7382495470719088 -0.07689951096491514 0.8090646170965407 0 0 0 0.38 139 2034 144 2360 166 2716 210 1066 211 2529 216 2614 228 3509 233 1646 86 2341 116 3912 150 1106 173 2195 180 2453 8 1389 31 935 106 1037 
8077 0.7409772236476245 -0.06596374812944493 0.8449426895277644 0 0 0 0.3 122 1052 125 4220 166 2717 211 2530 212 2081 228 3510 233 1647 99 1298 171 1460 180 2454 186 1404 
8078 -0.2980977906397919 0.05372937408398648 0.8239222343103347 0 0 0 0.48 58 2456 140 2501 145 1697 149 2277 151 3670 154 3154 161 1935 177 1761 205 1672 210 1067 216 2615 218 2782 226 1914 228 3511 34 2022 30 1078 55 1706 72 1705 99 1299 150 1107 7 2002 167 1703 
8079 -0.5370291218835346 0.07002249791113925 0.8091336594093698 0 0 0 0.27 145 1698 153 1199 193 3591 216 2616 218 2783 226 1915 
8080 0.2540443742088221 0.009488209922372889 0.8625051085408275 0 0 0 0.17 122 1053 139 2035 233 1648 37 2344 46 2711 30 1079 150 1108 228 3512 
8081 -0.15343369441975677 0.04732496175297863 0.8247799244174353 0 0 0 0.48 90 1203 137 1133 140 2502 143 1515 149 2278 151 3671 153 1200 154 3155 161 1936 177 1762 183 1725 193 3592 202 1614 205 1673 211 2531 212 2082 226 1916 228 3513 233 1649 34 2023 37 2345 46 2712 57 2307 59 1924 86 2342 23 1811 72 1706 99 1300 121 245 131 1170 173 2196 180 2455 225 443 18 1469 167 1704 
8082 0.14730843779590147 0.012263722919217382 0.8028405747366916 0 0 0 0.25 139 2036 161 1937 183 1726 205 1674 30 1080 
8083 -0.3093331660074779 0.06231086214513382 0.8199584972918039 0 0 0 0.42 149 2279 161 1938 233 1650 
8084 0.11510048535553374 0.021212664116777316 0.7978668209135282 0 0 0 0.43 140 2503 145 1699 154 3156 166 2718 177 1763 205 1675 211 2532 216 2617 228 3514 30 1081 186 1405 31 936 
8085 -0.3388574831265727 0.07566455306561275 0.8123351168459139 0 0 0 0.33 149 2280 183 1727 193 3593 210 1068 211 2533 226 1917 228 3515 23 1812 203 284 
8086 -0.17825899143341004 0.06372596662372562 0.8203659107715439 0 0 0 0.42 149 2281 193 3594 226 1918 233 1651 166 2719 211 2534 46 2713 57 2308 171 1461 167 1705 
8087 -0.3647596476823356 0.08055535582009338 0.8098217990793547 0 0 0 0.28 151 3672 166 2720 193 3595 211 2535 228 3516 23 1813 72 1707 102 1373 
8088 -0.49863685371450184 0.0906481274123259 0.7982060625866164 0 0 0 0.68 48 706 51 860 119 2019 125 4221 137 1134 143 1516 144 2361 145 1700 151 3673 153 1201 154 3157 166 2721 191 2105 193 3596 202 1615 211 2536 216 2618 218 2784 226 1919 228 3517 34 2024 37 2346 45 864 46 2714 94 3336 116 3913 23 1814 55 1707 57 2309 72 1708 102 1374 131 1171 171 1462 173 2197 180 2456 186 1406 189 1582 225 444 18 1470 8 1390 24 1037 7 2003 167 1706 
8089 -0.07492679189951001 0.06436400311500308 0.8235122015642979 0 0 0 0.47 149 2282 151 3674 154 3158 161 1939 166 2722 216 2619 218 2785 228 3518 233 1652 37 2347 46 2715 
8090 0.22917174666972867 0.048052002757035035 0.8374321859818946 0 0 0 0.31 139 2037 149 2283 161 1940 177 1764 193 3597 211 2537 216 2620 218 2786 30 1082 106 1038 
8091 -0.36211485314937697 0.09458722097389216 0.7966340532560855 0 0 0 0.69 149 2284 153 1202 161 1941 193 3598 216 2621 218 2787 226 1920 94 3337 189 1583 23 1815 30 1083 154 3159 171 1463 180 2457 228 3519 7 2004 167 1707 203 285 173 2198 
8092 -0.32087485421595513 0.09299204735730224 0.8046048644114727 0 0 0 0.61 140 2504 151 3675 153 1203 161 1942 183 1728 205 1676 218 2788 94 3338 116 3914 139 2038 143 1517 144 2362 149 2285 154 3160 166 2723 193 3599 210 1069 211 2538 228 3520 212 2083 34 2025 37 2348 57 2310 86 2343 45 865 46 2716 58 2457 90 1204 125 4222 189 1584 131 1172 180 2458 18 1471 7 2005 167 1708 8 1391 233 1653 72 1709 102 1375 
8093 -0.3463238434213029 0.0964940077247081 0.8020925890407463 0 0 0 0.41 94 3339 116 3915 139 2039 140 2505 151 3676 154 3161 161 1943 183 1729 205 1677 211 2539 216 2622 226 1921 228 3521 37 2349 46 2717 55 1708 23 1816 186 1407 
8094 -0.6200800166703322 0.10774405019920875 0.7792056869649705 0 0 0 0.31 166 2724 202 1616 211 2540 46 2718 154 3162 180 2459 7 2006 18 1472 24 1038 
8095 0.5251492258400909 0.030265769988477915 0.8166644005592626 0 0 0 0.47 149 2286 151 3677 193 3600 150 1109 180 2460 99 1301 106 1039 
8096 -0.05628062444617999 0.11148737793580152 0.8043250041438388 0 0 0 0.37 122 1054 161 1944 183 1730 
8097 -0.23616105305645682 0.13086063146353905 0.7952246189063729 0 0 0 0.1 140 2506 183 1731 216 2623 
8098 -0.1628280523059884 0.14081210397867233 0.8019860308699209 0 0 0 0.37 116 3916 139 2040 211 2541 218 2789 233 1654 23 1817 171 1464 173 2199 180 2461 
8099 0.2488198162471751 0.12831939264822262 0.8114355113145542 0 0 0 0.24 139 2041 211 2542 228 3522 233 1655 37 2350 46 2719 30 1084 150 1110 186 1408 
8100 -0.7779435560222385 0.15077276618564842 0.7300137534016679 0 0 0 0.42 153 1204 212 2084 218 2790 102 1376 173 2200 180 2462 193 3601 8 1392 
8101 0.4481720330421848 0.13008216791182295 0.8054834513542185 0 0 0 0.56 116 3917 139 2042 140 2507 144 2363 151 3678 193 3602 211 2543 216 2624 226 1922 228 3523 233 1656 37 2351 46 2720 57 2311 30 1085 131 1173 186 1409 7 2007 
8102 0.3979879041766711 0.15051470823800828 0.8061776202585169 0 0 0 0.98 116 3918 139 2043 140 2508 143 1518 144 2364 166 2725 177 1765 193 3603 228 3524 34 2026 150 1111 226 1923 23 1818 24 1039 30 1086 31 937 37 2352 46 2721 57 2312 102 1377 137 1135 151 3679 173 2201 212 2085 72 1710 106 1040 
8103 -0.24038154351206065 0.1682887244852521 0.7334672724160746 0 0 0 0.34 161 1945 205 1678 216 2625 228 3525 55 1709 
8104 -0.3963473790774635 0.17738901702991589 0.7369501310992457 0 0 0 0.23 58 2458 116 3919 211 2544 212 2086 228 3526 45 866 55 1710 
8105 -0.11686183909252457 0.17240022597861854 0.753466595810549 0 0 0 0.58 161 1946 183 1732 216 2626 233 1657 30 1087 186 1410 7 2008 
8106 0.16691819819569342 0.16667039299228664 0.7768866990163038 0 0 0 0.54 139 2044 161 1947 205 1679 228 3527 233 1658 37 2353 
8107 -0.5280303022643156 0.18611421772246958 0.7277316321878231 0 0 0 0.34 125 4223 218 2791 228 3528 57 2313 58 2459 116 3920 18 1473 
8108 -0.5466979481502886 0.1862382203904017 0.7254327141283964 0 0 0 0.36 151 3680 211 2545 212 2087 216 2627 228 3529 171 1465 72 1711 180 2463 18 1474 125 4224 166 2726 167 1709 8 1393 24 1040 218 2792 
8109 -0.3375679281950401 0.1875495772937714 0.7311821780618132 0 0 0 0.46 116 3921 119 2020 125 4225 140 2509 144 2365 151 3681 154 3163 161 1948 166 2727 193 3604 205 1680 216 2628 218 2793 226 1924 228 3530 23 1819 30 1088 72 1712 153 1205 171 1466 173 2202 7 2009 37 2354 46 2722 57 2314 167 1710 186 1411 211 2546 8 1394 24 1041 
8110 -0.26911273372663336 0.1881393588889437 0.7336134956375592 0 0 0 0.43 140 2510 151 3682 153 1206 161 1949 193 3605 202 1617 205 1681 216 2629 218 2794 228 3531 34 2027 23 1820 55 1711 72 1713 102 1378 171 1467 173 2203 8 1395 
8111 0.7472695680946574 0.15549734641787039 0.8078743215965395 0 0 0 0.26 193 3606 228 3532 233 1659 
8112 -0.17753278192134878 0.18749273006042522 0.7356065789244656 0 0 0 0.39 116 3922 125 4226 140 2511 143 1519 151 3683 154 3164 161 1950 177 1766 193 3607 202 1618 216 2630 228 3533 34 2028 218 2795 233 1660 8 1396 23 1821 30 1089 55 1712 72 1714 171 1468 173 2204 
8113 -0.1821633873971888 0.19202382253079883 0.7336839026886295 0 0 0 0.62 116 3923 119 2021 125 4227 139 2045 140 2512 143 1520 151 3684 154 3165 177 1767 183 1733 193 3608 211 2547 212 2088 218 2796 228 3534 34 2029 233 1661 55 1713 59 1925 23 1822 72 1715 102 1379 131 1174 8 1397 99 1302 
8114 -0.4154464322193234 0.19733079175399573 0.7233839983681097 0 0 0 0.45 119 2022 144 2366 153 1207 216 2631 34 2030 57 2315 116 3924 151 3685 191 2106 218 2797 226 1925 228 3535 23 1823 173 2205 24 1042 125 4228 7 2010 154 3166 
8115 -0.3877582976505555 0.20368158504608064 0.7263946305805805 0 0 0 0.37 140 2513 151 3686 161 1951 228 3536 55 1714 23 1824 180 2464 
8116 0.20985607780986507 0.19138578835968073 0.7366256566647889 0 0 0 0.19 140 2514 151 3687 193 3609 233 1662 150 1112 
8117 0.20189930248705992 0.19440116255324477 0.7353428954364821 0 0 0 0.28 140 2515 177 1768 216 2632 151 3688 193 3610 228 3537 34 2031 23 1825 180 2465 106 1041 150 1113 125 4229 31 938 99 1303 218 2798 
8118 -0.04616517334368886 0.20913650491753652 0.722399862625393 0 0 0 0.45 116 3925 137 1136 139 2046 143 1521 144 2367 151 3689 177 1769 193 3611 228 3538 34 2032 37 2355 46 2723 55 1715 57 2316 166 2728 183 1734 189 1585 218 2799 233 1663 23 1826 72 1716 99 1304 102 1380 131 1175 171 1469 173 2206 180 2466 186 1412 31 939 90 1205 106 1042 68 419 
8119 0.018882438133356657 0.22188070315835218 0.7411613319069211 0 0 0 0.67 139 2047 151 3690 166 2729 177 1770 211 2548 218 2800 228 3539 37 2356 46 2724 30 1090 186 1413 31 940 72 1717 106 1043 173 2207 180 2467 99 1305 
8120 0.026985931650826207 0.22655988050296702 0.7397487403843176 0 0 0 0.44 166 2730 183 1735 193 3612 218 2801 228 3540 233 1664 37 2357 23 1827 30 1091 173 2208 99 1306 180 2468 
8121 -0.6198816658690238 0.2289688511097416 0.7171998551292182 0 0 0 0.4 137 1137 151 3691 202 1619 212 2089 228 3541 46 2725 59 1926 144 2368 
8122 0.5300911508804471 0.21458878571428036 0.7418259796382682 0 0 0 0.43 140 2516 202 1620 218 2802 226 1926 150 1114 72 1718 106 1044 
8123 0.4882353055104094 0.22155814169914348 0.7262850656640183 0 0 0 0.36 116 3926 139 2048 143 1522 144 2369 151 3692 154 3167 166 2731 177 1771 191 2107 193 3613 216 2633 218 2803 226 1927 228 3542 46 2726 23 1828 99 1307 102 1381 173 2209 106 1045 68 420 211 2549 
8124 -0.015180926921634797 -0.7008482702283093 1.1549494745028006 0 0 0 0.65 139 2049 151 3693 205 1682 210 1070 59 1927 174 279 183 1736 
8125 -0.6239878595269555 -0.2959054558871573 0.9279230085038904 0 0 0 0.42 139 2050 161 1952 216 2634 
8126 -0.0377612587743465 -0.4248804006186696 1.0520238917607274 0 0 0 0.68 116 3927 132 235 139 2051 143 1523 144 2370 151 3694 154 3168 161 1953 202 1621 205 1683 212 2090 57 2317 59 1928 34 2033 72 1719 173 2210 
8127 -0.04352131172790737 -0.41645971230271267 1.0526830657318371 0 0 0 0.73 132 236 151 3695 154 3169 161 1954 34 2034 173 2211 193 3614 
8128 -0.02692728263944959 -0.4069758142238121 1.0587962026880648 0 0 0 0.22 132 237 139 2052 202 1622 186 1414 191 2108 
8129 0.12699170402770507 -0.44545723913017626 0.9682383683867329 0 0 0 0.37 116 3928 119 2023 125 4230 140 2517 143 1524 144 2371 145 1701 151 3696 161 1955 177 1772 183 1737 193 3615 205 1684 211 2550 212 2091 216 2635 218 2804 226 1928 37 2358 46 2727 55 1716 59 1929 86 2344 189 1586 72 1720 225 445 
8130 -0.0631075606153936 -0.33356482248457686 0.966256537231988 0 0 0 0.49 132 238 144 2372 211 2551 37 2359 59 1930 30 1092 117 476 226 1929 193 3616 186 1415 72 1721 218 2805 177 1773 180 2469 
8131 -0.622931158221352 -0.2050835874779191 0.8871640105641706 0 0 0 0.45 48 707 139 2053 144 2373 161 1956 212 2092 34 2035 37 2360 46 2728 57 2318 86 2345 189 1587 18 1475 
8132 0.07624477625313318 -0.29481918580818084 0.9238204868882707 0 0 0 0.65 139 2054 161 1957 202 1623 205 1685 211 2552 228 3543 34 2036 37 2361 46 2729 55 1717 86 2346 94 3340 119 2024 125 4231 145 1702 150 1115 151 3697 166 2732 186 1416 189 1588 193 3617 23 1829 59 1931 72 1722 102 1382 116 3929 131 1176 137 1138 140 2518 149 2287 154 3170 173 2212 177 1774 178 998 180 2470 191 2109 210 1071 212 2093 218 2806 225 446 30 1093 7 2011 133 361 117 477 226 1930 24 1043 31 941 115 111 106 1046 
8133 0.09511629848498276 -0.2807381335104343 0.9019454792649285 0 0 0 0.58 202 1624 212 2094 218 2807 
8134 0.06767917200887527 -0.27043045962093054 0.9027959134461612 0 0 0 0.28 139 2055 161 1958 205 1686 211 2553 46 2730 55 1718 
8135 0.12385415213003796 -0.24552333825183764 0.8919265514075472 0 0 0 0.48 94 3341 140 2519 144 2374 145 1703 151 3698 161 1959 177 1775 183 1738 193 3618 205 1687 212 2095 218 2808 228 3544 37 2362 34 2037 46 2731 55 1719 57 2319 116 3930 23 1830 72 1723 30 1094 150 1116 117 478 
8136 0.07282065378116466 -0.23240277961716996 0.8947462679849275 0 0 0 0.36 137 1139 139 2056 161 1960 205 1688 211 2554 216 2636 228 3545 34 2038 37 2363 46 2732 55 1720 30 1095 150 1117 186 1417 7 2012 68 421 
8137 -0.48590755028478066 -0.0951981169382705 0.8918074505006218 0 0 0 0.54 58 2460 132 239 139 2057 144 2375 154 3171 211 2555 46 2733 59 1932 
8138 -0.4493819869329816 -0.07018012679899968 0.8630548229521225 0 0 0 0.32 125 4232 132 240 144 2376 145 1704 151 3699 153 1208 154 3172 161 1961 166 2733 183 1739 193 3619 205 1689 211 2556 212 2096 216 2637 218 2809 228 3546 34 2039 58 2461 94 3342 137 1140 23 1831 116 3931 119 2025 173 2213 180 2471 37 2364 46 2734 57 2320 86 2347 167 1711 59 1933 
8139 -0.4874953623490146 -0.0651842278935705 0.8605210847629851 0 0 0 0.29 58 2462 94 3343 116 3932 125 4233 132 241 144 2377 151 3700 154 3173 161 1962 166 2734 183 1740 191 2110 193 3620 211 2557 212 2097 216 2638 218 2810 226 1931 228 3547 205 1690 34 2040 37 2365 46 2735 51 861 55 1721 57 2321 59 1934 86 2348 189 1589 23 1832 72 1724 131 1177 145 1705 186 1418 202 1625 153 1209 173 2214 167 1712 8 1398 18 1476 24 1044 
8140 -0.16394975071788653 -0.07974905045867672 0.8677091725729859 0 0 0 0.21 132 242 137 1141 144 2378 
8141 -0.15658421857988908 -0.06318296286821659 0.8631072821788214 0 0 0 0.58 94 3344 125 4234 132 243 139 2058 140 2520 149 2288 151 3701 153 1210 161 1963 166 2735 177 1776 193 3621 202 1626 205 1691 211 2558 212 2098 34 2041 37 2366 46 2736 59 1935 233 1665 23 1833 7 2013 167 1713 186 1419 180 2472 
8142 0.08204299019461475 -0.09872770624940315 0.8533847457894311 0 0 0 0.25 137 1142 139 2059 161 1964 183 1741 205 1692 216 2639 233 1666 34 2042 37 2367 150 1118 
8143 0.10653031641237101 -0.08669723829001069 0.8381437230834099 0 0 0 0.49 140 2521 149 2289 151 3702 202 1627 211 2559 212 2099 226 1932 228 3548 37 2368 59 1936 72 1725 102 1383 178 999 7 2014 31 942 
8144 -0.2718590789488556 -0.022213601111465146 0.8533459865625281 0 0 0 0.6 132 244 191 2111 233 1667 143 1525 203 286 
8145 0.0903942579216006 -0.07351399834570872 0.8354004349105543 0 0 0 0.47 119 2026 144 2379 149 2290 151 3703 205 1693 218 2811 
8146 0.7497476058133943 -0.09943594963086581 0.7975277341282979 0 0 0 0.37 140 2522 144 2380 166 2736 177 1777 191 2112 202 1628 212 2100 86 2349 57 2322 131 1178 
8147 0.7289043478848631 -0.008891358432925227 0.8192711953180172 0 0 0 0.36 139 2060 166 2737 202 1629 
8148 -0.09365063648863348 0.09747311076165048 0.8184701020055958 0 0 0 0.37 140 2523 151 3704 193 3622 46 2737 
8149 0.34194557582494484 0.07863260892038108 0.8272023513235501 0 0 0 0.29 139 2061 166 2738 202 1630 216 2640 59 1937 189 1590 34 2043 46 2738 86 2350 94 3345 125 4235 140 2524 143 1526 149 2291 151 3705 177 1778 191 2113 218 2812 226 1933 228 3549 116 3933 145 1706 7 2015 144 2381 193 3623 23 1834 106 1047 173 2215 178 1000 180 2473 117 479 150 1119 
8150 0.4353318671132097 0.07797110553733534 0.8268561871132714 0 0 0 0.37 137 1143 166 2739 211 2560 228 3550 34 2044 23 1835 30 1096 55 1722 150 1120 7 2016 46 2739 94 3346 116 3934 122 1055 131 1179 144 2382 151 3706 154 3174 178 1001 193 3624 202 1631 212 2101 226 1934 24 1045 99 1308 106 1048 173 2216 218 2813 8 1399 31 943 180 2474 68 422 117 480 143 1527 189 1591 233 1668 
8151 -0.4311440990968595 0.13563928305250328 0.7947809770132432 0 0 0 0.41 139 2062 161 1965 183 1742 216 2641 7 2017 
8152 -0.11270572057063859 0.1305816161735284 0.8107384325744336 0 0 0 0.34 137 1144 161 1966 211 2561 228 3551 30 1097 37 2369 186 1420 233 1669 7 2018 
8153 0.7379221346881976 0.05735017951819262 0.7273186416213943 0 0 0 0.35 139 2063 140 2525 143 1528 154 3175 202 1632 57 2323 189 1592 228 3552 23 1836 30 1098 72 1726 99 1309 150 1121 180 2475 31 944 
8154 0.7391099739024195 0.07605339071830707 0.7284301649002941 0 0 0 0.43 139 2064 144 2383 166 2740 177 1779 191 2114 211 2562 212 2102 228 3553 59 1938 189 1593 23 1837 57 2324 72 1727 99 1310 102 1384 173 2217 178 1002 180 2476 186 1421 8 1400 24 1046 68 423 140 2526 
8155 -0.4147400802808548 0.17023854534529279 0.7322878434974138 0 0 0 0.34 51 862 58 2463 116 3935 119 2027 125 4236 144 2384 151 3707 193 3625 202 1633 211 2563 216 2642 218 2814 228 3554 34 2045 46 2740 57 2325 191 2115 59 1939 212 2103 23 1838 131 1180 153 1211 173 2218 178 1003 180 2477 72 1728 140 2527 167 1714 8 1401 
8156 0.7435640620649545 0.14914437748025192 0.8558256396976025 0 0 0 0.38 116 3936 119 2028 137 1145 139 2065 143 1529 144 2385 154 3176 166 2741 191 2116 202 1634 212 2104 226 1935 228 3555 233 1670 37 2370 46 2741 57 2326 59 1940 189 1594 72 1729 150 1122 186 1422 68 424 
8157 -0.31880658844421284 0.18754068354893486 0.7334645906311013 0 0 0 0.46 90 1206 140 2528 144 2386 151 3708 161 1967 193 3626 205 1694 34 2046 46 2742 23 1839 72 1730 131 1181 173 2219 233 1671 8 1402 
8158 -0.16614174687135452 0.19174250876029916 0.7336267295182828 0 0 0 0.47 90 1207 116 3937 125 4237 140 2529 144 2387 154 3177 161 1968 166 2742 177 1780 193 3627 205 1695 211 2564 216 2643 218 2815 228 3556 57 2327 189 1595 59 1941 233 1672 23 1840 72 1731 102 1385 7 2019 
8159 -0.49098607963021734 0.19883228724845256 0.7221194656261227 0 0 0 0.32 116 3938 119 2029 125 4238 143 1530 144 2388 151 3709 166 2743 191 2117 202 1635 211 2565 212 2105 216 2644 218 2816 226 1936 228 3557 55 1723 59 1942 57 2328 7 2020 
8160 -0.5421420791382934 0.19878037366955081 0.7207630760946331 0 0 0 0.3 51 863 144 2389 151 3710 202 1636 211 2566 212 2106 216 2645 218 2817 228 3558 34 2047 37 2371 46 2743 48 708 59 1943 171 1470 7 2021 8 1403 125 4239 131 1182 
8161 -0.10751166104688034 0.20603317484020173 0.7308976793242318 0 0 0 0.34 140 2530 144 2390 154 3178 193 3628 59 1944 180 2478 
8162 -0.05985782676991727 0.2048258567145648 0.7288751336381777 0 0 0 0.4 139 2066 177 1781 183 1743 193 3629 202 1637 218 2818 55 1724 23 1841 72 1732 173 2220 8 1404 106 1049 68 425 
8163 -0.25735785780370846 0.22242040546082692 0.7236009366309152 0 0 0 0.64 143 1531 153 1212 228 3559 
8164 0.3385234741050143 0.2148975144733442 0.7253320663272899 0 0 0 0.27 137 1146 140 2531 144 2391 151 3711 193 3630 228 3560 34 2048 116 3939 218 2819 37 2372 46 2744 55 1725 57 2329 
8165 0.126360783810537 0.2280367170308097 0.7282016400077991 0 0 0 0.37 137 1147 143 1532 193 3631 211 2567 233 1673 55 1726 59 1945 
8166 -0.618883347494489 0.255186427891085 0.7099095900676357 0 0 0 0.29 202 1638 211 2568 228 3561 
8167 -0.017341180570581427 -0.9091449262102524 1.1948484147401905 0 0 0 0.54 143 1533 205 1696 226 1937 37 2373 137 1148 189 1596 186 1423 
8168 -0.07440355980584847 -0.48887933962532676 1.0847920475622115 0 0 0 0.5 132 245 139 2067 161 1969 205 1697 211 2569 
8169 0.023075120574843382 -0.49702203234080805 0.9698098402075516 0 0 0 0.28 139 2068 151 3712 161 1970 34 2049 178 1004 
8170 0.13243615078417315 -0.4887757192249382 1.0667273129859236 0 0 0 0.18 139 2069 161 1971 205 1698 211 2570 37 2374 
8171 -0.5716872738751944 -0.30260571300972566 0.9386781579026517 0 0 0 0.95 58 2464 94 3347 116 3940 119 2030 125 4240 139 2070 144 2392 145 1707 151 3713 154 3179 161 1972 166 2744 183 1744 193 3632 202 1639 211 2571 212 2107 216 2646 218 2820 226 1938 34 2050 37 2375 46 2745 55 1727 59 1946 186 1424 167 1715 
8172 -0.596027343604466 -0.2633762765747522 0.9194594564689859 0 0 0 0.79 139 2071 202 1640 212 2108 59 1947 102 1386 178 1005 
8173 -0.04593932797164443 -0.17466996670525745 0.9947491244810293 0 0 0 0.5 94 3348 116 3941 119 2031 125 4241 137 1149 139 2072 140 2532 143 1534 144 2393 145 1708 149 2292 151 3714 153 1213 154 3180 161 1973 177 1782 183 1745 191 2118 193 3633 202 1641 205 1699 211 2572 212 2109 218 2821 226 1939 228 3562 34 2051 37 2376 46 2746 55 1728 57 2330 59 1948 86 2351 189 1597 216 2647 131 1183 150 1123 167 1716 173 2221 178 1006 180 2479 186 1425 8 1405 30 1099 132 246 72 1733 168 194 174 280 102 1387 
8174 -0.046619123167173815 -0.11641519882900934 0.8407960711100775 0 0 0 0.69 137 1150 140 2533 144 2394 145 1709 149 2293 151 3715 183 1746 212 2110 45 867 59 1949 102 1388 171 1471 178 1007 225 447 18 1477 31 945 173 2222 106 1050 
8175 -0.3439006402166184 -0.058851106529292055 0.8642840311305207 0 0 0 0.43 58 2465 90 1208 94 3349 116 3942 119 2032 125 4242 132 247 139 2073 140 2534 144 2395 145 1710 149 2294 151 3716 154 3181 166 2745 183 1747 191 2119 193 3634 202 1642 211 2573 228 3563 137 1151 153 1214 216 2648 218 2822 161 1974 205 1700 34 2052 55 1729 45 868 57 2331 59 1950 69 84 189 1598 7 2022 18 1478 8 1406 150 1124 225 448 174 281 
8176 -0.36281913648850334 -0.0413907115346717 0.8512083713807272 0 0 0 0.66 58 2466 116 3943 132 248 137 1152 139 2074 140 2535 144 2396 149 2295 151 3717 161 1975 205 1701 211 2574 212 2111 226 1940 45 869 90 1209 233 1674 34 2053 55 1730 57 2332 30 1100 7 2023 153 1215 173 2223 
8177 0.07763888062336693 -0.012761812407447084 0.8183556727895465 0 0 0 0.69 94 3350 116 3944 125 4243 140 2536 145 1711 151 3718 154 3182 166 2746 177 1783 191 2120 193 3635 212 2112 216 2649 226 1941 228 3564 46 2747 59 1951 86 2352 23 1842 72 1734 102 1389 150 1125 173 2224 106 1051 
8178 0.7404515925139803 -0.08661684080926077 0.8154080970652257 0 0 0 0.54 122 1056 137 1153 139 2075 140 2537 143 1535 144 2397 166 2747 191 2121 193 3636 202 1643 210 1072 211 2575 212 2113 216 2650 228 3565 233 1675 57 2333 59 1952 86 2353 189 1599 99 1311 150 1126 171 1472 173 2225 178 1008 180 2480 225 449 24 1047 31 946 119 2033 131 1184 72 1735 
8179 0.12099620082171302 0.007431635109662847 0.8014477821235161 0 0 0 0.3 137 1154 161 1976 205 1702 216 2651 
8180 -0.4828368051276199 0.08358492741868849 0.8045549800543657 0 0 0 0.31 51 864 202 1644 212 2114 228 3566 8 1407 
8181 -0.2128699271655304 0.1267315881399562 0.8138722423880888 0 0 0 0.78 119 2034 137 1155 161 1977 183 1748 191 2122 202 1645 205 1703 210 1073 216 2652 226 1942 228 3567 37 2377 46 2748 55 1731 140 2538 7 2024 59 1953 131 1185 154 3183 166 2748 167 1717 177 1784 218 2823 72 1736 153 1216 168 195 173 2226 178 1009 203 287 
8182 0.7399253326749186 0.032327485169826545 0.7870315068148209 0 0 0 0.44 137 1156 202 1646 212 2115 177 1785 59 1954 139 2076 23 1843 99 1312 131 1186 144 2398 150 1127 173 2227 178 1010 180 2481 186 1426 106 1052 168 196 68 426 
8183 0.4613750299335492 0.12552129448272376 0.8109260661912716 0 0 0 0.32 119 2035 139 2077 140 2539 144 2399 151 3719 154 3184 166 2749 193 3637 202 1647 212 2116 216 2653 218 2824 226 1943 228 3568 233 1676 37 2378 46 2749 55 1732 57 2334 59 1955 23 1844 72 1737 150 1128 173 2228 178 1011 180 2482 7 2025 8 1408 31 947 
8184 -0.14246235169100047 0.19228120427256806 0.7319350148803965 0 0 0 0.38 116 3945 119 2036 125 4244 140 2540 143 1536 154 3185 161 1978 166 2750 177 1786 193 3638 202 1648 205 1704 211 2576 212 2117 218 2825 228 3569 57 2335 59 1956 139 2078 23 1845 72 1738 99 1313 102 1390 121 246 173 2229 180 2483 8 1409 
8185 -0.14755355761005043 0.1996672599233419 0.713800270691959 0 0 0 0.26 140 2541 154 3186 193 3639 
8186 0.0711891547740098 0.21877490447929718 0.7374041337387841 0 0 0 0.31 116 3946 137 1157 139 2079 143 1537 145 1712 151 3720 177 1787 191 2123 193 3640 202 1649 218 2826 228 3570 34 2054 37 2379 45 870 46 2750 55 1733 57 2336 59 1957 90 1210 183 1749 189 1600 211 2577 233 1677 23 1846 30 1101 99 1314 171 1473 180 2484 186 1427 24 1048 31 948 121 247 168 197 178 1012 230 339 
8187 0.5032766241503743 0.22239843741018872 0.7199811203818988 0 0 0 0.39 191 2124 211 2578 228 3571 150 1129 
8188 -0.0012769296167441317 -0.872644591272172 1.1480529270388382 0 0 0 1.12 144 2400 151 3721 205 1705 34 2055 149 2296 218 2827 189 1601 166 2751 131 1187 178 1013 225 450 
8189 -0.035881786579935314 -0.3883586576684481 1.008854191909413 0 0 0 0.41 132 249 139 2080 161 1979 205 1706 174 282 
8190 -0.04463882178100081 -0.3887896790306101 0.9733079895268972 0 0 0 0.43 132 250 161 1980 205 1707 
8191 -0.5729834523461299 0.04202528152715545 0.7953304824489447 0 0 0 0.59 48 709 51 865 58 2467 116 3947 139 2081 143 1538 144 2401 151 3722 161 1981 191 2125 211 2579 212 2118 216 2654 228 3572 34 2056 37 2380 57 2337 86 2354 189 1602 173 2230 178 1014 55 1734 125 4245 154 3187 59 1958 72 1739 102 1391 166 2752 180 2485 18 1479 119 2037 167 1718 193 3641 24 1049 133 362 94 3351 137 1158 
8192 -0.050124981102302346 0.06399675638604371 0.8301884691198397 0 0 0 0.91 154 3188 161 1982 202 1650 57 2338 59 1959 72 1740 99 1315 121 248 171 1474 180 2486 31 949 
8193 -0.09833580832270142 0.08470089781507077 0.815614793342014 0 0 0 0.65 90 1211 122 1057 183 1750 205 1708 212 2119 216 2655 233 1678 
8194 -0.05973973036873639 0.09965234033831628 0.8103072690090161 0 0 0 0.7 122 1058 140 2542 149 2297 151 3723 211 2580 59 1960 23 1847 203 288 
8195 0.28907410740972467 0.1833349493563174 0.7435112058025182 0 0 0 0.3 137 1159 143 1539 144 2402 145 1713 212 2120 31 950 
8196 -0.07913594048201127 0.2039390863430938 0.7329710469662895 0 0 0 0.3 177 1788 183 1751 202 1651 233 1679 
8197 0.06481925764795464 0.23952065022278204 0.7359530127714449 0 0 0 0.61 125 4246 139 2082 144 2403 211 2581 228 3573 45 871 46 2751 55 1735 57 2339 137 1160 30 1102 90 1212 180 2487 68 427 
8198 0.12057564114940442 -0.7152445937738451 1.1446691787999208 0 0 0 0.36 139 2083 205 1709 211 2582 55 1736 
8199 -0.5681297862735819 0.10142589358306742 0.776500240135512 0 0 0 0.71 139 2084 144 2404 211 2583 228 3574 34 2057 37 2381 57 2340 189 1603 
8200 0.12760762627882685 0.04738406349506259 0.7840985926153651 0 0 0 0.84 122 1059 149 2298 161 1983 216 2656 226 1944 233 1680 34 2058 7 2026 
8201 0.32576206440965527 0.09997032712418132 0.8242340117908432 0 0 0 0.45 122 1060 125 4247 191 2126 211 2584 212 2121 228 3575 37 2382 46 2752 57 2341 189 1604 7 2027 133 363 216 2657 
8202 0.49641445647724486 0.09653139493980423 0.8210133673986324 0 0 0 0.44 177 1789 212 2122 228 3576 191 2127 37 2383 45 872 57 2342 189 1605 30 1103 131 1188 150 1130 154 3189 186 1428 168 198 133 364 
8203 -0.18367587757100978 0.17302619284280474 0.7461534046886905 0 0 0 0.48 119 2038 177 1790 191 2128 211 2585 212 2123 216 2658 218 2828 46 2753 189 1606 57 2343 167 1719 
8204 0.09090903265541347 -0.5454541718229663 1.0307034029441542 0 0 0 0.79 94 3352 144 2405 37 2384 55 1737 57 2344 59 1961 86 2355 119 2039 125 4248 137 1161 139 2085 151 3724 161 1984 166 2753 177 1791 189 1607 193 3642 202 1652 205 1710 211 2586 212 2124 215 142 218 2829 131 1189 173 2231 225 451 
8205 -0.03101943827298519 -0.3798659319034656 1.1064864681900293 0 0 0 0.91 132 251 139 2086 211 2587 59 1962 86 2356 102 1392 180 2488 166 2754 173 2232 177 1792 
8206 -0.03876022103627658 -0.35497639773257883 1.0879479664540814 0 0 0 0.4 132 252 139 2087 166 2755 211 2588 
8207 0.5510889160574021 -0.3133898907625757 0.9502572431574653 0 0 0 0.81 137 1162 139 2088 151 3725 154 3190 166 2756 212 2125 233 1681 34 2059 37 2385 45 873 55 1738 59 1963 106 1053 173 2233 31 951 174 283 230 340 
8208 0.2575154076801215 -0.1378722671817425 0.9428693335377909 0 0 0 1.22 137 1163 161 1985 205 1711 233 1682 37 2386 46 2754 59 1964 125 4249 151 3726 166 2757 191 2129 216 2659 183 1752 186 1429 
8209 -0.19987317397337406 0.1675771501200055 0.787365882010274 0 0 0 1.12 116 3948 125 4250 137 1164 140 2543 144 2406 151 3727 153 1217 177 1793 191 2130 193 3643 202 1653 211 2589 212 2126 216 2660 218 2830 55 1739 23 1848 99 1316 131 1190 178 1015 46 2755 59 1965 167 1720 189 1608 8 1410 30 1104 174 284 183 1753 133 365 143 1540 
8210 0.3527866499534787 0.17022535390201715 0.79007449116777 0 0 0 0.58 90 1213 144 2407 191 2131 193 3644 216 2661 228 3577 37 2387 46 2756 55 1740 57 2345 189 1609 30 1105 139 2089 212 2127 233 1683 31 952 186 1430 
8211 -0.37208571965046594 0.20063512859605814 0.7173969074275152 0 0 0 0.6 116 3949 119 2040 140 2544 144 2408 151 3728 154 3191 202 1654 218 2831 228 3578 55 1741 59 1966 137 1165 30 1106 58 2468 72 1741 133 366 8 1411 34 2060 
8212 0.02793415262241448 -0.43933181945443794 0.9794379657578343 0 0 0 0.38 137 1166 139 2090 161 1986 205 1712 211 2590 7 2028 
8213 0.45544387838457545 -0.07685505824507219 0.8785679790289175 0 0 0 0.39 139 2091 191 2132 211 2591 
8214 -0.7938534768420291 0.04064098732638875 0.7638799365298405 0 0 0 0.92 48 710 74 175 153 1218 191 2133 193 3645 212 2128 173 2234 
8215 -0.589805456212109 0.10158551542426938 0.7788892887244686 0 0 0 0.11 137 1167 139 2092 211 2592 
8216 0.1851178955189688 0.113213330842969 0.8057769084758253 0 0 0 0.9 161 1987 183 1754 202 1655 205 1713 233 1684 34 2061 37 2388 46 2757 57 2346 59 1967 94 3353 116 3950 119 2041 125 4251 139 2093 140 2545 143 1541 144 2409 145 1714 149 2299 151 3729 166 2758 177 1794 189 1610 193 3646 212 2129 216 2662 218 2832 226 1945 228 3579 30 1107 8 1412 23 1849 24 1050 31 953 99 1317 131 1191 133 367 178 1016 180 2489 68 428 
8217 0.6767246991338186 0.18322208098729828 0.823465439771426 0 0 0 0.85 116 3951 137 1168 144 2410 151 3730 191 2134 202 1656 212 2130 34 2062 37 2389 57 2347 59 1968 189 1611 
8218 0.5342057017521972 0.1862556443718856 0.7401883300835534 0 0 0 0.75 137 1169 154 3192 202 1657 228 3580 34 2063 37 2390 24 1051 23 1850 121 249 131 1192 168 199 
8219 0.2654908491049413 0.20313833342101364 0.7335421102657 0 0 0 0.73 140 2546 193 3647 228 3581 34 2064 37 2391 202 1658 131 1193 178 1017 218 2833 
8220 0.4867418465283282 0.19288884106388127 0.7479073099479532 0 0 0 0.74 137 1170 140 2547 144 2411 193 3648 228 3582 34 2065 57 2348 59 1969 23 1851 131 1194 150 1131 173 2235 106 1054 168 200 
8221 0.2944435806123576 0.2156360103661838 0.7252077004632103 0 0 0 0.26 137 1171 140 2548 193 3649 216 2663 
8222 0.13964985828597137 -0.518491209898412 0.9863148052425691 0 0 0 1.01 94 3354 116 3952 125 4252 137 1172 139 2094 144 2412 145 1715 151 3731 154 3193 161 1988 166 2759 177 1795 191 2135 193 3650 202 1659 205 1714 211 2593 215 143 226 1946 37 2392 46 2758 55 1742 59 1970 72 1742 86 2357 102 1393 131 1195 183 1755 34 2066 115 112 133 368 189 1612 
8223 0.05351420115691 -0.4439141358124647 1.0055522597235627 0 0 0 1.05 94 3355 116 3953 125 4253 144 2413 145 1716 151 3732 154 3194 166 2760 193 3651 202 1660 212 2131 215 144 34 2067 55 1743 189 1613 131 1196 8 1413 133 369 205 1715 117 481 
8224 0.13390831741155432 0.13373124065331166 0.7686763089842479 0 0 0 0.72 116 3954 119 2042 125 4254 137 1173 140 2549 143 1542 144 2414 145 1717 151 3733 166 2761 183 1756 191 2136 193 3652 202 1661 211 2594 212 2132 216 2664 218 2834 226 1947 228 3583 34 2068 37 2393 46 2759 55 1744 57 2349 59 1971 189 1614 23 1852 30 1108 72 1743 99 1318 102 1394 121 250 131 1197 173 2236 178 1018 180 2490 186 1431 225 452 7 2029 149 2300 8 1414 24 1052 31 954 94 3356 133 370 106 1055 68 429 
8225 0.02979807103382284 0.19263221696215538 0.7365351519339416 0 0 0 1.24 116 3955 144 2415 183 1757 193 3653 228 3584 34 2069 212 2133 46 2760 202 1662 23 1853 121 251 139 2095 180 2491 186 1432 45 874 8 1415 24 1053 31 955 68 430 168 201 90 1214 192 33 131 1198 145 1718 178 1019 
8226 -0.033579311692997986 -0.33790930434275523 0.8447767920435237 0 0 0 1.24 139 2096 161 1989 205 1716 
8227 0.4505338467607787 0.10026740048642366 0.7921598345922982 0 0 0 1.1 202 1663 211 2595 233 1685 37 2394 46 2761 59 1972 189 1615 191 2137 150 1132 
8228 0.024256469979999282 -0.9525307857022883 1.197231970397061 0 0 0 0.55 137 1174 143 1543 210 1074 102 1395 
8229 0.09019172515958346 -0.9117036739095273 1.1946792721690491 0 0 0 0.51 137 1175 151 3734 205 1717 37 2395 131 1199 
8230 -0.023391238997427254 -0.8203532948430715 1.1826750557113166 0 0 0 0.29 137 1176 143 1544 226 1948 
8231 -0.008397562720964851 -0.758340183872739 1.1289835722309085 0 0 0 0.43 94 3357 125 4255 137 1177 139 2097 183 1758 191 2138 202 1664 211 2596 218 2835 226 1949 37 2396 46 2762 86 2358 173 2237 
8232 0.03821411685548253 -0.6841902908284271 1.145061404566456 0 0 0 0.34 137 1178 183 1759 211 2597 37 2397 186 1433 
8233 0.032151839822719734 -0.6426670721037642 1.0330385454032869 0 0 0 0.1 137 1179 161 1990 205 1718 
8234 -0.5908587405179574 -0.3444881617464743 0.9590923427717178 0 0 0 0.69 137 1180 143 1545 183 1760 
8235 0.09134663234286593 -0.5152063914125462 1.1175311440976783 0 0 0 0.25 137 1181 183 1761 211 2598 139 2098 161 1991 205 1719 37 2398 186 1434 
8236 -0.04546104767702424 -0.44856118302034864 0.9591774255985303 0 0 0 0.3 137 1182 139 2099 161 1992 
8237 -0.028387294057759128 -0.3871346457070034 1.1224319432872043 0 0 0 0.14 137 1183 183 1762 226 1950 
8238 0.08942270368275546 -0.4237941906894411 0.9997583142145475 0 0 0 0.3 137 1184 139 2100 161 1993 205 1720 37 2399 7 2030 
8239 -0.04104111717626495 -0.38656921467926614 0.9409889987451605 0 0 0 0.42 125 4256 137 1185 139 2101 166 2762 205 1721 211 2599 212 2134 37 2400 86 2359 183 1763 191 2139 173 2238 226 1951 161 1994 186 1435 
8240 -0.6182289501827867 -0.21668572252352056 0.9014892738221606 0 0 0 0.46 137 1186 153 1219 193 3654 55 1745 102 1396 131 1200 173 2239 191 2140 
8241 -0.025040919687705634 -0.3431444113353863 0.9280808202353982 0 0 0 0.32 137 1187 161 1995 166 2763 55 1746 86 2360 150 1133 
8242 0.13574884089082592 -0.32904976212805476 0.924898256779004 0 0 0 0.53 137 1188 140 2550 161 1996 212 2135 131 1201 117 482 226 1952 
8243 0.10592262768640576 -0.2833475467391111 0.9130228513361802 0 0 0 0.46 137 1189 143 1546 149 2301 151 3735 161 1997 202 1665 205 1722 211 2600 228 3585 34 2070 45 875 55 1747 59 1973 86 2361 122 1061 212 2136 23 1854 72 1744 7 2031 218 2836 
8244 0.01943097395965604 -0.2583511152567764 0.9107500945302878 0 0 0 0.3 94 3358 119 2043 122 1062 125 4257 137 1190 139 2102 140 2551 143 1547 144 2416 145 1719 149 2302 151 3736 154 3195 161 1998 166 2764 177 1796 183 1764 191 2141 193 3655 202 1666 205 1723 210 1075 211 2601 215 145 216 2665 218 2837 226 1953 228 3586 34 2071 37 2401 45 876 46 2763 55 1748 59 1974 86 2362 189 1616 23 1855 30 1109 72 1745 150 1134 173 2240 178 1020 180 2492 186 1436 7 2032 132 253 31 956 106 1056 230 341 
8245 0.009924191785596084 -0.2494724205568474 0.8973666168151159 0 0 0 0.15 137 1191 143 1548 145 1720 
8246 0.08789399024712846 -0.24330536332271038 0.9157345053449832 0 0 0 0.34 137 1192 161 1999 205 1724 211 2602 30 1110 
8247 -0.5686506831305457 -0.09094475409041086 0.8360437395037962 0 0 0 0.3 137 1193 144 2417 218 2838 226 1954 
8248 -0.6189700056599593 -0.06494247163740133 0.8296104136576916 0 0 0 0.27 58 2469 137 1194 153 1220 218 2839 102 1397 
8249 -0.03545701966353645 -0.1606404326891391 0.8677666584715367 0 0 0 0.14 137 1195 161 2000 228 3587 55 1749 
8250 -0.48360096304111777 -0.07809342192516344 0.8655367455417752 0 0 0 0.31 58 2470 116 3956 137 1196 144 2418 151 3737 153 1221 154 3196 183 1765 193 3656 211 2603 218 2840 228 3588 132 254 145 1721 216 2666 46 2764 57 2350 86 2363 94 3359 37 2402 23 1856 173 2241 102 1398 131 1202 167 1721 
8251 0.11986623622863993 -0.18098278339841328 0.8677165054140918 0 0 0 0.5 137 1197 149 2303 183 1766 216 2667 37 2403 46 2765 57 2351 125 4258 151 3738 189 1617 186 1437 
8252 -0.04399468710905547 -0.15308198323432046 0.8542069300204195 0 0 0 0.35 137 1198 139 2103 151 3739 161 2001 205 1725 55 1750 228 3589 
8253 -0.2762638567654749 -0.09070715984634437 0.8550734235599912 0 0 0 0.16 137 1199 151 3740 161 2002 
8254 -0.04332445952716615 -0.12998877010087562 0.8453241231762489 0 0 0 0.42 137 1200 151 3741 161 2003 205 1726 149 2304 154 3197 212 2137 228 3590 34 2072 144 2419 23 1857 7 2033 
8255 -0.2644800705500145 -0.07572076364851686 0.8687080348401066 0 0 0 0.4 137 1201 151 3742 154 3198 161 2004 177 1797 193 3657 218 2841 228 3591 37 2404 171 1475 233 1686 45 877 86 2364 
8256 -0.5571863933902136 -0.0341194666109558 0.839977435330678 0 0 0 0.39 51 866 58 2471 94 3360 116 3957 125 4259 137 1202 139 2104 144 2420 145 1722 151 3743 154 3199 161 2005 166 2765 183 1767 193 3658 211 2604 212 2138 216 2668 218 2842 226 1955 228 3592 34 2073 37 2405 46 2766 55 1751 57 2352 189 1618 102 1399 167 1722 
8257 0.07514657344327819 -0.1064165249187217 0.8135675944186446 0 0 0 0.56 137 1203 139 2105 161 2006 205 1727 
8258 0.7325361309937256 -0.2067249606765403 0.784190728107684 0 0 0 0.41 137 1204 144 2421 205 1728 228 3593 23 1858 150 1135 180 2493 
8259 0.01779546605563503 -0.08700178609415257 0.8449657170860881 0 0 0 0.37 94 3361 116 3958 137 1205 140 2552 144 2422 145 1723 151 3744 177 1798 183 1768 193 3659 205 1729 211 2605 212 2139 218 2843 226 1956 228 3594 34 2074 46 2767 55 1752 57 2353 59 1975 86 2365 139 2106 23 1859 72 1746 173 2242 180 2494 8 1416 31 957 106 1057 117 483 30 1111 7 2034 186 1438 
8260 -0.5098086173524524 -0.01036573658406571 0.8349401480895394 0 0 0 0.27 137 1206 144 2423 151 3745 153 1222 183 1769 193 3660 218 2844 226 1957 189 1619 23 1860 72 1747 173 2243 
8261 0.7781925183916923 -0.22880054838699143 0.6686110258828876 0 0 0 0.59 137 1207 205 1730 216 2669 
8262 0.7355852423219388 -0.20126687613181712 0.7433026095473132 0 0 0 0.64 137 1208 161 2007 205 1731 216 2670 106 1058 177 1799 
8263 -0.2800003858230904 -0.03394667647446753 0.8373552711132525 0 0 0 0.85 137 1209 161 2008 228 3595 46 2768 86 2366 
8264 0.5333343016670219 -0.12824142550165243 0.9372342732131284 0 0 0 0.67 137 1210 211 2606 228 3596 55 1753 166 2766 30 1112 154 3200 178 1021 150 1136 
8265 0.04446562047314014 -0.08181265097522279 0.8269255769079762 0 0 0 0.42 90 1215 125 4260 137 1211 140 2553 144 2424 145 1724 161 2009 177 1800 183 1770 191 2142 205 1732 212 2140 218 2845 228 3597 34 2075 59 1976 23 1861 57 2354 72 1748 173 2244 180 2495 8 1417 106 1059 45 878 117 484 150 1137 
8266 0.730977734562305 -0.2170944821155318 0.637230097171474 0 0 0 0.33 137 1212 139 2107 140 2554 145 1725 161 2010 177 1801 205 1733 143 1549 191 2143 212 2141 216 2671 228 3598 233 1687 55 1754 23 1862 150 1138 180 2496 99 1319 102 1400 171 1476 8 1418 106 1060 
8267 0.7328795131792191 -0.2072708955069282 0.6402297191413476 0 0 0 0.36 137 1213 144 2425 154 3201 161 2011 205 1734 216 2672 228 3599 57 2355 23 1863 99 1320 102 1401 131 1203 140 2555 150 1139 177 1802 180 2497 31 958 106 1061 
8268 -0.41363831654469374 -0.001833847206240151 0.8409874005473147 0 0 0 0.4 58 2472 116 3959 125 4261 137 1214 140 2556 143 1550 144 2426 145 1726 153 1223 154 3202 166 2767 183 1771 193 3661 216 2673 218 2846 55 1755 57 2356 23 1864 72 1749 102 1402 173 2245 180 2498 18 1480 7 2035 94 3362 167 1723 8 1419 
8269 -0.1806185769999007 -0.02605495899770205 0.8624243325047646 0 0 0 0.38 58 2473 94 3363 116 3960 119 2044 125 4262 132 255 137 1215 139 2108 140 2557 143 1551 144 2427 145 1727 149 2305 151 3746 153 1224 154 3203 161 2012 166 2768 177 1803 183 1772 191 2144 193 3662 202 1667 205 1735 210 1076 211 2607 218 2847 226 1958 228 3600 233 1688 34 2076 37 2406 46 2769 55 1756 57 2357 59 1977 86 2367 189 1620 23 1865 30 1113 72 1750 99 1321 102 1403 121 252 131 1204 150 1140 178 1022 180 2499 7 2036 167 1724 
8270 0.7780494447762688 -0.21145700439704515 0.6100914412876965 0 0 0 0.44 137 1216 140 2558 191 2145 143 1552 55 1757 189 1621 59 1978 150 1141 
8271 -0.3367106333378947 -0.006684641245547553 0.8493051444250189 0 0 0 0.35 137 1217 145 1728 183 1773 191 2146 37 2407 55 1758 34 2077 46 2770 119 2045 125 4263 139 2109 140 2559 144 2428 151 3747 154 3204 161 2013 189 1622 205 1736 212 2142 226 1959 228 3601 30 1114 58 2474 150 1142 216 2674 
8272 -0.7361541678074895 0.024983153547984627 0.734853395573404 0 0 0 0.47 137 1218 144 2429 145 1729 
8273 0.737062778864806 -0.17121079829421543 0.7185005879581703 0 0 0 0.22 137 1219 144 2430 216 2675 228 3602 233 1689 150 1143 180 2500 
8274 -0.27410614766660824 0.005353093844771713 0.8611283246082906 0 0 0 0.34 58 2475 116 3961 125 4264 137 1220 145 1730 161 2014 205 1737 228 3603 55 1759 150 1144 183 1774 
8275 -0.2337944898007894 0.0024914150732622885 0.8500727501573297 0 0 0 0.18 137 1221 161 2015 205 1738 233 1690 
8276 -0.22682227309456765 0.005086808275653231 0.8495034274471613 0 0 0 0.4 137 1222 149 2306 161 2016 183 1775 205 1739 233 1691 
8277 -0.214765083151778 0.012506563362840454 0.8551418978480082 0 0 0 0.18 137 1223 161 2017 233 1692 
8278 0.7355860952967406 -0.12638546366281947 0.7571374699253477 0 0 0 0.38 137 1224 139 2110 144 2431 161 2018 216 2676 228 3604 233 1693 140 2560 171 1477 193 3663 23 1866 99 1322 150 1145 180 2501 210 1077 106 1062 68 431 78 19 
8279 0.7269117570783371 -0.1425437461215866 0.6734374800685984 0 0 0 0.29 137 1225 140 2561 143 1553 144 2432 145 1731 161 2019 177 1804 191 2147 202 1668 205 1740 212 2143 216 2677 228 3605 55 1760 57 2358 59 1979 189 1623 23 1867 30 1115 72 1751 131 1205 150 1146 233 1694 106 1063 
8280 -0.41059104177847067 0.037788765919435495 0.8276947758815903 0 0 0 0.61 94 3364 116 3962 119 2046 125 4265 137 1226 144 2433 149 2307 151 3748 161 2020 183 1776 191 2148 193 3664 211 2608 212 2144 216 2678 218 2848 228 3606 143 1554 166 2769 37 2408 46 2771 51 867 55 1761 57 2359 59 1980 86 2368 189 1624 202 1669 226 1960 131 1206 178 1023 180 2502 72 1752 153 1225 171 1478 7 2037 45 879 167 1725 8 1420 24 1054 34 2078 102 1404 58 2476 133 371 168 202 
8281 -0.11621312959303418 0.011560240473458721 0.8526977972193067 0 0 0 0.42 119 2047 137 1227 139 2111 149 2308 183 1777 191 2149 202 1670 210 1078 211 2609 216 2679 228 3607 34 2079 154 3205 166 2770 193 3665 218 2849 37 2409 46 2772 55 1762 186 1439 18 1481 102 1405 171 1479 173 2246 180 2503 23 1868 167 1726 72 1753 99 1323 168 203 177 1805 
8282 0.4715898538523652 -0.05134856789474731 0.8739448710076565 0 0 0 0.25 137 1228 154 3206 226 1961 
8283 0.7379641769554581 -0.11083614422767407 0.7521749532175132 0 0 0 0.51 116 3963 137 1229 139 2112 140 2562 144 2434 161 2021 205 1741 216 2680 228 3608 233 1695 210 1079 86 2369 99 1324 102 1406 131 1207 150 1147 171 1480 180 2504 23 1869 8 1421 174 285 
8284 0.7415174731310995 -0.18672642895897934 0.4493554490306441 0 0 0 0.25 137 1230 140 2563 177 1806 191 2150 202 1671 23 1870 72 1754 150 1148 106 1064 78 20 
8285 0.3442495906259559 -0.02933964304011789 0.861365820628312 0 0 0 0.65 137 1231 144 2435 191 2151 193 3666 212 2145 34 2080 68 432 
8286 0.7228316448122976 -0.09105547208727044 0.7438483428696454 0 0 0 0.4 119 2048 137 1232 139 2113 140 2564 143 1555 144 2436 161 2022 177 1807 191 2152 205 1742 228 3609 233 1696 57 2360 189 1625 212 2146 59 1981 86 2370 99 1325 178 1024 180 2505 225 453 8 1422 31 959 68 433 
8287 -0.26913388867267224 0.04557472572468582 0.8406323002347003 0 0 0 0.23 137 1233 161 2023 205 1743 
8288 0.5303643026724562 -0.03385888748419202 0.8377099605265403 0 0 0 0.25 94 3365 119 2049 122 1063 125 4266 137 1234 140 2565 149 2309 151 3749 166 2771 177 1808 193 3667 210 1080 211 2610 212 2147 216 2681 218 2850 228 3610 233 1697 34 2081 37 2410 45 880 46 2773 55 1763 57 2361 86 2371 99 1326 131 1208 150 1149 173 2247 180 2506 230 342 
8289 2.118255874125747 -0.007912127817483912 1.566275085226278 0 0 0 0.66 119 2050 137 1235 191 2153 
8290 0.7182758642084797 -0.10647350233766437 0.6309871249738866 0 0 0 0.36 137 1236 140 2566 144 2437 145 1732 212 2148 228 3611 106 1065 78 21 
8291 0.7152644680062321 -0.11116066260886322 0.6173113102152139 0 0 0 0.34 119 2051 137 1237 139 2114 140 2567 145 1733 161 2024 212 2149 228 3612 55 1764 57 2362 30 1116 72 1755 150 1150 180 2507 171 1481 24 1055 31 960 106 1066 
8292 0.7157516071490443 -0.10403173075670029 0.6194825614846395 0 0 0 0.35 119 2052 137 1238 139 2115 140 2568 144 2438 145 1734 154 3207 161 2025 177 1809 205 1744 212 2150 228 3613 55 1765 57 2363 59 1982 189 1626 30 1117 150 1151 106 1067 
8293 0.7272551000997171 -0.13169225717549193 0.5128105046327217 0 0 0 0.38 137 1239 140 2569 177 1810 55 1766 57 2364 59 1983 139 2116 191 2154 30 1118 99 1327 180 2508 216 2682 8 1423 72 1756 106 1068 
8294 0.7272200028959642 -0.11373051806108216 0.5551618918713784 0 0 0 0.41 137 1240 144 2439 216 2683 72 1757 150 1152 233 1698 24 1056 106 1069 
8295 0.7487627258013101 -0.02730918790200702 0.8673897578191561 0 0 0 0.37 137 1241 166 2772 211 2611 99 1328 122 1064 180 2509 186 1440 
8296 0.728978875929771 -0.12218292558864584 0.5106371185946103 0 0 0 0.46 137 1242 139 2117 140 2570 143 1556 177 1811 191 2155 216 2684 55 1767 59 1984 30 1119 72 1758 99 1329 150 1153 180 2510 233 1699 8 1424 106 1070 68 434 
8297 3.135641999165757 -0.0001570667964550485 1.8188828850902696 0 0 0 1.48 137 1243 144 2440 145 1735 
8298 -0.0985094309809447 0.051576163084001696 0.8300443814642446 0 0 0 1.13 137 1244 140 2571 151 3750 218 2851 226 1962 228 3614 45 881 46 2774 55 1768 94 3366 125 4267 154 3208 205 1745 210 1081 211 2612 23 1871 72 1759 99 1330 116 3964 177 1812 18 1482 171 1482 31 961 203 289 230 343 34 2082 57 2365 86 2372 139 2118 173 2248 180 2511 68 435 
8299 0.5267131344573321 -0.007107831241040718 0.8322607335946276 0 0 0 0.47 94 3367 122 1065 137 1245 139 2119 140 2572 143 1557 144 2441 149 2310 151 3751 166 2773 177 1813 210 1082 212 2151 216 2685 226 1963 55 1769 72 1760 99 1331 150 1154 180 2512 18 1483 106 1071 
8300 0.7258863315894134 -0.09399407021902932 0.551200528724382 0 0 0 0.4 137 1246 139 2120 140 2573 216 2686 59 1985 72 1761 99 1332 150 1155 233 1700 143 1558 24 1057 57 2366 106 1072 
8301 0.727528991592443 -0.10717199621147741 0.49851884939495344 0 0 0 0.54 137 1247 139 2121 140 2574 143 1559 177 1814 202 1672 216 2687 55 1770 57 2367 59 1986 30 1120 72 1762 99 1333 102 1407 150 1156 180 2513 233 1701 8 1425 24 1058 31 962 106 1073 
8302 0.7279620374367319 -0.10339268278087249 0.5083833047541727 0 0 0 0.42 137 1248 139 2122 140 2575 143 1560 177 1815 216 2688 57 2368 59 1987 189 1627 30 1121 72 1763 99 1334 102 1408 150 1157 180 2514 8 1426 24 1059 31 963 106 1074 
