# 3D point list with one line of data per point:
#   POINT3D_ID, X, Y, Z, R, G, B, ERROR, TRACK[] as (IMAGE_ID, POINT2D_IDX)
# Number of points: 393, mean track length: 5.79
66 0.0850887427944134 0.09329715978064564 0.972622889608173 0 0 0 0.29 4 49 16 23 28 25 109 12 110 14 201 58 214 19 
67 0.1413419333990419 0.09728501963975524 0.9632287356113037 0 0 0 0.23 4 50 28 26 85 19 109 13 110 15 146 32 194 16 201 59 213 31 214 20 
68 0.14134146435952202 0.09728682845965009 0.9632535677677425 0 0 0 0.22 4 51 28 27 85 20 109 14 110 16 146 33 187 26 194 17 201 60 213 32 214 21 
69 0.08192526293884861 -0.1332728677396749 1.0028918708562948 0 0 0 0.3 4 52 9 8 16 24 17 5 38 23 39 4 44 15 77 20 124 17 146 34 157 12 164 13 201 61 213 33 214 22 
70 0.10600193977589441 -0.12368750928732457 1.0003439815271387 0 0 0 0.23 4 53 28 28 39 5 98 7 112 14 146 35 157 13 176 20 187 27 201 62 214 23 
71 0.3193294223347884 -0.08257289830381168 0.9918211108001862 0 0 0 0.41 4 54 9 9 13 18 38 24 91 6 92 22 146 36 194 18 197 9 201 63 
72 0.2107198116440539 -0.0835445092193511 0.9950578224819732 0 0 0 0.24 4 55 13 19 15 2 28 29 91 7 92 23 98 8 118 8 148 16 176 21 194 19 201 64 213 34 234 11 
73 0.26781623261902543 -0.08271870713883411 0.9927028130356285 0 0 0 0.26 4 56 13 20 28 30 112 15 176 22 197 10 201 65 234 12 
74 0.26795968682674853 -0.08276636955371741 0.9928812808964754 0 0 0 0.24 4 57 13 21 15 3 28 31 112 16 176 23 201 66 234 13 
75 0.1184970586593471 -0.08492070357700987 0.9966661802426059 0 0 0 0.26 4 58 9 10 13 22 16 25 28 32 38 25 50 16 77 21 85 21 91 8 92 24 93 11 98 9 109 15 112 17 124 18 135 7 146 37 157 14 175 14 187 28 194 20 201 67 213 35 214 24 
76 0.15852245578263224 -0.08432178650657426 0.9967048133918132 0 0 0 0.27 4 59 9 11 13 23 16 26 28 33 38 26 39 6 44 16 61 5 85 22 92 25 93 12 109 16 112 18 124 19 135 8 164 14 176 24 187 29 201 68 213 36 214 25 234 14 
77 0.17785988004763814 -0.08385549641145262 0.9957461283232586 0 0 0 0.24 4 60 13 24 92 26 118 9 172 0 201 69 214 26 
78 0.2052887676579975 -0.08350571604189676 0.9947968652687827 0 0 0 0.31 4 61 9 12 11 25 13 25 39 7 44 17 85 23 91 9 128 1 164 15 175 15 201 70 213 37 214 27 
79 0.07634634444988067 -0.08491367401667554 0.9986453092290611 0 0 0 0.29 4 62 9 13 11 26 13 26 15 4 16 27 28 34 36 5 38 27 39 8 44 18 50 17 61 6 77 22 92 27 109 17 110 17 112 19 118 10 146 38 152 1 158 5 175 16 176 25 201 71 213 38 214 28 
80 0.08516365330836179 -0.0831118388673332 0.998872514277355 0 0 0 0.34 4 63 11 27 28 35 77 23 85 24 92 28 109 18 110 18 112 20 118 11 128 2 148 17 157 15 176 26 194 21 201 72 213 39 
81 0.22694335570736612 -0.08049344748664776 0.9939574606248542 0 0 0 0.32 4 64 13 27 85 25 91 10 92 29 124 20 148 18 164 16 194 22 201 73 213 40 
82 0.13785468512519708 0.043226745365818574 0.9694104989027603 0 0 0 0.21 4 65 9 14 11 28 13 28 28 36 44 19 50 18 61 7 92 30 98 10 112 21 135 9 146 39 175 17 176 27 187 30 197 11 201 74 213 41 231 6 234 15 
83 0.06587175653254655 0.04344228924693003 0.9765701310611496 0 0 0 0.19 4 66 11 29 201 75 204 5 213 42 232 2 
84 0.10081054179170033 0.04405119116360585 0.9738623924244967 0 0 0 0.3 4 67 9 15 44 20 128 3 135 10 152 2 176 28 201 76 232 3 
85 0.13614299488094037 0.04477021251962282 0.9709201894322583 0 0 0 0.27 4 68 11 30 13 29 15 5 16 28 28 37 44 21 53 4 92 31 98 11 112 22 118 12 135 11 146 40 176 29 187 31 201 77 204 6 231 7 234 16 
86 0.09604180611947209 0.04856474911784413 0.9767206631474901 0 0 0 0.26 4 69 9 16 11 31 16 29 17 6 44 22 50 19 61 8 77 24 93 13 118 13 128 4 135 12 164 17 201 78 204 7 232 4 
87 0.19392908085051505 0.051298181263690526 0.973449391148902 0 0 0 0.26 4 70 9 17 28 38 44 23 91 11 112 23 146 41 157 16 164 18 175 18 187 32 201 79 213 43 214 29 
88 0.3396288012359118 0.05987994128515552 0.9646621052212762 0 0 0 0.43 4 71 11 32 28 39 61 9 77 25 85 26 92 32 148 19 164 19 176 30 187 33 194 23 201 80 213 44 
89 0.27802187245011223 0.05957142712363263 0.9666024625210619 0 0 0 0.21 4 72 13 30 28 40 38 28 110 19 148 20 164 20 187 34 194 24 201 81 
90 0.30277205674609553 0.0601401214160116 0.9686214128475873 0 0 0 0.22 4 73 15 6 77 26 146 42 164 21 176 31 201 82 204 8 213 45 
91 0.35206874475079636 0.060465011531107976 0.9645337799292696 0 0 0 0.36 4 74 50 20 146 43 176 32 201 83 
92 0.06851601079674369 0.05702883939200533 0.9734034939252546 0 0 0 0.24 4 75 9 18 11 33 15 7 16 30 17 7 28 41 38 29 44 24 53 5 77 27 85 27 118 14 146 44 148 21 176 33 187 35 188 6 197 12 201 84 213 46 214 30 231 8 232 5 
93 0.13906290574238736 0.05793214832560628 0.9689243453809913 0 0 0 0.32 4 76 11 34 16 31 17 8 28 42 53 6 77 28 109 19 118 15 128 5 146 45 164 22 176 34 187 36 194 25 197 13 201 85 204 9 213 47 231 9 232 6 
94 0.06360981563363675 0.05711089878757633 0.9743907682040309 0 0 0 0.35 4 77 11 35 28 43 44 25 112 24 124 21 146 46 157 17 175 19 187 37 213 48 231 10 
95 0.14244073513580507 0.06088817944469378 0.9687055466816298 0 0 0 0.32 4 78 28 44 38 30 77 29 91 12 109 20 118 16 148 22 176 35 187 38 194 26 197 14 201 86 204 10 213 49 234 17 
96 0.1373162373412178 0.06768835093023454 0.9687310118030118 0 0 0 0.21 4 79 11 36 16 32 77 30 92 33 109 21 110 20 201 87 213 50 223 6 
97 0.13714830106449183 0.07285232878412005 0.9677437636152146 0 0 0 0.26 4 80 11 37 28 45 38 31 77 31 91 13 109 22 110 21 194 27 201 88 214 31 223 7 234 18 
98 0.09797394338181281 0.0731352145144364 0.9704475960015935 0 0 0 0.18 4 81 11 38 28 46 201 89 223 8 
99 0.10078271085797683 0.07673469947438177 0.9699210454545322 0 0 0 0.34 4 82 11 39 16 33 28 47 36 6 77 32 85 28 92 34 110 22 176 36 187 39 201 90 213 51 214 32 223 9 234 19 
100 0.06865791420456388 0.08193300736188587 0.9709369520716321 0 0 0 0.15 4 83 11 40 16 34 17 9 28 48 53 7 77 33 110 23 118 17 146 47 148 23 187 40 201 91 214 33 223 10 232 7 234 20 
101 0.10015696798860997 0.08261120993503358 0.9692671176636733 0 0 0 0.32 4 84 11 41 17 10 38 32 53 8 77 34 92 35 110 24 118 18 164 23 201 92 204 11 223 11 234 21 
102 0.3975628076014538 0.0303187616618299 0.9840484699146193 0 0 0 0.21 4 85 17 11 53 9 92 36 110 25 172 1 201 93 204 12 213 52 
103 0.34025274273442474 0.03715433128427381 0.9690292512716245 0 0 0 0.16 4 86 15 8 53 10 176 37 201 94 204 13 
104 0.09210824968470087 0.0552547832949863 0.9746735885774083 0 0 0 0.3 4 87 17 12 118 19 176 38 
105 0.3441636962569601 0.05990712886631816 0.963779512419272 0 0 0 0.22 4 88 11 42 15 9 17 13 28 49 53 11 77 35 85 29 91 14 92 37 118 20 128 6 146 48 148 24 165 2 176 39 187 41 194 28 197 15 201 95 204 14 213 53 232 8 234 22 235 3 
106 0.20965472764787405 0.05853808877093594 0.967592207300715 0 0 0 0.17 4 89 11 43 17 14 28 50 77 36 92 38 146 49 187 42 201 96 204 15 213 54 214 34 232 9 234 23 
107 0.20978367281423724 0.05854213020774417 0.9677758684540814 0 0 0 0.19 4 90 11 44 28 51 53 12 77 37 85 30 91 15 92 39 110 26 118 21 146 50 148 25 164 24 176 40 187 43 194 29 201 97 214 35 232 10 234 24 
108 0.3823621950605996 0.06758411941324019 0.9683286678985591 0 0 0 0.39 4 91 11 45 44 26 50 21 53 13 61 10 77 38 118 22 128 7 158 6 201 98 
109 0.06693801254720132 0.0673961081143304 0.9730754944950939 0 0 0 0.24 4 92 11 46 15 10 16 35 17 15 28 52 53 14 77 39 85 31 118 23 146 51 148 26 164 25 176 41 194 30 201 99 213 55 214 36 223 12 232 11 
110 0.2668978645689241 -0.08671914835538956 0.9942397912407916 0 0 0 0.47 4 93 11 47 15 11 61 11 98 12 146 52 148 27 201 100 
111 0.08500939190122445 0.04667884276790146 0.9794119860357736 0 0 0 0.2 4 94 15 12 16 36 17 16 50 22 61 12 77 40 85 32 109 23 110 27 112 25 118 24 128 8 146 53 152 3 158 7 176 42 194 31 201 101 204 16 213 56 232 12 234 25 
112 0.08510342473966229 0.046670612995259854 0.9793037353224692 0 0 0 0.07 4 95 16 37 50 23 175 20 176 43 194 32 204 17 234 26 
113 0.09014093172515714 0.04602425005063215 0.9769105426223786 0 0 0 0.32 4 96 11 48 15 13 16 38 28 53 50 24 61 13 98 13 110 28 112 26 118 25 128 9 146 54 152 4 158 8 175 21 176 44 187 44 201 102 204 18 234 27 
114 0.09013783320068093 0.04605922910691845 0.9769200889905195 0 0 0 0.37 4 97 11 49 13 31 15 14 16 39 17 17 28 54 38 33 50 25 61 14 110 29 112 27 118 26 128 10 146 55 158 9 172 2 175 22 176 45 187 45 201 103 204 19 234 28 
115 0.20989714608244114 0.06556279787816595 0.9679429749655336 0 0 0 0.3 4 98 11 50 15 15 28 55 53 15 77 41 118 27 146 56 187 46 194 33 201 104 204 20 213 57 214 37 234 29 
116 0.276731911567148 0.08318279358699095 0.9635820195600524 0 0 0 0.33 4 99 11 51 53 16 77 42 85 33 172 3 197 16 201 105 213 58 234 30 
117 0.037484413096928244 -0.0906604998584659 1.0022980178658152 0 0 0 0.14 9 19 13 32 201 106 
118 0.08717519913177126 -0.08778129899926315 0.9995092949580876 0 0 0 0.21 9 20 13 33 16 40 44 27 50 26 92 40 98 14 124 22 146 57 175 23 176 46 187 47 201 107 214 38 
119 0.12300982178913726 -0.08490059361153308 0.9963652621560165 0 0 0 0.15 9 21 13 34 39 9 44 28 92 41 93 14 98 15 124 23 175 24 201 108 
120 0.10535402588488835 -0.08516286426324716 0.9972906936511138 0 0 0 0.29 9 22 13 35 16 41 28 56 39 10 92 42 93 15 109 24 110 30 135 13 187 48 201 109 
121 0.10269556296012583 -0.08492785412848138 0.9964171010545815 0 0 0 0.41 9 23 13 36 92 43 93 16 135 14 201 110 
122 0.06802106549040338 -0.08270180007439434 0.9983326252995556 0 0 0 0.19 9 24 13 37 201 111 
123 0.11972903692731685 -0.023567420239144432 0.9878311022655109 0 0 0 0.25 9 25 13 38 28 57 98 16 124 24 146 58 157 18 164 26 175 25 176 47 201 112 214 39 231 11 
124 0.1612028542931767 -0.02034454399965125 0.9872619849330423 0 0 0 0.25 9 26 201 113 214 40 
125 0.25288707649781383 0.03255778360087092 0.9722430856781061 0 0 0 0.19 9 27 175 26 201 114 
126 0.03714559897805457 0.032263853542618626 0.9802870655729425 0 0 0 0.22 9 28 109 25 176 48 231 12 
127 0.24340361476839828 0.048605421364041904 0.9670959045595758 0 0 0 0.2 9 29 112 28 146 59 175 27 176 49 187 49 201 115 213 59 
128 0.3148028559642793 0.0653306847185111 0.9628688787199398 0 0 0 0.42 13 39 124 25 201 116 
129 0.19507917746658374 -0.14835801746827063 1.0041431372174718 0 0 0 0.14 9 30 13 40 92 44 201 117 
130 0.38237665135127946 -0.10401922726539903 0.9923973821395494 0 0 0 0.29 9 31 92 45 201 118 
131 0.22700169055858466 -0.08054532310347316 0.9940229933651965 0 0 0 0.31 9 32 11 52 13 41 39 11 44 29 61 15 85 34 92 46 93 17 112 29 146 60 148 28 176 50 194 34 201 119 
132 0.04222609111343264 -0.08854729389616968 1.0019269095066614 0 0 0 0.36 9 33 13 42 16 42 50 27 53 17 92 47 93 18 124 26 135 15 201 120 
133 0.1683710128472233 -0.07691163953419296 0.9958170364998886 0 0 0 0.24 9 34 28 58 36 7 124 27 187 50 197 17 201 121 213 60 
134 0.13619817342637647 0.044744479310318074 0.9710840850468067 0 0 0 0.3 9 35 16 43 112 30 118 28 124 28 128 11 146 61 201 122 232 13 
135 0.14755561985148422 0.07958259340540612 0.9641970978362913 0 0 0 0.35 9 36 38 34 234 31 
136 0.3552175319835216 -0.14059835600565404 1.0269425371778331 0 0 0 0.34 44 30 61 16 92 48 118 29 124 29 201 123 
137 0.08819160341818197 -0.13840657337426865 0.9974336804948072 0 0 0 0.23 9 37 135 16 201 124 
138 0.07371432902421218 -0.12204180843858689 1.0042794169504043 0 0 0 0.4 9 38 109 26 201 125 
139 0.14250909590383548 -0.08227784244767275 0.9956833302070535 0 0 0 0.21 9 39 13 43 61 17 92 49 124 30 146 62 201 126 
140 0.3413858602546285 0.04630688556387655 0.9672769924409081 0 0 0 0.28 17 18 44 31 50 28 77 43 146 63 176 51 197 18 201 127 232 14 
141 0.23519886715894503 -0.08689683250019357 0.9941909764918858 0 0 0 0.42 9 40 13 44 50 29 53 18 92 50 201 128 232 15 
142 0.2161018335027814 -0.08732340297748133 0.9961270980223351 0 0 0 0.21 9 41 13 45 38 35 53 19 77 44 91 16 92 51 118 30 124 31 194 35 197 19 201 129 213 61 
143 0.20344719834999409 -0.08709252864220933 0.9961915300452732 0 0 0 0.25 9 42 13 46 28 59 53 20 61 18 92 52 112 31 176 52 194 36 197 20 201 130 204 21 214 41 234 32 
144 0.21102194523280954 -0.08704669804361778 0.9960824902858915 0 0 0 0.22 9 43 13 47 61 19 91 17 92 53 109 27 112 32 135 17 164 27 176 53 194 37 197 21 201 131 204 22 214 42 234 33 
145 0.23629181457044587 0.06018199606924261 0.9709544952160319 0 0 0 0.1 92 54 118 31 146 64 164 28 176 54 204 23 232 16 
146 0.22754060192045647 0.05862614695638656 0.9696842007123821 0 0 0 0.22 9 44 53 21 201 132 204 24 232 17 
147 0.05344653452257104 -0.082888242981998 0.9991760463508677 0 0 0 0.27 11 53 77 45 148 29 201 133 
148 0.053551512367892115 -0.08297593723153682 0.9995050108527371 0 0 0 0.28 11 54 77 46 201 134 
149 0.07765863095951946 0.046614226827471635 0.9764611698554427 0 0 0 0.26 11 55 13 48 16 44 28 60 50 30 98 17 124 32 146 65 157 19 175 28 176 55 187 51 197 22 213 62 231 13 
150 0.0577681206879736 0.05069924209390287 0.9818720240546971 0 0 0 0.07 11 56 146 66 201 135 
151 0.05778425414930277 0.050704081001639256 0.9818086214780701 0 0 0 0.12 11 57 146 67 175 29 201 136 
152 0.059676944725802566 0.05156561705371256 0.9815191903864927 0 0 0 0.04 11 58 157 20 201 137 
153 0.05947852632557485 0.05164571942412074 0.9808440569937316 0 0 0 0.1 11 59 16 45 124 33 146 68 157 21 175 30 187 52 213 63 231 14 
154 0.07013658840907745 0.05196702015229227 0.9722719873177653 0 0 0 0.24 11 60 13 49 16 46 38 36 92 55 112 33 146 69 187 53 201 138 214 43 
155 0.06255211239912796 0.060325888129630245 0.9743877908505728 0 0 0 0.21 11 61 98 18 188 7 231 15 
156 0.03528094784197224 0.06482024432649479 0.9759304501863713 0 0 0 0.14 11 62 16 47 124 34 157 22 175 31 213 64 214 44 231 16 
157 0.07090634476476737 0.07792882762867828 0.971178509815041 0 0 0 0.2 11 63 38 37 85 35 194 38 201 139 214 45 
158 0.2732768013586575 0.08034979581599123 0.9642107116627692 0 0 0 0.33 11 64 146 70 148 30 201 140 
159 0.2807010353441188 0.08660234433140279 0.9628022731781675 0 0 0 0.42 11 65 28 61 77 47 187 54 201 141 213 65 
160 0.03611730560070079 0.09161549755773281 0.9716824273737089 0 0 0 0.25 11 66 16 48 28 62 38 38 93 19 146 71 175 32 187 55 201 142 213 66 214 46 
161 0.20896822708108956 0.09255181325674632 0.9636952229754726 0 0 0 0.23 11 67 13 50 28 63 93 20 146 72 187 56 201 143 213 67 
162 0.06592097695011896 0.09492508619558358 0.9691167202766063 0 0 0 0.07 11 68 16 49 187 57 188 8 201 144 213 68 
163 0.2632881887458208 0.0944750041173511 0.9652466398933095 0 0 0 0.06 11 69 91 18 201 145 
164 0.14121377103609234 0.09464786171076929 0.9635691134460405 0 0 0 0.26 11 70 28 64 38 39 77 48 109 28 110 31 187 58 194 39 201 146 213 69 214 47 223 13 
165 0.14312606210562215 0.09594916777112879 0.9630237428997084 0 0 0 0.18 11 71 38 40 91 19 110 32 187 59 194 40 213 70 214 48 234 34 
166 0.18034536142669322 0.09786720819661217 0.962844741058105 0 0 0 0.28 11 72 91 20 201 147 
167 0.23248485837632618 -0.08303351786235198 0.9939408810160175 0 0 0 0.25 11 73 13 51 28 65 39 12 50 31 112 34 124 35 135 18 146 73 148 31 157 23 164 29 172 4 175 33 176 56 187 60 201 148 213 71 
168 0.20435137418962585 0.04798174875010081 0.9711156362677281 0 0 0 0.22 11 74 28 66 44 32 50 32 61 20 77 49 112 35 118 32 146 74 157 24 158 10 176 57 187 61 197 23 201 149 213 72 
169 0.0353581557916986 0.057200267557893085 0.9753715285099879 0 0 0 0.23 11 75 16 50 17 19 28 67 50 33 53 22 61 21 92 56 118 33 124 36 146 75 157 25 175 34 187 62 188 9 204 25 213 73 214 49 231 17 
170 0.36977101605576174 0.05639545186798115 0.9698468371913049 0 0 0 0.22 28 68 50 34 176 58 201 150 
171 0.1578861103400243 0.058585982212828965 0.9722259618893203 0 0 0 0.16 11 76 28 69 176 59 201 151 232 18 234 35 
172 0.1333997196856235 0.06084591246913692 0.9705200691527389 0 0 0 0.19 11 77 15 16 16 51 61 22 128 12 176 60 201 152 204 26 
173 0.10144336158959444 0.07103380350288392 0.9710938898130432 0 0 0 0.42 11 78 13 52 92 57 201 153 213 74 
174 0.25715080323581424 0.08868838011479116 0.9658276470565753 0 0 0 0.3 11 79 17 20 28 70 98 19 124 37 175 35 187 63 213 75 234 36 
175 0.13259741738690362 0.09184480409194395 0.9642913807839327 0 0 0 0.28 11 80 28 71 36 8 110 33 146 76 172 5 187 64 197 24 201 154 213 76 232 19 234 37 
176 0.2381431819591074 -0.0803034138849821 0.9928032963461589 0 0 0 0.25 11 81 91 21 112 36 157 26 201 155 
177 0.0790741708781263 -0.014827389167805075 0.9911780009671014 0 0 0 0.38 11 82 13 53 50 35 118 34 124 38 146 77 157 27 201 156 213 77 231 18 
178 0.19052717801852062 0.04224831911799473 0.9751840104574752 0 0 0 0.13 11 83 112 37 146 78 201 157 213 78 
179 0.07934285736702101 0.043988117573463936 0.9804123924869781 0 0 0 0.25 11 84 15 17 39 13 50 36 146 79 152 5 158 11 175 36 201 158 
180 0.06325390273801271 0.05075372860615466 0.9772457258921445 0 0 0 0.3 11 85 16 52 17 21 44 33 53 23 157 28 201 159 213 79 
181 0.20445476551188116 0.052151221328681524 0.9707672740504237 0 0 0 0.29 11 86 17 22 77 50 93 21 118 35 146 80 201 160 213 80 
182 0.13194727886383448 0.05931312136134287 0.9741070350830398 0 0 0 0.37 11 87 201 161 213 81 
183 0.16759161059614694 0.059228070555484694 0.9714353052436797 0 0 0 0.36 11 88 176 61 201 162 
184 0.3357641524221536 0.06064720653206283 0.9670642583483774 0 0 0 0.24 11 89 28 72 53 24 91 22 118 36 146 81 176 62 201 163 204 27 213 82 235 4 
185 0.3686875512498728 0.06121522174507263 0.9672441070297171 0 0 0 0.3 11 90 15 18 17 23 44 34 50 37 98 20 164 30 165 3 176 63 187 65 197 25 201 164 204 28 213 83 234 38 235 5 
186 0.06866652645693459 0.08885011241541335 0.9694475682493437 0 0 0 0.18 11 91 38 41 53 25 148 32 234 39 
187 0.05871332478326423 0.09188031662796867 0.9734129588668496 0 0 0 0.3 11 92 15 19 17 24 44 35 53 26 118 37 124 39 146 82 188 10 
188 0.17512482351366476 0.07080956551755557 0.9681603392847113 0 0 0 0.32 11 93 13 54 109 29 201 165 234 40 
189 0.042261268020009735 -0.14484237539130498 1.0032029093779997 0 0 0 0.24 13 55 109 30 112 38 201 166 
190 0.13687667159774597 -0.14636047160553411 1.0049350266900632 0 0 0 0.24 13 56 39 14 201 167 
191 0.2917868977024331 -0.1434228565114876 1.0027785921271672 0 0 0 0.51 13 57 124 40 201 168 
192 0.07315417539106257 -0.10352266997814762 1.0048156137218505 0 0 0 0.14 13 58 124 41 201 169 
193 0.03455644070123227 -0.09586044502127017 1.0021169474728 0 0 0 0.32 13 59 39 15 124 42 146 83 201 170 
194 0.11371303112337867 -0.08756148345981364 0.998468724211469 0 0 0 0.28 13 60 124 43 175 37 201 171 
195 0.15340006060479908 -0.0878684708861562 0.9957682249814234 0 0 0 0.15 13 61 39 16 201 172 
196 0.1370359491222266 -0.08670935387233418 0.9965585274241587 0 0 0 0.22 13 62 39 17 112 39 175 38 201 173 
197 0.06869023305304098 -0.08046105851388678 0.9967603656556249 0 0 0 0.29 13 63 124 44 201 174 
198 0.2217267657098269 -0.08789166264934425 0.9956118196246494 0 0 0 0.12 13 64 194 41 201 175 
199 0.25431052080824396 -0.08773388590928023 0.9948471279180832 0 0 0 0.2 13 65 39 18 201 176 
200 0.23728043288507228 0.03344653483944383 0.9794798827709909 0 0 0 0.18 13 66 112 40 146 84 157 29 175 39 201 177 
201 0.2848904708342795 0.03277842432368617 0.9705675979444836 0 0 0 0.16 13 67 93 22 175 40 201 178 
202 0.06790778282655412 0.04037085083041953 0.9739677041836153 0 0 0 0.24 13 68 28 73 98 21 112 41 146 85 175 41 201 179 213 84 
203 0.23809991367576433 0.03482270701808751 0.9777559069425871 0 0 0 0.16 13 69 112 42 201 180 
204 0.20438967085122747 0.0373628066010382 0.9785988793273971 0 0 0 0.2 13 70 112 43 187 66 201 181 
205 0.08818266249225029 0.04280963183478687 0.9789529378214477 0 0 0 0.39 13 71 28 74 93 23 124 45 175 42 187 67 201 182 231 19 
206 0.23714270151471586 0.038534848213213 0.9752682628421055 0 0 0 0.17 13 72 112 44 124 46 201 183 
207 0.08851939527102377 0.04461251043600411 0.9780917654005601 0 0 0 0.21 13 73 124 47 146 86 175 43 187 68 201 184 231 20 
208 0.06962947108628507 0.04602483898130269 0.9727222448878423 0 0 0 0.33 13 74 16 53 28 75 112 45 201 185 
209 0.22421339252707545 0.042397470160695803 0.9751961059256142 0 0 0 0.2 13 75 112 46 124 48 201 186 
210 0.11541625878538053 0.047296528009473225 0.9699790393064401 0 0 0 0.46 13 76 91 23 124 49 
211 0.11547356577409958 0.04721340041790605 0.9701382194488753 0 0 0 0.48 13 77 91 24 124 50 176 64 231 21 
212 0.17991160231115955 0.04569270502048983 0.9696948668671622 0 0 0 0.43 13 78 112 47 201 187 
213 0.3082105092229968 0.04182998463296643 0.9684781014473196 0 0 0 0.21 13 79 28 76 93 24 201 188 
214 0.08878264831340514 0.04855513780823399 0.9775497162869239 0 0 0 0.28 13 80 28 77 98 22 112 48 124 51 175 44 187 69 201 189 
215 0.27527176282402377 0.04310379268016569 0.9688279470886533 0 0 0 0.35 13 81 28 78 112 49 146 87 201 190 
216 0.19469017421313034 0.04580311110776751 0.9736663170300823 0 0 0 0.25 13 82 91 25 157 30 201 191 213 85 214 50 
217 0.19506891215865518 0.04583317253421042 0.9742997913170157 0 0 0 0.16 13 83 124 52 201 192 
218 0.15277778032982922 0.04838750588600859 0.9752195034875969 0 0 0 0.14 13 84 175 45 201 193 
219 0.15944994520619768 0.04849381333132903 0.9755367597537586 0 0 0 0.15 13 85 175 46 201 194 
220 0.16343836870419826 0.04853170853717093 0.9767939405583153 0 0 0 0.17 13 86 39 19 175 47 201 195 
221 0.16343836870419826 0.04853170853717093 0.9767939405583153 0 0 0 0.17 13 87 39 20 175 48 201 196 
222 0.30885761772411313 0.04444859976243845 0.9662806830995818 0 0 0 0.52 13 88 187 70 201 197 
223 0.075064085283764 0.051725294838888373 0.974314713151956 0 0 0 0.2 13 89 175 49 176 65 187 71 201 198 
224 0.24467825745951066 0.0470346004203753 0.9668864514463915 0 0 0 0.17 13 90 112 50 124 53 175 50 201 199 
225 0.31245383126155 0.04519278656115618 0.9675001011020433 0 0 0 0.33 13 91 124 54 201 200 
226 0.13161821220515124 0.05106048350937728 0.976772826522659 0 0 0 0.2 13 92 124 55 201 201 
227 0.1896430422550041 0.05020721258809661 0.974929622652812 0 0 0 0.31 13 93 91 26 112 51 201 202 213 86 
228 0.31230661462610915 0.04687391999923384 0.9651617304949067 0 0 0 0.13 13 94 124 56 175 51 201 203 
229 0.12978897924469485 0.05233364253941686 0.9757603279465759 0 0 0 0.19 13 95 124 57 146 88 201 204 
230 0.14280708911045564 0.05425070183016002 0.9671944501266966 0 0 0 0.19 13 96 93 25 112 52 201 205 
231 0.19421317323120796 0.054003046551757174 0.9730210392034553 0 0 0 0.11 13 97 93 26 201 206 
232 0.21311778613828472 0.0551734842478655 0.9665983852814602 0 0 0 0.15 13 98 112 53 201 207 
233 0.18583537901768923 0.05663219617122861 0.9695248250098697 0 0 0 0.29 13 99 112 54 176 66 201 208 
234 0.21228806549446952 0.05644494340390741 0.9669717871275407 0 0 0 0.25 13 100 28 79 93 27 112 55 146 89 187 72 201 209 213 87 
235 0.10562797435192929 0.062077963001999185 0.970888603094272 0 0 0 0.17 13 101 28 80 38 42 109 31 146 90 201 210 213 88 214 51 
236 0.07024106372502975 0.06326731842067877 0.9732867016774769 0 0 0 0.07 13 102 28 81 93 28 98 23 187 73 231 22 
237 0.1700362341961109 0.062348117778344536 0.9678271404191784 0 0 0 0.13 13 103 187 74 201 211 
238 0.24676978287253498 0.06193493120609618 0.9674309513577933 0 0 0 0.27 13 104 28 82 38 43 85 36 93 29 124 58 175 52 187 75 201 212 214 52 
239 0.13937973138088994 0.06578447400578874 0.9687404695189916 0 0 0 0.08 13 105 124 59 201 213 
240 0.24559840547494682 0.06349355631749572 0.9673356504368148 0 0 0 0.21 13 106 28 83 93 30 124 60 146 91 175 53 187 76 201 214 
241 0.24727899135726686 0.065104925008944 0.967847245865409 0 0 0 0.31 13 107 28 84 91 27 124 61 187 77 201 215 
242 0.28113403494244377 0.06748520082070765 0.9627052433707461 0 0 0 0.21 13 108 124 62 201 216 
243 0.03625206070005233 0.08173904850886822 0.9727960163623804 0 0 0 0.35 13 109 28 85 187 78 201 217 214 53 
244 0.2150463682367886 0.08019068276556314 0.9652572703425757 0 0 0 0.33 13 110 93 31 124 63 146 92 175 54 201 218 
245 0.09670952533261028 0.08381981787274823 0.9707484391700771 0 0 0 0.27 13 111 28 86 187 79 201 219 
246 0.09962329949616379 0.08885806232238508 0.9677152280573457 0 0 0 0.27 13 112 38 44 110 34 146 93 148 33 164 31 187 80 201 220 214 54 
247 0.22706717357094344 0.08783944761181195 0.9692811490235841 0 0 0 0.38 13 113 124 64 146 94 175 55 187 81 201 221 
248 0.2652328611781503 0.08699764936479096 0.9662783311277264 0 0 0 0.22 13 114 93 32 124 65 175 56 201 222 
249 0.2636339974358926 0.08828561367259491 0.9664916808317312 0 0 0 0.26 13 115 38 45 164 32 175 57 187 82 201 223 213 89 
250 0.21416318009191768 0.0933371245684754 0.962597997334043 0 0 0 0.33 13 116 44 36 175 58 201 224 213 90 
251 0.21089634059594684 0.09376469147643492 0.9637880626211643 0 0 0 0.26 13 117 93 33 175 59 187 83 201 225 
252 0.2108798807677911 0.09370936005046877 0.9637559021242361 0 0 0 0.18 13 118 175 60 187 84 201 226 
253 0.20514882180886387 0.098688714172628 0.96226489466813 0 0 0 0.27 13 119 28 87 146 95 175 61 187 85 201 227 
254 0.083079003287677 -0.09225169130615132 1.0001389981276736 0 0 0 0.23 13 120 124 66 201 228 
255 0.03215304058802195 -0.08295909997612133 0.9993110420415893 0 0 0 0.49 13 121 124 67 201 229 
256 0.12701710053938833 -0.08660174068249529 0.9960224876876452 0 0 0 0.25 13 122 98 24 201 230 
257 0.12299503592327743 -0.08489178153420356 0.9962701420219368 0 0 0 0.15 13 123 39 21 92 58 93 34 201 231 
258 0.1756124567082299 -0.08813008146677949 0.9971481966375506 0 0 0 0.35 13 124 38 46 201 232 
259 0.13735764039196988 -0.08456694799752082 0.9954923712070919 0 0 0 0.22 13 125 16 54 28 88 39 22 92 59 98 25 112 56 124 68 135 19 157 31 158 12 175 62 176 67 187 86 197 26 201 233 214 55 234 41 
260 0.24193971812310808 -0.08251922927009989 0.9926408887083901 0 0 0 0.24 13 126 39 23 201 234 
261 0.2342103060757514 -0.064735393359043 0.9954377320228533 0 0 0 0.24 13 127 39 24 201 235 
262 0.033738910790029206 0.03203147590168375 0.9804095915656162 0 0 0 0.23 13 128 28 89 93 35 176 68 188 11 
263 0.2375428451278171 0.0303960400136024 0.9770360614188188 0 0 0 0.16 13 129 112 57 124 69 201 236 
264 0.14034697087401993 0.03608874110542504 0.9703967464127086 0 0 0 0.26 13 130 28 90 112 58 128 13 146 96 175 63 176 69 197 27 201 237 231 23 234 42 
265 0.16034823081689423 0.03730873466377977 0.9804438142679941 0 0 0 0.3 13 131 201 238 234 43 
266 0.2536428129474341 0.036013252115474965 0.97296073777576 0 0 0 0.22 13 132 112 59 201 239 
267 0.13604359458890622 0.040800446500736255 0.9715449322493107 0 0 0 0.18 13 133 28 91 98 26 112 60 201 240 
268 0.10387571036773996 0.044982806019524216 0.9706861394794762 0 0 0 0.25 13 134 146 97 201 241 213 91 231 24 
269 0.07539327980585217 0.04721440674667173 0.9754658342939181 0 0 0 0.28 13 135 28 92 39 25 112 61 175 64 176 70 201 242 213 92 
270 0.1040496558755632 0.04677067160175491 0.9696813032317394 0 0 0 0.35 13 136 16 55 112 62 146 98 176 71 187 87 201 243 
271 0.1832340378598172 0.045573663325528584 0.9721707929218815 0 0 0 0.17 13 137 175 65 176 72 201 244 
272 0.19030106247847067 0.04575144457905005 0.9744449263994575 0 0 0 0.09 13 138 92 60 135 20 175 66 201 245 
273 0.2860141040123955 0.043169823744034164 0.968250730029776 0 0 0 0.25 13 139 175 67 201 246 
274 0.13126272264564912 0.04907534215138457 0.9760951030624592 0 0 0 0.13 13 140 124 70 201 247 
275 0.1314559968275045 0.04903219130680385 0.9765242394685467 0 0 0 0.16 13 141 124 71 146 99 175 68 176 73 201 248 
276 0.24120094554412375 0.05296636605677359 0.9671957501747975 0 0 0 0.19 13 142 28 93 112 63 157 32 175 69 201 249 
277 0.24201651934447324 0.05703286030753617 0.9665841988771602 0 0 0 0.32 13 143 38 47 85 37 91 28 92 61 93 36 112 64 157 33 187 88 194 42 201 250 213 93 214 56 
278 0.23310872848195996 0.06220632606187166 0.9725056673945947 0 0 0 0.35 13 144 38 48 175 70 187 89 201 251 
279 0.20941462828740065 0.06283677918083776 0.9670107807247843 0 0 0 0.29 13 145 28 94 201 252 
280 0.2813387437606649 0.06161919027969312 0.9673832961198998 0 0 0 0.07 13 146 28 95 201 253 
281 0.24316612428970832 0.06510444065120416 0.9674059430336099 0 0 0 0.18 13 147 28 96 93 37 98 27 124 72 146 100 157 34 175 71 187 90 194 43 201 254 213 94 214 57 
282 0.3139800524779398 0.0685696892955876 0.9656299266223395 0 0 0 0.39 13 148 124 73 146 101 158 13 201 255 213 95 
283 0.0362332227915761 0.0843673009901677 0.9731247832311162 0 0 0 0.37 13 149 28 97 146 102 187 91 201 256 214 58 
284 0.2149771487562605 0.08318636382546522 0.9646559647984129 0 0 0 0.29 13 150 124 74 175 72 187 92 201 257 
285 0.22376060420563354 0.08316050632335133 0.9716809501731168 0 0 0 0.43 13 151 158 14 201 258 
286 0.30044084704858287 0.08183678064228234 0.9666555602526717 0 0 0 0.17 13 152 124 75 201 259 
287 0.21723707599682662 0.08461387945121816 0.9650829571137165 0 0 0 0.22 13 153 28 98 124 76 135 21 146 103 175 73 187 93 201 260 
288 0.0979435774118656 0.08695684306634802 0.9685976155819409 0 0 0 0.37 13 154 28 99 201 261 
289 0.07903269828227333 0.09660224440712745 0.9702972785221436 0 0 0 0.44 13 155 176 74 187 94 
290 0.04050164132587416 -0.09041133716100201 0.9998481743452727 0 0 0 0.24 13 156 92 62 201 262 
291 0.034142767711650736 -0.08828187134273102 1.0015685390034645 0 0 0 0.39 13 157 36 9 61 23 110 35 201 263 
292 0.052024925374149815 -0.0880016185889001 0.9997508929301234 0 0 0 0.17 13 158 124 77 201 264 
293 0.07036286822881582 -0.08499607916967787 0.9982683357241376 0 0 0 0.5 13 159 187 95 201 265 213 96 
294 0.0899614281487685 -0.08300013493026505 0.9983187426069386 0 0 0 0.23 13 160 16 56 77 51 110 36 112 65 118 38 124 78 148 34 176 75 187 96 194 44 201 266 
295 0.15846480560284404 -0.08418389375561502 0.9963180554832073 0 0 0 0.14 13 161 28 100 92 63 93 38 109 32 201 267 
296 0.15078956463903517 -0.0816604208794409 0.9964171106639449 0 0 0 0.13 13 162 92 64 201 268 
297 0.19413799340460508 -0.08363692794114523 0.9956404204435615 0 0 0 0.23 13 163 39 26 118 39 172 6 176 76 201 269 
298 0.21073928953018015 -0.08352587732132784 0.9950094869923203 0 0 0 0.25 13 164 28 101 92 65 148 35 176 77 194 45 201 270 
299 0.22764003912237152 -0.08294714160605422 0.9939157447638168 0 0 0 0.03 13 165 92 66 201 271 
300 0.2279266846275572 -0.08308289863973288 0.9942016853568186 0 0 0 0.24 13 166 28 102 39 27 85 38 92 67 112 66 148 36 194 46 201 272 214 59 
301 0.20061151505965055 -0.08030053111498069 0.9930837078997612 0 0 0 0.43 13 167 93 39 187 97 201 273 
302 0.27336521431430055 -0.08264292583522306 0.9924148809785945 0 0 0 0.2 13 168 28 103 112 67 201 274 
303 0.27336521431430055 -0.08264292583522306 0.9924148809785945 0 0 0 0.2 13 169 28 104 112 68 201 275 
304 0.287291378952393 -0.08269653076578881 0.9930934656666206 0 0 0 0.1 13 170 92 68 112 69 201 276 
305 0.29298105562871224 -0.08247782411659592 0.9920326384461716 0 0 0 0.26 13 171 92 69 146 104 176 78 201 277 213 97 
306 0.30507345331847774 -0.08238539147111852 0.9912417448313761 0 0 0 0.25 13 172 201 278 232 20 234 44 
307 0.04975945863611198 -0.02479054803714002 0.9923423380811291 0 0 0 0.2 13 173 110 37 124 79 201 279 
308 0.2390189277642928 0.026302864491636813 0.9790477751917613 0 0 0 0.28 13 174 28 105 98 28 112 70 146 105 157 35 175 74 201 280 
309 0.1461484136062942 0.031467676800972406 0.974001431708102 0 0 0 0.36 13 175 28 106 53 27 176 79 201 281 204 29 231 25 
310 0.157942394940642 0.03917846186145369 0.9803309218397787 0 0 0 0.2 13 176 17 25 28 107 172 7 176 80 201 282 231 26 234 45 
311 0.2433156665179493 0.03838161286312237 0.9705596405952913 0 0 0 0.14 13 177 61 24 146 106 175 75 176 81 201 283 
312 0.15289208925880837 0.04180271572298595 0.9755324099330055 0 0 0 0.14 13 178 175 76 176 82 201 284 
313 0.15641179431669744 0.041789656448851395 0.9762512410007957 0 0 0 0.16 13 179 28 108 201 285 234 46 
314 0.1372300370384629 0.043266793706935466 0.9684977708568686 0 0 0 0.23 13 180 28 109 98 29 112 71 187 98 201 286 
315 0.23702317367947204 0.040599721540252265 0.9784648225818009 0 0 0 0.28 13 181 112 72 146 107 201 287 234 47 
316 0.23593173639236348 0.04066233634181827 0.9769825386675302 0 0 0 0.15 13 182 112 73 201 288 
317 0.29787482478882227 0.04279387159848002 0.9756643265131429 0 0 0 0.48 13 183 112 74 201 289 
318 0.1307603791009251 0.05389095288655527 0.9727769422004334 0 0 0 0.27 13 184 50 38 61 25 146 108 176 83 201 290 
319 0.1831874983142404 0.05418007257259731 0.9703784445245848 0 0 0 0.32 13 185 112 75 146 109 176 84 201 291 
320 0.13299473899886308 0.06684799793690634 0.968905389086663 0 0 0 0.32 13 186 201 292 204 30 223 14 
321 0.32284755054658515 0.06250345729888242 0.9654790140191796 0 0 0 0.33 13 187 124 80 201 293 234 48 
322 0.23903106447871295 0.06836539192452853 0.9680206558910613 0 0 0 0.11 13 188 175 77 201 294 
323 0.27068349225346616 0.07090252363384981 0.9682871875772255 0 0 0 0.37 13 189 93 40 124 81 187 99 201 295 
324 0.04302231652221961 -0.13331709880774742 1.0068391144516726 0 0 0 0.36 13 190 85 39 109 33 214 60 
325 0.07316554483325634 -0.08870573250045208 1.0016394786474616 0 0 0 0.56 13 191 53 28 146 110 201 296 
326 0.14012477959304684 -0.0882140232119026 0.9964486177067121 0 0 0 0.27 13 192 197 28 201 297 
327 0.14896047484555414 -0.08826990118367896 0.9970088544155228 0 0 0 0.24 13 193 197 29 201 298 
328 0.1343001861693511 -0.08241361745344701 0.9963210124897935 0 0 0 0.48 13 194 28 110 39 28 92 70 112 76 124 82 158 15 187 100 197 30 201 299 234 49 
329 0.3490264293340008 -0.085297145792779 0.9909928642888811 0 0 0 0.35 13 195 92 71 176 85 197 31 201 300 
330 0.17323177675867296 0.04862369723299756 0.9674347298175117 0 0 0 0.39 13 196 50 39 98 30 112 77 124 83 152 6 201 301 
331 0.19704567531990513 0.05120795210196401 0.9724564868748857 0 0 0 0.31 13 197 15 20 28 111 50 40 53 29 112 78 152 7 158 16 175 78 187 101 201 302 204 31 234 50 
332 0.23836062445896228 0.052129119013201 0.9692531396438545 0 0 0 0.31 13 198 17 26 146 111 157 36 201 303 
333 0.21626318572319875 0.05882049636283738 0.968195352592091 0 0 0 0.16 13 199 17 27 28 112 118 40 201 304 
334 0.2529215635284311 0.06494994494699385 0.9668381005444485 0 0 0 0.22 13 200 146 112 158 17 201 305 
335 0.31939878870663263 0.08607280484375052 0.9610568710804458 0 0 0 0.31 13 201 50 41 61 26 172 8 201 306 234 51 
336 0.09294478754315802 0.0964711630442921 0.9699439966559757 0 0 0 0.39 13 202 28 113 92 72 110 38 234 52 
337 0.19516381711808742 -0.08734990076215551 0.9965902716391394 0 0 0 0.34 13 203 92 73 93 41 109 34 164 33 194 47 201 307 204 32 
338 0.25798337319069176 -0.08689106111378267 0.9949334101876093 0 0 0 0.18 13 204 53 30 201 308 
339 0.27804927909308236 -0.08641498050732223 0.992999965166539 0 0 0 0.17 13 205 38 49 61 27 92 74 93 42 124 84 146 113 176 86 201 309 
340 0.2896066362442163 -0.08661490572773246 0.9944201986786677 0 0 0 0.42 13 206 44 37 61 28 85 40 92 75 93 43 112 79 146 114 164 34 197 32 201 310 214 61 
341 0.30500053119679216 -0.08662358145376184 0.9934594193548747 0 0 0 0.21 13 207 28 114 53 31 85 41 91 29 92 76 112 80 146 115 164 35 176 87 197 33 201 311 204 33 213 98 234 53 
342 0.30506875318880844 -0.08665915925519194 0.9936738019280433 0 0 0 0.15 13 208 28 115 53 32 77 52 85 42 91 30 92 77 146 116 176 88 187 102 197 34 201 312 213 99 234 54 
343 0.31146849470556837 -0.08636902515953092 0.9935736649559959 0 0 0 0.24 13 209 28 116 187 103 197 35 201 313 234 55 
344 0.1668629113070015 0.03856822068318023 0.979324593002988 0 0 0 0.35 13 210 16 57 118 41 128 14 201 314 204 34 
345 0.09638907587152366 0.044495821651167146 0.9784676810001485 0 0 0 0.2 13 211 16 58 61 29 146 117 158 18 175 79 201 315 204 35 231 27 
346 0.21394153244308903 0.08756853208468339 0.9644507519699487 0 0 0 0.27 13 212 175 80 201 316 232 21 
347 0.21683773604106135 0.09482497733599295 0.9617123686463328 0 0 0 0.41 13 213 118 42 172 9 175 81 201 317 
348 0.049219217712633774 -0.13218405619900905 1.0074342835202328 0 0 0 0.49 13 214 110 39 172 10 201 318 
349 0.2393393718142322 0.03958364856249581 0.9729454042087238 0 0 0 0.36 13 215 17 28 50 42 61 30 128 15 146 118 158 19 175 82 201 319 
350 0.12936036624180702 0.07841589110282192 0.96796708283908 0 0 0 0.44 13 216 28 117 187 104 194 48 231 28 
351 0.20936383627308702 -0.09814196134795927 1.00099166287186 0 0 0 0.36 13 217 92 78 201 320 
352 0.14053797679688917 0.07121028770000656 0.9705389826054417 0 0 0 0.49 13 218 53 33 172 11 201 321 
353 0.27667450757684503 0.07343702306494364 0.9656551940482865 0 0 0 0.22 13 219 53 34 201 322 
354 0.2612435089863731 0.07162760602578697 0.9678230045428279 0 0 0 0.29 13 220 17 29 50 43 61 31 128 16 146 119 201 323 
355 0.4639136842787161 -0.05924110945924935 0.8967803717158594 0 0 0 0.28 17 30 53 35 77 53 118 43 158 20 201 324 232 22 
356 0.4629965325074965 -0.05967974591225855 0.907287108611036 0 0 0 0.09 53 36 201 325 232 23 
357 0.46297191441185814 -0.05957617222089532 0.9072373244660857 0 0 0 0.19 17 31 53 37 118 44 197 36 201 326 232 24 
358 0.18454492450183202 0.009353761771197695 0.9825871487346508 0 0 0 0.34 15 21 28 118 53 38 118 45 146 120 152 8 158 21 172 12 175 83 201 327 213 100 
359 0.26874047502311277 0.06002788264185578 0.9694137800451039 0 0 0 0.19 15 22 118 46 146 121 176 89 197 37 201 328 204 36 232 25 
360 0.23828843512415745 0.06189027811843861 0.9680771219583172 0 0 0 0.21 15 23 92 79 128 17 146 122 176 90 201 329 234 56 
361 0.30157913641081113 0.046613696746822676 0.9727603018786989 0 0 0 0.38 15 24 175 84 176 91 201 330 213 101 234 57 
362 0.19661956503643147 0.05121167968674259 0.9716598684293528 0 0 0 0.31 15 25 50 44 112 81 124 85 152 9 158 22 175 85 201 331 204 37 
363 0.4594757641973258 -0.05457312975976968 0.8974855678515186 0 0 0 0.25 158 23 201 332 234 58 
364 0.43161805755009297 -0.04639209055325405 0.8825391259198888 0 0 0 0.72 15 26 201 333 234 59 
365 0.1840571577080907 0.0647441012397441 0.9681445600062826 0 0 0 0.35 15 27 53 39 201 334 
366 0.17999097224091268 0.010424878159765198 0.980703501105148 0 0 0 0.27 15 28 53 40 61 32 172 13 201 335 
367 0.24913474507440794 0.03329670492099156 0.9729790827037643 0 0 0 0.64 15 29 175 86 201 336 
368 0.07479998348217666 -0.08270284654477165 0.9984702580021467 0 0 0 0.27 16 59 38 50 98 31 124 86 146 123 201 337 213 102 214 62 
369 0.15633009309481136 -0.025438156552669986 0.987868386847442 0 0 0 0.26 16 60 28 119 39 29 109 35 110 40 124 87 157 37 201 338 
370 0.09312883842549835 0.04445708643854034 0.9777662970732909 0 0 0 0.26 16 61 28 120 39 30 112 82 124 88 175 87 187 105 201 339 
371 0.057667697700870824 0.04520813445024635 0.9825205289017334 0 0 0 0.21 16 62 146 124 157 38 201 340 
372 0.05574808088701025 0.04633497410041476 0.9823770864686551 0 0 0 0.05 16 63 28 121 146 125 201 341 213 103 
373 0.20087545661134332 0.04561919961662717 0.9737742237273984 0 0 0 0.16 28 122 112 83 124 89 175 88 187 106 201 342 
374 0.055599647612367686 0.051603961690696955 0.9808872596592527 0 0 0 0.1 16 64 146 126 201 343 213 104 
375 0.12806128033439707 0.05141382677170988 0.9764361878893616 0 0 0 0.14 16 65 201 344 213 105 
376 0.20271622353365684 0.05126016037967873 0.9737107444314163 0 0 0 0.38 28 123 91 31 112 84 201 345 
377 0.17368543396588268 0.05305048809356996 0.967318659566797 0 0 0 0.18 28 124 146 127 175 89 201 346 214 63 
378 0.24330734829438752 0.05398688072512869 0.9662977461636784 0 0 0 0.15 28 125 38 51 146 128 157 39 187 107 194 49 201 347 214 64 
379 0.2373786987972778 0.057486135486837314 0.971338469743951 0 0 0 0.4 112 85 124 90 146 129 176 92 201 348 
380 0.030734771163959618 0.059768100826556356 0.9766538233565522 0 0 0 0.11 16 66 146 130 187 108 194 50 
381 0.0487991262098913 0.060315315331609866 0.9797853293016693 0 0 0 0.22 16 67 146 131 187 109 188 12 201 349 214 65 
382 0.07530942033900467 0.06005855279117469 0.9744555307870536 0 0 0 0.17 16 68 85 43 146 132 176 93 188 13 201 350 
383 0.17229685017466154 0.06091867903871514 0.9687026147384696 0 0 0 0.2 28 126 85 44 91 32 109 36 146 133 176 94 194 51 201 351 213 106 
384 0.21179488240870112 0.06129777650767218 0.9665364590485082 0 0 0 0.26 146 134 164 36 201 352 
385 0.10914817240305778 0.06201419819954712 0.9707599154788797 0 0 0 0.16 16 69 28 127 91 33 146 135 187 110 201 353 
386 0.3386646273496817 0.06381850168285057 0.9636035497603074 0 0 0 0.23 28 128 93 44 201 354 
387 0.03482788139991704 0.07598636010992939 0.9742085900905897 0 0 0 0.1 16 70 28 129 187 111 
388 0.06602803267390574 0.08690001630676106 0.97042776518137 0 0 0 0.23 16 71 28 130 38 52 201 355 
389 0.13143723420075715 0.08670984658009769 0.9671296835176495 0 0 0 0.14 28 131 146 136 187 112 234 60 
390 0.13895039035343082 0.09748112481463474 0.9632619472996463 0 0 0 0.3 28 132 109 37 110 41 201 356 214 66 
391 0.08724509553952048 -0.08781157685781574 0.999700047748634 0 0 0 0.35 16 72 98 32 112 86 201 357 
392 0.13027309206394924 -0.08209117493424571 0.9962293283106193 0 0 0 0.28 16 73 77 54 92 80 110 42 176 95 197 38 201 358 
393 0.045633959813813914 -0.01322778659122257 0.9934582973072895 0 0 0 0.16 16 74 176 96 201 359 
394 0.17097591436738732 0.04397824732708583 0.9702838307028266 0 0 0 0.26 28 133 112 87 146 137 175 90 176 97 187 113 201 360 
395 0.19039928300574221 0.04571354628994307 0.9745035920289362 0 0 0 0.21 112 88 124 91 146 138 164 37 201 361 213 107 214 67 234 61 
396 0.04995361784454223 0.050587531532598526 0.9818872445700333 0 0 0 0.13 16 75 188 14 201 362 
397 0.053845722852511844 0.050777835371999785 0.981752629801261 0 0 0 0.14 16 76 50 45 146 139 201 363 
398 0.03275601080441127 0.051754949363022676 0.9742726690746631 0 0 0 0.32 16 77 28 134 39 31 85 45 98 33 109 38 110 43 112 89 124 92 146 140 157 40 175 91 187 114 213 108 
399 0.035330029694924145 0.05720446208726573 0.9753792294600062 0 0 0 0.2 16 78 17 32 28 135 50 46 53 41 61 33 92 81 118 47 124 93 146 141 157 41 175 92 187 115 188 15 213 109 
400 0.1095638725578623 0.05755986776821708 0.9712819147049262 0 0 0 0.22 16 79 38 53 77 55 146 142 176 98 197 39 201 364 213 110 214 68 234 62 
401 0.27586631253914584 0.08134846967200556 0.9642070493471986 0 0 0 0.32 38 54 85 46 187 116 194 52 201 365 
402 0.28077459223376033 0.08183301628187789 0.9640389599663463 0 0 0 0.36 28 136 91 34 148 37 201 366 213 111 
403 0.3417659625321085 0.08605466332763376 0.9616503274284732 0 0 0 0.18 91 35 146 143 201 367 
404 0.1328890934163302 0.08736070226687215 0.9651419389290056 0 0 0 0.2 28 137 53 42 110 44 128 18 172 14 187 117 197 40 201 368 214 69 232 26 234 63 
405 0.09749304249098449 0.08866529318101889 0.9674403843246278 0 0 0 0.21 16 80 28 138 146 144 187 118 201 369 
406 0.09755061939388517 0.08868478930450557 0.9675876177730777 0 0 0 0.23 16 81 146 145 175 93 201 370 
407 0.328815941428542 0.08861065322355662 0.9656737676126492 0 0 0 0.37 146 146 148 38 194 53 201 371 
408 0.19364310097480905 -0.0765638989782248 0.9945811612847535 0 0 0 0.2 50 47 61 34 112 90 146 147 157 42 172 15 201 372 204 38 234 64 
409 0.3768902811184016 0.0001904574616087003 0.9788899828825065 0 0 0 0.38 44 38 92 82 176 99 201 373 
410 0.06562013930779356 0.0434855201374409 0.9756181920058964 0 0 0 0.23 16 82 28 139 50 48 61 35 92 83 98 34 112 91 118 48 128 19 146 148 175 94 176 100 187 119 201 374 204 39 231 29 
411 0.06039266258882614 0.057820500772612055 0.976919459171704 0 0 0 0.19 16 83 118 49 201 375 
412 0.24539656907080556 -0.08645616792028274 0.9933784128572688 0 0 0 0.41 50 49 91 36 93 45 112 92 124 94 158 24 201 376 204 40 
413 0.09920479129891654 0.03764176881533978 0.9761758157435266 0 0 0 0.23 16 84 118 50 146 149 176 101 201 377 204 41 
414 0.06409065407437042 0.03832211823932558 0.978835640780316 0 0 0 0.35 16 85 50 50 61 36 98 35 128 20 146 150 152 10 175 95 201 378 
415 0.05596898339276941 0.05393401980060172 0.9802218966994988 0 0 0 0.27 16 86 118 51 146 151 188 16 201 379 204 42 
416 0.20180239734401387 0.05836941646747472 0.9687388585222885 0 0 0 0.26 146 152 201 380 204 43 213 112 
417 0.46602150568013384 -0.0648816045548574 0.8860978250348108 0 0 0 0.27 17 33 61 37 77 56 91 37 165 4 235 6 
418 0.46649836726158544 -0.05171090229286307 0.8805308446412925 0 0 0 0.93 17 34 201 381 
419 0.16705713761786686 0.05433219976765256 0.9708209315176392 0 0 0 0.18 17 35 146 153 175 96 176 102 201 382 
420 0.10351376518883056 0.04833095927428161 0.9716859922708128 0 0 0 0.36 17 36 28 140 50 51 92 84 112 93 124 95 135 22 146 154 152 11 157 43 176 103 201 383 204 44 213 113 231 30 232 27 
421 0.46637599472074653 -0.07104738252610739 0.8887798608227453 0 0 0 0.23 17 37 53 43 61 38 91 38 118 52 165 5 197 41 232 28 234 65 235 7 
422 0.23163530293303122 0.011418183289461932 0.983373870358073 0 0 0 0.45 17 38 53 44 201 384 234 66 
423 0.17479392058884113 0.050961838917580236 0.9662102592472029 0 0 0 0.33 17 39 28 141 44 39 53 45 61 39 92 85 118 53 128 21 152 12 176 104 187 120 201 385 213 114 
424 0.23779497333931218 0.05873641294807407 0.9708827954982447 0 0 0 0.17 17 40 146 155 201 386 
425 0.29557520841102736 -0.0801635094060801 0.9921021609496038 0 0 0 0.21 85 47 91 39 92 86 112 94 146 156 148 39 197 42 201 387 204 45 235 8 
426 0.09693023940796898 -0.014714945325702973 0.9894268349734319 0 0 0 0.22 61 40 124 96 158 25 175 97 176 105 201 388 231 31 
427 0.305314224062662 0.05917890057473225 0.9649167954412653 0 0 0 0.2 28 142 118 54 197 43 201 389 
428 0.09387287135685407 0.04889438286875324 0.9737354791029188 0 0 0 0.49 53 46 112 95 152 13 158 26 201 390 
429 0.0808559031984743 -0.13211048825996272 1.0027117432151096 0 0 0 0.21 28 143 124 97 201 391 
430 0.12048763970087702 -0.11144475296054043 0.997993277333696 0 0 0 0.28 28 144 39 32 124 98 146 157 201 392 
431 0.03882065393449953 -0.09262731028839741 1.0012891514486628 0 0 0 0.58 28 145 109 39 201 393 
432 0.08410606030735614 -0.08788660694260775 0.9999309305806569 0 0 0 0.29 28 146 92 87 112 96 124 99 146 158 187 121 201 394 
433 0.10841452938435425 -0.08057637392068061 0.9966718523584001 0 0 0 0.12 28 147 39 33 201 395 
434 0.031262000149827454 -0.00830520550294851 0.989330419893267 0 0 0 0.21 28 148 112 97 187 122 201 396 
435 0.03342140223909608 -0.008666176377278768 0.9899800860696127 0 0 0 0.35 28 149 109 40 112 98 175 98 176 106 187 123 201 397 214 70 231 32 
436 0.036986113658858906 -0.008889698981380303 0.990069234769574 0 0 0 0.2 28 150 187 124 201 398 
437 0.06411701790357252 -0.005406067336290418 0.9876622964043384 0 0 0 0.18 28 151 124 100 175 99 187 125 201 399 
438 0.1039951294796906 -0.007627965859298331 0.9861713023476125 0 0 0 0.26 28 152 175 100 176 107 201 400 231 33 
439 0.3075556598698177 0.022145889927006415 0.9753299554710081 0 0 0 0.2 28 153 187 126 201 401 
440 0.30569400054205736 0.024142014113571055 0.975422879461928 0 0 0 0.3 28 154 93 46 187 127 201 402 
441 0.1687919727143192 0.032058263263757485 0.980272609969696 0 0 0 0.23 28 155 187 128 201 403 
442 0.034944227076706864 0.04299484064457171 0.9739988935964071 0 0 0 0.18 28 156 112 99 175 101 201 404 
443 0.04820856177992002 0.041717824454048646 0.9832809477439626 0 0 0 0.1 28 157 175 102 187 129 201 405 
444 0.0593878329572111 0.0417817668919216 0.9818244962839244 0 0 0 0.13 28 158 98 36 112 100 146 159 175 103 187 130 201 406 
445 0.059368253992949246 0.04178137441292935 0.9817746842905607 0 0 0 0.14 28 159 112 101 146 160 175 104 187 131 201 407 
446 0.06807293641926145 0.0434245677638807 0.9740391831644454 0 0 0 0.19 28 160 187 132 201 408 
447 0.1704827998792423 0.042281883866037165 0.9689857258787873 0 0 0 0.05 28 161 112 102 201 409 
448 0.17168828688300894 0.04381690186732796 0.967465348940317 0 0 0 0.26 28 162 112 103 201 410 
449 0.20582021195586578 0.04296594942194791 0.96876873449499 0 0 0 0.18 28 163 175 105 201 411 
450 0.034916927685071916 0.05027077408837665 0.9747776514831644 0 0 0 0.2 28 164 39 34 124 101 175 106 201 412 
451 0.06238942024323113 0.05343455262243467 0.9725476941101029 0 0 0 0.24 28 165 112 104 187 133 201 413 
452 0.03036102962309253 0.054597501260559164 0.9730578900671499 0 0 0 0.23 28 166 112 105 187 134 201 414 
453 0.06734812071747658 0.05347844490753062 0.9719937319292979 0 0 0 0.15 28 167 112 106 201 415 
454 0.06968627755579887 0.053586817720713255 0.9717053662713657 0 0 0 0.25 28 168 112 107 187 135 201 416 
455 0.13642757466054808 0.05189504579103678 0.9696619012856725 0 0 0 0.28 28 169 124 102 187 136 201 417 
456 0.20964979039629592 0.05256822608554753 0.9668593930660774 0 0 0 0.23 28 170 93 47 146 161 201 418 214 71 
457 0.16575940684749013 0.0560850545265108 0.9674173512963784 0 0 0 0.24 28 171 187 137 201 419 
458 0.03555504707799135 0.061566005598249825 0.9754441202679291 0 0 0 0.12 28 172 124 103 146 162 175 107 
