# 3D point list with one line of data per point:
#   POINT3D_ID, X, Y, Z, R, G, B, ERROR, TRACK[] as (IMAGE_ID, POINT2D_IDX)
# Number of points: 363, mean track length: 8.63
9014 -0.5107561171477117 -0.028254791823752724 0.5174136045565532 0 0 0 0.6 57 2596 58 1588 86 2244 116 3008 145 1313 151 3435 154 2001 161 1353 166 2266 228 2440 
9015 -0.40961331771975856 -0.04421613601795299 0.5424981797692696 0 0 0 0.26 57 2597 149 1747 189 1934 
9016 -0.4430412968945951 -0.035459476426719705 0.538877026046188 0 0 0 0.15 57 2598 116 3009 154 2002 
9017 -0.27696298359917343 -0.06581807171192425 0.5574723072308803 0 0 0 0.3 57 2599 94 2534 139 1357 228 2441 
9018 -0.20839978694896452 -0.0751447234032564 0.5679789553453358 0 0 0 0.49 46 4091 57 2600 116 3010 132 577 
9019 -0.2764125169627671 -0.06124149427004389 0.5570329119689691 0 0 0 0.17 46 4092 57 2601 58 1589 86 2245 116 3011 139 1358 140 2019 153 393 177 1546 183 1421 193 2555 205 1285 218 2306 228 2442 
9020 -0.3760719611953844 -0.0405940003924881 0.5440495322594362 0 0 0 0.26 57 2602 116 3012 125 2985 
9021 -0.48098854396345747 -0.021880734670126727 0.5294143742669027 0 0 0 0.51 37 3613 57 2603 125 2986 145 1314 211 2386 215 1195 228 2443 
9022 -0.20494454537938603 -0.0685518425847473 0.5606727378533668 0 0 0 0.28 46 4093 57 2604 58 1590 86 2246 116 3013 125 2987 132 578 144 2258 151 3436 154 2003 177 1547 211 2387 218 2307 228 2444 
9023 -0.22305552564456838 -0.06153577492104999 0.5623028471639226 0 0 0 0.57 57 2605 132 579 233 1375 
9024 0.12039114035300323 -0.11558392443939612 0.6160504722500273 0 0 0 0.39 57 2606 151 3437 216 1954 
9025 -0.36995245824815526 -0.03488617577586145 0.5437540307097768 0 0 0 0.19 55 2748 57 2607 151 3438 161 1354 
9026 -0.4427489205280386 -0.020790631568812196 0.5370729343002033 0 0 0 0.18 57 2608 154 2004 161 1355 183 1422 
9027 -0.5116417640067864 0.018979856609426627 0.6537487211728953 0 0 0 0.29 34 3077 46 4094 57 2609 86 2247 151 3439 154 2005 166 2267 189 1935 191 1553 
9028 -0.1873626829722182 -0.06068596098303884 0.5600301176929259 0 0 0 0.32 37 3614 46 4095 57 2610 58 1591 86 2248 94 2535 116 3014 125 2988 132 580 140 2020 151 3440 154 2006 177 1548 193 2556 216 1955 218 2308 
9029 0.19264915488681975 -0.11671957233169764 0.6374684134067299 0 0 0 0.51 57 2611 151 3441 218 2309 228 2445 
9030 0.2971668259146434 -0.14644174984277278 0.5714718218439502 0 0 0 0.18 57 2612 119 1411 149 1748 
9031 -0.4283642541715753 -0.01570785850172715 0.5429858643689538 0 0 0 0.31 34 3078 57 2613 58 1592 116 3015 119 1412 144 2259 153 394 189 1936 191 1554 216 1956 218 2310 226 1512 
9032 -0.5134461501943336 0.019092699155855538 0.612303154897417 0 0 0 0.28 57 2614 58 1593 211 2388 212 1825 
9033 -0.22152876485286918 -0.04819431291563336 0.5556541657440001 0 0 0 0.26 37 3615 57 2615 58 1594 94 2536 116 3016 119 1413 125 2989 140 2021 143 1265 144 2260 145 1315 151 3442 166 2268 177 1549 183 1423 189 1937 191 1555 210 487 218 2311 226 1513 228 2446 
9034 -0.4910103059920955 -0.006388078465165377 0.5082016072933343 0 0 0 0.37 55 2749 57 2616 119 1414 145 1316 161 1356 211 2389 228 2447 
9035 -0.39034928650933653 -0.016517873194668777 0.5436850369037706 0 0 0 0.13 57 2617 125 2990 226 1514 
9036 -0.20162649272138913 -0.047330026993209366 0.5537039616543123 0 0 0 0.3 46 4096 57 2618 86 2249 94 2537 116 3017 139 1359 154 2007 191 1556 211 2390 218 2312 228 2448 
9037 0.06592501416952498 -0.09295852598149044 0.5658303225232616 0 0 0 0.27 57 2619 145 1317 189 1938 
9038 -0.3795212805000958 -0.015199176571338494 0.5448615424678859 0 0 0 0.26 57 2620 139 1360 189 1939 
9039 -0.37195778007129693 -0.014671329407356052 0.5372876748805449 0 0 0 0.23 57 2621 86 2250 125 2991 226 1515 
9040 -0.3580167100768443 -0.01626160240205347 0.5443708720414615 0 0 0 0.35 37 3616 55 2750 57 2622 125 2992 140 2022 154 2008 166 2269 183 1424 193 2557 216 1957 228 2449 
9041 -0.08020789449044424 -0.06807844298767204 0.5273801200818605 0 0 0 0.45 57 2623 140 2023 218 2313 
9042 0.0741503700962898 -0.08634987360928481 0.5690981094172951 0 0 0 0.32 57 2624 59 1969 166 2270 193 2558 
9043 -0.5181301273128176 0.027995995870113984 0.6063682523056153 0 0 0 0.36 37 3617 46 4097 57 2625 58 1595 59 1970 86 2251 151 3443 154 2009 166 2271 193 2559 228 2450 
9044 0.06414987428518047 -0.08126303551521094 0.5761376717910073 0 0 0 0.64 57 2626 94 2538 125 2993 145 1318 151 3444 189 1940 
9045 -0.4358765838470582 -0.0016591283316226314 0.5374680046882168 0 0 0 0.27 57 2627 58 1596 151 3445 
9046 -0.5210303403237185 0.021477387016522593 0.5667274648533069 0 0 0 0.22 57 2628 58 1597 216 1958 
9047 -0.5120620090948813 0.046214988672624795 0.6731923422441685 0 0 0 0.39 57 2629 58 1598 125 2994 139 1361 151 3446 154 2010 191 1557 228 2451 
9048 -0.35435083021005437 -0.010348473070108883 0.5476760383069427 0 0 0 0.24 57 2630 119 1415 151 3447 212 1826 228 2452 
9049 0.21339597994517412 -0.09888809255170283 0.587835540440257 0 0 0 0.22 57 2631 116 3018 140 2024 
9050 0.41300377961405355 -0.15352879652742596 0.49129335885347825 0 0 0 0.45 57 2632 59 1971 116 3019 144 2261 145 1319 154 2011 161 1357 212 1827 216 1959 233 1376 
9051 0.4222347637363965 -0.15829180178161625 0.4709558506253557 0 0 0 0.37 57 2633 59 1972 137 1029 139 1362 154 2012 189 1941 202 1563 216 1960 228 2453 233 1377 
9052 -0.08150797728410657 -0.05785362287920562 0.5277231488406334 0 0 0 0.82 47 1093 57 2634 59 1973 116 3020 137 1030 140 2025 149 1749 151 3448 193 2560 205 1286 211 2391 228 2454 
9053 -0.10313476624147931 -0.04985053440499279 0.5237952558496776 0 0 0 0.2 57 2635 59 1974 116 3021 125 2995 144 2262 154 2013 
9054 -0.5193571272296887 0.026643185895696475 0.5508031072922892 0 0 0 0.32 57 2636 58 1599 228 2455 
9055 -0.2735572020193581 -0.017820903959453592 0.5354578904626596 0 0 0 0.19 37 3618 57 2637 58 1600 86 2252 94 2539 116 3022 125 2996 149 1750 151 3449 177 1550 193 2561 210 488 216 1961 218 2314 228 2456 
9056 -0.27365560695814994 -0.01780505778829767 0.5352648502858837 0 0 0 0.23 57 2638 116 3023 149 1751 210 489 226 1516 
9057 -0.26795918406590336 -0.01609134786545377 0.5317647503404461 0 0 0 0.27 57 2639 58 1601 86 2253 116 3024 125 2997 140 2026 151 3450 177 1551 193 2562 215 1196 218 2315 
9058 -0.2781188095109863 -0.010061676580602825 0.5423399592478862 0 0 0 0.45 37 3619 46 4098 57 2640 86 2254 116 3025 140 2027 166 2272 193 2563 202 1564 226 1517 
9059 -0.5092899974362876 0.05712337654076478 0.6596615766333264 0 0 0 0.49 57 2641 58 1602 154 2014 228 2457 
9060 -0.3477274738874418 -0.001970323338565207 0.5243243971979498 0 0 0 0.34 57 2642 58 1603 125 2998 154 2015 228 2458 
9061 -0.37718358683378267 0.004045433958194766 0.5270183838462011 0 0 0 0.41 55 2751 57 2643 58 1604 86 2255 94 2540 116 3026 119 1416 125 2999 139 1363 143 1266 145 1320 149 1752 151 3451 193 2564 226 1518 
9062 -0.25882764531543284 -0.013402531680856877 0.5374620922495755 0 0 0 0.75 34 3079 37 3620 57 2644 58 1605 86 2256 94 2541 116 3027 137 1031 140 2028 144 2263 145 1321 151 3452 154 2016 183 1425 189 1942 191 1558 193 2565 215 1197 218 2316 226 1519 
9063 -0.5117444807609437 0.039135913976344874 0.5787069520432302 0 0 0 0.29 57 2645 58 1606 119 1417 
9064 -0.5114540316837721 0.01948207665855108 0.4967589122502731 0 0 0 0.32 34 3080 46 4099 57 2646 58 1607 86 2257 94 2542 125 3000 151 3453 154 2017 193 2566 218 2317 228 2459 
9065 -0.32541652006992977 0.00185018790800766 0.5412115645678061 0 0 0 0.19 57 2647 119 1418 228 2460 
9066 0.41863553669808484 -0.14845166225104636 0.3954708747144774 0 0 0 0.13 57 2648 137 1032 161 1358 216 1962 
9067 -0.5009405237311155 0.07603925318706063 0.7045623290990165 0 0 0 0.29 57 2649 211 2392 228 2461 
9068 0.42188722614228646 -0.14440724141071232 0.39442976948657643 0 0 0 0.66 57 2650 119 1419 137 1033 139 1364 145 1322 161 1359 205 1287 216 1963 
9069 -0.34467310232028664 0.008048567247632286 0.528197246755217 0 0 0 0.24 57 2651 86 2258 216 1964 228 2462 
9070 -0.4272634665034383 0.022338894445442986 0.5266303144152811 0 0 0 0.16 57 2652 139 1365 145 1323 151 3454 
9071 0.40953727207703466 -0.14608351594594515 0.3646416004353173 0 0 0 0.33 57 2653 140 2029 145 1324 189 1943 
9072 0.43683192676510585 -0.09373605946888473 0.5624694629849853 0 0 0 0.53 57 2654 119 1420 139 1366 154 2018 166 2273 211 2393 216 1965 
9073 0.07566463015415699 -0.040917197900012504 0.5574006337485005 0 0 0 0.27 57 2655 143 1267 145 1325 161 1360 189 1944 193 2567 205 1288 218 2318 
9074 -0.0322108843169837 -0.03126930249058217 0.521607963546277 0 0 0 0.43 57 2656 119 1421 151 3455 161 1361 191 1559 211 2394 215 1198 226 1520 233 1378 
9075 -0.03678320275150433 -0.03430562281135452 0.4996844872788935 0 0 0 0.45 57 2657 125 3001 228 2463 
9076 -0.3047257560758614 0.012631376118678816 0.527883991543926 0 0 0 0.31 57 2658 149 1753 161 1362 183 1426 210 490 216 1966 228 2464 
9077 0.059923912784849806 -0.033268951922925644 0.554731659648578 0 0 0 0.43 57 2659 166 2274 191 1560 
9078 -0.1661344480696256 -0.004210738070147332 0.5388158805195865 0 0 0 0.3 37 3621 57 2660 94 2543 140 2030 145 1326 149 1754 151 3456 154 2019 177 1552 183 1427 193 2568 216 1967 218 2319 226 1521 
9079 0.12440262291274755 -0.04118194325604375 0.55443988039367 0 0 0 0.19 57 2661 59 1975 119 1422 154 2020 177 1553 
9080 -0.23703608360327705 0.010528347974289613 0.5520261621139597 0 0 0 0.15 57 2662 125 3002 151 3457 216 1968 
9081 0.18412379262927625 -0.04716984847209673 0.5559701155939153 0 0 0 0.25 57 2663 122 653 166 2275 
9082 -0.517048259080961 0.060030884324614196 0.5794105221314191 0 0 0 0.3 46 4100 57 2664 58 1608 59 1976 86 2259 125 3003 139 1367 154 2021 166 2276 228 2465 
9083 -0.2950397514629279 0.018341941195623532 0.5392363471663009 0 0 0 0.68 57 2665 132 581 139 1368 
9084 0.14792809317513064 -0.04220746049591147 0.5500309161886053 0 0 0 0.24 57 2666 116 3028 143 1268 
9085 0.173945355832887 -0.04157275115334778 0.5602454369658441 0 0 0 0.27 57 2667 94 2544 218 2320 
9086 0.4248427727570371 -0.08243381326380092 0.5413074942981094 0 0 0 0.57 57 2668 139 1369 151 3458 216 1969 228 2466 
9087 0.41493917820205733 -0.10437452957128826 0.4443020724843549 0 0 0 0.25 57 2669 137 1034 139 1370 140 2031 143 1269 145 1327 154 2022 212 1828 216 1970 233 1379 
9088 0.4097540696038017 -0.10410374776113351 0.4414661358290654 0 0 0 0.24 57 2670 212 1829 216 1971 
9089 -0.02196831651212209 -0.020095914389708022 0.5210215255103976 0 0 0 0.93 57 2671 86 2260 137 1035 154 2023 193 2569 215 1199 
9090 -0.0018779669310448194 -0.02599561643200739 0.514671185411003 0 0 0 0.19 57 2672 116 3029 149 1755 
9091 -0.30790682503559214 0.02163023271706327 0.529936047473365 0 0 0 0.26 57 2673 125 3004 151 3459 166 2277 189 1945 
9092 0.40593921957695767 -0.14865628055933677 0.2606229334823766 0 0 0 0.2 57 2674 139 1371 177 1554 
9093 -0.2536081094871349 0.014932682476533695 0.5280944931826689 0 0 0 0.52 57 2675 86 2261 94 2545 116 3030 125 3005 151 3460 154 2024 215 1200 218 2321 228 2467 
9094 -0.25952946962583096 0.013597911369048369 0.5204186570593291 0 0 0 0.52 57 2676 94 2546 116 3031 125 3006 151 3461 215 1201 228 2468 
9095 0.26515134991366107 -0.049001291155166 0.5520126992127147 0 0 0 0.24 34 3081 57 2677 90 964 125 3007 140 2032 151 3462 166 2278 177 1555 228 2469 
9096 -0.16545043497897965 0.006247555150904763 0.5358223667233776 0 0 0 0.3 55 2752 57 2678 86 2262 119 1423 149 1756 151 3463 154 2025 177 1556 193 2570 210 491 216 1972 226 1522 228 2470 233 1380 
9097 0.4131474109725054 -0.10383149960680063 0.4175362126828912 0 0 0 0.23 55 2753 57 2679 59 1977 137 1036 140 2033 143 1270 144 2264 145 1328 177 1557 189 1946 202 1565 205 1289 212 1830 216 1973 233 1381 
9098 0.41766293418934436 -0.08564304974187777 0.48407997956013465 0 0 0 0.39 57 2680 86 2263 119 1424 139 1372 144 2265 154 2026 161 1363 191 1561 205 1290 212 1831 228 2471 
9099 -0.10432929323215628 -0.007784903351821465 0.5085229928743339 0 0 0 0.43 57 2681 86 2264 116 3032 166 2279 
9100 -0.09845036995593891 -0.0034736592335952174 0.5204234570430643 0 0 0 0.53 57 2682 145 1329 215 1202 
9101 0.4309211248756279 -0.06520467840855267 0.5531204645970713 0 0 0 0.13 57 2683 191 1562 211 2395 
9102 -0.5184790958789561 0.06468003950543788 0.5608692822389844 0 0 0 0.43 57 2684 193 2571 202 1566 228 2472 
9103 -0.20892591808067565 0.017754378458073355 0.5434559644902566 0 0 0 0.34 57 2685 58 1609 205 1291 
9104 -0.16461035900170345 0.010173547083588292 0.5345621641831229 0 0 0 0.28 57 2686 94 2547 125 3008 177 1558 193 2572 210 492 211 2396 216 1974 218 2322 228 2473 
9105 -0.37015748525628667 0.03450310625258576 0.5157629114824571 0 0 0 0.21 57 2687 140 2034 183 1428 
9106 0.16538636402678536 -0.026873019249212066 0.5512918812748895 0 0 0 0.15 57 2688 137 1037 211 2397 212 1832 
9107 0.4261528372480891 -0.07148614305754791 0.5118734209899972 0 0 0 0.43 57 2689 86 2265 119 1425 144 2266 212 1833 216 1975 
9108 0.41334742059944285 -0.07787589899793898 0.48166774448365673 0 0 0 0.5 55 2754 57 2690 59 1978 119 1426 143 1271 166 2280 177 1559 189 1947 193 2573 233 1382 
9109 0.15083902705794314 -0.020245575687233654 0.5591598789888977 0 0 0 0.42 46 4101 55 2755 57 2691 86 2266 94 2548 116 3033 119 1427 125 3009 140 2035 143 1272 151 3464 177 1560 183 1429 189 1948 202 1567 212 1834 
9110 0.45070211805120775 -0.14233238549760813 0.2512054212956844 0 0 0 0.23 57 2692 140 2036 202 1568 
9111 0.42062650076012376 -0.13412047644008104 0.26121285314730613 0 0 0 0.15 57 2693 139 1373 189 1949 
9112 0.41561468752166986 -0.06509297828769274 0.4959710832171544 0 0 0 0.76 57 2694 86 2267 166 2281 211 2398 212 1835 
9113 0.4227801921091592 -0.0628115049212082 0.5067162441712015 0 0 0 0.28 57 2695 144 2267 166 2282 189 1950 212 1836 216 1976 233 1383 
9114 0.40007032273703663 -0.10780290436456864 0.33246025662444884 0 0 0 0.51 57 2696 119 1428 140 2037 177 1561 191 1563 
9115 0.38926037626753307 -0.11046235056432203 0.3195546289883398 0 0 0 0.43 57 2697 59 1979 189 1951 191 1564 
9116 -0.2838310701276624 0.032772611651751514 0.5239286402221685 0 0 0 0.29 57 2698 59 1980 191 1565 
9117 -0.1792593888587491 0.02150706791869991 0.5316886229415972 0 0 0 0.3 57 2699 86 2268 94 2549 116 3034 140 2038 149 1757 151 3465 161 1364 177 1562 189 1952 191 1566 202 1569 211 2399 212 1837 228 2474 
9118 0.3889033389369186 -0.08446563236597014 0.4057301785671762 0 0 0 0.28 57 2700 145 1330 161 1365 205 1292 212 1838 
9119 0.12045449101887802 -0.009984969484112791 0.5479521400018814 0 0 0 0.3 57 2701 145 1331 149 1758 161 1366 205 1293 211 2400 
9120 0.4168766797271264 -0.03586007048250306 0.5862525500585457 0 0 0 1.02 57 2702 122 654 189 1953 211 2401 212 1839 215 1203 233 1384 
9121 -0.3686011080885292 0.04336025940770972 0.5178866856927933 0 0 0 0.2 57 2703 59 1981 119 1429 218 2323 
9122 -0.3674668394941441 0.04386283964709191 0.5195584241810501 0 0 0 0.12 59 1982 119 1430 211 2402 
9123 0.21027437357042625 -0.01972085114629463 0.5426067157669745 0 0 0 0.46 34 3082 47 1094 55 2756 57 2704 86 2269 94 2550 116 3035 125 3010 140 2039 144 2268 145 1332 151 3466 154 2027 166 2283 177 1563 193 2574 215 1204 216 1977 218 2324 226 1523 228 2475 
9124 -0.16875509052127122 0.02363483296825524 0.5244238084810907 0 0 0 0.23 57 2705 119 1431 149 1759 189 1954 202 1570 212 1840 226 1524 
9125 0.382878863273895 -0.08808674434547133 0.3666902009608878 0 0 0 0.29 57 2706 59 1983 145 1333 
9126 0.4060010172770473 -0.08089629787181754 0.3970599080776117 0 0 0 0.18 57 2707 59 1984 139 1374 161 1367 
9127 -0.12110771747896212 0.019753034644548913 0.5268144885290112 0 0 0 1.0 57 2708 177 1564 210 493 216 1978 
9128 0.44860527509554765 -0.14009436773999143 0.19389628394355543 0 0 0 0.25 57 2709 189 1955 191 1567 
9129 -0.21874938848820635 0.031504784347420836 0.5179857586886301 0 0 0 0.33 57 2710 149 1760 211 2403 
9130 0.4114653334913224 -0.043593738841447724 0.5154756346539495 0 0 0 0.37 57 2711 139 1375 144 2269 216 1979 
9131 0.40601507884677973 -0.06880424277588224 0.4275754358097495 0 0 0 0.4 57 2712 59 1985 116 3036 119 1432 139 1376 161 1368 191 1568 205 1294 233 1385 
9132 -0.45809234841545876 0.05847909174367242 0.5070326807159415 0 0 0 0.27 46 4102 57 2713 58 1610 86 2270 116 3037 145 1334 151 3467 153 395 154 2028 193 2575 211 2404 216 1980 218 2325 228 2476 
9133 -0.2073894261852119 0.032749371155893534 0.5228937379637387 0 0 0 0.31 37 3622 57 2714 86 2271 90 965 116 3038 189 1956 210 494 
9134 0.4557228774268729 -0.10541123619768707 0.3032366523013726 0 0 0 0.4 57 2715 140 2040 191 1569 216 1981 
9135 0.3997156608660087 -0.0733139275543294 0.38893259974119215 0 0 0 0.32 57 2716 59 1986 139 1377 144 2270 216 1982 
9136 -0.5145993627799567 0.10516074659514965 0.6329980964551256 0 0 0 0.64 37 3623 57 2717 58 1611 139 1378 151 3468 189 1957 191 1570 211 2405 216 1983 228 2477 
9137 -0.07358071513010137 0.01909079162828082 0.5025033512367674 0 0 0 0.28 57 2718 139 1379 140 2041 211 2406 226 1525 228 2478 
9138 -0.30746976594885794 0.048810617084126415 0.510679375440261 0 0 0 0.17 57 2719 193 2576 205 1295 218 2326 226 1526 
9139 -0.22812961318718697 0.04284612718009774 0.5195013156786813 0 0 0 0.2 46 4103 57 2720 58 1612 154 2029 183 1430 
9140 0.3883163958946233 -0.05501945139004257 0.413935784435169 0 0 0 0.25 57 2721 116 3039 145 1335 161 1369 228 2479 
9141 -0.4244231116491927 0.06386860731779467 0.5080020538430412 0 0 0 0.22 57 2722 125 3011 143 1273 166 2284 
9142 -0.33879791181329966 0.05340790246229447 0.5053859694238212 0 0 0 0.24 57 2723 154 2030 228 2480 
9143 -0.10321415093650013 0.02428159519732377 0.4933701444613128 0 0 0 0.19 57 2724 211 2407 228 2481 
9144 0.41855325322433906 -0.07801975510729596 0.3393874989777355 0 0 0 0.38 57 2725 59 1987 137 1038 144 2271 216 1984 
9145 -0.12953347687730885 0.02998737268717483 0.4983088526700321 0 0 0 0.1 57 2726 154 2031 191 1571 
9146 -0.13080037634323027 0.02965463196168701 0.49747228613155786 0 0 0 0.22 57 2727 86 2272 116 3040 125 3012 145 1336 154 2032 193 2577 
9147 -0.415679608500287 0.06267243190264501 0.5022960907799167 0 0 0 0.24 55 2757 57 2728 125 3013 154 2033 161 1370 205 1296 
9148 -0.21014273141281128 0.04726420867977485 0.5243257117232663 0 0 0 0.35 57 2729 116 3041 125 3014 
9149 0.4566870292138459 -0.12338276140056564 0.17844746551497356 0 0 0 0.51 57 2730 140 2042 177 1565 189 1958 202 1571 
9150 0.40609344457781765 -0.04767141462758702 0.4186794026199328 0 0 0 0.35 57 2731 116 3042 154 2034 161 1371 205 1297 228 2482 233 1386 
9151 0.41350310772452825 -0.04728102054925083 0.42314620407748293 0 0 0 0.22 57 2732 161 1372 205 1298 
9152 0.45216220480767144 -0.1116069164254752 0.21346874442060526 0 0 0 0.33 57 2733 140 2043 177 1566 189 1959 191 1572 202 1572 
9153 0.03343645165606461 0.022170204029475744 0.5199145428582997 0 0 0 0.92 46 4104 57 2734 86 2273 119 1433 125 3015 149 1761 151 3469 166 2285 177 1567 211 2408 
9154 0.1825635260242226 0.012917195178195258 0.54102458328584 0 0 0 0.57 57 2735 193 2578 215 1205 
9155 0.39068207239818714 -0.04030822802037118 0.43285095189593387 0 0 0 0.28 57 2736 116 3043 205 1299 212 1841 
9156 -0.5180266916312183 0.09077331960687565 0.5468902762787646 0 0 0 0.3 57 2737 58 1613 151 3470 211 2409 216 1985 
9157 -0.2744122776553362 0.05191276470211747 0.5036238888455786 0 0 0 0.36 57 2738 116 3044 212 1842 
9158 -0.27389191322795525 0.05196188692039295 0.504234042287816 0 0 0 0.23 57 2739 116 3045 191 1573 218 2327 
9159 -0.13250979010727254 0.03440572342448043 0.49373568839846865 0 0 0 0.39 57 2740 144 2272 145 1337 154 2035 189 1960 212 1843 
9160 0.40391892475482655 -0.04473328692123975 0.41222146026642814 0 0 0 0.4 57 2741 59 1988 116 3046 119 1434 143 1274 144 2273 145 1338 154 2036 161 1373 177 1568 191 1574 202 1573 205 1300 216 1986 228 2483 233 1387 
9161 -0.36904522647723365 0.06461412378321492 0.5087585194431058 0 0 0 0.24 57 2742 153 396 226 1527 
9162 -0.14384655452642256 0.04470203893615299 0.5181439241614415 0 0 0 0.75 34 3083 57 2743 94 2551 137 1039 144 2274 145 1339 191 1575 205 1301 210 495 
9163 0.4049658978937172 -0.04777662146258695 0.394120770844592 0 0 0 0.36 57 2744 59 1989 119 1435 137 1040 139 1380 140 2044 144 2275 145 1340 161 1374 202 1574 205 1302 212 1844 216 1987 228 2484 
9164 0.39488555376495 -0.07258821810941538 0.306688141672161 0 0 0 0.18 57 2745 139 1381 191 1576 
9165 0.4356263513219375 -0.06415094631566139 0.34573095246347313 0 0 0 0.27 57 2746 59 1990 144 2276 189 1961 216 1988 
9166 -0.5273986461686818 0.08125942233745725 0.5009478546237698 0 0 0 0.29 57 2747 58 1614 154 2037 
9167 0.4009319146556713 -0.03728176861713135 0.4181174419682758 0 0 0 0.73 57 2748 59 1991 161 1375 216 1989 
9168 0.4236998581466786 -0.08164797575630657 0.27292307546828565 0 0 0 0.48 57 2749 137 1041 139 1382 140 2045 216 1990 233 1388 
9169 0.01495283627097499 0.029673451941382472 0.5062656586288826 0 0 0 0.25 57 2750 137 1042 161 1376 205 1303 
9170 -0.34526711013560213 0.06985384294893758 0.5141091163676931 0 0 0 0.32 57 2751 94 2552 143 1275 151 3471 191 1577 
9171 -0.15073100403118528 0.05096996175602989 0.5035448816956603 0 0 0 0.21 57 2752 59 1992 191 1578 
9172 -0.5233033122351913 0.09142086966210203 0.5158910546940684 0 0 0 0.34 57 2753 58 1615 119 1436 
9173 0.23889273255001683 0.024097720037432126 0.5321775520940124 0 0 0 0.41 57 2754 140 2046 154 2038 166 2286 215 1206 
9174 -0.516560636751603 0.12003517506132091 0.6058903226586649 0 0 0 0.44 57 2755 58 1616 228 2485 
9175 -0.3798985123135874 0.07565013238380144 0.495340483050065 0 0 0 0.59 46 4105 57 2756 166 2287 183 1431 215 1207 216 1991 218 2328 
9176 0.0767257946809959 0.04176116035345412 0.5248841645426291 0 0 0 0.25 37 3624 46 4106 47 1095 57 2757 86 2274 90 966 94 2553 116 3047 122 655 125 3016 140 2047 149 1762 161 1377 166 2288 183 1432 193 2579 205 1304 211 2410 215 1208 216 1992 228 2486 233 1389 
9177 -0.23768205619354635 0.0703597925374602 0.5149999747283548 0 0 0 0.16 57 2758 59 1993 139 1383 
9178 -0.1708603354520876 0.06265156106742396 0.5120061024786955 0 0 0 0.42 34 3084 55 2758 57 2759 86 2275 94 2554 116 3048 119 1437 125 3017 132 582 139 1384 140 2048 143 1276 144 2277 145 1341 149 1763 151 3472 154 2039 161 1378 166 2289 177 1569 183 1433 189 1962 191 1579 193 2580 205 1305 210 496 211 2411 212 1845 215 1209 216 1993 218 2329 226 1528 233 1390 
9179 -0.3462893315152335 0.0749442849118016 0.4969198857458295 0 0 0 0.17 57 2760 183 1434 218 2330 
9180 -0.17556490681136278 0.06766685829466476 0.5199871975064468 0 0 0 0.16 57 2761 145 1342 151 3473 
9181 -0.044238971291571574 0.048969356879625225 0.49073533080212683 0 0 0 0.3 57 2762 116 3049 145 1343 
9182 0.25187857250076245 0.03597149490612862 0.5338369227434551 0 0 0 0.33 37 3625 46 4107 47 1096 57 2763 94 2555 122 656 140 2049 143 1277 144 2278 149 1764 151 3474 211 2412 
9183 -0.5193463282794467 0.12475850266945251 0.5942809155658434 0 0 0 0.13 57 2764 58 1617 228 2487 
9184 0.23962361621095385 0.03786864689697185 0.5307724315966168 0 0 0 0.18 57 2765 59 1994 119 1438 139 1385 140 2050 151 3475 166 2290 191 1580 202 1575 
9185 0.39392539529380716 0.003622422550673865 0.4566730605334113 0 0 0 0.34 57 2766 59 1995 191 1581 193 2581 202 1576 228 2488 
9186 -0.028503794183028338 0.052217356013600384 0.4890888869648514 0 0 0 0.36 57 2767 116 3050 166 2291 177 1570 193 2582 
9187 0.2704024595058508 0.03391378845566675 0.5143804777118505 0 0 0 0.39 55 2759 57 2768 94 2556 116 3051 125 3018 151 3476 177 1571 189 1963 191 1582 210 497 212 1846 
9188 -0.20381365625055187 0.07553269314682445 0.5157781435372445 0 0 0 0.28 57 2769 116 3052 151 3477 191 1583 218 2331 
9189 0.28860995591043564 0.03126785958217575 0.5087938217177956 0 0 0 0.4 34 3085 37 3626 45 1149 46 4108 57 2770 94 2557 116 3053 125 3019 139 1386 140 2051 144 2279 151 3478 154 2040 191 1584 193 2583 210 498 211 2413 212 1847 216 1994 228 2489 233 1391 
9190 -0.07572056743726834 0.05764813580096449 0.49199957890021123 0 0 0 0.39 55 2760 57 2771 119 1439 137 1043 215 1210 216 1995 226 1529 
9191 -0.35649764367659115 0.08757508788880669 0.5074699469736909 0 0 0 0.24 57 2772 143 1278 212 1848 
9192 0.3139179218989694 0.03442422962799305 0.5184677291839102 0 0 0 0.42 57 2773 144 2280 166 2292 189 1964 193 2584 216 1996 
9193 0.4509017599065176 -0.06413190375624003 0.23477317452174917 0 0 0 0.17 57 2774 140 2052 202 1577 
9194 0.437538141252016 -0.07464748702609567 0.19919755984362825 0 0 0 0.08 57 2775 140 2053 189 1965 
9195 0.04306678958158473 0.057623663305746996 0.516516846909128 0 0 0 0.28 57 2776 86 2276 144 2281 145 1344 151 3479 183 1435 189 1966 
9196 0.00976393529202374 0.05373061498556173 0.4931484411811382 0 0 0 0.26 57 2777 145 1345 151 3480 193 2585 202 1578 228 2490 
9197 0.23119105473232843 0.044924532999184065 0.5190445674406208 0 0 0 0.2 57 2778 116 3054 119 1440 166 2293 191 1585 216 1997 233 1392 
9198 0.41281912048528446 -0.02873956099824844 0.3253330366881009 0 0 0 0.35 57 2779 137 1044 139 1387 140 2054 233 1393 
9199 0.44433517902828895 -0.06169232909006202 0.22792623525980088 0 0 0 0.07 57 2780 177 1572 189 1967 
9200 -0.023638700483633188 0.059013595378723416 0.49064906971141203 0 0 0 0.1 57 2781 86 2277 145 1346 183 1436 
9201 0.09146282452252652 0.05972327406481567 0.5222798009948193 0 0 0 0.46 57 2782 119 1441 140 2055 154 2041 
9202 0.28250409988356584 0.0395542933211807 0.5056913490513639 0 0 0 0.17 57 2783 177 1573 191 1586 
9203 -0.10094978661575937 0.06416448381361887 0.4852267395004745 0 0 0 0.47 45 1150 55 2761 57 2784 143 1279 149 1765 166 2294 177 1574 183 1437 210 499 216 1998 218 2332 226 1530 
9204 -0.10999167844227928 0.06249594994366159 0.47696232615668177 0 0 0 0.28 57 2785 216 1999 226 1531 
9205 0.2180265751740497 0.049229415319241604 0.5178596176972716 0 0 0 0.08 57 2786 94 2558 212 1849 
9206 -0.3207394638714275 0.08358085380591249 0.48286386961293815 0 0 0 0.82 57 2787 119 1442 215 1211 
9207 -0.31089170644331493 0.08792575432903123 0.49609919733060076 0 0 0 0.45 57 2788 119 1443 161 1379 
9208 0.40101828246765325 -0.0069144878084997224 0.37544974989658075 0 0 0 0.4 57 2789 139 1388 154 2042 205 1306 212 1850 228 2491 
9209 0.4569436177259942 -0.09536440218824717 0.10838860243383149 0 0 0 0.16 57 2790 140 2056 177 1575 191 1587 
9210 -0.020166860900412344 0.06389423786812885 0.493002971003978 0 0 0 0.33 57 2791 59 1996 119 1444 144 2282 212 1851 
9211 0.4970760423211569 -0.09056211076614948 0.12853222355746752 0 0 0 0.38 57 2792 140 2057 191 1588 202 1579 
9212 0.5106974129372119 -0.09545389138339232 0.11611353753359141 0 0 0 0.54 57 2793 140 2058 202 1580 
9213 0.28105685607513725 0.045052488645599506 0.5028580616681806 0 0 0 0.4 57 2794 143 1280 144 2283 151 3481 177 1576 216 2000 228 2492 
9214 0.48146787879461594 -0.07997863734625135 0.1541085995346408 0 0 0 0.54 57 2795 191 1589 202 1581 
9215 -0.1113564146228963 0.06671237840885431 0.47560312432401014 0 0 0 0.46 57 2796 140 2059 145 1347 151 3482 
9216 -0.2151867496240759 0.0866498123412102 0.5102123606862194 0 0 0 0.19 57 2797 177 1577 189 1968 218 2333 
9217 0.08815281909902768 0.06836906729059201 0.5214871866142606 0 0 0 0.31 46 4109 57 2798 119 1445 143 1281 151 3483 161 1380 166 2295 205 1307 211 2414 233 1394 
9218 0.07612012238236304 0.06965443520353717 0.5217248881150661 0 0 0 0.38 37 3627 46 4110 57 2799 94 2559 116 3055 119 1446 140 2060 143 1282 166 2296 191 1590 193 2586 212 1852 216 2001 218 2334 226 1532 228 2493 
9219 0.4195355564225749 0.03563011849413416 0.4974958647546318 0 0 0 0.41 57 2800 119 1447 177 1578 216 2002 
9220 0.40653230506728133 -0.03184362903828983 0.27921499984201925 0 0 0 0.3 57 2801 137 1045 189 1969 
9221 0.12051398531939275 0.07061282865199468 0.5178632352891339 0 0 0 0.82 57 2802 59 1997 116 3056 154 2043 166 2297 
9222 0.08359993061637519 0.07624326081095188 0.5277773975522313 0 0 0 0.54 57 2803 145 1348 212 1853 
9223 0.12931000530487108 0.06198326059731187 0.4902347423459811 0 0 0 0.13 57 2804 119 1448 189 1970 
9224 0.1767097960008804 0.05258719960492327 0.4731048733315139 0 0 0 1.98 45 1151 57 2805 218 2335 228 2494 
9225 0.2721684474458668 0.060318271295389275 0.5078134959359238 0 0 0 0.17 34 3086 57 2806 140 2061 151 3484 177 1579 193 2587 228 2495 
9226 0.4059566102994018 0.008731614128526606 0.37495304439182003 0 0 0 0.35 57 2807 59 1998 119 1449 137 1046 139 1389 140 2062 143 1283 144 2284 145 1349 154 2044 161 1381 177 1580 189 1971 205 1308 216 2003 228 2496 
9227 0.4174341926900766 0.034153115871696504 0.4537053220484455 0 0 0 0.31 57 2808 139 1390 140 2063 143 1284 154 2045 189 1972 202 1582 210 500 228 2497 
9228 -0.4089223047146188 0.1035433471939621 0.48871652686548367 0 0 0 0.2 57 2809 58 1618 116 3057 125 3020 143 1285 151 3485 
9229 0.08735941716336229 0.08131790030338257 0.516226740683243 0 0 0 0.28 37 3628 46 4111 57 2810 116 3058 119 1450 122 657 140 2064 166 2298 177 1581 191 1591 193 2588 211 2415 212 1854 216 2004 218 2336 233 1395 
9230 0.41835352092522193 0.05372981456489447 0.4978175772547273 0 0 0 0.42 57 2811 59 1999 119 1451 122 658 143 1286 144 2285 154 2046 166 2299 177 1582 189 1973 191 1592 212 1855 215 1212 228 2498 
9231 0.44696578466930015 0.06477257386049261 0.5334180887458342 0 0 0 0.76 57 2812 59 2000 119 1452 137 1047 189 1974 191 1593 215 1213 
9232 -0.023829836723426343 0.07899409366469344 0.4786960017921705 0 0 0 0.47 57 2813 94 2560 116 3059 119 1453 122 659 125 3021 139 1391 149 1766 151 3486 161 1382 166 2300 211 2416 215 1214 228 2499 
9233 0.40126092410124165 -0.002397103352719801 0.3150309740972607 0 0 0 0.4 57 2814 140 2065 216 2005 
9234 -0.41787945240187185 0.10959560615498103 0.49026315128954334 0 0 0 0.2 57 2815 58 1619 211 2417 
9235 0.43115091650912385 0.011589882669344964 0.36043899805938334 0 0 0 0.24 57 2816 145 1350 161 1383 
9236 0.34638152774612796 0.0076427886930622215 0.3276359173152758 0 0 0 0.33 57 2817 161 1384 205 1309 
9237 0.34638152774612796 0.0076427886930622215 0.3276359173152758 0 0 0 0.33 57 2818 161 1385 205 1310 
9238 -0.5217220872739455 0.10103686516339047 0.440640224492256 0 0 0 0.3 46 4112 57 2819 58 1620 154 2047 189 1975 191 1594 
9239 -0.1072364123498809 0.08704118089267192 0.480419012762039 0 0 0 0.46 57 2820 132 583 143 1287 
9240 0.05084266041061056 0.08559372696628255 0.5017161980854226 0 0 0 0.35 57 2821 137 1048 205 1311 
9241 0.40902629862031553 0.06275491191676748 0.49782805339772446 0 0 0 0.33 57 2822 59 2001 143 1288 177 1583 
9242 0.40402625511969625 0.017109362871462447 0.3552121130228324 0 0 0 0.57 57 2823 137 1049 139 1392 154 2048 212 1856 228 2500 
9243 0.4151760423955591 0.05195633807476099 0.456126817930704 0 0 0 0.32 57 2824 116 3060 137 1050 140 2066 143 1289 154 2049 177 1584 191 1595 193 2589 210 501 216 2006 228 2501 
9244 -0.48920937973693485 0.10934160530320818 0.4599973967421556 0 0 0 0.28 57 2825 58 1621 125 3022 
9245 -0.3006697133117723 0.11116156747673563 0.49788978670029865 0 0 0 0.46 57 2826 119 1454 161 1386 205 1312 228 2502 
9246 -0.4385588276574589 0.10918935680955269 0.46283255245588945 0 0 0 0.23 57 2827 116 3061 154 2050 
9247 -0.5100137805599013 0.1140101905815989 0.4592777234720845 0 0 0 0.29 46 4113 57 2828 191 1596 216 2007 
9248 -0.4265019810426739 0.10586671979131856 0.4481461753173344 0 0 0 0.09 57 2829 58 1622 228 2503 
9249 -0.4985009512000713 0.10744999119179784 0.4405447772804173 0 0 0 0.29 57 2830 189 1976 228 2504 
9250 0.25095554948572113 0.09065282129275928 0.5149794746043589 0 0 0 0.42 57 2831 125 3023 137 1051 143 1290 154 2051 191 1597 
9251 -0.46360028882539217 0.11285805509107827 0.45663376901084046 0 0 0 0.18 57 2832 125 3024 166 2301 211 2418 
9252 -0.36035473376802357 0.11038113441536496 0.46672332098144115 0 0 0 0.22 57 2833 116 3062 125 3025 143 1291 
9253 -0.3562255710358126 0.10937782457712798 0.4646033213459408 0 0 0 0.38 57 2834 58 1623 143 1292 161 1387 
9254 -0.33922268841297415 0.10840162208413577 0.46330235963541194 0 0 0 0.47 37 3629 46 4114 55 2762 57 2835 119 1455 140 2067 151 3487 154 2052 161 1388 191 1598 218 2337 226 1533 228 2505 233 1396 
9255 -0.19972402721713306 0.1047533294554804 0.4754623219299199 0 0 0 0.31 46 4115 57 2836 59 2002 116 3063 119 1456 125 3026 143 1293 144 2286 151 3488 177 1585 193 2590 202 1583 211 2419 212 1857 
9256 -0.4563242195192499 0.11579705511458278 0.464372344656418 0 0 0 0.16 57 2837 58 1624 116 3064 
9257 -0.27000177610459813 0.10782554578103247 0.4633957659365588 0 0 0 0.33 57 2838 58 1625 116 3065 125 3027 143 1294 211 2420 
9258 -0.45728345684535715 0.11549450621722233 0.45575348382236225 0 0 0 0.49 34 3087 37 3630 45 1152 46 4116 57 2839 58 1626 90 967 116 3066 144 2287 151 3489 154 2053 218 2338 228 2506 
9259 -0.39583861807313214 0.11257163799442847 0.45540282208757377 0 0 0 0.31 57 2840 58 1627 183 1438 211 2421 
9260 -0.44338587308320654 0.11635290268447608 0.4576178431848064 0 0 0 0.16 57 2841 58 1628 116 3067 216 2008 226 1534 
9261 -0.28370216017399574 0.11133942851180036 0.4638333415675356 0 0 0 0.15 55 2763 57 2842 58 1629 116 3068 228 2507 
9262 0.41027647642535825 0.07698005512359601 0.4645142315268819 0 0 0 0.47 57 2843 59 2003 143 1295 177 1586 191 1599 
9263 -0.47056089586262106 0.11750539663580611 0.45287160819173294 0 0 0 0.32 46 4117 57 2844 58 1630 125 3028 144 2288 166 2302 202 1584 211 2422 
9264 -0.3525562567106991 0.11579854390389621 0.46262373137814966 0 0 0 0.3 57 2845 116 3069 211 2423 
9265 0.4125391403573965 0.08272368094170113 0.47072570975970357 0 0 0 0.19 57 2846 137 1052 139 1393 140 2068 143 1296 154 2054 191 1600 193 2591 212 1858 228 2508 
9266 0.4490402353636323 -0.020806998396658935 0.17397694354942833 0 0 0 0.45 57 2847 140 2069 177 1587 202 1585 
9267 0.15894466251410433 0.10697382811337292 0.5041509938089785 0 0 0 0.17 55 2764 137 1053 140 2070 166 2303 177 1588 
9268 -0.06546308301123967 0.10639540817167736 0.47136691469488856 0 0 0 0.19 57 2848 122 660 145 1351 154 2055 
9269 0.4053379533465757 0.07623178838810865 0.44666918748455026 0 0 0 0.28 57 2849 212 1859 216 2009 
9270 -0.47627151249715993 0.12186328956812228 0.4517283795340287 0 0 0 0.09 57 2850 58 1631 125 3029 211 2424 228 2509 
9271 -0.1998758750619141 0.1153873798456355 0.46600130112430854 0 0 0 0.18 57 2851 177 1589 218 2339 
9272 -0.1644113604870458 0.11606091637804279 0.46607298137483677 0 0 0 0.37 46 4118 57 2852 90 968 116 3070 177 1590 218 2340 
9273 0.4317172342423343 0.013761888257257587 0.2437489426548614 0 0 0 0.44 57 2853 137 1054 140 2071 143 1297 177 1591 189 1977 
9274 0.4105534571551716 0.10074846394031257 0.4879170933357103 0 0 0 0.38 57 2854 59 2004 137 1055 143 1298 144 2289 189 1978 193 2592 218 2341 228 2510 
9275 0.42542005768695773 0.10344299404152571 0.49680359458932216 0 0 0 0.34 57 2855 59 2005 119 1457 137 1056 143 1299 154 2056 177 1592 189 1979 191 1601 193 2593 216 2010 218 2342 233 1397 
9276 0.4068639949832854 0.09207480112290238 0.46165368278707275 0 0 0 0.35 57 2856 116 3071 140 2072 144 2290 177 1593 189 1980 191 1602 226 1535 228 2511 
9277 -0.18644918117006604 0.1181636085329602 0.4643498098964307 0 0 0 0.27 34 3088 57 2857 116 3072 140 2073 154 2057 166 2304 205 1313 228 2512 
9278 -0.37948601811999494 0.1238326104798661 0.4585787818763287 0 0 0 0.36 34 3089 57 2858 58 1632 116 3073 119 1458 151 3490 191 1603 218 2343 226 1536 228 2513 233 1398 
9279 -0.47373256345617276 0.12600386249851686 0.4502574097160769 0 0 0 0.07 57 2859 116 3074 166 2305 
9280 -0.34376940702978537 0.12390656499891942 0.4602937440325755 0 0 0 0.27 34 3090 57 2860 58 1633 140 2074 193 2594 228 2514 233 1399 
9281 -0.15538413166823223 0.11954744208839863 0.46786282187989064 0 0 0 0.2 57 2861 116 3075 212 1860 
9282 0.2420723509098003 0.11041007493159524 0.48764463458795904 0 0 0 0.27 57 2862 137 1057 143 1300 
9283 -0.1488003741210171 0.11909519503949842 0.4670457308469127 0 0 0 0.36 55 2765 57 2863 116 3076 145 1352 151 3491 
9284 -0.1230215408064414 0.12187931104772014 0.4744599282943152 0 0 0 0.16 57 2864 151 3492 177 1594 193 2595 212 1861 218 2344 
9285 -0.13409888241121778 0.11598762336344683 0.45586637881843217 0 0 0 0.3 57 2865 116 3077 151 3493 212 1862 
9286 -0.11417632032717843 0.11984529241781507 0.4661340871912783 0 0 0 0.5 57 2866 116 3078 139 1394 145 1353 
9287 -0.10991387269977096 0.12123524785261222 0.469975844768855 0 0 0 0.38 57 2867 116 3079 145 1354 193 2596 
9288 0.02773754309394403 0.11030836710052373 0.454698165091548 0 0 0 0.53 57 2868 132 584 212 1863 
9289 -0.17396245838232985 0.12065401916252519 0.46247144765511666 0 0 0 0.46 57 2869 59 2006 140 2075 149 1767 154 2058 193 2597 205 1314 215 1215 228 2515 
9290 -0.10282672727549867 0.11990740437752638 0.4639686611288292 0 0 0 0.52 57 2870 139 1395 149 1768 166 2306 211 2425 228 2516 
9291 -0.005731608033826833 0.11742959348204372 0.46400614659211 0 0 0 0.26 57 2871 151 3494 228 2517 
9292 0.4092494981183402 0.1000415632174698 0.45781299437127304 0 0 0 0.33 57 2872 137 1058 143 1301 189 1981 193 2598 212 1864 
9293 0.3607689588071166 0.08237895219633394 0.40226574402021875 0 0 0 0.1 57 2873 140 2076 193 2599 
9294 0.4195544713397726 0.09652552145966156 0.43463412047980965 0 0 0 0.32 57 2874 119 1459 177 1595 191 1604 212 1865 
9295 0.41387509347730417 0.07084067593814172 0.3626355610198963 0 0 0 0.3 57 2875 177 1596 205 1315 212 1866 
9296 -0.47270155228176414 0.13362408902567013 0.4493587122901059 0 0 0 0.31 57 2876 58 1634 125 3030 191 1605 228 2518 
9297 -0.38602000976765777 0.1313955865091748 0.4498357890109282 0 0 0 0.07 57 2877 58 1635 116 3080 
9298 -0.5252334423403696 0.13655842319030395 0.44901659840658376 0 0 0 0.27 57 2878 125 3031 166 2307 191 1606 228 2519 
9299 0.407191669815703 0.07760345511412887 0.3620034663800755 0 0 0 0.58 57 2879 59 2007 119 1460 137 1059 140 2077 154 2059 177 1597 212 1867 228 2520 
9300 0.00027424908898520534 0.1264387264672067 0.4626623659248062 0 0 0 0.29 45 1153 57 2880 211 2426 216 2011 228 2521 
9301 -0.16273097839077313 0.12952311105448067 0.45555485775129073 0 0 0 0.5 57 2881 116 3081 149 1769 211 2427 
9302 0.16719917660602726 0.1255566288004163 0.46848754466130915 0 0 0 0.28 57 2882 90 969 140 2078 149 1770 
9303 0.40839980084184596 0.1010538613163238 0.4141533695082045 0 0 0 0.4 57 2883 59 2008 116 3082 137 1060 140 2079 143 1302 177 1598 191 1607 202 1586 212 1868 216 2012 228 2522 
9304 0.4055299696021099 0.09066916705340108 0.38594971697670566 0 0 0 0.47 57 2884 59 2009 116 3083 119 1461 137 1061 144 2291 177 1599 216 2013 228 2523 
9305 0.3780552471686437 0.09824948364123026 0.3916918800446117 0 0 0 0.57 57 2885 137 1062 212 1869 
9306 0.26747061582961906 0.1316791276502943 0.46510117613200586 0 0 0 0.12 57 2886 151 3495 226 1537 
9307 0.4013829227238632 0.09137521261575157 0.3592614832932607 0 0 0 0.36 57 2887 59 2010 177 1600 
9308 0.4466602794864959 0.019910255399928984 0.16264278369960045 0 0 0 0.18 57 2888 177 1601 189 1982 191 1608 
9309 -0.11384707832137204 0.1368025320359664 0.44982999953932107 0 0 0 0.34 46 4119 57 2889 59 2011 116 3084 119 1462 149 1771 177 1602 183 1439 218 2345 228 2524 233 1400 
9310 0.4061869886122654 0.06722383559244223 0.28386991756951907 0 0 0 0.27 57 2890 177 1603 189 1983 
9311 0.41116873006406496 0.07183282001304402 0.2912812238290068 0 0 0 0.21 57 2891 140 2080 177 1604 189 1984 191 1609 
9312 0.4217603481914673 0.06426045803564026 0.2716995151498466 0 0 0 0.18 57 2892 177 1605 233 1401 
9313 0.42712433680111545 0.0667959807262152 0.2806372649501257 0 0 0 0.59 57 2893 137 1063 140 2081 143 1303 177 1606 189 1985 191 1610 216 2014 233 1402 
9314 0.4248115733568792 0.06609438537807627 0.26752558525097647 0 0 0 0.41 57 2894 59 2012 143 1304 177 1607 189 1986 
9315 0.2434239210763067 0.1388653429485934 0.45592068721823037 0 0 0 0.46 57 2895 116 3085 139 1396 140 2082 191 1611 193 2600 226 1538 
9316 0.42784633120662363 0.05970041979232488 0.2375445042761749 0 0 0 0.41 57 2896 140 2083 143 1305 177 1608 
9317 0.41799446192577866 0.05688253408649522 0.21805469741226663 0 0 0 0.33 57 2897 140 2084 191 1612 
9318 -0.1136681710648883 0.15002806006175687 0.44478322047420965 0 0 0 0.5 57 2898 137 1064 144 2292 183 1440 189 1987 191 1613 193 2601 202 1587 228 2525 
9319 0.38259163512974426 0.13191561607287006 0.38281252420058787 0 0 0 0.64 57 2899 59 2013 119 1463 137 1065 143 1306 189 1988 191 1614 202 1588 
9320 0.0026052523784622222 0.16101190930255893 0.4519652379850577 0 0 0 0.38 57 2900 139 1397 166 2308 
9321 0.424078416735019 0.09952078970221463 0.28292685880408047 0 0 0 0.59 57 2901 119 1464 137 1066 140 2085 177 1609 189 1989 216 2015 
9322 -0.07928509408808995 -0.6800047303426542 0.7860602516757681 0 0 0 0.49 34 3091 37 3631 45 1154 46 4120 57 2902 59 2014 86 2278 90 970 94 2561 116 3086 137 1067 143 1307 144 2293 151 3496 166 2309 183 1441 189 1990 191 1615 202 1589 205 1316 211 2428 212 1870 218 2346 226 1539 
9323 -0.0865510310928923 -0.5934373462173331 0.7431711709531454 0 0 0 0.27 57 2903 143 1308 189 1991 226 1540 
9324 -0.10391331596809242 -0.5613000534028806 0.7359477463024557 0 0 0 0.33 57 2904 86 2279 202 1590 
9325 -0.09930933575272743 -0.536880708730196 0.733831241522877 0 0 0 0.35 55 2766 57 2905 59 2015 125 3032 166 2310 202 1591 
9326 -0.09818431615934345 -0.5377249236986835 0.7354085338560858 0 0 0 0.27 34 3092 37 3632 46 4121 55 2767 57 2906 59 2016 86 2280 94 2562 116 3087 125 3033 132 585 143 1309 144 2294 149 1772 166 2311 189 1992 191 1616 202 1592 211 2429 218 2347 226 1541 
9327 -0.09990664042298565 -0.40407756137059664 0.7751507535940435 0 0 0 0.14 57 2907 58 1636 161 1389 
9328 -0.11744919002916598 -0.3913458925885647 0.7817933334274121 0 0 0 0.13 57 2908 116 3088 149 1773 
9329 -0.1053368993197194 -0.3971960223417238 0.7603503535937596 0 0 0 0.42 57 2909 58 1637 59 2017 86 2281 94 2563 116 3089 125 3034 151 3497 189 1993 193 2602 202 1593 212 1871 
9330 -0.5147824534699211 -0.22105416854908855 0.614101539926129 0 0 0 0.2 57 2910 58 1638 211 2430 
9331 -0.4992170723447201 -0.19660749928768123 0.6959936620946595 0 0 0 0.2 57 2911 59 2018 151 3498 202 1594 
9332 -0.11829350348917911 -0.3036261833774387 0.6761012343981241 0 0 0 0.49 57 2912 59 2019 143 1310 
9333 -0.5073171385800463 -0.14629827095729275 0.7687273989502541 0 0 0 1.15 57 2913 58 1639 59 2020 143 1311 144 2295 161 1390 189 1994 216 2016 
9334 -0.4916117593743895 -0.14901813091250674 0.762669207879128 0 0 0 0.34 57 2914 153 397 154 2060 189 1995 
9335 -0.48898123862505016 -0.14491380420885697 0.7631122136278383 0 0 0 0.24 57 2915 58 1640 212 1872 218 2348 
9336 -0.06966133160155007 -0.2915110697394688 0.6436128627946697 0 0 0 0.14 57 2916 145 1355 216 2017 
9337 -0.4975355641278621 -0.1560752203310993 0.5659468707384654 0 0 0 0.32 57 2917 58 1641 161 1391 
9338 -0.12767685138578722 -0.26170481251283484 0.6645875711186936 0 0 0 0.69 55 2768 57 2918 59 2021 86 2282 116 3090 119 1465 144 2296 145 1356 154 2061 189 1996 202 1595 211 2431 
9339 -0.49149163194837076 -0.13521002152859074 0.7160981257812764 0 0 0 0.71 46 4122 51 599 57 2919 58 1642 125 3035 189 1997 191 1617 
9340 -0.1180660629136912 -0.25861870531994735 0.6671964117526716 0 0 0 0.29 57 2920 59 2022 86 2283 116 3091 139 1398 151 3499 166 2312 212 1873 
9341 -0.4916908656219166 -0.12402581969743849 0.7794533487650076 0 0 0 0.21 57 2921 125 3036 151 3500 
9342 -0.3729928431702512 -0.17164072327381263 0.6794455552812805 0 0 0 0.34 46 4123 57 2922 58 1643 59 2023 86 2284 94 2564 116 3092 119 1466 125 3037 166 2313 193 2603 202 1596 211 2432 
9343 -0.5216574182483297 -0.13571073163636488 0.5642379179100447 0 0 0 0.6 57 2923 116 3093 166 2314 
9344 -0.0704994618779713 -0.2754705228998698 0.6017032639035407 0 0 0 0.33 55 2769 57 2924 59 2024 86 2285 94 2565 125 3038 137 1068 144 2297 149 1774 161 1392 166 2315 177 1610 189 1998 202 1597 212 1874 
9345 -0.5062855977303433 -0.10996293511049345 0.7456620386984432 0 0 0 0.75 57 2925 58 1644 59 2025 86 2286 139 1399 144 2298 153 398 154 2062 161 1393 166 2316 183 1442 193 2604 202 1598 212 1875 216 2018 218 2349 228 2526 
9346 -0.3947863449283961 -0.14136932602374436 0.656152281173205 0 0 0 0.45 55 2770 57 2926 58 1645 59 2026 116 3094 125 3039 144 2299 151 3501 166 2317 193 2605 205 1317 228 2527 
9347 -0.4988737039605638 -0.09569534633932374 0.7419844239188756 0 0 0 0.19 57 2927 58 1646 125 3040 151 3502 
9348 -0.3281778288031787 -0.1572562569849552 0.6615490829716587 0 0 0 0.29 57 2928 58 1647 116 3095 125 3041 218 2350 
9349 -0.4968462602946345 -0.10129387032882288 0.668397589310844 0 0 0 0.28 34 3093 57 2929 58 1648 86 2287 139 1400 144 2300 151 3503 154 2063 191 1618 202 1599 212 1876 228 2528 
9350 -0.5043429318429842 -0.1133640038498223 0.547164904842291 0 0 0 0.57 57 2930 116 3096 218 2351 
9351 -0.376327762592836 -0.1258473101114941 0.618317772298212 0 0 0 0.8 34 3094 55 2771 57 2931 59 2027 86 2288 125 3042 144 2301 145 1357 151 3504 161 1394 193 2606 205 1318 228 2529 
9352 -0.49892516335422776 -0.08420576877883515 0.651740013656879 0 0 0 0.35 57 2932 193 2607 228 2530 
9353 -0.12178087202756344 -0.1825325379459589 0.6817287066998579 0 0 0 0.33 57 2933 58 1649 59 2028 94 2566 116 3097 125 3043 143 1312 144 2302 149 1775 151 3505 154 2064 166 2318 189 1999 191 1619 211 2433 212 1877 228 2531 
9354 -0.227433462278267 -0.15131626040623342 0.6521594775438725 0 0 0 0.43 57 2934 86 2289 144 2303 
9355 -0.22637460851862207 -0.15149664668039098 0.6535634004624125 0 0 0 0.37 57 2935 59 2029 144 2304 145 1358 
9356 -0.12994712263360308 -0.18258330879853488 0.602784335392552 0 0 0 0.32 57 2936 94 2567 132 586 144 2305 189 2000 212 1878 
9357 -0.12420099714178963 -0.17790498942837243 0.5726106273577517 0 0 0 0.11 34 3095 57 2937 59 2030 149 1776 
9358 -0.15718961862332037 -0.15098950549779275 0.6546359761663558 0 0 0 0.29 34 3096 57 2938 86 2290 125 3044 144 2306 
9359 -0.156203906937839 -0.15094221963640883 0.6561503577845471 0 0 0 0.32 34 3097 57 2939 86 2291 116 3098 125 3045 144 2307 228 2532 
9360 -0.15894048244944142 -0.14822989738844836 0.6639153516364751 0 0 0 0.22 57 2940 59 2031 125 3046 151 3506 228 2533 
9361 -0.4357372181643394 -0.08822348306548652 0.5563549880997384 0 0 0 0.35 57 2941 58 1650 228 2534 
9362 -0.43564910950351243 -0.009364240160842235 0.9974355371891515 0 0 0 0.69 51 600 57 2942 58 1651 59 2032 86 2292 212 1879 228 2535 
9363 -0.43008479441993697 -0.0848329091449405 0.5616930592326116 0 0 0 0.23 57 2943 151 3507 211 2434 
9364 -0.42435571148923906 -0.084368560300907 0.5718942183046875 0 0 0 0.27 57 2944 58 1652 151 3508 228 2536 
9365 -0.3515046340536175 -0.0953175998209032 0.6007913997548294 0 0 0 0.69 57 2945 145 1359 151 3509 183 1443 
9366 -0.41858652646756433 -0.08010544598286741 0.547583561764093 0 0 0 0.42 57 2946 58 1653 94 2568 
9367 -0.45983420705395595 -0.06748463471777603 0.552375401099082 0 0 0 0.27 37 3633 46 4124 57 2947 58 1654 59 2033 116 3099 125 3047 144 2308 166 2319 193 2608 211 2435 216 2019 228 2537 
9368 -0.4234041634487479 -0.07613012002761506 0.5610755362553291 0 0 0 0.3 46 4125 57 2948 58 1655 94 2569 116 3100 151 3510 202 1600 211 2436 228 2538 
9369 -0.4538809024566971 -0.06782553340806646 0.55109665790969 0 0 0 0.32 57 2949 58 1656 116 3101 139 1401 211 2437 
9370 -0.4509382170093388 -0.06728156457943917 0.5439961793447117 0 0 0 0.66 57 2950 58 1657 94 2570 116 3102 132 587 139 1402 211 2438 
9371 -0.4509382170093388 -0.06728156457943917 0.5439961793447117 0 0 0 0.66 57 2951 58 1658 94 2571 116 3103 132 588 139 1403 211 2439 
9372 -0.4432434301862964 -0.06828798290450214 0.5462654162096074 0 0 0 0.43 57 2952 116 3104 139 1404 
9373 -0.1266124049163552 -0.13398831616026768 0.6014867304217053 0 0 0 0.92 46 4126 57 2953 86 2293 94 2572 139 1405 149 1777 151 3511 189 2001 211 2440 212 1880 
9374 -0.5127505097255276 -0.022365228132350097 0.6888214903600766 0 0 0 0.49 57 2954 59 2034 139 1406 202 1601 211 2441 
9375 -0.4250146927217712 -0.06776643041706468 0.5558039878541794 0 0 0 0.23 37 3634 57 2955 151 3512 193 2609 211 2442 228 2539 
9376 -0.3005735663695966 -0.09414773706410828 0.566823295460575 0 0 0 0.19 57 2956 94 2573 189 2002 
