# 3D point list with one line of data per point:
#   POINT3D_ID, X, Y, Z, R, G, B, ERROR, TRACK[] as (IMAGE_ID, POINT2D_IDX)
# Number of points: 383, mean track length: 7.99
319 0.4738962083637363 0.2751958873290509 1.2660234589416226 0 0 0 0.33 1 316 26 117 56 319 71 77 100 15 118 97 128 65 129 49 221 59 232 112 
320 0.7444658529368324 0.2618767135561008 1.1723583732962355 0 0 0 0.28 1 317 56 320 81 101 118 98 129 50 
321 0.7449981050184085 0.2624444264092401 1.1731111861484536 0 0 0 0.42 1 318 56 321 118 99 129 51 147 67 152 78 222 47 
322 0.6319706427077809 0.2739997264013057 1.2071157574128284 0 0 0 0.52 1 319 12 19 25 77 26 118 56 322 65 72 103 29 128 66 147 68 152 79 158 43 160 62 197 14 232 113 
323 0.6813834642876405 0.27127953202049454 1.192376333977526 0 0 0 0.59 1 320 26 119 56 323 81 102 128 67 147 69 221 60 222 48 
324 0.6810796777087995 0.27114147500477037 1.1918851546956606 0 0 0 0.49 1 321 25 78 26 120 56 324 65 73 69 33 81 103 89 69 118 100 128 68 221 61 
325 0.5673165104472421 0.2846733755040557 1.2279659790528366 0 0 0 0.26 1 322 56 325 65 74 129 52 152 80 198 65 232 114 
326 0.3021293691401757 0.31306008199535595 1.3420291885454068 0 0 0 0.33 1 323 26 121 56 326 88 32 198 66 199 31 
327 0.33500941016052055 0.306975933550837 1.325524615514873 0 0 0 0.27 1 324 56 327 198 67 199 32 217 119 
328 0.535249575425656 0.28993472687098804 1.2366484007777345 0 0 0 0.45 1 325 26 122 56 328 65 75 128 69 152 81 198 68 232 115 
329 0.5354098554772885 0.2900889749583081 1.2371107809019397 0 0 0 0.4 1 326 26 123 56 329 128 70 198 69 217 120 232 116 
330 0.26938470707235607 0.3206939692257874 1.3575027612624648 0 0 0 0.53 1 327 26 124 56 330 81 104 118 101 232 117 
331 0.26922618732268355 0.320851316229778 1.355731253868924 0 0 0 0.64 1 328 12 20 26 125 56 331 65 76 71 78 81 105 88 33 111 44 118 102 127 51 199 33 217 121 232 118 
332 0.38587585153125775 0.3079152828934848 1.2990404335335657 0 0 0 0.24 1 329 26 126 56 332 81 106 111 45 118 103 138 23 164 61 179 29 
333 0.4747336776469752 0.30026166709009233 1.254067224806956 0 0 0 0.45 1 330 56 333 71 79 128 71 129 53 164 62 221 62 232 119 
334 0.4748566865917775 0.30033912252098466 1.2540083472256045 0 0 0 0.39 1 331 56 334 67 58 71 80 89 70 100 16 111 46 128 72 129 54 164 63 217 122 232 120 
335 0.335859942857723 0.33319464727232034 1.3123168883605123 0 0 0 0.5 1 332 26 127 56 335 67 59 164 64 217 123 220 51 221 63 224 28 
336 0.3358689040651697 0.33352887608175985 1.3125353117938046 0 0 0 0.41 1 333 56 336 67 60 88 34 118 104 128 73 217 124 232 121 
337 0.30302265590498345 0.3398785716288555 1.3281680864482637 0 0 0 0.4 1 334 26 128 56 337 67 61 81 107 88 35 96 54 164 65 190 92 198 70 217 125 220 52 232 122 
338 0.30311396380858785 0.3399930620666917 1.328879931659009 0 0 0 0.42 1 335 26 129 56 338 67 62 71 81 81 108 96 55 164 66 190 93 198 71 217 126 232 123 
339 0.27024167659720794 0.3478769674293296 1.3420993071262497 0 0 0 0.42 1 336 26 130 56 339 81 109 88 36 96 56 164 67 190 94 198 72 220 53 232 124 
340 0.2702618456650008 0.3481806191595137 1.3422043725857595 0 0 0 0.33 26 131 56 340 73 37 76 37 81 110 88 37 127 52 198 73 199 34 220 54 
341 0.7155836714102607 0.3368712833899558 1.1501588322897651 0 0 0 0.47 1 337 25 79 56 341 65 77 69 34 81 111 96 57 118 105 129 55 158 44 182 15 199 35 222 49 232 125 
342 0.6501192181553321 0.34657976691793824 1.16586607769811 0 0 0 0.4 1 338 56 342 69 35 81 112 100 17 158 45 160 63 172 29 181 55 198 74 217 127 220 55 221 64 232 126 
343 -0.10059746575780032 0.03874861244146181 0.33060210774915577 0 0 0 0.66 1 339 56 343 76 38 208 29 
344 0.4922544550075551 0.17027425770195231 1.3548522670845131 0 0 0 0.77 1 340 56 344 65 78 89 71 97 40 100 18 138 24 147 70 152 82 172 30 190 95 217 128 
345 0.4096810917516483 0.17942312967551505 1.3257571878245722 0 0 0 0.71 1 341 56 345 71 82 88 38 198 75 
346 0.7266362396933703 0.21097759936458946 1.1997368248985278 0 0 0 0.33 1 342 56 346 69 36 
347 0.6269832801246353 0.22238083245978296 1.226827390701639 0 0 0 1.09 1 343 56 347 103 30 234 14 
348 0.5967305871197914 0.2299913809365383 1.2359270401970892 0 0 0 0.84 1 344 12 21 25 80 26 132 56 348 69 37 103 31 129 56 198 76 232 127 234 15 
349 -0.10129331705462666 0.06231116667458911 0.3216772044538397 0 0 0 0.39 1 345 56 349 76 39 
350 0.5317060380397262 0.23928737822131135 1.254740964414347 0 0 0 0.52 1 346 25 81 26 133 56 350 60 26 65 79 100 19 118 106 127 53 128 74 138 25 147 71 190 96 198 77 221 65 222 50 232 128 
351 0.5015572554523425 0.2456647847973446 1.2633310623242737 0 0 0 0.64 1 347 26 134 56 351 60 27 89 72 100 20 118 107 129 57 138 26 147 72 158 46 164 68 179 30 199 36 221 66 232 129 
352 0.6975547893847235 0.23759014352479108 1.202110778832136 0 0 0 0.2 1 348 56 352 69 38 
353 0.663313715285534 0.24406674510106025 1.2094616897114696 0 0 0 0.41 1 349 26 135 56 353 65 80 89 73 97 41 118 108 172 31 217 129 
354 0.7114418641419757 0.25049203862747405 1.185412519360617 0 0 0 0.5 1 350 56 354 73 38 81 113 197 15 222 51 
355 0.333320556509856 0.2850883888809777 1.3331915919333956 0 0 0 0.57 1 351 26 136 56 355 67 63 71 83 81 114 127 54 181 56 
356 0.333320556509856 0.2850883888809777 1.3331915919333956 0 0 0 0.57 1 352 26 137 56 356 67 64 71 84 81 115 127 55 181 57 
357 0.7282010646652162 0.26065140012367366 1.1789049133920744 0 0 0 0.28 1 353 56 357 69 39 222 52 
358 0.7288035981627853 0.2608094023655444 1.1796508942921429 0 0 0 0.38 1 354 56 358 81 116 
359 0.3686296108298003 0.2990385381481782 1.3127445348948947 0 0 0 0.44 1 355 26 138 56 359 67 65 81 117 88 39 111 47 127 56 128 75 138 27 179 31 217 130 220 56 224 29 
360 0.36859945760223933 0.2990612900866672 1.3126111024039284 0 0 0 0.44 1 356 26 139 56 360 67 66 81 118 127 57 128 76 179 32 220 57 224 30 
361 0.4250754881237625 0.30531623723800944 1.2832408787600473 0 0 0 0.3 1 357 56 361 67 67 81 119 89 74 
362 0.4077573707390218 0.349256297944284 1.2718580535331105 0 0 0 0.51 1 358 12 22 56 362 65 81 96 58 118 109 128 77 
363 0.40775737073858165 0.3492562979439386 1.2718580535318522 0 0 0 0.51 1 359 12 23 56 363 65 82 96 59 118 110 128 78 
364 0.4603951935065306 0.19456170966660227 1.3052382844295893 0 0 0 0.74 1 360 25 82 26 140 56 364 71 85 81 120 89 75 97 42 100 21 118 111 129 58 147 73 181 58 190 97 198 78 217 131 220 58 221 67 224 31 232 130 
365 -0.05875944690687809 -0.237982622254217 0.6534670246961477 0 0 0 0.38 1 361 56 365 208 30 
366 0.5746984882713473 0.20157951948135566 1.2541654596057992 0 0 0 1.36 1 362 56 366 63 28 81 121 89 76 97 43 128 79 147 74 190 98 222 53 232 131 
367 0.5461106296610816 0.13187158527461823 1.2965557892863528 0 0 0 0.28 1 363 56 367 97 44 118 112 147 75 152 83 217 132 232 132 
368 0.43022693200574474 0.18652754812065175 1.3210751151823643 0 0 0 0.8 1 364 25 83 26 141 56 368 71 86 118 113 138 28 181 59 198 79 217 133 
369 0.9703215562577401 0.24185567637587477 1.1563685749651607 0 0 0 0.75 12 24 56 369 97 45 103 32 165 0 217 134 221 68 222 54 
370 0.7726787785020933 0.34605614660575573 1.124144141343286 0 0 0 0.35 56 370 63 29 89 77 96 60 105 7 120 1 134 5 147 76 158 47 162 23 220 59 235 1 
371 0.8712040457240577 0.1118142904776558 1.2759630508789295 0 0 0 0.38 12 25 56 371 62 4 65 83 67 68 71 87 73 39 89 78 97 46 103 33 147 77 190 99 221 69 232 133 
372 0.6878983175978597 0.15581521108460336 1.2342125192453948 0 0 0 0.08 12 26 56 372 103 34 
373 0.2612515443093193 0.23568565731351473 1.4249907588579023 0 0 0 0.71 12 27 56 373 71 88 73 40 81 122 96 61 118 114 128 80 152 84 181 60 217 135 
374 0.0005980532982848164 0.1255522687219021 0.5632411715532194 0 0 0 0.62 12 28 56 374 65 84 
375 0.007527264553807515 0.15506371407220312 0.6025235569558031 0 0 0 0.59 12 29 56 375 65 85 
376 0.8608653293928675 0.30694058129442175 1.1149232577802684 0 0 0 0.31 12 30 56 376 71 89 73 41 181 61 190 100 198 80 217 136 222 55 
377 0.8716499004366406 0.308853177061321 1.1092015162123643 0 0 0 0.33 12 31 56 377 100 22 105 8 120 2 129 59 164 69 197 16 198 81 222 56 235 2 
378 0.7718641681577815 0.3308916546069835 1.1316251769530556 0 0 0 0.26 12 32 56 378 89 79 147 78 172 32 190 101 232 134 
379 0.765303591655715 0.3381901760446644 1.1327717484288262 0 0 0 0.22 12 33 56 379 97 47 182 16 
380 0.8432346740510701 0.32933612918657473 1.1060683433778993 0 0 0 0.37 12 34 56 380 71 90 73 42 120 3 197 17 222 57 
381 0.8937205026230397 0.3353338025744628 1.102847566511197 0 0 0 0.37 12 35 56 381 105 9 118 115 120 4 147 79 
382 0.88981575765842 0.33650000112092754 1.1049045829191386 0 0 0 0.36 56 382 97 48 120 5 162 24 163 9 165 1 
383 0.7130038929171543 0.36281821719547097 1.1351838162768986 0 0 0 0.37 12 36 25 84 56 383 69 40 71 91 103 35 111 48 120 6 158 48 162 25 164 70 182 17 217 137 222 58 232 135 
384 0.7759620350925621 0.35209752820301055 1.115808474213978 0 0 0 0.26 12 37 56 384 73 43 147 80 222 59 
385 -0.02707267745843148 -0.07733228454862914 0.5522033860146317 0 0 0 1.61 12 38 56 385 65 86 
386 -0.0038963119090128476 0.03558828738846271 0.7166521542747359 0 0 0 0.4 12 39 56 386 65 87 81 123 
387 0.00307360927774638 0.048448335065762856 0.7242046100573221 0 0 0 0.32 12 40 56 387 81 124 
388 0.5135598570474581 0.1446129313300897 1.304425088703651 0 0 0 0.23 12 41 25 85 56 388 67 69 88 40 89 80 118 116 152 85 190 102 199 37 232 136 
389 0.5600041260581675 0.2247373153561863 1.2506635847396619 0 0 0 0.26 12 42 56 389 60 28 69 41 81 125 89 81 100 23 111 49 118 117 147 81 152 86 160 64 162 26 208 31 217 138 220 60 
390 0.8693505576788351 0.22610903210183114 1.144633157636804 0 0 0 0.37 12 43 56 390 65 88 67 70 89 82 103 36 111 50 118 118 120 7 128 81 147 82 164 71 181 62 190 103 197 18 199 38 221 70 222 60 232 137 235 3 
391 0.012893640472898465 0.1651973311937324 0.6241972729409425 0 0 0 0.67 12 44 56 391 65 89 
392 0.8073327450064084 0.2928110909327314 1.1350181713601077 0 0 0 0.42 12 45 56 392 73 44 105 10 147 83 
393 0.7581703357932611 0.35302269332029207 1.1259423913878905 0 0 0 0.31 12 46 56 393 71 92 81 126 118 119 120 8 134 6 147 84 158 49 164 72 182 18 190 104 222 61 232 138 
394 0.7449742329983265 0.35812936311452226 1.12468193932649 0 0 0 0.35 12 47 56 394 65 90 71 93 120 9 129 60 147 85 158 50 164 73 190 105 199 39 222 62 
395 0.8747896531534463 0.34144869834260627 1.0978859715094569 0 0 0 0.14 12 48 56 395 69 42 129 61 
396 -0.004945738662183956 0.13794297788994317 0.556231668056831 0 0 0 0.31 12 49 56 396 65 91 
397 0.9748443289222534 0.23678208512493162 1.1594414733646279 0 0 0 0.19 56 397 120 10 147 86 182 19 
398 0.8831304844826067 0.2745601510497429 1.1283098055194012 0 0 0 0.38 12 50 56 398 63 30 69 43 71 94 103 37 120 11 158 51 164 74 190 106 221 71 232 139 235 4 
399 0.8461068589703837 0.28181613775314535 1.123964996270875 0 0 0 0.23 12 51 56 399 81 127 120 12 129 62 164 75 217 139 
400 0.7064510945793587 0.3436910065101774 1.1513430137003668 0 0 0 0.23 12 52 56 400 69 44 89 83 129 63 158 52 232 140 
401 0.8012544441137113 0.3511103856646131 1.118970500880818 0 0 0 0.24 12 53 56 401 198 82 
402 0.8479168854409679 0.3412281499935244 1.0982353263242701 0 0 0 0.34 56 402 69 45 100 24 118 120 120 13 163 10 190 107 197 19 222 63 234 16 
403 0.8611201746004452 0.34060387131212155 1.0994542734468336 0 0 0 0.44 12 54 56 403 73 45 103 38 111 51 129 64 163 11 164 76 165 2 190 108 197 20 220 61 221 72 235 5 
404 -0.01607998338970382 -0.029966624328781555 0.5276498947373768 0 0 0 0.23 12 55 56 404 65 92 
405 -0.007428185551352396 0.05369386820616051 0.5356661758740952 0 0 0 0.26 12 56 56 405 65 93 
406 -0.007428185551352396 0.05369386820616051 0.5356661758740952 0 0 0 0.26 12 57 56 406 65 94 
407 0.4063808263840094 0.2208687392485588 1.321622115781073 0 0 0 0.35 12 58 56 407 220 62 
408 0.7659417120542569 0.3457418911666766 1.1316650082305504 0 0 0 0.76 12 59 56 408 63 31 65 95 71 95 97 49 220 63 232 141 
409 0.7370651339635096 0.35478224979380846 1.1311067954966112 0 0 0 0.34 12 60 56 409 89 84 118 121 158 53 182 20 
410 -0.013846888068418143 0.05616487616694635 0.5277949185749381 0 0 0 0.34 12 61 56 410 65 96 
411 0.5037962176056765 0.16731513861727312 1.3721473424649702 0 0 0 0.43 12 62 25 86 56 411 65 97 71 96 81 128 232 142 
412 0.7857304789408249 0.130046726633129 1.213445765573969 0 0 0 0.45 12 63 25 87 56 412 63 32 71 97 73 46 81 129 96 62 118 122 147 87 160 65 190 109 198 83 217 140 221 73 222 64 232 143 
413 0.8510795242565756 0.132317763464768 1.1928315664547584 0 0 0 0.51 12 64 56 413 81 130 147 88 190 110 
414 0.3144849022664784 0.2578034560805859 1.35385295144333 0 0 0 0.71 12 65 25 88 26 142 56 414 67 71 81 131 88 41 96 63 118 123 127 58 128 82 160 66 181 63 199 40 217 141 220 64 221 74 224 32 
415 0.7766192692353564 0.3266088722155995 1.131308837582862 0 0 0 0.34 12 66 25 89 56 415 65 98 71 98 73 47 81 132 89 85 111 52 118 124 120 14 129 65 147 89 158 54 160 67 164 77 182 21 190 111 222 65 232 144 234 17 
416 0.9313372902297904 0.34600693128388843 1.135531805015831 0 0 0 0.23 12 67 56 416 129 66 
417 0.8548148934091273 0.31350292157582654 1.1139846609810706 0 0 0 0.39 12 68 56 417 118 125 164 78 190 112 235 6 
418 0.8887110977741829 0.31825687450904844 1.1115189719984522 0 0 0 0.57 56 418 65 99 71 99 100 25 105 11 111 53 118 126 120 15 129 67 147 90 164 79 165 3 198 84 221 75 235 7 
419 0.6642596960543028 0.1483309633538901 1.2494806859344554 0 0 0 0.8 12 69 25 90 56 419 96 64 138 29 179 33 
420 0.7005346085647502 0.13443256702802703 1.297911120551626 0 0 0 0.79 25 91 56 420 81 133 217 142 
421 0.38143312622780395 0.3671899623454511 1.2704565782481758 0 0 0 0.39 25 92 56 421 162 27 179 34 217 143 220 65 
422 0.5086298904191101 0.1621807467176216 1.3665249566899147 0 0 0 0.41 25 93 56 422 65 100 67 72 97 50 138 30 147 91 190 113 222 66 
423 0.3967160145134022 0.20675550170749626 1.3347896292927357 0 0 0 0.42 25 94 56 423 71 100 96 65 97 51 100 26 111 54 152 87 160 68 162 28 164 80 
424 0.6012402303653878 0.18287156041800132 1.2541020265107616 0 0 0 0.59 25 95 26 143 56 424 60 29 69 46 73 48 89 86 96 66 111 55 127 59 147 92 152 88 158 55 160 69 164 81 198 85 208 32 217 144 220 66 232 145 
425 0.4467504563808049 0.20233489944665697 1.3065970147181851 0 0 0 0.44 25 96 26 144 56 425 67 73 81 134 89 87 96 67 118 127 127 60 222 67 232 146 
426 0.7405266964773275 0.1873280152913125 1.2040233341340292 0 0 0 0.35 56 426 67 74 69 47 111 56 152 89 158 56 160 70 182 22 217 145 220 67 
427 0.7466224185599528 0.19808963772929697 1.1947196672475775 0 0 0 0.18 56 427 163 12 164 82 182 23 
428 0.6060374980049583 0.21944304662790703 1.2329877437938546 0 0 0 0.4 25 97 26 145 56 428 147 93 222 68 
429 0.5296355193737273 0.2291133076380343 1.2594359947154978 0 0 0 0.39 25 98 56 429 88 42 100 27 138 31 160 71 172 33 199 41 217 146 
430 0.574025583942469 0.22593188778853687 1.2448072908906704 0 0 0 0.45 25 99 56 430 73 49 152 90 160 72 162 29 217 147 
431 0.68597130716895 0.27734870525950334 1.1872974059942343 0 0 0 0.17 56 431 69 48 128 83 152 91 197 21 
432 0.6855395172451234 0.3071377546476585 1.1603001021179529 0 0 0 0.32 25 100 56 432 65 101 
433 0.5838162324500624 0.32696463901321365 1.1987457286112029 0 0 0 0.2 25 101 56 433 118 128 128 84 220 68 221 76 
434 0.830496346416246 0.2954536696700581 1.1214266827332837 0 0 0 0.26 25 102 56 434 67 75 
435 0.7702612466206166 0.3435352669254506 1.128284596111041 0 0 0 0.33 56 435 62 5 63 33 65 102 69 49 71 101 73 50 89 88 96 68 103 39 105 12 111 57 118 129 120 16 128 85 134 7 147 94 158 57 160 73 164 83 165 4 172 34 181 64 182 24 190 114 197 22 222 69 232 147 235 8 
436 0.7593264912446961 0.35330517955578 1.1276322985090443 0 0 0 0.34 56 436 81 135 96 69 111 58 118 130 120 17 134 8 164 84 190 115 220 69 222 70 232 148 
437 0.7242912424544348 0.3605059092670737 1.1358562192499875 0 0 0 0.31 56 437 69 50 120 18 182 25 222 71 
438 0.7552000034804355 0.359236091110484 1.1226655537696577 0 0 0 0.48 56 438 69 51 118 131 120 19 158 58 164 85 182 26 234 18 
439 0.6442957240417704 0.1373566706177241 1.2609312714417313 0 0 0 0.4 25 103 56 439 71 102 147 95 197 23 232 149 
440 0.40428739150691945 0.17158551217733362 1.352136524637307 0 0 0 0.35 25 104 56 440 65 103 97 52 127 61 217 148 
441 0.7212096804423517 0.1459462788495558 1.2380868886732206 0 0 0 0.44 25 105 56 441 147 96 232 150 
442 0.8003023354221304 0.14470159406373234 1.1954326836741722 0 0 0 0.29 56 442 89 89 190 116 197 24 
443 0.8009716945078745 0.14490918479388698 1.196607740097956 0 0 0 0.28 56 443 73 51 89 90 182 27 197 25 
444 0.8325530576722385 0.15047249877543542 1.1950693233435348 0 0 0 0.26 25 106 56 444 89 91 129 68 152 92 160 74 190 117 
445 0.37630024591725064 0.2200553809135725 1.3397135254084704 0 0 0 0.31 25 107 56 445 190 118 217 149 
446 0.31501734478638915 0.23030043348012458 1.3700339779270587 0 0 0 0.4 25 108 56 446 60 30 81 136 162 30 
447 0.3202831127254107 0.2338259714674764 1.3686204512959435 0 0 0 0.4 25 109 56 447 118 132 128 86 152 93 160 75 198 86 217 150 224 33 
448 0.4657247244577415 0.24556795425308253 1.2768200827571758 0 0 0 0.2 25 110 56 448 60 31 127 62 128 87 158 59 224 34 
449 0.44115400281645484 0.2981368040180688 1.2738102930303905 0 0 0 0.31 25 111 56 449 60 32 71 103 81 137 97 53 111 59 127 63 128 88 158 60 164 86 179 35 198 87 208 33 217 151 224 35 232 151 
450 0.8071660770295798 0.29264615117537857 1.1342406367935736 0 0 0 0.32 56 450 73 52 105 13 160 76 164 87 182 28 
451 0.5564903509822148 0.33432243195535144 1.2055696959478834 0 0 0 0.4 25 112 56 451 65 104 69 52 158 61 190 119 
452 0.32469365227556285 0.3798225845494808 1.293536300566827 0 0 0 0.27 25 113 56 452 190 120 
453 0.7527677758390146 0.354312386825574 1.1274377866399146 0 0 0 0.37 56 453 63 34 65 105 69 53 81 138 89 92 96 70 118 133 120 20 147 97 158 62 162 31 163 13 181 65 190 121 198 88 199 42 222 72 232 152 
454 0.5917066933881201 0.16216069980590547 1.2547455319541072 0 0 0 1.04 25 114 56 454 65 106 129 69 160 77 181 66 198 89 217 152 
455 0.8334146765161855 0.14741639373470453 1.1884669019427268 0 0 0 0.37 56 455 67 76 73 53 89 93 103 40 118 134 129 70 160 78 164 88 190 122 197 26 217 153 232 153 
456 0.8333290445900867 0.14750539518767602 1.1876366413458206 0 0 0 0.3 56 456 73 54 105 14 118 135 160 79 221 77 
457 0.6066792315588216 0.1851268118770807 1.2508187764316478 0 0 0 0.34 25 115 26 146 56 457 69 54 73 55 81 139 96 71 97 54 111 60 118 136 147 98 152 94 158 63 160 80 164 89 172 35 190 123 199 43 208 34 217 154 220 70 221 78 222 73 234 19 
458 0.4521942916494897 0.21188196607849766 1.2918459820343717 0 0 0 0.72 25 116 56 458 71 104 88 43 118 137 221 79 232 154 
459 0.25941522353010815 0.2647335768501548 1.38609803021611 0 0 0 0.12 25 117 56 459 217 155 220 71 
460 0.8054904562252346 0.19651284748324166 1.1775899965287586 0 0 0 0.31 69 55 73 56 89 94 
461 0.5580945508805717 0.25653957713721026 1.24002130078069 0 0 0 0.26 25 118 56 460 65 107 
462 0.36192258693432316 0.32571844585773774 1.3039307124985782 0 0 0 0.35 25 119 26 147 56 461 128 89 164 90 
463 0.7042900580814793 0.3314507199782435 1.1541871193827127 0 0 0 0.28 25 120 56 462 73 57 118 138 129 71 
464 0.5436302093004839 0.36964332204262546 1.1989280718567588 0 0 0 0.41 25 121 26 148 56 463 103 41 118 139 172 36 217 156 222 74 232 155 
465 0.42594632843765684 0.21928805213243202 1.31805650040191 0 0 0 0.29 25 122 26 149 56 464 67 77 71 105 81 140 88 44 89 95 100 28 118 140 127 64 128 90 147 99 181 67 190 124 198 90 199 44 217 157 232 156 
466 0.5333082892470674 0.34603396878067205 1.212189478333649 0 0 0 0.41 25 123 26 150 56 465 152 95 164 91 217 158 
467 0.5063894419971612 0.35810575335390943 1.214498073695503 0 0 0 0.5 25 124 56 466 118 141 198 91 217 159 220 72 221 80 
468 0.5355384151284914 0.3533815890093705 1.205399158581714 0 0 0 0.35 25 125 56 467 81 141 118 142 152 96 
469 0.6831700939332431 0.12309076451779116 1.2508512285962736 0 0 0 0.84 25 126 56 468 67 78 181 68 232 157 
470 0.387559308098545 0.17188410881647462 1.3523555286400752 0 0 0 0.45 25 127 56 469 67 79 81 142 
471 0.33402118965392047 0.25373243208257396 1.3410410784694808 0 0 0 0.56 25 128 26 151 56 470 71 106 81 143 88 45 96 72 127 65 160 81 217 160 220 73 
472 0.47836519303429376 0.20007435771642254 1.2865024015996003 0 0 0 0.46 25 129 26 152 56 471 63 35 67 80 71 107 88 46 97 55 111 61 129 72 147 100 152 97 198 92 
473 0.41933450171132364 0.23681779956967192 1.3190828566460746 0 0 0 0.69 25 130 26 153 56 472 67 81 71 108 89 96 118 143 128 91 190 125 199 45 232 158 
474 0.3878545158636823 0.24193964004515128 1.3202473309267733 0 0 0 1.09 25 131 26 154 56 473 63 36 67 82 71 109 89 97 96 73 127 66 158 64 164 92 181 69 190 126 199 46 217 161 220 74 224 36 
475 0.5506036686024558 0.2923604559635408 1.2288321509268114 0 0 0 0.41 25 132 26 155 56 474 
476 0.5506245021541984 0.2921167645895641 1.2284930931212654 0 0 0 0.34 25 133 26 156 56 475 65 108 129 73 152 98 198 93 
477 0.4246328165423936 0.33282041403199064 1.2682348275749422 0 0 0 0.43 25 134 26 157 56 476 63 37 65 109 67 83 89 98 118 144 138 32 164 93 181 70 221 81 
478 0.42470046255694216 0.33299220128378615 1.2689752320775083 0 0 0 0.44 25 135 26 158 56 477 63 38 65 110 67 84 89 99 118 145 128 92 138 33 164 94 181 71 221 82 
479 0.682282645267534 0.34030221895506146 1.1572066780064014 0 0 0 0.31 25 136 56 478 65 111 69 56 118 146 158 65 160 82 199 47 217 162 232 159 
480 0.6818460792335136 0.3402649114858319 1.1569268169830413 0 0 0 0.31 25 137 56 479 69 57 158 66 217 163 
481 0.7770874525993441 0.3268287980320043 1.1317021176437512 0 0 0 0.39 56 480 65 112 69 58 81 144 89 100 105 15 118 147 120 21 128 93 129 74 158 67 160 83 182 29 190 127 232 160 234 20 
482 0.4601890786072303 0.23795439691247136 1.285542809584611 0 0 0 0.57 25 138 26 159 56 481 63 39 65 113 67 85 71 110 81 145 97 56 103 42 111 62 118 148 127 67 128 94 129 75 138 34 147 101 158 68 162 32 164 95 172 37 179 36 181 72 190 128 198 94 199 48 217 164 221 83 224 37 232 161 
483 0.3468268709036327 0.2671476641085849 1.3333399332180242 0 0 0 0.33 25 139 26 160 56 482 67 86 127 68 181 73 
484 0.5530728327722944 0.34137434348618456 1.2059163681218676 0 0 0 0.64 25 140 56 483 118 149 198 95 
485 0.7619782974658535 0.327787782603967 1.1367360747058377 0 0 0 0.43 56 484 65 114 69 59 71 111 81 146 89 101 97 57 111 63 118 150 120 22 129 76 147 102 158 69 160 84 164 96 181 74 182 30 190 129 198 96 222 75 
486 0.7613421927925349 0.3275737508884025 1.1359328873611876 0 0 0 0.41 56 485 65 115 69 60 81 147 89 102 97 58 118 151 120 23 129 77 158 70 160 85 182 31 190 130 
487 0.7283845313032818 0.3324481236395356 1.1431023234437723 0 0 0 0.56 56 486 65 116 69 61 81 148 89 103 96 74 111 64 129 78 147 103 158 71 163 14 164 97 182 32 199 49 221 84 222 76 
488 0.728083387905139 0.33220427999186325 1.1428332611118583 0 0 0 0.61 25 141 56 487 65 117 69 62 81 149 96 75 147 104 158 72 164 98 182 33 199 50 221 85 222 77 
489 0.5427309896171345 0.18219275815285577 1.3456596915666172 0 0 0 0.88 56 488 65 118 81 150 97 59 
490 0.6319780593699549 0.15641223833464046 1.2513807007870346 0 0 0 0.83 26 161 56 489 63 40 71 112 73 58 147 105 162 33 190 131 199 51 
491 0.3864234796463162 0.3665581399016153 1.2669195030794242 0 0 0 0.52 26 162 56 490 118 152 217 165 
492 0.4811021422815377 0.38701409783982244 1.2154030624402787 0 0 0 0.38 26 163 56 491 152 99 158 73 220 75 
493 -0.020639660392047527 -0.07195829627714947 0.7965481283357086 0 0 0 0.66 26 164 56 492 65 119 
494 0.5718943983060569 0.12274016251555542 1.2885130553612651 0 0 0 0.45 56 493 71 113 111 65 118 153 162 34 232 162 
495 0.5860117949173578 0.17971366814375206 1.260060170402506 0 0 0 0.59 26 165 56 494 60 33 63 41 97 60 111 66 127 69 147 106 160 86 164 99 232 163 234 21 
496 0.29218115127319505 0.2857259419147827 1.3527141137737264 0 0 0 0.27 26 166 56 495 71 114 81 151 111 67 118 154 179 37 221 86 
497 0.2822989261458129 0.29058141831820455 1.3571473769884912 0 0 0 0.3 26 167 56 496 60 34 81 152 97 61 160 87 
498 0.3085738277719322 0.2976871352376595 1.3428126810710141 0 0 0 0.37 26 168 56 497 97 62 
499 0.49358248910546154 0.29762989643419047 1.2480596562154727 0 0 0 0.22 26 169 56 498 65 120 67 87 164 100 181 75 217 166 
500 0.3241075302445451 0.32872822207033 1.3169114040023129 0 0 0 0.24 26 170 76 40 88 47 
501 0.6766506495033716 0.3123173864663999 1.171256340366377 0 0 0 0.38 26 171 56 499 89 104 96 76 232 164 
502 0.6535233490856692 0.3612063085856443 1.1540628649053453 0 0 0 0.63 26 172 56 500 111 68 163 15 217 167 
503 -0.08320043253862577 -0.13344101154661 0.588271699377696 0 0 0 0.33 26 173 56 501 76 41 
504 0.6167947625622515 0.2071854885515234 1.2371267749698793 0 0 0 0.43 26 174 56 502 69 63 199 52 234 22 
505 0.2887378292802426 0.25590582747441504 1.3709312462628431 0 0 0 0.29 26 175 56 503 71 115 96 77 97 63 103 43 152 100 181 76 217 168 220 76 
506 0.3371651399127176 0.27371504689194337 1.3278610389300722 0 0 0 0.08 26 176 56 504 81 153 88 48 118 155 127 70 
507 0.3257743659395461 0.2790977441203864 1.3413689461225136 0 0 0 0.12 26 177 56 505 217 169 
508 0.706827884963419 0.3083417984307456 1.1694057920790113 0 0 0 0.28 26 178 56 506 89 105 118 156 129 79 190 132 198 97 222 78 
509 0.25313205164458247 0.40909407062597813 1.3209718461876734 0 0 0 0.33 26 179 56 507 198 98 
510 0.6524774631001167 0.17802705344816583 1.238540281366094 0 0 0 0.42 26 180 56 508 60 35 63 42 65 121 69 64 71 116 73 59 89 106 96 78 103 44 111 69 127 71 129 80 138 35 147 107 152 101 158 74 160 88 164 101 179 38 181 77 198 99 208 35 220 77 222 79 
511 0.40895182268653113 0.21125606454124432 1.325604522655862 0 0 0 0.28 56 509 63 43 81 154 138 36 164 102 199 53 220 78 
512 0.436092551199303 0.21657849505398039 1.3098342036578736 0 0 0 0.42 26 181 56 510 63 44 71 117 81 155 89 107 96 79 111 70 164 103 217 170 220 79 221 87 224 38 232 165 
513 0.6260200331095787 0.22671451037420082 1.234709512802194 0 0 0 0.27 26 182 56 511 60 36 89 108 
514 0.2839348028690756 0.2660582477582887 1.3701532594729373 0 0 0 0.44 26 183 56 512 67 88 127 72 217 171 221 88 
515 0.4493156900758074 0.3582743169621293 1.2326222392706894 0 0 0 0.26 26 184 56 513 89 109 164 104 181 78 208 36 
516 0.39901548185774827 0.19740992228528362 1.3384097170663511 0 0 0 0.2 26 185 56 514 81 156 198 100 
517 0.27191615346469594 0.40100676174022504 1.318966518193851 0 0 0 0.45 26 186 56 515 198 101 220 80 
518 0.2720385785596176 0.3996135645760057 1.3166573659841667 0 0 0 0.66 26 187 56 516 162 35 220 81 
519 -0.014550565824118426 -0.02149436074837694 0.7734699712947439 0 0 0 0.46 26 188 56 517 76 42 88 49 
520 0.35060910868377115 0.29428927027177143 1.321945771681407 0 0 0 0.39 26 189 56 518 67 89 71 118 81 157 103 45 111 71 127 73 138 37 179 39 224 39 
521 0.5524106565599304 0.3412060557127543 1.204173105987387 0 0 0 0.4 26 190 56 519 118 157 
522 0.31387745399254524 0.2718463500386863 1.3454363105270002 0 0 0 0.54 26 191 56 520 65 122 67 90 71 119 96 80 97 64 118 158 127 74 160 89 198 102 199 54 217 172 220 82 
523 0.26747044757737315 0.3022621599618583 1.3646892477171806 0 0 0 0.4 26 192 56 521 73 60 111 72 
524 0.44035258793505666 0.28184982730675057 1.2823958970393108 0 0 0 0.9 26 193 56 522 127 75 128 95 164 105 179 40 221 89 
525 0.3858832787239035 0.3075838163629928 1.29762715276429 0 0 0 0.5 26 194 56 523 63 45 81 158 97 65 164 106 221 90 224 40 
526 0.3523053384226221 0.31859462106155295 1.3115726944487107 0 0 0 0.19 26 195 56 524 81 159 
527 0.25286981655820207 0.3400952719056675 1.3537691847731759 0 0 0 0.35 26 196 56 525 71 120 73 61 128 96 164 107 220 83 224 41 
528 0.3698497642895454 0.32883186061190167 1.2965432500354006 0 0 0 0.43 26 197 56 526 81 160 88 50 164 108 181 79 217 173 220 84 224 42 
529 0.3698267636935821 0.32887444792764514 1.2965893304499279 0 0 0 0.43 26 198 56 527 81 161 164 109 181 80 217 174 220 85 224 43 
530 0.4027435349220526 0.26981411270346406 1.3005615519587745 0 0 0 0.63 26 199 56 528 71 121 81 162 127 76 158 75 198 103 221 91 232 166 
531 0.6401317700266 0.12594453575607623 1.3210913953216261 0 0 0 0.49 56 529 65 123 138 38 
532 0.647915121374257 0.13065656411551294 1.3079058690930412 0 0 0 0.42 56 530 65 124 89 110 
533 0.8600646454163884 0.12187664919303272 1.2603283368709897 0 0 0 0.71 56 531 67 91 89 111 103 46 
534 0.6397232158394234 0.13840158810788047 1.3258878569436874 0 0 0 0.4 56 532 81 163 89 112 147 108 179 41 181 81 217 175 232 167 
535 0.6452265724169098 0.13783375380921828 1.2974441788332909 0 0 0 0.45 56 533 89 113 217 176 
536 0.5137878462355542 0.14432563981178126 1.3067077060078895 0 0 0 0.51 56 534 76 43 88 51 199 55 
537 0.7374948987936908 0.137199386634143 1.2525761543054048 0 0 0 0.44 56 535 96 81 138 39 222 80 
538 0.7778590505077427 0.1375336106694652 1.2114953795631564 0 0 0 0.17 56 536 62 6 67 92 71 122 118 159 120 24 
539 0.6370747626130883 0.14887766392366583 1.2585793776095828 0 0 0 0.42 56 537 89 114 97 66 221 92 
540 0.8599890111957763 0.13393044347836966 1.189686738530984 0 0 0 0.48 56 538 67 93 69 65 97 67 103 47 111 73 134 9 152 102 158 76 163 16 164 110 172 38 182 34 190 133 197 27 234 23 
541 0.7500487469267474 0.1439288334858743 1.246332747390827 0 0 0 0.45 56 539 118 160 147 109 152 103 160 90 221 93 222 81 232 168 
542 0.7863815012747754 0.1386464563029221 1.2008470164970262 0 0 0 0.2 56 540 62 7 164 111 197 28 222 82 
543 0.781129542471377 0.1400445121389407 1.2071077453608412 0 0 0 0.34 56 541 62 8 89 115 105 16 120 25 127 77 160 91 162 36 
544 0.7795506862338961 0.1399369958230888 1.2043622104874057 0 0 0 0.25 56 542 89 116 96 82 152 104 160 92 182 35 197 29 
545 0.509123828686117 0.16912120709688266 1.352346534238099 0 0 0 0.51 56 543 65 125 81 164 138 40 147 110 152 105 179 42 190 134 
546 0.5083858346208536 0.16964446576159076 1.356585467063164 0 0 0 0.55 56 544 67 94 71 123 111 74 
547 0.7705355310622665 0.14923867568567747 1.2094902180396965 0 0 0 0.27 56 545 152 106 160 93 217 177 
548 0.4514203802550396 0.18346468140330516 1.3171017314404732 0 0 0 0.22 56 546 71 124 89 117 217 178 222 83 
549 0.6222795083831756 0.17139778869698286 1.2487377008143352 0 0 0 0.2 56 547 81 165 96 83 160 94 
550 0.8458845417216114 0.15757696653987066 1.1737852511986555 0 0 0 0.41 56 548 81 166 111 75 120 26 147 111 160 95 182 36 217 179 
551 0.7891793347570359 0.162753083360292 1.1942628770975068 0 0 0 0.13 56 549 69 66 81 167 89 118 182 37 
552 0.9476156657024966 0.1589799084922889 1.184586302044824 0 0 0 0.38 56 550 63 46 67 95 103 48 147 112 163 17 172 39 190 135 232 169 
553 0.9469934770084514 0.15861887567588456 1.1839006631927806 0 0 0 0.59 56 551 62 9 63 47 67 96 103 49 147 113 162 37 163 18 164 112 172 40 190 136 232 170 
554 0.8682994394801612 0.16163990932797268 1.1691075567643268 0 0 0 0.45 56 552 63 48 73 62 208 37 
555 0.9263058551287336 0.1629317974741376 1.178592609397861 0 0 0 0.33 56 553 73 63 105 17 165 5 217 180 220 86 221 94 232 171 235 9 
556 0.6993397392059543 0.17918263374470575 1.226370293756014 0 0 0 0.2 56 554 89 119 152 107 181 82 
557 0.6980816652001806 0.17812265409185826 1.2219356106702965 0 0 0 0.36 56 555 160 96 181 83 
558 0.8439623557028636 0.1683204372163901 1.1836380859760562 0 0 0 0.38 56 556 160 97 232 172 
559 0.4676869534370145 0.1982921904018247 1.2888585550334735 0 0 0 0.12 56 557 128 97 198 104 
560 0.6173296367020977 0.18837701312962243 1.2416162512863762 0 0 0 0.44 56 558 73 64 160 98 
561 0.6828902807331025 0.18344732848874548 1.2196497030756752 0 0 0 0.4 56 559 89 120 96 84 160 99 190 137 199 56 217 181 
562 0.3988662970373101 0.2099753471121909 1.329926531753003 0 0 0 0.26 56 560 81 168 127 78 181 84 217 182 
563 0.8676452254043704 0.17743077938137167 1.169933134286618 0 0 0 0.48 56 561 65 126 67 97 69 67 89 121 111 76 118 161 147 114 152 108 190 138 197 30 217 183 222 84 232 173 
564 0.8140185288017627 0.18089814357627584 1.1810684494739978 0 0 0 0.41 56 562 69 68 81 169 89 122 128 98 160 100 172 41 208 38 232 174 
565 0.3943519482439412 0.21780782158932482 1.3329778652547986 0 0 0 0.45 56 563 65 127 164 113 199 57 
566 0.9156377419010129 0.18070759149145724 1.1746376248785535 0 0 0 0.2 56 564 89 123 120 27 134 10 222 85 232 175 
567 0.8559381443905288 0.18309921310259905 1.167126194416709 0 0 0 0.37 56 565 62 10 81 170 89 124 118 162 152 109 158 77 164 114 172 42 190 139 232 176 
568 0.9564101899183285 0.18525121741268127 1.17852738459987 0 0 0 0.35 56 566 71 125 105 18 147 115 165 6 217 184 232 177 235 10 
569 0.9568608045105732 0.18527204875664247 1.1795474656151383 0 0 0 0.36 56 567 65 128 67 98 71 126 89 125 103 50 111 77 118 163 120 28 134 11 147 116 165 7 217 185 232 178 235 11 
570 0.8340200406145637 0.19289337403240647 1.1776740787325046 0 0 0 0.28 56 568 147 117 221 95 
571 0.9180811742755616 0.19061767453778186 1.1654587452862892 0 0 0 0.09 56 569 105 19 220 87 
572 0.6434446615782726 0.20803678641892176 1.225941465219833 0 0 0 0.23 56 570 81 171 111 78 138 41 160 101 164 115 172 43 
573 0.714137259996217 0.2031866679154996 1.202785887143632 0 0 0 0.25 56 571 111 79 160 102 232 179 
574 0.6835680277878151 0.20854701625604974 1.217208661147934 0 0 0 0.15 56 572 96 85 199 58 
575 0.7012413416716967 0.207133774451093 1.2099300810581555 0 0 0 0.23 56 573 89 126 164 116 190 140 217 186 
576 0.8052195613113631 0.2026827503630324 1.1766543743377533 0 0 0 0.28 56 574 120 29 172 44 221 96 
577 0.28009820078284425 0.25505515233740544 1.3764976751082005 0 0 0 0.34 56 575 118 164 217 187 224 44 
578 0.24239245519618474 0.26349248120759033 1.3993396803020242 0 0 0 0.44 56 576 81 172 111 80 118 165 
579 0.8909348476421018 0.20701705769727066 1.1570984748253494 0 0 0 0.29 56 577 62 11 71 127 73 65 89 127 97 68 103 51 111 81 118 166 120 30 147 118 162 38 164 117 182 38 190 141 197 31 217 188 221 97 222 86 232 180 
580 0.8994274439954374 0.21078656732811388 1.1574305088127517 0 0 0 0.25 56 578 71 128 73 66 105 20 111 82 120 31 163 19 164 118 165 8 182 39 217 189 220 88 232 181 235 12 
581 0.22651492029917386 0.2763223443326217 1.397759281014928 0 0 0 0.44 56 579 65 129 81 173 128 99 179 43 190 142 217 190 
582 0.2367923667161618 0.27326455489428964 1.3866186892451882 0 0 0 0.37 56 580 65 130 190 143 
583 0.6867095074539126 0.22775408391741178 1.2074653735796914 0 0 0 0.52 56 581 152 110 197 32 199 59 
584 0.6160117241010817 0.23388916180768904 1.2258468192117673 0 0 0 0.15 56 582 160 103 217 191 
585 0.5576707395799089 0.24467266770459484 1.2467544221212912 0 0 0 0.16 56 583 152 111 160 104 
586 0.6885516956137364 0.23624236694790968 1.2055288438539735 0 0 0 0.19 56 584 128 100 182 40 198 105 
587 0.8585427479800446 0.2254695138061844 1.1494429825667911 0 0 0 0.27 56 585 89 128 120 32 128 101 134 12 182 41 190 144 232 182 
588 0.9531856907468579 0.22543209778051926 1.162644713210814 0 0 0 0.46 56 586 62 12 120 33 152 112 
589 0.9804350999399528 0.22680268399555917 1.1638785995095975 0 0 0 0.4 56 587 62 13 118 167 120 34 147 119 
590 0.23494378100702068 0.2893476887241406 1.387703064100819 0 0 0 0.25 56 588 96 86 128 102 232 183 
591 0.30473990273892737 0.28147837411322657 1.342634481096015 0 0 0 0.18 56 589 179 44 190 145 221 98 
592 0.8135295343191413 0.2324545419964271 1.160571389099721 0 0 0 0.2 56 590 69 69 120 35 147 120 165 9 182 42 197 33 235 13 
593 0.6736836305504481 0.250640747610665 1.2083590827110968 0 0 0 0.35 56 591 71 129 118 168 172 45 232 184 
594 0.7016692438979879 0.25045046775237106 1.1883912710382438 0 0 0 0.55 56 592 129 81 197 34 
595 0.8941078296446247 0.23993592369251043 1.1456637333442548 0 0 0 0.28 56 593 65 131 67 99 69 70 71 130 89 129 105 21 111 83 118 169 120 36 128 103 134 13 147 121 152 113 164 119 182 43 190 146 217 192 222 87 232 185 
596 0.24191176016984295 0.303734490427737 1.3704919470838972 0 0 0 0.36 56 594 67 100 81 174 172 46 179 45 
597 0.9680122021483892 0.24169833050384296 1.1537539277592916 0 0 0 0.4 56 595 97 69 103 52 165 10 217 193 222 88 235 14 
598 0.6204233270058089 0.26282397198572643 1.2162833762980607 0 0 0 0.32 56 596 100 29 152 114 158 78 197 35 
599 0.7665309691541123 0.25122405047402463 1.1700673399804518 0 0 0 0.12 56 597 128 104 198 106 222 89 
600 0.9321675520080979 0.2444303501000022 1.1488764986811586 0 0 0 0.36 56 598 111 84 118 170 120 37 147 122 162 39 163 20 164 120 182 44 190 147 197 36 222 90 
601 0.9662765098540937 0.2451540174829569 1.1532538279834308 0 0 0 0.49 56 599 69 71 97 70 118 171 120 38 134 14 147 123 152 115 158 79 165 11 182 45 217 194 222 91 235 15 
602 0.8734443030306532 0.24969917332628688 1.137399436134013 0 0 0 0.29 56 600 67 101 73 67 89 130 103 53 105 22 111 85 118 172 120 39 147 124 152 116 162 40 164 121 165 12 181 85 190 148 197 37 198 107 199 60 217 195 222 92 232 186 235 16 
603 0.4653567799106708 0.2892135209768573 1.2661234870843343 0 0 0 0.28 56 601 67 102 198 108 
604 0.44437077901179256 0.2928610966771456 1.2728380117692761 0 0 0 0.28 56 602 60 37 89 131 127 79 220 89 221 99 
605 0.7376834424405836 0.2655557324969687 1.1762533483038757 0 0 0 0.21 56 603 128 105 181 86 
606 0.8702796846832167 0.2535907085993022 1.1335188956526938 0 0 0 0.22 56 604 67 103 120 40 147 125 164 122 181 87 232 187 
607 0.5868162554065691 0.28175343683172593 1.2188096285168994 0 0 0 0.22 56 605 164 123 199 61 
608 0.8944425983317753 0.25921866475595645 1.1378525146277707 0 0 0 0.34 56 606 67 104 71 131 111 86 118 173 120 41 128 106 147 126 152 117 164 124 165 13 182 46 190 149 221 100 222 93 232 188 235 17 
609 0.9118205834216495 0.2591916862067087 1.1389483303623718 0 0 0 0.39 56 607 164 125 182 47 198 109 
610 0.689036903653447 0.2794301067420893 1.1846787082281283 0 0 0 0.21 56 608 118 174 172 47 190 150 
611 0.37243662888391155 0.31884637366698393 1.302117257154169 0 0 0 0.36 56 609 65 132 81 175 111 87 179 46 190 151 217 196 
612 0.685950855319872 0.2858550130811157 1.1835724167887476 0 0 0 0.15 56 610 69 72 147 127 190 152 232 189 
613 0.8960118381191542 0.2740839758926301 1.1324464256506546 0 0 0 0.27 56 611 120 42 164 126 
614 0.9248173630578115 0.27537335864404544 1.1368767065214245 0 0 0 0.23 56 612 71 132 89 132 
615 0.3964981607061508 0.3258546137879211 1.288734141187425 0 0 0 0.41 56 613 88 52 129 82 
616 0.3557625016404718 0.3314059064556388 1.30045473804626 0 0 0 0.45 56 614 88 53 158 80 179 47 
617 0.5245938667947335 0.30966028720164035 1.2313109071033734 0 0 0 0.09 56 615 69 73 152 118 
618 0.28982068331437405 0.3419813578765124 1.3294798084974908 0 0 0 0.22 56 616 81 176 138 42 
619 0.6890413449629109 0.2959770902897251 1.176636430929929 0 0 0 0.24 56 617 89 133 128 107 190 153 
620 0.7800803474488568 0.28890592983046715 1.1456109167507764 0 0 0 0.3 56 618 120 43 134 15 152 119 
621 0.860995742635734 0.2892340743689232 1.1224572406951934 0 0 0 0.23 56 619 69 74 120 44 152 120 160 105 190 154 
622 0.2720947384925106 0.36052487402313205 1.3466393923897326 0 0 0 0.32 56 620 76 44 198 110 
623 0.28267907652269086 0.3567756014366141 1.32696063516405 0 0 0 0.34 56 621 81 177 97 71 118 175 232 190 
624 0.7490920309310937 0.29982115960584416 1.1502811403680677 0 0 0 0.34 56 622 96 87 120 45 182 48 217 197 222 94 
625 0.7397144689208089 0.3032822280437837 1.1614081327668726 0 0 0 0.61 56 623 128 108 134 16 
626 0.780396230553081 0.2970572491981863 1.1407361139574606 0 0 0 0.36 56 624 69 75 128 109 164 127 172 48 
627 0.2903965896235537 0.3562130889154192 1.3195688241169437 0 0 0 0.68 56 625 81 178 232 191 
628 0.6844892621129877 0.3092626993528284 1.166957297647846 0 0 0 0.39 56 626 89 134 120 46 147 128 152 121 160 106 182 49 
629 0.6807011978660841 0.3104405969896947 1.1688160871774724 0 0 0 0.33 56 627 89 135 96 88 147 129 160 107 164 128 217 198 222 95 232 192 
630 0.6802637954066255 0.31600744182999374 1.1624775094009978 0 0 0 0.35 56 628 73 68 103 54 111 88 147 130 172 49 222 96 
631 0.8697773252795596 0.3001103069943687 1.1118968482570877 0 0 0 0.38 56 629 63 49 120 47 164 129 222 97 
632 0.5503524478641119 0.3330521936396694 1.2067275978035426 0 0 0 0.2 56 630 118 176 128 110 190 155 221 101 222 98 232 193 
633 0.6988969963609265 0.31995470664995856 1.163233965215706 0 0 0 0.37 56 631 63 50 96 89 160 108 
634 0.5208897895272683 0.3395841003512714 1.2170375707519892 0 0 0 0.36 56 632 111 89 127 80 152 122 158 81 164 130 217 199 232 194 
635 0.5209420239306362 0.3396187712724166 1.2170392678785602 0 0 0 0.35 56 633 103 55 111 90 127 81 128 111 152 123 158 82 164 131 217 200 224 45 232 195 
636 0.4499564430673828 0.35424358494831315 1.235251409480518 0 0 0 0.29 56 634 81 179 181 88 
637 0.6687464659427651 0.3330410410640724 1.1621502132352497 0 0 0 0.25 56 635 152 124 160 109 
638 0.3110230247228565 0.3809674632200036 1.3047775548906808 0 0 0 0.36 56 636 96 90 190 156 221 102 232 196 
639 0.9312831702231851 0.32402246987514843 1.1165774782208904 0 0 0 0.13 56 637 97 72 118 177 190 157 222 99 
640 0.8432639875937615 0.3223104765990633 1.109193412208563 0 0 0 0.57 56 638 63 51 89 136 103 56 111 91 118 178 120 48 134 17 158 83 162 41 163 21 165 14 172 50 197 38 235 18 
641 0.41139225980353505 0.37439327916033127 1.248074125993698 0 0 0 0.69 56 639 71 133 220 90 221 103 224 46 
642 0.6449500831359871 0.34916040570713 1.1670343632321085 0 0 0 0.26 56 640 69 76 152 125 
643 0.8802538097031248 0.32876120866090713 1.107560251570484 0 0 0 0.34 56 641 147 131 190 158 198 111 
644 0.7851647423603134 0.33608357158657526 1.1218341920414097 0 0 0 0.44 56 642 69 77 73 69 118 179 160 110 182 50 232 197 
645 0.4347809411313282 0.379447712558933 1.2418137130529345 0 0 0 0.48 56 643 81 180 96 91 111 92 164 132 221 104 
646 0.8732688269174608 0.33095744923334686 1.1024308635755278 0 0 0 0.12 56 644 147 132 190 159 197 39 
647 0.4308736830377405 0.3827898630551154 1.2431491823788563 0 0 0 0.31 56 645 67 105 181 89 
648 0.9124164987436969 0.3355229727988352 1.1109129271529505 0 0 0 0.64 56 646 164 133 208 39 217 201 
649 0.9425165584708627 0.33962787259371324 1.1252311625758549 0 0 0 0.88 56 647 118 180 217 202 
650 0.5586887487735256 0.3664855839704716 1.1928751391863903 0 0 0 0.22 56 648 152 126 190 160 
651 0.6005232022974218 0.3660706360295304 1.1793656114819489 0 0 0 0.52 56 649 69 78 152 127 158 84 
652 0.5959648383301736 0.36947731581043963 1.1785100188614703 0 0 0 0.29 56 650 69 79 111 93 158 85 
653 0.3591579589128168 0.4035484379461855 1.2685363963463818 0 0 0 0.25 56 651 67 106 96 92 118 181 129 83 158 86 181 90 
654 0.6988052901746917 0.36159903069234045 1.1488011531251259 0 0 0 0.53 56 652 69 80 182 51 
655 0.7474856551984113 0.3549672426041167 1.1293088344587063 0 0 0 0.34 56 653 69 81 96 93 118 182 120 49 147 133 162 42 164 134 172 51 182 52 190 161 222 100 232 198 
656 0.7832341415434004 0.35357308318500386 1.1178757318459023 0 0 0 0.38 56 654 118 183 120 50 134 18 147 134 220 91 
657 0.8437359145629062 0.34560397693826284 1.0982375253117356 0 0 0 0.35 56 655 103 57 158 87 163 22 164 135 165 15 172 52 234 24 235 19 
658 0.7671745175223983 0.35551497394213566 1.1160477991917834 0 0 0 0.43 56 656 69 82 165 16 
659 -0.008612815746497934 0.045175178679732204 0.5446539939621594 0 0 0 0.38 56 657 65 133 76 45 88 54 
660 0.8720646066530268 0.11205545647871318 1.277326627478953 0 0 0 0.24 56 658 62 14 65 134 67 107 71 134 89 137 147 135 181 91 
661 0.6419928348832128 0.1314704427717448 1.319333571585266 0 0 0 0.38 56 659 81 181 111 94 217 203 
662 0.7452605066826822 0.1278691851380924 1.284806437580038 0 0 0 0.17 56 660 81 182 138 43 
663 0.6479333755763943 0.1443649363135052 1.3081658813431702 0 0 0 0.72 56 661 65 135 89 138 147 136 152 128 160 111 197 40 221 105 
664 0.7223919251262805 0.13999573655669592 1.2310288180191102 0 0 0 0.49 56 662 81 183 89 139 96 94 179 48 
665 0.5128201743031193 0.15389213361438747 1.297443214090902 0 0 0 0.31 56 663 67 108 81 184 118 184 217 204 232 199 
666 0.7126654385428688 0.1408261696304639 1.2314349184903046 0 0 0 0.27 56 664 138 44 217 205 
667 0.8598608217195243 0.14428031093284877 1.1877731427211742 0 0 0 0.37 56 665 65 136 67 109 71 135 81 185 89 140 97 73 103 58 105 23 111 95 118 185 129 84 163 23 164 136 190 162 199 62 217 206 232 200 
668 0.7103188382504033 0.15973982113946747 1.2254524107453206 0 0 0 0.29 56 666 69 83 81 186 147 137 182 53 217 207 
669 0.74361471810115 0.16156803493910685 1.207919991903805 0 0 0 0.17 56 667 96 95 111 96 129 85 217 208 222 101 232 201 
670 0.5629096367057694 0.17814464681685227 1.2754940670445236 0 0 0 0.37 56 668 158 88 208 40 
671 0.42311099578679573 0.19414709874621047 1.3285027023951819 0 0 0 0.46 56 669 100 30 147 138 190 163 217 209 
672 0.9083567879676827 0.16036005810807813 1.1805253927531736 0 0 0 0.1 56 670 105 24 111 97 
673 0.9131217553618031 0.1614717616929038 1.1879160699581233 0 0 0 0.16 56 671 111 98 208 41 
674 0.5665172276393642 0.18612988456923474 1.266694394435687 0 0 0 0.37 56 672 65 137 127 82 160 112 190 164 217 210 234 25 
675 0.9469080806647178 0.16423286193592948 1.1815747703790054 0 0 0 0.36 56 673 65 138 67 110 89 141 111 99 134 19 
676 0.26087361991818114 0.235749896433488 1.4247951966318106 0 0 0 0.56 56 674 65 139 81 187 118 186 128 112 181 92 
677 0.9626557717131322 0.187547997002861 1.1781833332754834 0 0 0 0.29 56 675 62 15 67 111 89 142 103 59 111 100 118 187 129 86 147 139 152 129 165 17 182 54 217 211 232 202 
678 0.9663016705399188 0.19195037907483742 1.1728897561589449 0 0 0 0.23 56 676 89 143 103 60 111 101 129 87 
679 0.4661924466182439 0.22391179445049275 1.2871110330560294 0 0 0 0.31 56 677 111 102 129 88 147 140 152 130 222 102 
680 0.6343861262789737 0.21142004128083508 1.2291530958424064 0 0 0 0.49 56 678 111 103 162 43 208 42 
681 0.37457238673122417 0.236752174229564 1.3318705661157555 0 0 0 0.59 56 679 128 113 152 131 160 113 190 165 217 212 
682 0.8456495988003382 0.1986070567450626 1.167760669370963 0 0 0 0.2 56 680 152 132 172 53 
683 0.9315101099504894 0.1976755962319569 1.1690686871559854 0 0 0 0.35 56 681 71 136 73 70 100 31 103 61 105 25 111 104 118 188 120 51 128 114 129 89 147 141 152 133 164 137 165 18 182 55 190 166 217 213 221 106 222 103 232 203 235 20 
684 0.9365250357043345 0.20020097978891632 1.167640733042625 0 0 0 0.4 56 682 65 140 69 84 73 71 105 26 111 105 120 52 128 115 134 20 147 142 152 134 163 24 164 138 165 19 181 93 182 56 190 167 197 41 217 214 221 107 222 104 232 204 235 21 
685 0.9120481934509608 0.2047521149223879 1.1609194812569563 0 0 0 0.39 56 683 73 72 111 106 162 44 163 25 182 57 217 215 
686 0.7361489548132379 0.21690084179681482 1.198871871383707 0 0 0 0.38 56 684 69 85 181 94 221 108 222 105 232 205 
687 0.22143835309091917 0.2726379196925333 1.4170381842769 0 0 0 0.59 56 685 65 141 103 62 217 216 
688 0.6060052689810546 0.23161231030249257 1.2482959366657498 0 0 0 0.33 56 686 147 143 221 109 
689 0.8590673123996813 0.20906972626451903 1.1591872616257803 0 0 0 0.34 56 687 69 86 97 74 118 189 172 54 182 58 
690 0.9664796858477629 0.21091082861459248 1.1695964163460493 0 0 0 0.19 56 688 65 142 67 112 89 144 111 107 129 90 165 20 235 22 
691 0.654454349372296 0.22843323676382105 1.2173942779667704 0 0 0 0.28 56 689 69 87 89 145 198 112 
692 0.37138628981869465 0.2610840934857688 1.3220918628764866 0 0 0 0.28 56 690 65 143 81 188 88 55 89 146 160 114 181 95 198 113 199 63 217 217 220 92 221 110 
693 0.4089425846038443 0.2577507683066602 1.301659692014965 0 0 0 0.23 56 691 158 89 162 45 
694 0.857666217459364 0.2182247136999685 1.1533861584157254 0 0 0 0.25 56 692 67 113 69 88 128 116 158 90 160 115 182 59 
695 0.24093116602911624 0.27967561877189795 1.3773704471219204 0 0 0 0.05 56 693 67 114 81 189 
696 0.41954858732822886 0.2595475955916769 1.2973705395214543 0 0 0 0.28 56 694 63 52 158 91 
697 0.8275696676664305 0.22325001388223933 1.1624445317015353 0 0 0 0.2 56 695 71 137 232 206 
698 0.5403222660437106 0.2480222149401731 1.2520415925610158 0 0 0 0.19 56 696 88 56 129 91 
699 0.8829994027946586 0.22857855617572492 1.1481223043400226 0 0 0 0.29 56 697 62 16 67 115 89 147 100 32 111 108 118 190 120 53 128 117 129 92 147 144 152 135 172 55 190 168 197 42 198 114 220 93 222 106 232 207 
700 0.6227653416940386 0.25696386754023565 1.2167074487473146 0 0 0 0.16 56 698 65 144 118 191 
701 0.8280977806446894 0.24174344537418133 1.1534641591527666 0 0 0 0.11 56 699 81 190 134 21 198 115 
