# 3D point list with one line of data per point:
#   POINT3D_ID, X, Y, Z, R, G, B, ERROR, TRACK[] as (IMAGE_ID, POINT2D_IDX)
# Number of points: 402, mean track length: 6.55
346 0.11369314666729295 0.004187114644604031 1.005629808613269 0 0 0 0.09 32 96 36 61 39 297 
347 -0.015369119771001532 0.027152442403604784 1.0131053439754427 0 0 0 0.35 32 97 39 298 124 202 
348 -0.03384487166436682 0.03298206830702951 1.0039387331182532 0 0 0 0.29 32 98 39 299 85 60 213 76 
349 -0.03006834066857115 0.033197441006855594 1.005699923891344 0 0 0 0.32 32 99 39 300 213 77 
350 -0.03500686986903675 0.04143471880066272 0.9987861320913481 0 0 0 0.11 32 100 39 301 124 203 
351 -0.026512383877744173 0.048154713801402425 1.001623036029554 0 0 0 0.17 32 101 36 62 39 302 
352 -0.007978255404222062 0.050902008696195676 1.0034189728070697 0 0 0 0.08 32 102 97 19 124 204 
353 -0.033682955511625985 0.060187224695778245 0.9977016153694424 0 0 0 0.24 32 103 39 303 124 205 204 40 214 8 231 32 
354 -0.02842478190608178 0.060306676279793844 0.9977744506284811 0 0 0 0.18 32 104 36 63 39 304 
355 0.1391617922587316 -0.14371810086052056 1.0289058318785176 0 0 0 0.15 32 105 39 305 97 20 124 206 
356 -0.13524843243600745 -0.10570867763101648 1.0416406472212745 0 0 0 0.24 32 106 39 306 146 131 
357 0.0007388246592364422 -0.10030731011728039 1.0260799989550844 0 0 0 0.46 32 107 39 307 110 60 124 207 223 26 
358 -0.005013156269942937 -0.020106154864697707 1.0181624272901804 0 0 0 0.25 32 108 39 308 97 21 
359 -0.060083441313616315 -0.013955131362653814 1.0164715869793712 0 0 0 0.33 32 109 36 64 39 309 110 61 112 41 124 208 
360 -0.0044545450213427365 0.039583640900870465 1.0013333166270468 0 0 0 0.32 32 110 36 65 39 310 
361 0.0015612712121878284 0.04466000737046349 0.9936116880063757 0 0 0 0.2 32 111 36 66 39 311 
362 -0.10750995798444034 0.04392258896707258 1.0048185879471905 0 0 0 0.16 32 112 36 67 39 312 
363 -0.052082792635373035 -0.09916239698274612 1.0305914770647988 0 0 0 0.21 32 113 36 68 39 313 
364 -0.07309858138836008 -0.02213929299089931 1.0169269286623202 0 0 0 0.27 32 114 39 314 124 209 
365 -0.15847176897291437 -0.012164284547937129 1.0324356866119337 0 0 0 0.22 32 115 39 315 44 89 
366 0.13535079285040744 -0.08773036433806347 1.0192951361740752 0 0 0 0.32 33 58 39 316 200 93 
367 0.019199103241453925 0.04815523825305723 1.0019906536959484 0 0 0 0.1 33 59 124 210 157 107 
368 -0.058497690496636105 -0.013354260779971466 1.015687424230947 0 0 0 0.34 33 60 38 18 39 317 109 60 124 211 214 9 
369 -0.0882334194612632 0.05807039757074284 1.0060150165404325 0 0 0 0.2 33 61 39 318 44 90 200 94 
370 0.030759660891047157 0.06302175425125521 0.9940334928583493 0 0 0 0.3 33 62 157 108 164 72 
371 -0.01670379409518463 -0.09115192520760411 1.0261877480470583 0 0 0 0.41 36 69 39 319 92 99 110 62 231 33 
372 0.10835141318234447 -0.08823055909222396 1.0191574416800173 0 0 0 0.3 36 70 39 320 77 69 148 53 200 95 213 78 223 27 
373 0.03125783370643745 -0.08938229778702886 1.02391445908325 0 0 0 0.16 36 71 39 321 176 87 231 34 
374 -0.02116342198667091 -0.08890975177324567 1.0260151962181256 0 0 0 0.27 36 72 39 322 124 212 204 41 
375 0.05078390316893057 -0.022474508614545884 1.0127921743421844 0 0 0 0.2 36 73 39 323 110 63 124 213 13 95 201 42 
376 0.0306245874532746 0.04672973564958347 0.9940782093497577 0 0 0 0.63 36 74 39 324 124 214 
377 -0.11494040281298867 -0.1013079802483402 1.0336124729126084 0 0 0 0.27 36 75 39 325 77 70 159 34 185 41 
378 -0.11282827629328482 -0.07479711429754672 1.0343525511875378 0 0 0 0.24 36 76 39 326 77 71 92 100 146 132 172 27 176 88 
379 -0.060492553138785696 -0.004162501611357845 1.0138729247438747 0 0 0 0.37 36 77 39 327 71 26 
380 -0.06540670352111248 0.04369693715538893 0.9989427453070495 0 0 0 0.44 36 78 39 328 124 215 
381 -0.12251246427536354 -0.1331114250316722 1.0428506955524133 0 0 0 0.57 36 79 39 329 200 96 
382 0.16685785757624197 -0.1132033243684724 1.0261506924091488 0 0 0 0.75 36 80 39 330 44 91 
383 0.008748591937814812 -0.11993830898224235 1.0294468052654397 0 0 0 0.31 38 19 39 331 98 61 109 61 157 109 231 35 
384 0.08759931489915568 -0.01637395389733491 1.0106682482116651 0 0 0 0.25 38 20 39 332 214 10 124 216 231 36 
385 -0.11117813112068489 -0.06428505783406266 1.034568884304443 0 0 0 0.24 39 333 50 71 124 217 157 110 200 97 
386 -0.00868035878815321 -0.13425034565253355 1.025486164629558 0 0 0 0.34 39 334 98 62 124 218 
387 -0.008122780203471413 -0.133776739310979 1.0275640403517974 0 0 0 0.28 39 335 112 42 124 219 
388 0.08168572251974415 -0.13544806777942817 1.0229454720293587 0 0 0 0.2 39 336 124 220 187 45 
389 -0.02296648467682006 -0.12291284836371867 1.0295351183681978 0 0 0 0.38 39 337 112 43 124 221 
390 0.053616441910966 -0.11362516747925949 1.0261716981845372 0 0 0 0.1 39 338 124 222 187 46 
391 0.09150300535008257 -0.11089620534146268 1.0260912672855802 0 0 0 0.24 39 339 109 62 112 44 
392 0.029529364845961 -0.060904127587666786 1.0210364164038663 0 0 0 0.19 39 340 112 45 124 223 
393 0.10045139579161902 -0.030102490268168816 1.0119467925233456 0 0 0 0.19 39 341 112 46 231 37 
394 0.05679343397323192 -0.014729763553167682 1.0124698438655904 0 0 0 0.17 39 342 175 36 187 47 
395 0.09745125956094643 0.04358517680905543 0.9983809070263441 0 0 0 0.39 39 343 124 224 175 37 
396 -0.1512135958147733 -0.12143767113645103 1.0506973841859821 0 0 0 0.36 39 344 124 225 146 133 
397 -0.10869020601650085 -0.12241653105981253 1.0447501953230698 0 0 0 0.2 39 345 124 226 146 134 
398 0.08061085229155902 -0.1301447537338202 1.027699462652305 0 0 0 0.2 39 346 93 59 124 227 
399 0.04247290615791659 -0.12565001607808862 1.030039548500358 0 0 0 0.24 39 347 93 60 112 47 
400 0.05592107773941141 -0.11566384120188072 1.0265446399163278 0 0 0 0.24 39 348 157 111 187 48 200 98 
401 0.09833409445869772 -0.11084710192564257 1.0250106240583143 0 0 0 0.11 39 349 109 63 124 228 
402 -0.019266447610664917 -0.10013667118534107 1.0275796828668033 0 0 0 0.38 39 350 124 229 146 135 
403 -0.001824477507182654 -0.09970163582804563 1.0278025993061815 0 0 0 0.11 39 351 124 230 213 79 
404 0.05160755485919983 -0.10226200703830961 1.0257899341063919 0 0 0 0.15 39 352 124 231 176 89 
405 0.10571818602565757 -0.10282872602713052 1.0235883983484384 0 0 0 0.21 39 353 175 38 187 49 
406 0.04081659099778036 -0.09678186597789451 1.024951070060325 0 0 0 0.31 39 354 124 232 231 38 201 43 
407 0.035637752514174996 -0.09499271420825443 1.0245770146237267 0 0 0 0.45 39 355 146 136 176 90 231 39 13 96 124 233 201 44 
408 0.15417978787121997 -0.09178071531396836 1.0164995620984394 0 0 0 0.26 39 356 93 61 124 234 
409 0.021412448808405718 -0.08118672076935818 1.021268125006736 0 0 0 0.27 39 357 112 48 136 25 98 63 146 137 187 50 200 99 
410 0.12141769374315116 -0.0857669644942605 1.0186041531038446 0 0 0 0.15 39 358 112 49 124 235 146 138 157 112 175 39 
411 0.0284635584517869 -0.07497834957039555 1.0210263648709434 0 0 0 0.24 39 359 124 236 231 40 
412 0.17041586640424203 -0.08445058673071229 1.017775022408089 0 0 0 0.32 39 360 112 50 175 40 
413 0.2338026680852945 -0.08655652456889125 1.0169298283307395 0 0 0 0.33 39 361 112 51 175 41 
414 -0.14810589580039568 -0.05986598362941146 1.037675127306334 0 0 0 0.37 39 362 124 237 146 139 
415 0.13687273253545157 -0.06350836174317197 1.0168656558896363 0 0 0 0.13 39 363 112 52 231 41 
416 0.10113559008989785 -0.058738723960519906 1.0176093189970057 0 0 0 0.2 39 364 98 64 124 238 146 140 157 113 187 51 
417 0.14289298071698928 -0.05842931872123141 1.0135928607398146 0 0 0 0.17 39 365 112 53 175 42 200 100 
418 0.10033799643163988 -0.04283198721276425 1.013681799498142 0 0 0 0.15 39 366 124 239 231 42 
419 -0.005675622007258216 -0.02714673148529886 1.016958751898605 0 0 0 0.15 39 367 124 240 146 141 231 43 
420 0.08179144557849731 -0.016518919565114653 1.0115014435609753 0 0 0 0.13 39 368 124 241 157 114 231 44 
421 0.06825533850924112 0.049021963110088336 0.9927775609032007 0 0 0 0.21 124 242 157 115 175 43 112 54 201 45 
422 0.09622723081166316 0.050585207172776654 0.997050025726379 0 0 0 0.2 39 369 112 55 175 44 124 243 201 46 
423 0.03575093963481928 0.05362622411536385 0.9944606853482711 0 0 0 0.34 39 370 124 244 187 52 28 119 175 45 201 47 
424 0.017662053163616465 0.05439225784700336 1.0034944592516402 0 0 0 0.13 39 371 124 245 175 46 
425 0.0393389474310979 0.05800350682418003 0.9934856382432794 0 0 0 0.17 39 372 112 56 187 53 201 48 
426 -0.06917321701492009 0.06362772763942091 0.9985468453901876 0 0 0 0.41 39 373 98 65 124 246 200 101 
427 0.1844056326586465 -0.12326326585598019 1.0220894009903192 0 0 0 0.63 39 374 124 247 146 142 196 28 
428 0.21381147855023733 -0.12177166675705905 1.0227555366465677 0 0 0 0.19 124 248 157 116 213 80 
429 -0.0021400700077003985 -0.10339894990238832 1.0273653514660734 0 0 0 0.11 39 375 109 64 110 64 124 249 
430 0.12365047393387694 -0.10511605221691614 1.0221953081871837 0 0 0 0.59 39 376 185 42 231 45 
431 0.08389062852800876 -0.10146240280432674 1.024240420390911 0 0 0 0.14 39 377 109 65 124 250 
432 -0.05061221726825488 -0.0885093483120682 1.0274660523807035 0 0 0 0.15 39 378 110 65 112 57 124 251 146 143 
433 -0.08629880667979434 -0.0871712294312595 1.0346402889220898 0 0 0 0.3 39 379 93 62 112 58 124 252 200 102 
434 -0.07069940615602005 -0.08462178184585373 1.0278930247404754 0 0 0 0.17 39 380 124 253 146 144 185 43 213 81 
435 -0.030834751405897826 -0.08203288128915685 1.024671722606275 0 0 0 0.16 39 381 109 66 112 59 
436 0.04820862309297697 -0.08682448888243056 1.0222739232027067 0 0 0 0.28 39 382 124 254 146 145 2 71 9 103 13 97 16 31 27 38 36 81 44 92 77 72 85 61 92 101 93 63 109 67 118 36 157 117 164 73 201 49 213 82 231 46 
437 0.1014059276949143 -0.09054470851451898 1.0210108375438258 0 0 0 0.41 39 383 109 68 159 35 223 28 231 47 
438 0.13212935415750332 -0.08901790517658952 1.018084574212163 0 0 0 0.23 39 384 109 69 157 118 214 11 
439 0.13096265245789895 -0.08710052270382358 1.017679701892955 0 0 0 0.48 39 385 93 64 98 66 124 255 146 146 187 54 200 103 213 83 
440 0.22731049295841826 -0.08161217180776147 1.0155744412960621 0 0 0 0.16 44 93 61 46 146 147 187 55 200 104 
441 -0.021714255360450838 -0.02287720119569205 1.0188610617518694 0 0 0 0.15 39 386 124 256 146 148 
442 -0.11745905252107114 -0.017519324850180953 1.0291236205358032 0 0 0 0.2 39 387 124 257 200 105 
443 -0.005773447807999625 -0.02036374593891298 1.0170454729182634 0 0 0 0.16 39 388 92 102 213 84 
444 0.030305758368078375 -0.01640387743051413 1.0145149938211357 0 0 0 0.25 39 389 124 258 146 149 157 119 
445 0.15841863344050683 -0.019604188648677273 1.0071813907338967 0 0 0 0.19 39 390 157 120 214 12 231 48 
446 0.06576226599256145 -0.014907342930130345 1.012056060212446 0 0 0 0.2 39 391 124 259 231 49 
447 0.1635163035655815 -0.0177895493853494 1.0069059260039268 0 0 0 0.06 39 392 110 66 124 260 
448 0.04651986736455964 -0.010784847229984613 1.0132263923008955 0 0 0 0.23 39 393 124 261 175 47 
449 0.0276494902273582 0.00023532491853332768 1.0132719664382304 0 0 0 0.22 39 394 146 150 214 13 
450 0.011016851804532572 0.038332018733499014 1.0059901538664096 0 0 0 0.35 39 395 124 262 146 151 
451 -0.09298165825948891 0.04978017033051322 1.010597063432392 0 0 0 0.23 39 396 176 91 200 106 
452 -0.09316524880172153 0.051562906481370976 1.010999896408966 0 0 0 0.2 39 397 124 263 200 107 146 152 
453 -0.08954741805350738 0.05152932330709108 1.0097843600853775 0 0 0 0.25 39 398 146 153 200 108 
454 -0.09146542873837592 0.052286979999314843 1.0107057924732017 0 0 0 0.22 39 399 124 264 200 109 
455 -0.0877910742416408 0.052196110292785335 1.0098328472991869 0 0 0 0.18 124 265 157 121 213 85 
456 -0.08415515621924179 0.0519545356246388 1.008273862275722 0 0 0 0.18 39 400 146 154 200 110 
457 0.03886265763876445 0.04957633146934312 0.995458626435694 0 0 0 0.4 39 401 124 266 146 155 175 48 213 86 112 60 201 50 
458 0.01974348700550234 0.05144152228271419 1.0044328216989264 0 0 0 0.08 39 402 124 267 175 49 
459 0.019216407517607392 0.05387498005692869 1.0019019857428582 0 0 0 0.29 39 403 93 65 146 156 175 50 
460 0.05498392563354951 0.054364692070472835 1.0017386091854248 0 0 0 0.37 39 404 50 72 146 157 16 32 201 51 
461 -0.0639223737983522 0.0667263394091931 0.9983987092320596 0 0 0 0.41 85 62 146 158 214 14 
462 0.14785033444646653 -0.19169630056379414 1.0390338973829314 0 0 0 0.46 39 405 92 103 172 28 197 6 201 52 
463 -0.11518404977211033 -0.15334674451017127 1.0497605530745455 0 0 0 0.2 39 406 124 268 157 122 200 111 
464 -0.13479026404067945 -0.1410619742479365 1.0544560489421353 0 0 0 0.25 39 407 124 269 200 112 
465 0.18213285867428497 -0.12375695281793488 1.023229713789025 0 0 0 0.23 39 408 92 104 93 66 124 270 
466 0.07055539206563535 -0.10184546684072206 1.0235902670878485 0 0 0 0.52 39 409 124 271 176 92 92 105 223 29 
467 -0.04503300678007328 -0.08880387813270879 1.0275363084137035 0 0 0 0.25 39 410 110 67 124 272 
468 0.08504646266685587 -0.09371948880426363 1.023154080133027 0 0 0 0.35 39 411 53 32 61 47 109 70 157 123 158 40 176 93 
469 0.10083761655675824 -0.09351302089670246 1.020845585142422 0 0 0 0.41 39 412 92 106 98 67 124 273 176 94 
470 0.003714206559217292 -0.08192355717906706 1.0227014894954727 0 0 0 0.3 39 413 92 107 124 274 231 50 
471 -0.1436969091313452 -0.06659956253311612 1.0398366330921913 0 0 0 0.28 39 414 60 34 124 275 
472 0.10350915616048859 -0.07863905811937247 1.0177202510969259 0 0 0 0.43 39 415 124 276 204 42 201 53 
473 0.20587980145774168 -0.08180123335356002 1.0161832182205435 0 0 0 0.25 44 94 93 67 124 277 157 124 162 25 200 113 
474 -0.011651393747261374 -0.06648766933185775 1.0264084084373117 0 0 0 0.26 39 416 200 114 231 51 
475 -0.14800769454797988 -0.05579983756822745 1.0391724043726198 0 0 0 0.38 39 417 124 278 157 125 176 95 
476 0.05475757673184097 -0.06493481531824317 1.0246606497524844 0 0 0 0.08 39 418 124 279 231 52 
477 0.06352762324364751 -0.062378540658287254 1.0221412290625462 0 0 0 0.5 39 419 50 73 124 280 157 126 
478 0.027892619704652847 -0.058854096448250015 1.0230773170071024 0 0 0 0.19 39 420 124 281 231 53 
479 0.17384780227056326 -0.0599545378007111 1.01639200864167 0 0 0 0.11 39 421 112 61 124 282 176 96 
480 0.027479191582432824 -0.0443538393167649 1.0202802114303344 0 0 0 0.14 39 422 50 74 60 35 124 283 157 127 
481 -0.15892572256446136 -0.02429119514676188 1.035701860672824 0 0 0 0.45 39 423 124 284 176 97 
482 0.026212806021370907 -0.03318587370229987 1.0209921893760914 0 0 0 0.27 39 424 124 285 175 51 
483 -0.07657969049633054 -0.025572438511597892 1.0213867181514247 0 0 0 0.17 39 425 50 75 92 108 124 286 146 159 176 98 200 115 
484 -0.16470903563541622 -0.018790646233306587 1.0376472474677783 0 0 0 0.51 39 426 44 95 93 68 148 54 
485 0.10188505471852119 -0.02814775486630403 1.0115534838753486 0 0 0 0.43 39 427 112 62 213 87 231 54 
486 -0.03966446162873379 -0.016374980102367948 1.015252110171672 0 0 0 0.29 39 428 92 109 231 55 
487 0.05119661278866841 -0.010972122146270864 1.0160763233216885 0 0 0 0.19 39 429 50 76 124 287 157 128 175 52 231 56 
488 0.0972039931753755 -0.006239582168043989 1.0111800208601356 0 0 0 0.35 39 430 61 48 124 288 158 41 
489 -0.01802134116786572 0.019742473755022843 1.0139330691047892 0 0 0 0.14 39 431 124 289 158 42 
490 -0.008580175577460923 0.02944188937755122 1.0116815267566 0 0 0 0.09 39 432 146 160 213 88 
491 -0.022688185086474143 0.037513988613650434 1.007971371998415 0 0 0 0.16 39 433 124 290 146 161 
492 -0.049710539445677014 0.048909946850798115 1.0031082692695599 0 0 0 0.09 39 434 124 291 200 116 
493 -0.00525885294025509 0.047739333637583224 0.9976637962507064 0 0 0 0.27 39 435 44 96 124 292 176 99 
494 -0.005195827283944346 0.05060929015238549 0.9988305760372171 0 0 0 0.06 39 436 124 293 214 15 
495 0.12447586831974745 0.04688474208018406 0.9916549868925453 0 0 0 1.17 39 437 60 36 85 63 
496 0.03332308176765061 0.0550996279569526 0.9931804138459868 0 0 0 0.23 39 438 110 68 124 294 16 33 28 120 85 64 98 68 109 71 112 63 146 162 157 129 175 53 201 54 213 89 
497 -0.03641551194863416 0.06260522602704402 0.9993735680400316 0 0 0 0.24 39 439 176 100 231 57 
498 -0.06693387704924561 -0.17497055189550217 1.051748303908671 0 0 0 0.37 39 440 124 295 200 117 
499 -0.13766442309948745 -0.15686642952734758 1.0523821564319824 0 0 0 0.37 39 441 124 296 200 118 
500 0.20894527222633963 -0.15377241349043033 1.025468539417225 0 0 0 0.18 44 97 124 297 187 56 200 119 
501 0.06421276791180255 -0.12515528131609943 1.0290474495730695 0 0 0 0.32 39 442 53 33 61 49 77 73 92 110 98 69 124 298 187 57 
502 0.08693580839028858 -0.10786317712767772 1.0253131195276846 0 0 0 0.38 39 443 53 34 61 50 85 65 93 69 109 72 110 69 124 299 146 163 176 101 187 58 223 30 
503 0.03369010709461884 -0.09301325196312733 1.0273990081835265 0 0 0 0.4 39 444 50 77 112 64 118 37 157 130 232 32 
504 -0.06674770124684046 -0.07508606143691265 1.0233801402789389 0 0 0 0.2 39 445 110 70 124 300 
505 0.1395040159551941 -0.07732513249673363 1.015129418271017 0 0 0 0.4 39 446 97 22 124 301 
506 -0.18419711968453278 -0.05887148233657516 1.0458932319992358 0 0 0 0.41 39 447 60 37 110 71 146 164 157 131 159 36 
507 -0.1489237730310447 -0.05054580231115069 1.0384782023287076 0 0 0 0.24 39 448 85 66 110 72 157 132 
508 0.007782404839431116 -0.031538569265920656 1.017002213968005 0 0 0 0.14 39 449 110 73 124 302 
509 -0.17514951457989536 -0.018291169209878645 1.0371310032899979 0 0 0 0.25 85 67 109 73 110 74 
510 -0.09854267637023167 -0.013479311022477597 1.0262158084717226 0 0 0 0.14 39 450 92 111 124 303 
511 0.06247467120699885 -0.012530992306483045 1.0119891660219835 0 0 0 0.13 39 451 44 98 124 304 158 43 
512 0.06309909373689303 -0.003873540971117034 1.0124232415091314 0 0 0 0.16 39 452 146 165 172 29 219 27 
513 0.09824522097965153 0.010767535647071265 1.0063383569171365 0 0 0 0.13 39 453 124 305 176 102 
514 0.06498437639254889 0.033713099371042526 1.000442954827131 0 0 0 0.12 172 30 176 103 219 28 
515 0.06242799904307286 0.03834053563478468 1.0048339655436909 0 0 0 0.2 39 454 50 78 124 306 146 166 
516 0.022564344149647402 0.04058845414076566 1.006548781550826 0 0 0 0.34 39 455 50 79 92 112 213 90 
517 -0.009794501089233024 0.043086420909292954 1.0029912848811398 0 0 0 0.36 39 456 110 75 124 307 
518 -0.07664654630209557 0.0655252789695171 0.9982167234407234 0 0 0 0.16 39 457 92 113 124 308 
519 -0.005326418746145601 -0.12449340950072152 1.0292633013589674 0 0 0 0.63 39 458 92 114 172 31 
520 -0.08477418512284209 -0.09668151929501008 1.0301192458201398 0 0 0 0.3 39 459 124 309 200 120 
521 -0.010778021274725073 -0.10040368265033833 1.0272315231874085 0 0 0 0.33 39 460 97 23 219 29 
522 0.1382370398490046 -0.10754964730755084 1.0145901124979568 0 0 0 0.31 39 461 50 80 124 310 146 167 157 133 158 44 176 104 201 55 
523 0.2083754911866313 -0.10604912661140167 1.0210492508198892 0 0 0 0.69 44 99 109 74 124 311 
524 0.17912821854474223 -0.09986347218394992 1.0140261380967786 0 0 0 0.77 39 462 124 312 200 121 234 29 
525 -0.10076198160785522 -0.07508609230115826 1.0334164292302077 0 0 0 0.4 39 463 157 134 176 105 
526 0.15001676346761422 0.03422707904638711 0.996051612038783 0 0 0 0.36 39 464 175 54 231 58 
527 0.01787512429721987 0.04007522376652627 1.008344990764332 0 0 0 0.32 39 465 175 55 187 59 
528 -0.014322405739226144 0.043393531262297315 1.003294923973475 0 0 0 0.61 39 466 158 45 214 16 231 59 
529 0.09766585184683214 0.04784942155697391 0.9971228121319776 0 0 0 0.24 50 81 61 51 97 24 98 70 112 65 124 313 157 135 175 56 176 106 187 60 219 30 231 60 234 30 13 98 16 34 146 168 158 46 201 56 204 43 
530 -0.07188215395809748 -0.11600205057706085 1.0381990957592329 0 0 0 0.76 39 467 92 115 124 314 
531 -0.07432480105676563 -0.07436289937981673 1.032900953309132 0 0 0 0.31 39 468 146 169 158 47 
532 0.027117598625460988 -0.07376483342113585 1.0250714905966527 0 0 0 0.28 39 469 146 170 231 61 
533 0.048355903346884097 -0.07337107509757061 1.0237800602067166 0 0 0 0.3 39 470 146 171 176 107 187 61 
534 -0.059538810878611174 -0.03581596524062631 1.0196567462644532 0 0 0 0.31 39 471 110 76 124 315 
535 0.09152214123005857 0.04942315056639302 0.9960110593693127 0 0 0 0.35 97 25 124 316 146 172 4 90 11 53 15 2 16 35 28 121 50 82 61 52 98 71 110 77 112 66 118 38 128 1 152 3 158 48 175 57 176 108 187 62 201 57 204 44 234 31 13 99 17 1 38 21 172 32 
536 0.09606499850944994 0.05304433256891501 0.9937603769937821 0 0 0 0.36 60 38 85 68 97 26 110 78 124 317 
537 0.20963593024762425 -0.15220808148631987 1.0280394200024054 0 0 0 0.51 124 318 187 63 200 122 
538 0.11408215724570749 -0.08983103754101197 1.022180877948552 0 0 0 0.58 39 472 44 100 61 53 124 319 158 49 162 26 
539 0.03442656290108979 -0.08204951709472587 1.0198123762451219 0 0 0 0.28 39 473 85 69 97 27 
540 -0.07599323738392369 -0.013519219897869111 1.0227974090537855 0 0 0 0.37 39 474 97 28 231 62 
541 -0.08960146729231681 -0.09651063295850656 1.0312027786899187 0 0 0 0.33 39 475 92 116 146 173 176 109 
542 0.1840176596486455 -0.11271017491057543 1.0244321049434875 0 0 0 1.24 39 476 109 75 223 31 53 35 92 117 158 50 201 58 
543 0.11390137375725481 -0.10204555645901947 1.0210310205490603 0 0 0 0.35 39 477 97 29 231 63 
544 -0.09546813840473847 0.048103323581110725 1.0095247040987676 0 0 0 0.3 39 478 92 118 124 320 
545 0.1083864955903498 -0.0460691486662048 1.014534363475167 0 0 0 0.75 39 479 97 30 187 64 232 33 
546 0.08000238937292044 -0.0864651130977689 1.021119695727364 0 0 0 0.18 2 72 4 91 9 104 11 54 13 100 27 39 36 82 38 22 44 101 50 83 61 54 77 74 85 70 92 119 93 70 124 321 146 174 148 55 157 136 164 74 175 58 176 110 187 65 201 59 213 91 223 32 
547 0.11046517440001694 -0.08348944867137033 1.018643206191536 0 0 0 0.18 2 73 4 92 9 105 11 55 13 101 28 122 44 102 50 84 61 55 77 75 85 71 92 120 98 72 109 76 110 79 124 322 146 175 157 137 164 75 175 59 176 111 187 66 201 60 213 92 223 33 234 32 
548 0.12184470506177578 -0.08093253208975959 1.0180136734098475 0 0 0 0.42 2 74 4 93 13 102 44 103 92 121 93 71 148 56 197 7 201 61 28 123 187 67 
549 0.1324693852716027 -0.0804863954278414 1.0172036447800348 0 0 0 0.39 2 75 77 76 92 122 110 80 176 112 197 8 201 62 
550 0.2078377350978694 0.04582253851205644 0.9911990799737982 0 0 0 0.28 2 76 9 106 13 103 50 85 158 51 201 63 
551 0.37753628498212644 0.05655569581946654 0.9899408939225598 0 0 0 0.36 2 77 11 56 44 104 77 77 85 72 165 2 170 0 201 64 235 1 
552 0.35444580220250277 0.08556675055055767 0.9807045947390358 0 0 0 0.32 2 78 17 2 53 36 118 39 165 3 197 9 201 65 235 2 
553 0.3499975087645586 0.09032021872199039 0.9799755508187056 0 0 0 0.4 2 79 11 57 28 124 36 83 201 66 235 3 
554 0.13646711837923114 -0.0807811082612447 1.017183294460236 0 0 0 0.39 2 80 28 125 39 480 112 67 124 323 158 52 197 10 201 67 234 33 13 104 92 123 187 68 
555 0.2259994815897413 -0.07898913855068403 1.015130069270153 0 0 0 0.42 2 81 13 105 77 78 92 124 201 68 
556 0.17624550040121573 -0.013479176370553165 1.005120070703215 0 0 0 0.44 2 82 4 94 53 37 85 73 112 68 124 324 201 69 
557 0.2031224869893355 0.0461385048125384 0.9948385613169228 0 0 0 0.25 2 83 11 58 17 3 50 86 98 73 112 69 118 40 175 60 201 70 213 93 
558 0.24462416338165135 0.04890317623940364 0.9892959660232453 0 0 0 0.23 2 84 50 87 118 41 187 69 201 71 
559 0.20214892922089137 0.06058247155528399 0.9910810627265776 0 0 0 0.19 2 85 4 95 11 59 77 79 85 74 157 138 158 53 187 70 201 72 213 94 
560 0.17668359130895966 0.06184771105095437 0.9873801961113684 0 0 0 0.33 2 86 4 96 11 60 13 106 17 4 27 40 28 126 44 105 77 80 85 75 91 5 92 125 93 72 109 77 110 81 118 42 124 325 146 176 157 139 164 76 165 4 176 113 187 71 194 0 197 11 201 73 204 45 213 95 223 34 234 34 235 4 
561 0.3573923175293115 0.06424734855451368 0.9836415226053364 0 0 0 0.35 44 106 92 126 165 5 201 74 234 35 27 41 50 88 170 1 
562 0.381306332987057 0.07482214117953638 0.9865240098656534 0 0 0 0.27 2 87 11 61 44 107 50 89 61 56 77 81 82 0 91 6 148 57 197 12 201 75 235 5 
563 0.3077943472396174 -0.10312704864935958 1.020330173770236 0 0 0 0.38 2 88 85 76 92 127 201 76 
564 0.3456303527651516 0.04077271453651817 0.988360776862276 0 0 0 0.38 2 89 11 62 15 3 17 5 27 42 44 108 118 43 158 54 201 77 204 46 234 36 53 38 152 4 
565 0.2731379956777497 0.0639071852138927 0.9887348840155549 0 0 0 0.21 2 90 17 6 44 109 50 90 61 57 118 44 187 72 201 78 204 47 15 4 176 114 197 13 232 34 
566 0.07032418724929737 0.03972313354746743 0.9971702104504557 0 0 0 0.41 2 91 4 97 15 5 16 36 28 127 50 91 61 58 77 82 118 45 128 2 146 177 148 58 152 5 164 77 187 73 201 79 204 48 213 96 232 35 
567 0.0741021515513944 0.08855634726170886 0.9879938060421394 0 0 0 0.66 2 92 4 98 27 43 158 55 175 61 201 80 231 64 
568 0.28251185655893946 -0.09636040419697997 1.0207266822445291 0 0 0 1.27 2 93 92 128 152 6 201 81 
569 0.24779252752147496 0.07872515110246456 0.9857845814993529 0 0 0 0.39 2 94 44 110 201 82 
570 0.22890293624913124 0.07500999297325878 0.9854640782702021 0 0 0 0.29 2 95 53 39 201 83 50 92 124 326 
571 0.08471117845875868 -0.0839143776001502 1.0198764542195171 0 0 0 0.24 4 99 11 63 16 37 28 128 109 78 112 70 146 178 201 84 38 23 176 115 187 74 223 35 
572 0.10773162188792754 -0.015423257413613261 1.0077307789581955 0 0 0 0.14 4 100 13 107 44 111 92 129 112 71 124 327 146 179 175 62 176 116 187 75 201 85 213 97 223 36 231 65 234 37 
573 0.27905868534171574 0.043187950389756674 0.9895664809706088 0 0 0 0.15 4 101 16 38 164 78 165 6 176 117 235 6 
574 0.05465467618367049 0.04584785263409816 1.001819744074617 0 0 0 0.11 4 102 175 63 176 118 201 86 
575 0.058491863308819905 0.046031209234373587 1.0014706819771184 0 0 0 0.19 4 103 11 64 28 129 175 64 201 87 
576 0.20973868287227715 0.048866041914402844 0.9894381197303032 0 0 0 0.26 4 104 50 93 98 74 176 119 187 76 201 88 204 49 213 98 232 36 
577 0.1224281767886062 0.04915090039312242 0.9973747427000704 0 0 0 0.22 4 105 38 24 201 89 231 66 
578 0.12634536860394546 0.049304406164105356 0.9969997192501485 0 0 0 0.24 4 106 77 83 146 180 148 59 201 90 
579 0.3154050156927074 0.05787207405627399 0.9827859554922533 0 0 0 0.14 4 107 148 60 201 91 
580 0.14293900275770588 0.05614790709959017 0.9870719571870495 0 0 0 0.22 4 108 11 65 13 108 112 72 176 120 201 92 213 99 234 38 
581 0.07482612768554377 0.06052288338741973 0.9928165475723293 0 0 0 0.26 4 109 11 66 28 130 38 25 110 82 194 1 201 93 213 100 214 17 
582 0.057150311542699714 0.06075603896730984 0.9968320068057708 0 0 0 0.21 4 110 16 39 146 181 157 140 214 18 
583 0.10201140055772595 0.06393469231231613 0.9911346647588057 0 0 0 0.17 4 111 38 26 85 77 146 182 201 94 214 19 
584 0.10526125535896222 0.06393163747565542 0.9907626574641759 0 0 0 0.18 4 112 11 67 16 40 28 131 85 78 91 7 92 130 109 79 146 183 148 61 164 79 176 121 187 77 194 2 201 95 213 101 214 20 223 37 234 39 
585 0.10933046985045752 0.06388728903416134 0.9904761940178719 0 0 0 0.21 4 113 13 109 38 27 77 84 85 79 91 8 109 80 110 83 146 184 176 122 187 78 197 14 201 96 213 102 214 21 223 38 
586 0.13969063580597385 0.06446686974648778 0.9881930923876548 0 0 0 0.19 4 114 13 110 36 84 38 28 85 80 91 9 109 81 110 84 148 62 176 123 187 79 194 3 201 97 213 103 214 22 234 40 
587 0.034115444352916344 0.06315351094059544 0.9950492422392601 0 0 0 0.3 4 115 9 107 16 41 28 132 38 29 44 112 50 94 92 131 93 73 110 85 124 328 146 185 157 141 175 65 188 0 201 98 213 104 214 23 
588 0.3555281223339631 0.06999989314568886 0.9835522958509586 0 0 0 0.46 85 81 91 10 92 132 170 2 201 99 
589 0.24454162158986287 0.0703497292436748 0.9863588687910534 0 0 0 0.24 4 116 11 68 28 133 98 75 124 329 148 63 157 142 165 7 175 66 187 80 201 100 213 105 
590 0.1482074187573383 0.06894208938081449 0.9868364813253283 0 0 0 0.11 4 117 11 69 201 101 234 41 
591 0.10307187102962606 0.06913786587677541 0.9909699079021654 0 0 0 0.37 4 118 28 134 77 85 176 124 194 4 201 102 
592 0.07024809409913445 0.0765095584988036 0.9913832235653632 0 0 0 0.31 4 119 11 70 28 135 38 30 110 86 146 186 194 5 201 103 223 39 
593 0.07215534432871415 0.07696973458156868 0.990859689692416 0 0 0 0.19 4 120 28 136 164 80 187 81 201 104 
594 0.06977352368888065 0.08118147388625213 0.9904007621007824 0 0 0 0.33 4 121 11 71 28 137 77 86 110 87 148 64 194 6 201 105 223 40 
595 0.10173113624584847 0.08367118153989644 0.9881050990276627 0 0 0 0.25 4 122 28 138 77 87 110 88 146 187 194 7 201 106 
596 0.26518734338088235 0.09150149398467057 0.9847072977980494 0 0 0 0.35 4 123 11 72 28 139 85 82 109 82 124 330 148 65 175 67 194 8 201 107 213 106 
597 0.1478833954659188 0.08854206607834524 0.9834701341457002 0 0 0 0.23 4 124 38 31 109 83 146 188 
598 0.03482436786431925 0.08690911173474546 0.9916582221488952 0 0 0 0.27 4 125 16 42 38 32 85 83 92 133 110 89 213 107 214 24 231 67 28 140 201 108 
599 0.0671695142879226 0.08783014724854371 0.9893277172183537 0 0 0 0.32 4 126 11 73 16 43 27 44 28 141 38 33 110 90 187 82 201 109 213 108 214 25 
600 0.064660252799609 0.08879910882694256 0.9892290206858063 0 0 0 0.28 4 127 11 74 16 44 92 134 148 66 213 109 
601 0.13293777338901075 0.09434978609975712 0.9850410282959515 0 0 0 0.41 4 128 28 142 187 83 197 15 201 110 213 110 
602 0.08634954262213804 0.09736212895360397 0.9911636297419506 0 0 0 0.3 4 129 28 143 109 84 110 91 201 111 214 26 
603 0.1434999612236636 0.10140369422361063 0.9817938426936084 0 0 0 0.27 4 130 28 144 85 84 109 85 110 92 146 189 194 9 201 112 213 111 214 27 187 84 
604 0.32453458015879055 -0.08069308892829151 1.0125944509321096 0 0 0 0.44 4 131 9 108 91 11 92 135 197 16 201 113 
605 0.21439642285532146 -0.08189965373452936 1.0163413121559706 0 0 0 0.21 4 132 13 111 15 6 28 145 91 12 92 136 98 76 118 46 148 67 176 125 201 114 213 112 234 42 
606 0.2722768238253234 -0.08094515764143222 1.013869231099248 0 0 0 0.33 4 133 13 112 28 146 197 17 201 115 234 43 15 7 27 45 
607 0.12065394666511126 -0.08341058688176094 1.017878608366898 0 0 0 0.28 4 134 9 109 13 113 28 147 50 95 77 88 85 85 91 13 92 137 93 74 98 77 109 86 124 331 146 190 157 143 175 68 187 85 201 116 213 113 223 41 234 44 
608 0.08679749318951446 -0.08161215049437372 1.0200984835234272 0 0 0 0.38 4 135 11 75 28 148 77 89 85 86 92 138 109 87 110 93 112 73 118 47 128 3 148 68 157 144 176 126 201 117 213 114 
609 0.1400780539861495 0.046555509891298835 0.9887366426138107 0 0 0 0.22 4 136 9 110 11 76 13 114 28 149 44 113 50 96 61 59 92 139 98 78 112 74 146 191 175 69 176 127 187 86 197 18 201 118 213 115 234 45 
610 0.0666815741947068 0.04675315388923267 0.9948158948420048 0 0 0 0.21 4 137 11 77 204 50 213 116 232 37 16 45 28 150 50 97 61 60 92 140 98 79 112 75 118 48 128 4 146 192 175 70 176 128 187 87 201 119 231 68 
611 0.10239288641758924 0.047416220258273405 0.9929852850070331 0 0 0 0.3 4 138 9 111 44 114 128 5 152 7 176 129 201 120 232 38 
612 0.13831002563184536 0.04813720370118725 0.9902321744379384 0 0 0 0.29 4 139 11 78 13 115 15 8 28 151 44 115 53 40 92 141 98 80 112 76 118 49 146 193 176 130 187 88 201 121 204 51 234 46 9 112 124 332 128 6 232 39 
613 0.09756011978901961 0.0520356087258298 0.9959548707924021 0 0 0 0.27 4 140 9 113 11 79 16 46 17 7 27 46 44 116 50 98 61 61 77 90 93 75 118 50 128 7 164 81 201 122 204 52 232 40 
614 0.19709288006441933 0.05487664057836826 0.9929083989526132 0 0 0 0.25 4 141 9 114 28 152 44 117 91 14 112 77 146 194 157 145 164 82 165 8 175 71 187 89 201 123 213 117 235 7 
615 0.3451569886724997 0.0637338826989398 0.9839200765224635 0 0 0 0.4 11 80 28 153 61 62 77 91 85 87 92 142 148 69 164 83 165 9 201 124 
616 0.28251856771126216 0.06337422999040272 0.9857067228851759 0 0 0 0.16 28 154 110 94 148 70 164 84 187 90 201 125 
617 0.3077912536994958 0.064023458139815 0.9882028323523854 0 0 0 0.27 4 142 15 9 77 92 164 85 165 10 176 131 201 126 204 53 213 118 235 8 
618 0.06960512069413922 0.06050640017408914 0.9924245067576318 0 0 0 0.27 4 143 9 115 11 81 15 10 16 47 17 8 28 155 38 34 44 118 53 41 77 93 85 88 118 51 146 195 148 71 176 132 187 91 197 19 201 127 213 119 214 28 231 69 232 41 
619 0.14130119884013917 0.06149816756770403 0.9879832899602744 0 0 0 0.31 4 144 11 82 17 9 27 47 28 156 53 42 77 94 109 88 118 52 128 8 146 196 164 86 176 133 187 92 194 10 197 20 201 128 204 54 213 120 232 42 
620 0.06457396385635218 0.06059037382063074 0.9933782974353996 0 0 0 0.33 4 145 11 83 28 157 44 119 112 78 124 333 146 197 157 146 175 72 187 93 201 129 213 121 231 70 
621 0.14466755590589475 0.06450994334094501 0.9877420271293232 0 0 0 0.33 4 146 28 158 38 35 77 95 91 15 109 89 118 53 148 72 176 134 187 94 194 11 197 21 201 130 204 55 213 122 234 47 
622 0.1394120195903575 0.07134975393634242 0.9876227595875563 0 0 0 0.29 4 147 11 84 77 96 92 143 109 90 110 95 201 131 213 123 223 42 
623 0.13927226102282703 0.07661537370125573 0.9865893851600315 0 0 0 0.32 4 148 11 85 28 159 38 36 77 97 91 16 109 91 110 96 194 12 201 132 214 29 223 43 234 48 
624 0.09959928254833181 0.07683142803121441 0.9894973869518062 0 0 0 0.32 4 149 11 86 28 160 201 133 223 44 
625 0.10238250569809755 0.08051929147398128 0.9887891524726987 0 0 0 0.47 4 150 11 87 28 161 36 85 77 98 85 89 92 144 110 97 176 135 187 95 201 134 213 124 214 30 223 45 234 49 
626 0.06976717996041686 0.08575355864024133 0.9898625591689189 0 0 0 0.24 4 151 11 88 16 48 17 10 28 162 53 43 77 99 110 98 118 54 146 198 148 73 214 31 223 46 232 43 
627 0.10169619435931312 0.08641232101100033 0.9879945642765614 0 0 0 0.39 4 152 11 89 17 11 38 37 53 44 77 100 92 145 110 99 118 55 164 87 204 56 223 47 
628 0.40404267047527115 0.03403838965871762 1.0039391917304505 0 0 0 0.23 9 116 11 90 17 12 53 45 92 146 172 33 201 135 204 57 
629 0.09354411819869762 0.058758201418218595 0.9944429300794407 0 0 0 0.38 4 153 17 13 27 48 118 56 176 136 201 136 
630 0.34976715077088166 0.06375061774553838 0.9830749200395718 0 0 0 0.27 11 91 15 11 17 14 27 49 28 163 53 46 77 101 91 17 92 147 118 57 128 9 148 74 165 11 197 22 201 137 204 58 232 44 234 50 235 9 
631 0.21309127806056705 0.06222600085125675 0.9868953161812889 0 0 0 0.23 4 154 11 92 17 15 27 50 28 164 77 102 92 148 146 199 165 12 187 96 201 138 204 59 213 125 223 48 232 45 234 51 235 10 53 47 85 90 91 18 109 92 110 100 118 58 148 75 164 88 176 137 194 13 
632 0.38867473164338 0.07170071021416609 0.9878082746154462 0 0 0 0.35 11 93 44 120 50 99 53 48 61 63 77 103 118 59 158 56 170 3 175 73 201 139 
633 0.06798774050679095 0.07102703767128536 0.9921091046759571 0 0 0 0.34 4 155 11 94 15 12 16 49 17 16 27 51 28 165 53 49 77 104 85 91 118 60 146 200 148 76 164 89 176 138 194 14 213 126 214 32 223 49 232 46 
634 0.27144717001672874 -0.08509368399146895 1.01533742596294 0 0 0 0.41 4 156 11 95 15 13 61 64 98 81 146 201 148 77 201 140 
635 0.0863707721374 0.050093259765157376 0.9986719636652222 0 0 0 0.2 4 157 15 14 16 50 17 17 50 100 61 65 77 105 85 92 109 93 110 101 112 79 118 61 128 10 146 202 152 8 158 57 176 139 194 15 204 60 213 127 232 47 175 74 201 141 
636 0.2132890021454363 0.06938780224728489 0.9871159392144432 0 0 0 0.3 4 158 11 96 15 15 28 166 53 50 77 106 118 62 187 97 194 16 201 142 204 61 213 128 234 52 
637 0.2811408752019625 0.08730146947571624 0.9825218807911225 0 0 0 0.31 4 159 11 97 27 52 53 51 77 107 85 93 172 34 197 23 201 143 213 129 234 53 
638 0.03833705875432588 -0.08928556316273115 1.0234636194022735 0 0 0 0.29 9 117 13 116 201 144 
639 0.08865924992702215 -0.08627896785632545 1.020422945113203 0 0 0 0.25 9 118 13 117 44 121 50 101 92 149 98 82 124 334 146 203 175 75 176 140 187 98 201 145 223 50 234 54 
640 0.10478125633746582 -0.08355162044624077 1.01797686267073 0 0 0 0.43 9 119 13 118 92 150 93 76 201 146 109 94 
641 0.06934299712525406 -0.08117858311482745 1.0193479707180126 0 0 0 0.11 9 120 13 119 201 147 
642 0.1638761659894907 -0.017849247803244605 1.0075185356187648 0 0 0 0.33 9 121 201 148 223 51 
643 0.25694441589510153 0.03593025441043528 0.9918228337572212 0 0 0 0.15 9 122 175 76 201 149 
644 0.03770944749895169 0.0353268535786325 0.9995608398593586 0 0 0 0.17 9 123 109 95 176 141 201 150 231 71 
645 0.24713079916714215 0.05213237016243732 0.9862323078196765 0 0 0 0.17 9 124 175 77 187 99 201 151 
646 0.32251379363903987 0.06935797083071743 0.9850512571039077 0 0 0 0.31 9 125 124 335 175 78 201 152 
647 0.19860638103907594 -0.1477168762775604 1.0262455700605813 0 0 0 0.14 9 126 13 120 92 151 201 153 
648 0.3895910272048207 -0.10277527192229786 1.0147083565546242 0 0 0 0.4 9 127 92 152 170 4 201 154 
649 0.04308287265441111 -0.08709572621798506 1.022864943794866 0 0 0 0.35 9 128 13 121 16 51 50 102 53 52 92 153 93 77 124 336 201 155 231 72 
650 0.1712549078334339 -0.07519636929933551 1.016964605568942 0 0 0 0.22 9 129 28 167 36 86 124 337 187 100 197 24 201 156 213 130 235 11 
651 0.3761482550410572 0.045280494963091236 0.9949710359640791 0 0 0 0.14 9 130 36 87 201 157 
652 0.35196251595094974 0.0877700335872011 0.9803959986121541 0 0 0 0.36 9 131 36 88 44 122 175 79 201 158 
653 0.36109025131856026 -0.13930268789305764 1.0492412683843015 0 0 0 0.44 9 132 36 89 44 123 61 66 92 154 118 63 124 338 201 159 
654 0.3892498528023343 -0.118762614469372 1.0193786010190216 0 0 0 0.26 9 133 92 155 201 160 
655 0.07515878424867282 -0.12115472039516878 1.025986575649159 0 0 0 0.41 9 134 109 96 201 161 
656 0.14497729367714615 -0.08066502614840651 1.016741232490632 0 0 0 0.18 9 135 13 122 61 67 92 156 124 339 146 204 201 162 
657 0.3471110730165819 0.05005155965228041 0.9869894025355156 0 0 0 0.29 9 136 17 18 44 124 50 103 77 108 197 25 201 163 232 48 
658 0.23928630908040036 -0.08528369196661234 1.0155241740802896 0 0 0 0.4 9 137 13 123 50 104 53 53 92 157 201 164 232 49 
659 0.23141524941119307 0.06237854450040589 0.9893122495547602 0 0 0 0.27 9 138 53 54 201 165 204 62 232 50 235 12 
660 0.05462637746449515 -0.0813677948774999 1.0205906866679326 0 0 0 0.32 11 98 27 53 77 109 148 78 201 166 
661 0.07885628883922449 0.04994775816682266 0.995589202155241 0 0 0 0.26 11 99 13 124 16 52 28 168 50 105 98 83 124 340 146 205 157 147 175 80 176 142 187 101 197 26 201 167 213 131 231 73 
662 0.05864133769136094 0.054156114950420685 1.0007975345289084 0 0 0 0.14 11 100 146 206 201 168 175 81 
663 0.06039763304911524 0.05508005795339338 1.0000066366980016 0 0 0 0.12 11 101 16 53 124 341 146 207 157 148 175 82 187 102 201 169 213 132 231 74 
664 0.07123472287993209 0.055343427836589354 0.9912998164862327 0 0 0 0.28 11 102 13 125 16 54 38 38 92 158 112 80 146 208 187 103 201 170 214 33 
665 0.06347396670623474 0.06372386170467244 0.9930499899132065 0 0 0 0.23 11 103 98 84 201 171 231 75 
666 0.03584644892091851 0.06837155994887978 0.995180255864955 0 0 0 0.13 11 104 16 55 124 342 157 149 175 83 201 172 213 133 214 34 231 76 
667 0.07201166081967995 0.08161494424902033 0.9898380742058975 0 0 0 0.27 11 105 38 39 85 94 194 17 214 35 
668 0.27745990048028063 0.08460251103347478 0.9829287996408321 0 0 0 0.65 11 106 148 79 201 173 223 52 
669 0.28496848738066916 0.0908723019269628 0.981300223477169 0 0 0 0.72 11 107 28 169 77 110 201 174 223 53 
670 0.03656502449547169 0.09555451798601688 0.9898856498939913 0 0 0 0.22 11 108 16 56 28 170 38 40 93 78 146 209 175 84 201 175 213 134 214 36 
671 0.21216937344816852 0.09668348736823816 0.9823224911427095 0 0 0 0.22 11 109 28 171 187 104 201 176 213 135 
672 0.06677414066412761 0.09889466696062464 0.987291356802738 0 0 0 0.05 11 110 201 177 213 136 
673 0.26746867451920064 0.09878196074561144 0.9841139366838996 0 0 0 0.2 11 111 91 19 109 97 175 85 201 178 
674 0.14334847045616067 0.09869795166294522 0.982102976057385 0 0 0 0.33 11 112 28 172 77 111 109 98 110 102 187 105 194 18 201 179 213 137 214 37 223 54 
675 0.1453016338773617 0.10006245264625073 0.9816084064612792 0 0 0 0.19 11 113 91 20 110 103 187 106 194 19 201 180 213 138 214 38 234 55 
676 0.18313746874845824 0.10207271198205191 0.981468128026882 0 0 0 0.26 11 114 91 21 201 181 
677 0.20769980671469318 0.05156281461653239 0.9906040324578324 0 0 0 0.28 11 115 28 173 44 125 50 106 61 68 77 112 118 64 157 150 158 58 176 143 187 107 197 27 201 182 213 139 
678 0.03588925872075133 0.06063973249434372 0.9942644281166113 0 0 0 0.29 11 116 16 57 17 19 28 174 50 107 53 55 61 69 92 159 118 65 124 343 146 210 157 151 175 86 188 1 201 183 204 63 213 140 214 39 231 77 
679 0.3752809445583672 0.06032707932929913 0.9887065366095793 0 0 0 0.15 11 117 28 175 50 108 201 184 
680 0.16044353042393864 0.06224107512785809 0.9914692351294613 0 0 0 0.12 11 118 28 176 176 144 201 185 232 51 234 56 
681 0.13477233105915692 0.06427979252058932 0.9872796648162171 0 0 0 0.24 11 119 15 16 27 54 61 70 128 11 176 145 204 64 
682 0.10283474217863442 0.07469799759735006 0.9895904819692566 0 0 0 0.38 11 120 13 126 92 160 201 186 213 141 
683 0.26126579661862376 0.09287003840066392 0.9846858145275178 0 0 0 0.24 11 121 17 20 28 177 175 87 201 187 234 57 
684 0.13467940417239518 0.09588664760696573 0.9829578266588982 0 0 0 0.31 11 122 28 178 36 90 110 104 146 211 172 35 187 108 197 28 201 188 213 142 232 52 234 58 
685 0.24254412189952843 -0.0786262892609935 1.014401779908199 0 0 0 0.29 11 123 27 55 91 22 112 81 157 152 165 13 201 189 118 66 172 36 187 109 
686 0.0804281563956849 -0.012302992828327404 1.0113240196470175 0 0 0 0.36 11 124 13 127 50 109 118 67 124 344 146 212 157 153 201 190 213 143 231 78 
687 0.19357975254613063 0.04571918193058084 0.9946489145052673 0 0 0 0.12 11 125 112 82 146 213 201 191 213 144 
688 0.06418174738025986 0.054198743431925815 0.9961330386324355 0 0 0 0.28 11 126 17 21 44 126 53 56 157 154 201 192 213 145 
689 0.20764804182411795 0.05584869550361208 0.9900595040469102 0 0 0 0.18 11 127 17 22 77 113 118 68 146 214 201 193 213 146 
690 0.13370015238077856 0.06284800760658305 0.9925888760941293 0 0 0 0.52 11 128 27 56 201 194 213 147 
691 0.17029342146374477 0.062913721658264 0.9906482711948772 0 0 0 0.28 11 129 176 146 201 195 
692 0.3412015929568484 0.06455439801135045 0.9862405353036516 0 0 0 0.26 11 130 28 179 53 57 91 23 118 69 165 14 175 88 201 196 204 65 235 13 
693 0.37491465611308894 0.06517282494146086 0.987065334701203 0 0 0 0.36 11 131 15 17 17 23 27 57 44 127 50 110 82 1 165 15 170 5 197 29 201 197 204 66 234 59 235 14 
694 0.06965552769772164 0.0928247002473371 0.988300843276645 0 0 0 0.21 11 132 38 41 53 58 148 80 
695 0.05957505829141761 0.09587420856211464 0.9919179227850204 0 0 0 0.35 11 133 15 18 17 24 44 128 53 59 118 70 124 345 146 215 
696 0.17789590294317092 0.07461376038808744 0.9872284087978751 0 0 0 0.33 11 134 13 128 109 99 201 198 234 60 
697 0.043275820553693334 -0.14428969983543824 1.0250173674485432 0 0 0 0.24 13 129 109 100 112 83 
698 0.11579371745004552 -0.08609806630913462 1.0197003905878554 0 0 0 0.36 13 130 124 346 175 89 201 199 
699 0.07011942877067744 -0.07898908563354225 1.0179614536853279 0 0 0 0.16 13 131 124 347 201 200 
700 0.24115722773052578 0.03689219135071099 0.9992572889689928 0 0 0 0.14 13 132 112 84 146 216 157 155 175 90 201 201 
701 0.06901813348914104 0.04357448693588432 0.9931794895361961 0 0 0 0.28 13 133 28 180 98 85 112 85 146 217 175 91 201 202 213 148 
702 0.24175853547664533 0.0382644941634228 0.9971857232815521 0 0 0 0.15 13 134 112 86 201 203 
703 0.2079029142479301 0.040727039802951 0.9986890429044518 0 0 0 0.19 13 135 187 110 201 204 
704 0.0896238945350813 0.04614585513211008 0.9983396420108382 0 0 0 0.37 13 136 28 181 93 79 124 348 175 92 187 111 201 205 231 79 
705 0.24014087832158254 0.04210252160052717 0.9936377713107628 0 0 0 0.09 13 137 124 349 201 206 
706 0.08994595408377437 0.047958532435972395 0.9973832269944778 0 0 0 0.17 13 138 124 350 146 218 175 93 187 112 201 207 231 80 
707 0.07077335959430575 0.04931012409562717 0.9919154682270347 0 0 0 0.3 13 139 16 58 28 182 112 87 201 208 
708 0.22632168745992587 0.04605483219702634 0.9924271763237509 0 0 0 0.2 13 140 124 351 201 209 
709 0.11744018672280211 0.050552925372511624 0.9902483812613274 0 0 0 0.64 13 141 91 24 124 352 201 210 176 147 231 81 
710 0.18252289103497168 0.04912001796303355 0.9886337362481898 0 0 0 0.43 13 142 112 88 201 211 
711 0.0904353519086148 0.05189718207326574 0.9973899189273608 0 0 0 0.21 13 143 28 183 98 86 124 353 175 94 187 113 201 212 
712 0.19795224231808994 0.04930674103296219 0.9934342043056844 0 0 0 0.25 13 144 91 25 157 156 165 16 201 213 213 149 214 40 235 15 124 354 
713 0.1547115480382408 0.05188741870455195 0.9936444379191043 0 0 0 0.16 13 145 175 95 201 214 
714 0.16193834865027146 0.051960069269504194 0.99486687499862 0 0 0 0.15 13 146 175 96 201 215 187 114 
715 0.16495826529355076 0.05205736029666469 0.9942690661246185 0 0 0 0.05 13 147 175 97 201 216 
716 0.07622356161938143 0.055123018124393124 0.9933136030421301 0 0 0 0.25 13 148 175 98 176 148 187 115 201 217 
717 0.24917529036386799 0.05060497368707894 0.9869296346990205 0 0 0 0.04 124 355 175 99 201 218 
718 0.13344755394327906 0.054560773106394254 0.9955954619895615 0 0 0 0.16 13 149 124 356 201 219 175 100 
719 0.19267900027536736 0.05377471916627398 0.9943466090808144 0 0 0 0.28 13 150 91 26 112 89 201 220 213 150 
720 0.13166709475307567 0.05584992836046075 0.9946766438418995 0 0 0 0.15 13 151 124 357 146 219 201 221 
721 0.14537337263454764 0.05772450395688666 0.9868255486334864 0 0 0 0.29 13 152 93 80 112 90 201 222 
722 0.19803401848946145 0.05760525410457355 0.9935838939843644 0 0 0 0.24 13 153 93 81 201 223 
723 0.21621690802512447 0.058773286300957975 0.9854140877703675 0 0 0 0.16 13 154 112 91 201 224 
724 0.1887882281764738 0.060253123417283436 0.9887346417476987 0 0 0 0.38 13 155 112 92 176 149 201 225 
725 0.21569135066178705 0.060077056369751185 0.9862902645067697 0 0 0 0.17 28 184 187 116 201 226 213 151 
726 0.10727132081631878 0.06564856262374678 0.9898804462949714 0 0 0 0.18 13 156 28 185 38 42 109 101 146 220 201 227 213 152 214 41 
727 0.07131352117157264 0.06682255064073235 0.9921162112408709 0 0 0 0.14 13 157 28 186 93 82 98 87 187 117 201 228 231 82 
728 0.25055482718900585 0.06582729165870363 0.9864333093346224 0 0 0 0.29 28 187 85 95 124 358 175 101 187 118 201 229 223 55 
729 0.14164136519920803 0.0694251676665856 0.9878417297471536 0 0 0 0.18 13 158 124 359 201 230 109 102 187 119 
730 0.2494842090161477 0.06732175451524204 0.9864449308807076 0 0 0 0.18 28 188 175 102 187 120 201 231 
731 0.21643902511152785 0.06967475786961816 0.9862673965192607 0 0 0 0.45 13 159 109 103 201 232 
732 0.251267272031362 0.0690209140302627 0.9871351666262006 0 0 0 0.27 28 189 91 27 109 104 124 360 187 121 201 233 
733 0.03681530634743869 0.08551585602542269 0.9913980337347165 0 0 0 0.26 13 160 28 190 187 122 201 234 214 42 
734 0.21570227060257352 0.08422069923470028 0.9800472196426002 0 0 0 0.08 124 361 175 103 201 235 
735 0.09810416322099524 0.08769221243749913 0.9893306590554323 0 0 0 0.27 13 161 28 191 187 123 201 236 
736 0.10111990011019627 0.09281749015726594 0.9862783086489469 0 0 0 0.34 13 162 38 43 110 105 146 221 148 81 164 90 187 124 201 237 214 43 
737 0.23045060632180692 0.09205251995037872 0.9879119150819776 0 0 0 0.34 124 362 175 104 187 125 201 238 
738 0.2682380347538342 0.0926063155488923 0.9858811113876029 0 0 0 0.18 164 91 175 105 201 239 213 153 
739 0.21756986520382807 0.09753402243828839 0.9814517875277796 0 0 0 0.33 13 163 44 129 175 106 201 240 213 154 
740 0.21439752499868284 0.09792618624379887 0.9827262412566337 0 0 0 0.13 175 107 187 126 201 241 
741 0.20806456656483638 0.10298851131852038 0.980534629939162 0 0 0 0.18 28 192 175 108 187 127 201 242 
742 0.08477012285965776 -0.09093306698800525 1.0215992687347035 0 0 0 0.14 13 164 124 363 201 243 
743 0.033000500475501036 -0.08157442266793286 1.020544753080867 0 0 0 0.28 13 165 124 364 201 244 
744 0.1293371328462885 -0.08511795997902322 1.017258736357643 0 0 0 0.16 13 166 98 88 201 245 
745 0.034186349978673876 0.03511358527040535 0.9994265391017542 0 0 0 0.21 13 167 28 193 93 83 176 150 201 246 
746 0.24222077679368406 0.033688210798025475 0.9980486805793399 0 0 0 0.24 13 168 124 365 201 247 
747 0.14251140030403517 0.03933165581328988 0.9896401062930166 0 0 0 0.24 13 169 28 194 112 93 128 12 146 222 175 109 176 151 197 30 201 248 234 61 
