# 3D point list with one line of data per point:
#   POINT3D_ID, X, Y, Z, R, G, B, ERROR, TRACK[] as (IMAGE_ID, POINT2D_IDX)
# Number of points: 430, mean track length: 5.43
324 0.04450307082665532 -0.12273049270219832 1.0010207883503144 0 0 0 0.35 4 248 16 198 17 72 50 112 98 106 111 12 187 281 
325 -0.028107327529816206 -0.10443876265935201 1.0017206078273713 0 0 0 0.38 4 249 77 108 112 86 187 282 
326 0.3138216498627388 -0.08247235635049965 0.9872331141216844 0 0 0 0.43 4 250 77 109 92 106 187 283 
327 0.1400872703780988 -0.07887670967148669 0.9890291547383046 0 0 0 0.27 4 251 33 68 50 113 85 57 91 13 187 284 
328 0.12146653190331391 -0.021917102107947395 0.980925682324661 0 0 0 0.15 4 252 38 106 44 113 50 114 61 63 77 110 103 5 111 13 187 285 
329 -0.07810590762698438 -0.01952018708825439 0.9953227288783665 0 0 0 0.23 4 253 44 114 50 115 53 29 61 64 92 107 98 107 103 6 110 41 111 14 112 87 
330 -0.02537868220705498 -0.012586311992813579 0.9884767940077029 0 0 0 0.24 4 254 17 73 50 116 61 65 118 72 124 85 187 286 
331 0.09494031472667483 0.04566479393627782 0.9709398261576894 0 0 0 0.19 4 255 15 25 16 199 50 117 61 66 98 108 111 15 112 88 124 86 187 287 
332 -0.058472799755469894 0.046348706969587754 0.9736837124638145 0 0 0 0.48 4 256 15 26 17 74 27 18 33 69 43 8 44 115 50 118 61 67 77 111 96 25 103 7 112 89 187 288 
333 -0.10410678022881639 0.0478145498202506 0.9801217662768082 0 0 0 0.13 4 257 38 107 77 112 118 73 
334 0.20688993790442292 0.05944975013652629 0.9622175151822181 0 0 0 0.24 4 258 11 115 53 30 77 113 85 58 91 14 92 108 93 66 110 42 118 74 187 289 
335 -0.05634715605408797 0.057043034217494896 0.9722833589386145 0 0 0 0.2 4 259 11 116 15 27 16 200 38 108 77 114 92 109 187 290 
336 -0.0002742626906250199 0.05799205421484113 0.9704398788712717 0 0 0 0.17 4 260 16 201 38 109 53 31 77 115 92 110 96 26 113 33 118 75 187 291 
337 -0.0002742626906250199 0.05799205421484113 0.9704398788712717 0 0 0 0.17 4 261 16 202 38 110 53 32 77 116 92 111 96 27 113 34 118 76 187 292 
338 0.20694004640585215 0.07175461545058875 0.9620437385273952 0 0 0 0.34 4 262 11 117 13 51 15 28 17 75 53 33 77 117 85 59 91 15 93 67 103 8 118 77 187 293 
339 0.057650162602577396 0.08445224891616512 0.9683319874233952 0 0 0 0.37 4 263 11 118 15 29 16 203 33 70 118 78 187 294 
340 -0.08743667818751429 0.0839134266721541 0.9788134250009423 0 0 0 0.18 4 264 11 119 16 204 17 76 27 19 38 111 77 118 118 79 187 295 
341 0.27320707122983784 0.0912357447212665 0.9581456918123044 0 0 0 0.36 4 265 11 120 17 77 43 9 52 16 77 119 96 28 118 80 187 296 
342 0.12865779966120397 0.09319810563912133 0.9605252209243074 0 0 0 0.29 4 266 11 121 16 205 43 10 77 120 92 112 96 29 187 297 
343 0.021933373086705357 0.09558111452174817 0.9707519020254175 0 0 0 0.32 4 267 11 122 13 52 15 30 43 11 50 119 92 113 103 9 187 298 
344 0.05549101937690047 0.09586032138061855 0.9661187655407846 0 0 0 0.19 4 268 11 123 15 31 16 206 17 78 27 20 38 112 50 120 61 68 118 81 187 299 
345 -0.11470290028574441 0.09864801169417091 0.9792655340685802 0 0 0 0.23 4 269 17 79 98 109 113 35 
346 0.026163746734574264 0.10837372543769555 0.9598944244304445 0 0 0 0.22 4 270 13 53 15 32 16 207 17 80 50 121 96 30 98 110 118 82 124 87 187 300 
347 0.001810030496586075 0.10871395976353639 0.962328673404925 0 0 0 0.34 4 271 11 124 13 54 16 208 17 81 50 122 53 34 61 69 92 114 96 31 98 111 118 83 187 301 
348 0.006625795714641147 0.11251357626631138 0.9613936848746809 0 0 0 0.56 4 272 17 82 44 116 50 123 53 35 61 70 98 112 124 88 187 302 
349 -0.03106757845901695 -0.09004791516717187 0.9980218672697941 0 0 0 0.34 4 273 50 124 98 113 112 90 118 84 187 303 
350 0.03182118786052936 -0.0179627611032105 0.9842191340096397 0 0 0 0.46 4 274 16 209 44 117 112 91 187 304 
351 -0.058104339698586846 -0.01395462296890513 0.989109524592297 0 0 0 0.3 4 275 11 125 16 210 17 83 38 113 77 121 103 10 118 85 187 305 
352 -0.002999042912725412 0.0387764968720482 0.9768857431679314 0 0 0 0.31 4 276 17 84 50 125 61 71 187 306 
353 0.0890723179321148 0.04726411175647588 0.9701130819332007 0 0 0 0.46 4 277 11 126 15 33 16 211 17 85 38 114 50 126 61 72 98 114 110 43 112 92 118 86 187 307 
354 0.08918085677568564 0.04728835168689515 0.970438961437538 0 0 0 0.45 4 278 11 127 15 34 16 212 17 86 19 19 38 115 50 127 61 73 110 44 111 16 112 93 118 87 187 308 
355 0.09450079811914178 0.05014523024236299 0.9695931035280863 0 0 0 0.29 4 279 43 12 61 74 98 115 112 94 187 309 
356 -0.061803723111888524 0.09277121299265578 0.9667067859071209 0 0 0 0.26 4 280 11 128 15 35 17 87 27 21 38 116 43 13 53 36 77 122 96 32 103 11 118 88 187 310 
357 -0.045669125595193545 0.09354208464058254 0.9706703073067453 0 0 0 0.18 4 281 11 129 16 213 17 88 38 117 43 14 92 115 103 12 118 89 187 311 
358 0.04837832222754422 0.09566532821061279 0.965549763066805 0 0 0 0.25 4 282 11 130 53 37 96 33 98 116 103 13 118 90 187 312 
359 -0.041215199043921416 0.0978740640091276 0.9692113316482388 0 0 0 0.26 4 283 11 131 15 36 16 214 17 89 43 15 96 34 118 91 187 313 
360 0.204525140602297 0.10212872697025613 0.9552429488256673 0 0 0 0.36 4 284 11 132 13 55 17 90 44 118 50 128 53 38 61 75 77 123 98 117 103 14 124 89 187 314 
361 -0.09556882347452052 0.09888147314556911 0.9782408604120093 0 0 0 0.26 4 285 16 215 17 91 38 118 43 16 53 39 110 45 
362 -0.09558101105244647 0.0987501049166042 0.977473282739323 0 0 0 0.28 4 286 16 216 38 119 43 17 53 40 
363 -0.004113505384378614 0.0992812947628438 0.965722268243481 0 0 0 0.28 4 287 11 133 15 37 16 217 17 92 27 22 38 120 44 119 92 116 96 35 111 17 118 92 187 315 
364 -0.11049651030763882 0.11089526920851314 0.9745086859395014 0 0 0 0.23 4 288 77 124 118 93 
365 0.10794853938352808 0.1146634508732712 0.9565252821417162 0 0 0 0.09 4 289 11 134 17 93 96 36 187 316 
366 0.03863556064960801 0.06814764679024958 0.9678557083513861 0 0 0 0.3 4 290 11 135 15 38 33 71 98 118 187 317 
367 -0.08080036689676498 0.09379049277058378 0.9741859660972135 0 0 0 0.19 4 291 11 136 15 39 16 218 17 94 38 121 103 15 113 36 118 94 187 318 
368 -0.07874550974126106 0.09879434250643196 0.9737407675050441 0 0 0 0.17 4 292 11 137 16 219 17 95 53 41 77 125 92 117 187 319 
369 -0.09505296466108727 0.11062573759872164 0.9773686933782675 0 0 0 0.28 4 293 16 220 43 18 92 118 96 37 
370 -0.06647115045801426 0.08907196758064685 0.9677220035708093 0 0 0 0.36 4 294 11 138 17 96 27 23 38 122 77 126 118 95 187 320 
371 -0.011087193273514871 -0.08784377140102609 0.9966047149772285 0 0 0 0.43 4 295 16 221 44 120 50 129 53 42 77 127 96 38 111 18 112 95 118 96 187 321 
372 0.0032655172302567368 0.05091782514365037 0.9691422463378979 0 0 0 0.44 4 296 16 222 50 130 53 43 61 76 187 322 
373 0.01572410417955028 0.057265390833733484 0.9717334526642512 0 0 0 0.55 4 297 16 223 17 97 43 19 53 44 118 97 187 323 
374 0.11070288256752638 -0.099741661054882 0.9948240393651264 0 0 0 0.44 4 298 15 40 50 131 85 60 98 119 187 324 
375 -0.05793521869100763 -0.0826907283550293 0.9996752195331501 0 0 0 0.49 4 299 11 139 16 224 17 98 38 123 77 128 118 98 187 325 
376 0.10269585553922145 0.07084360516885425 0.965305354311697 0 0 0 0.24 4 300 15 41 16 225 17 99 77 129 118 99 187 326 
377 0.0011923309707405254 0.07170215111919244 0.9705341124487787 0 0 0 0.24 4 301 11 140 15 42 16 226 17 100 27 24 38 124 50 132 61 77 98 120 118 100 187 327 
378 0.0008087387491748094 0.10357544464672998 0.9628276979803359 0 0 0 0.35 4 302 11 141 16 227 17 101 27 25 32 17 36 27 43 20 53 45 77 130 92 119 96 39 110 46 187 328 
379 0.13557329850283825 -0.1424291403214605 0.9997830585241491 0 0 0 0.42 9 56 50 133 93 68 112 96 124 90 187 329 
380 0.06021214047338893 -0.10881647311594747 0.9984117179908998 0 0 0 0.18 9 57 93 69 98 121 124 91 187 330 
381 0.13792540756583735 -0.09277890389699506 0.9889913583504324 0 0 0 0.29 9 58 50 134 112 97 187 331 
382 0.02366874966453189 -0.09891351705393349 0.9982589871048163 0 0 0 0.33 9 59 32 18 36 28 92 120 124 92 187 332 
383 0.1421685940612404 -0.09023056437842815 0.9878796903475462 0 0 0 0.31 9 60 93 70 187 333 
384 0.03502084591308751 -0.0947818997226272 0.9968480680714874 0 0 0 0.34 9 61 93 71 187 334 
385 0.07200103377024006 -0.089386713025757 0.9938828133207042 0 0 0 0.33 9 62 50 135 61 78 92 121 98 122 187 335 
386 0.10391782233315187 -0.08164982808425464 0.9904587006614064 0 0 0 0.37 9 63 13 56 16 228 44 121 92 122 93 72 110 47 187 336 
387 -0.005094296652124058 -0.08419795161991295 0.9956366637847465 0 0 0 0.39 9 64 16 229 85 61 93 73 112 98 187 337 
388 0.21031241833290187 -0.05504615044102617 0.9856368646094825 0 0 0 0.29 9 65 112 99 187 338 
389 0.17408567888264675 -0.05538888788807712 0.986430368501446 0 0 0 0.18 9 66 112 100 187 339 
390 0.11835396347233205 -0.021171539321797488 0.9813490004437465 0 0 0 0.22 9 67 13 57 16 230 33 72 38 125 91 16 93 74 98 123 112 101 187 340 
391 0.10063772247439787 -0.01871503016522705 0.9812180036714051 0 0 0 0.41 9 68 38 126 98 124 112 102 187 341 
392 -0.002229816680210057 0.04449615496426972 0.9721241292857159 0 0 0 0.19 9 69 38 127 50 136 61 79 112 103 187 342 
393 -0.06598809007614455 0.051923021525601756 0.9708541716423353 0 0 0 0.37 9 70 16 231 33 73 93 75 98 125 112 104 
394 -0.10278066578278398 0.07214334021767647 0.9793287634827162 0 0 0 0.32 9 71 11 142 16 232 33 74 44 122 50 137 61 80 92 123 113 37 124 93 
395 0.18659974875423682 -0.14608066187862925 0.997791719260902 0 0 0 0.37 9 72 36 29 187 343 
396 0.3101047489744079 -0.08675345389372405 0.9873635465009595 0 0 0 0.27 9 73 77 131 187 344 
397 0.08009802954260452 -0.09403123321384192 0.9953933236865812 0 0 0 0.2 9 74 50 138 187 345 
398 0.29838094661075215 -0.07664642294662442 0.9861999132364152 0 0 0 0.19 9 75 13 58 50 139 61 81 187 346 
399 0.06920217529359358 -0.081454784183842 0.9913528501778983 0 0 0 0.28 9 76 13 59 16 233 32 19 36 30 44 123 50 140 124 94 187 347 
400 0.23347086279987483 -0.07280535756134454 0.9872017889738347 0 0 0 0.23 9 77 93 76 124 95 187 348 
401 -0.03636951501883895 -0.08036428763704773 0.9969846492856076 0 0 0 0.23 9 78 11 143 33 75 38 128 61 82 77 132 98 126 112 105 187 349 
402 0.06369592050477983 -0.09058838129680687 0.9945316493471396 0 0 0 0.35 9 79 15 43 16 234 44 124 50 141 61 83 77 133 98 127 187 350 
403 -0.009670235020975094 -0.09392899123115274 0.9990566015175717 0 0 0 0.33 9 80 15 44 44 125 50 142 77 134 98 128 187 351 
404 0.03204150037003494 -0.09040059815133351 0.9961486296677444 0 0 0 0.28 9 81 16 235 19 20 36 31 44 126 50 143 53 46 61 84 77 135 85 62 92 124 93 77 109 40 124 96 187 352 
405 -0.0712089855339998 -0.09462024597204652 0.9998202761580522 0 0 0 0.49 9 82 11 144 16 236 17 102 44 127 92 125 112 106 
406 0.02524261800771927 0.05889788866157708 0.9712403571146982 0 0 0 0.29 9 83 50 144 187 353 
407 0.3822275766654016 -0.09531242086912807 0.9841960973561081 0 0 0 0.46 9 84 85 63 187 354 
408 0.38193178571098707 -0.09522733445979369 0.9841401969944588 0 0 0 0.52 9 85 17 103 44 128 50 145 53 47 85 64 103 16 187 355 
409 0.05354015749848082 -0.10974016348598269 0.9981069974019529 0 0 0 0.39 9 86 16 237 44 129 50 146 53 48 98 129 112 107 187 356 
410 0.34724476589053394 -0.08623521143996463 0.9869562948911126 0 0 0 0.5 9 87 44 130 98 130 187 357 
411 -0.0055937376648104165 -0.1203214229260105 1.0025584356070194 0 0 0 0.47 9 88 19 21 44 131 53 49 92 126 98 131 109 41 187 358 
412 0.02679562516378479 -0.11753106650169896 1.0013670283238036 0 0 0 0.31 9 89 19 22 44 132 53 50 93 78 96 40 98 132 111 19 112 108 187 359 
413 0.00262391138023484 -0.1011542445926648 0.9986648814697773 0 0 0 0.41 9 90 16 238 44 133 50 147 77 136 92 127 111 20 187 360 
414 0.2109633175849338 0.08471886610966045 0.9590109863919888 0 0 0 0.27 9 91 44 134 53 51 98 133 124 97 187 361 
415 -0.010935922001420798 -0.08843997804287856 0.9980009463773264 0 0 0 0.32 9 92 111 21 113 38 187 362 
416 -0.050724279855268416 -0.07162655053125629 0.9978783269181875 0 0 0 1.1 9 93 77 137 98 134 187 363 
417 0.046071661659748124 -0.12038369343620078 1.0004988438953226 0 0 0 0.25 11 145 33 76 112 109 187 364 
418 0.012948365831846217 -0.11211057895521216 1.0002734394812296 0 0 0 0.2 11 146 16 239 33 77 98 135 112 110 187 365 
419 0.09310472463065952 -0.1120611850323568 0.9969408890727643 0 0 0 0.32 11 147 16 240 33 78 38 129 92 128 98 136 109 42 112 111 187 366 
420 -0.00514384268486845 -0.09992191743351306 1.0001569698297865 0 0 0 0.24 11 148 16 241 98 137 112 112 187 367 
421 0.014228502529274977 -0.07953607226238268 0.9943346765814299 0 0 0 0.15 11 149 16 242 110 48 113 39 124 98 187 368 
422 0.053404753960131814 -0.07964982754478589 0.9935888365192825 0 0 0 0.38 11 150 77 138 109 43 187 369 
423 0.03447156652148452 -0.013634985152502095 0.9835084695938184 0 0 0 0.25 11 151 16 243 33 79 112 113 187 370 
424 0.23531812676914204 -0.014285038673672215 0.9789368561375575 0 0 0 0.3 11 152 50 148 91 17 112 114 187 371 
425 0.03338300455816457 -0.01094949623876605 0.9842534903480102 0 0 0 0.35 11 153 16 244 38 130 93 79 109 44 187 372 
426 -0.1066726031474468 0.04012556716957543 0.9838735494337637 0 0 0 0.1 11 154 16 245 38 131 50 149 
427 -0.030570646278883208 0.04713605379740103 0.9714460143117503 0 0 0 0.29 11 155 77 139 187 373 
428 -0.07112093573772388 0.049792642404213765 0.9731525153570576 0 0 0 0.27 11 156 16 246 187 374 
429 0.016203474205554694 0.056467394406461 0.9734414685843387 0 0 0 0.4 11 157 44 135 77 140 109 45 187 375 
430 0.09773010815278191 0.05846376083140138 0.9647268656811249 0 0 0 0.15 11 158 16 247 187 376 
431 0.10020956467923854 0.06614507724192896 0.9649132305105642 0 0 0 0.17 11 159 16 248 187 377 
432 0.036771594162896507 0.06711219573508297 0.9685135557063211 0 0 0 0.25 11 160 38 132 50 150 187 378 
433 -0.1009944431752618 0.07344331386879503 0.9797711152531132 0 0 0 0.23 11 161 16 249 38 133 98 138 
434 0.14021705179916538 0.07377167754484024 0.9609744615930421 0 0 0 0.32 11 162 33 80 50 151 187 379 
435 -0.07484141269148985 0.07692161261992353 0.975356411340917 0 0 0 0.3 11 163 16 250 187 380 
436 0.2803219527046436 0.08177782729454841 0.9595879783072312 0 0 0 0.29 11 164 93 80 187 381 
437 0.03650425438090204 0.0847015829996841 0.9666815441739565 0 0 0 0.52 11 165 13 60 187 382 
438 0.2773997961912397 0.08716391555661201 0.9589817419723712 0 0 0 0.44 11 166 77 141 187 383 
439 -0.033075192908502866 0.0934491805973936 0.9667852911572266 0 0 0 0.15 11 167 16 251 38 134 92 129 187 384 
440 0.2062264291939642 0.09283067597490742 0.958247361882363 0 0 0 0.36 11 168 13 61 93 81 187 385 
441 0.06518853430926991 0.09512599808543505 0.9618248146905383 0 0 0 0.18 11 169 16 252 187 386 
442 0.13935845488590864 0.0950509116566803 0.9572219931340793 0 0 0 0.29 11 170 38 135 52 17 77 142 93 82 109 46 187 387 
443 -0.03342272345198955 0.09975636837924229 0.9660430144292732 0 0 0 0.16 11 171 16 253 110 49 187 388 
444 0.0982054066567614 0.10184855028445765 0.9588344708249371 0 0 0 0.18 11 172 16 254 187 389 
445 -0.0319840979213677 0.1054893971376119 0.9640720073941783 0 0 0 0.24 11 173 16 255 92 130 187 390 
446 0.02410585752240907 0.11103275264449634 0.9590625161635737 0 0 0 0.39 11 174 17 104 50 152 61 85 98 139 124 99 187 391 
447 -0.03338715606653834 0.11256234914394696 0.9637016580146437 0 0 0 0.27 11 175 13 62 16 256 36 32 38 136 52 18 92 131 110 50 187 392 
448 0.137005426494075 0.12149540982022353 0.9533776353036209 0 0 0 0.24 11 176 13 63 187 393 
449 -0.1001591747322412 0.1350900707744402 0.9718119855784842 0 0 0 0.58 11 177 77 143 98 140 
450 0.08877713815922873 -0.12615388864102525 0.9953739119343943 0 0 0 0.17 11 178 36 33 44 136 98 141 187 394 
451 -0.09081575525107957 -0.08272667070702677 1.0067362649697222 0 0 0 0.27 11 179 13 64 16 257 38 137 44 137 50 153 61 86 77 144 124 100 
452 0.2715943289621638 -0.07999743859032508 0.989265364848803 0 0 0 0.74 11 180 13 65 19 23 112 115 187 395 
453 -0.05393942328748688 -0.014066446834145992 0.9905242389444968 0 0 0 0.21 11 181 16 258 27 26 77 145 187 396 
454 0.127799194387266 -0.01645868803130094 0.9813737465374724 0 0 0 0.3 11 182 91 18 112 116 187 397 
455 0.08659329526257616 -0.01532518041065634 0.9833887238852321 0 0 0 0.14 11 183 61 87 112 117 187 398 
456 -0.10179984047911945 0.04420850690040384 0.9825434936357167 0 0 0 0.06 11 184 16 259 118 101 187 399 
457 -0.06823080420988618 0.044099685592709756 0.9718943409799546 0 0 0 0.18 11 185 16 260 118 102 187 400 
458 0.09915370404206508 0.04462726290177977 0.9666686732840303 0 0 0 0.14 11 186 50 154 112 118 187 401 
459 0.0302476689474963 0.048724422372065083 0.9709414569836643 0 0 0 0.45 11 187 16 261 50 155 61 88 187 402 
460 0.20142542203707564 0.048927307403313365 0.9650043760228593 0 0 0 0.15 11 188 50 156 61 89 112 119 118 103 187 403 
461 -0.03753486023588211 0.051200215513363324 0.9724569589418172 0 0 0 0.2 11 189 61 90 187 404 
462 -0.1254028546379368 0.05833547686138441 0.9887530001039092 0 0 0 0.13 11 190 16 262 110 51 
463 -0.014405275647397256 0.057913334716389056 0.9735113408891444 0 0 0 0.34 11 191 16 263 187 405 
464 0.171512763331872 0.05909107801215336 0.962176417579297 0 0 0 0.28 11 192 13 66 17 105 93 83 124 101 187 406 
465 0.06569915982396198 0.08444394358729752 0.9639823952424572 0 0 0 0.2 11 193 16 264 118 104 187 407 
466 0.06778176417441607 0.086526830024441 0.9632488358606239 0 0 0 0.14 11 194 77 146 92 132 187 408 
467 -0.01532900723793256 0.08926215292569577 0.9709696359028275 0 0 0 0.26 11 195 16 265 17 106 38 138 77 147 92 133 118 105 187 409 
468 0.13106425149032416 0.08782948946529075 0.9585527993826364 0 0 0 0.44 11 196 15 45 85 65 187 410 
469 0.001679582227507647 0.09101027058735653 0.9660256261093787 0 0 0 0.23 11 197 16 266 38 139 52 19 77 148 92 134 187 411 
470 -0.023117488006769195 0.09173325363187239 0.9679092466653889 0 0 0 0.35 11 198 17 107 38 140 50 157 61 91 187 412 
471 -0.05584155891299587 0.09214456084824951 0.9696634422165514 0 0 0 0.28 11 199 16 267 85 66 187 413 
472 0.13103713912871912 0.09213551082226507 0.9580438607207415 0 0 0 0.34 11 200 36 34 96 41 187 414 
473 0.09912092037778147 0.09428378646372346 0.959990286457404 0 0 0 0.47 11 201 92 135 187 415 
474 0.26523137974258776 0.09506445990271503 0.9611200892868867 0 0 0 0.41 50 158 98 142 124 102 187 416 
475 0.2676982768635337 0.09489120702408815 0.9573915977278088 0 0 0 0.65 11 202 17 108 187 417 
476 -0.037800423789744235 0.09660670750517754 0.9671705250410499 0 0 0 0.2 11 203 77 149 92 136 110 52 187 418 
477 -0.00545860677478654 0.10572171580057683 0.964527826652281 0 0 0 0.28 11 204 38 141 53 52 118 106 187 419 
478 0.09875150212328229 0.10678015866517405 0.958781170523045 0 0 0 0.27 11 205 16 268 38 142 77 150 187 420 
479 0.1344773898206766 0.11038079326512186 0.9550732844208941 0 0 0 0.2 11 206 52 20 85 67 109 47 187 421 
480 0.09864668182511874 0.11575018827600228 0.9570294849745788 0 0 0 0.3 11 207 13 67 33 81 50 159 92 137 98 143 124 103 187 422 
481 0.13445413174377627 0.11779767589429978 0.9542307447147961 0 0 0 0.33 11 208 13 68 17 109 85 68 118 107 187 423 
482 0.07209429315907664 -0.11901169802855686 0.9996284791118683 0 0 0 0.18 11 209 43 21 44 138 77 151 85 69 109 48 112 120 118 108 187 424 
483 0.2289063539499022 -0.07722604824952313 0.9874633308557785 0 0 0 0.62 11 210 44 139 52 21 187 425 
484 -0.08679422252018215 -0.022325285020576686 0.9977027732675064 0 0 0 0.22 11 211 16 269 17 110 38 143 50 160 61 92 111 22 118 109 187 426 
485 -0.07197472007006753 -0.013576129277536316 0.9934477055720103 0 0 0 0.34 11 212 53 53 112 121 187 427 
486 -0.005841377602674988 -0.013361604884746043 0.9889850166237385 0 0 0 0.22 11 213 16 270 43 22 53 54 92 138 98 144 112 122 118 110 187 428 
487 -0.039274036762909255 0.037863879542290695 0.9810045165950342 0 0 0 0.17 11 214 16 271 17 111 50 161 118 111 187 429 
488 0.017526688379556826 0.03830422673289162 0.9804111912226914 0 0 0 0.31 11 215 16 272 17 112 118 112 124 104 187 430 
489 0.0947725336469723 0.059327483187007056 0.9679420826066976 0 0 0 0.28 11 216 16 273 17 113 187 431 
490 0.1371193562210535 0.05886694167563554 0.9625222401953253 0 0 0 0.23 11 217 96 42 118 113 187 432 
491 0.20698564317126572 0.059445697054683916 0.9623965777271148 0 0 0 0.25 11 218 13 69 17 114 77 152 187 433 
492 -0.0734316022294171 0.06324141669029167 0.9779375463040163 0 0 0 0.06 11 219 16 274 17 115 187 434 
493 0.20698901908477646 0.07653823925725882 0.9612841287342333 0 0 0 0.19 11 220 43 23 103 17 118 114 187 435 
494 -0.11805003343835165 0.08141839250746136 0.9831031157284448 0 0 0 0.26 11 221 16 275 17 116 77 153 92 139 
495 -0.08748956018792979 0.0838972578837056 0.9786926170359834 0 0 0 0.19 11 222 17 117 38 144 43 24 113 40 118 115 187 436 
496 0.2071417545359127 0.08623422527706068 0.959605464639882 0 0 0 0.27 11 223 111 23 187 437 
497 0.10820660556367985 0.10984032295334625 0.9569402624846245 0 0 0 0.41 11 224 96 43 187 438 
498 0.013824053997873047 0.11060761226348645 0.9618835280968719 0 0 0 0.31 11 225 16 276 43 25 53 55 118 116 187 439 
499 0.06805472222324252 0.12297375551375102 0.9571902502492532 0 0 0 0.16 11 226 17 118 38 145 77 154 118 117 187 440 
500 -0.10143005265575607 -0.0890639842727822 1.0084173750722576 0 0 0 0.4 11 227 16 277 17 119 32 20 33 82 38 146 50 162 77 155 
501 -0.07770747149831662 0.08373524774467954 0.9765196527255903 0 0 0 0.39 11 228 15 46 16 278 17 120 77 156 118 118 187 441 
502 0.27312571783588885 0.09118864508515674 0.9580020457836995 0 0 0 0.37 11 229 17 121 43 26 52 22 77 157 85 70 91 19 118 119 187 442 
503 -0.09285510849101668 0.09479622576371188 0.9787127866523133 0 0 0 0.31 11 230 38 147 43 27 53 56 77 158 92 140 96 44 103 18 110 53 113 41 118 120 187 443 
504 0.009442282461712857 0.09839125723108096 0.9651724568659255 0 0 0 0.23 11 231 16 279 17 122 53 57 96 45 118 121 187 444 
505 0.009442282461712857 0.09839125723108096 0.9651724568659255 0 0 0 0.23 11 232 16 280 17 123 53 58 96 46 118 122 187 445 
506 0.02415039376373147 0.09911412469672491 0.9676791153333268 0 0 0 0.33 11 233 15 47 16 281 17 124 27 27 43 28 53 59 96 47 103 19 187 446 
507 0.0635114903734514 0.040039373828204015 0.9718219256471867 0 0 0 0.18 11 234 15 48 112 123 118 123 187 447 
508 0.10302546844739723 0.06494670509767207 0.9652147995584525 0 0 0 0.4 11 235 15 49 17 125 187 448 
509 -0.08354554426785231 0.08183884533214543 0.9786822166077169 0 0 0 0.31 11 236 15 50 16 282 38 148 77 159 113 42 118 124 187 449 
510 -0.01392808055608518 0.0938439871034813 0.969421444838484 0 0 0 0.37 11 237 16 283 96 48 187 450 
511 -0.07868343050372349 0.09885343834594498 0.9744636525685245 0 0 0 0.16 11 238 16 284 17 126 110 54 187 451 
512 0.07257723083623413 0.10177520833992007 0.9603097438426317 0 0 0 0.34 11 239 16 285 17 127 27 28 43 29 61 93 92 141 93 84 96 49 118 125 187 452 
513 0.10114080121136063 0.12248911778796882 0.9557856736154088 0 0 0 0.27 11 240 13 70 33 83 43 30 50 163 92 142 96 50 118 126 187 453 
514 0.0693964214313209 0.0710134359889138 0.967649095493837 0 0 0 0.34 11 241 15 51 98 145 118 127 187 454 
515 0.03410790867420465 0.10589997472805639 0.9607457467202363 0 0 0 0.36 11 242 53 60 77 160 118 128 187 455 
516 0.03375624970016618 0.10578258529676728 0.9597983094255896 0 0 0 0.31 11 243 15 52 53 61 118 129 187 456 
517 0.0852238561236554 0.07061407062398148 0.964505989275554 0 0 0 0.37 11 244 16 286 17 128 38 149 187 457 
518 0.12107150466407735 0.07104604969729483 0.9647523483273827 0 0 0 0.47 11 245 16 287 77 161 187 458 
519 -0.06505972631128773 -0.09245034195316475 0.9993061551476432 0 0 0 0.17 13 71 112 124 187 459 
520 -0.043306214114087346 -0.08845655520241005 0.9996432663713487 0 0 0 0.22 13 72 33 84 112 125 187 460 
521 -0.04659154149606477 -0.08784714498478502 0.9992831599018974 0 0 0 0.17 13 73 112 126 187 461 
522 -0.04582614610458715 -0.08601039997716674 0.9992254468846204 0 0 0 0.22 13 74 16 288 33 85 38 150 98 146 112 127 124 105 187 462 
523 -0.036456060656425676 -0.08616300919398942 0.9987670158293486 0 0 0 0.09 13 75 112 128 187 463 
524 -0.06305183318967258 -0.08322971490107184 0.9993785078555544 0 0 0 0.2 13 76 112 129 124 106 187 464 
525 -0.0630036339326818 -0.0832190574936164 0.9994580862021045 0 0 0 0.22 13 77 16 289 33 86 98 147 112 130 124 107 187 465 
526 0.03548330179842985 -0.055603525257729866 0.9902029164192624 0 0 0 0.2 13 78 16 290 98 148 187 466 
527 0.07788175416522883 -0.026294910617444493 0.9864001172541593 0 0 0 0.28 13 79 112 131 187 467 
528 -0.05086849870402816 0.04390198538578024 0.9799773669005484 0 0 0 0.21 13 80 98 149 187 468 
529 -0.05086849870402816 0.04390198538578024 0.9799773669005484 0 0 0 0.21 13 81 98 150 187 469 
530 0.23424576406741338 0.03469785278226377 0.974159430126514 0 0 0 0.19 13 82 112 132 187 470 
531 0.10346814416124457 0.04191268705623668 0.9661479039490356 0 0 0 0.31 13 83 112 133 187 471 
532 0.2802775345234279 0.03822086685484884 0.9665104870309879 0 0 0 0.16 13 84 124 108 187 472 
533 -0.06267731452590096 0.06271220540291937 0.9716648398509872 0 0 0 0.26 13 85 93 85 98 151 
534 -0.027476712859424997 0.061772374974592016 0.9710207717418008 0 0 0 0.21 13 86 33 87 93 86 124 109 187 473 
535 -0.06685324707115302 0.06283761596510508 0.9729492311376837 0 0 0 0.16 13 87 98 152 187 474 
536 -0.06614588371046935 0.0641692742952086 0.972512850725174 0 0 0 0.18 13 88 98 153 187 475 
537 -0.06614588371046935 0.0641692742952086 0.972512850725174 0 0 0 0.18 13 89 98 154 187 476 
538 0.2092035665256129 0.057255225727881935 0.9610666431138476 0 0 0 0.29 13 90 93 87 112 134 187 477 
539 0.10450291638003101 0.06291949689129536 0.9644367127739837 0 0 0 0.24 13 91 109 49 187 478 
540 0.17879795995839243 0.06175440293603365 0.9631039804505342 0 0 0 0.35 13 92 98 155 124 110 187 479 
541 0.13466686573831332 0.06346431770438261 0.9632341417796176 0 0 0 0.33 13 93 91 20 124 111 187 480 
542 0.16757631390710134 0.06313449771213207 0.9613804546252829 0 0 0 0.16 13 94 98 156 124 112 187 481 
543 0.24414695008738654 0.06257734497966543 0.9630826091995991 0 0 0 0.07 13 95 124 113 187 482 
544 0.23926482323576972 0.06406269486703943 0.9622985650614411 0 0 0 0.21 13 96 93 88 124 114 187 483 
545 0.23926482323576972 0.06406269486703943 0.9622985650614411 0 0 0 0.21 13 97 93 89 124 115 187 484 
546 0.2418588540947849 0.0641700708516346 0.9615841303821939 0 0 0 0.06 13 98 124 116 187 485 
547 0.20803017720423408 0.06511871600894008 0.9613664616116323 0 0 0 0.16 13 99 33 88 187 486 
548 0.27087747109785903 0.06558004999600647 0.9608991030591342 0 0 0 0.41 13 100 33 89 124 117 187 487 
549 0.23769839299358542 0.06705394392414278 0.9623180139712311 0 0 0 0.21 13 101 93 90 98 157 124 118 187 488 
550 0.27995557882714145 0.06799520722298265 0.9614054234749955 0 0 0 0.35 13 102 98 158 124 119 187 489 
551 0.10591563118777597 0.08022547908359147 0.9620710727413494 0 0 0 0.29 13 103 33 90 187 490 
552 0.21217599205512275 0.08057700373948118 0.9598517687166384 0 0 0 0.28 13 104 93 91 187 491 
553 0.03482365575520293 0.08722554047423745 0.9652438657190152 0 0 0 0.11 13 105 124 120 187 492 
554 0.20901363885607535 0.0866025442276166 0.9592379374887499 0 0 0 0.22 13 106 124 121 187 493 
555 0.07013194124792153 0.09091367072648177 0.962646758253185 0 0 0 0.4 13 107 38 151 85 71 187 494 
556 0.20896957560074164 0.08881726901995268 0.958319863471757 0 0 0 0.32 13 108 33 91 93 92 187 495 
557 -0.0005940231999648675 0.09509228815558111 0.9653916860374078 0 0 0 0.3 13 109 93 93 187 496 
558 0.20808883557532865 0.09390734538528334 0.9584420489600933 0 0 0 0.25 13 110 93 94 124 122 187 497 
559 0.20974683452208953 0.09405077914558818 0.9579799932155353 0 0 0 0.1 13 111 124 123 187 498 
560 0.10880436010858292 0.09642403849017607 0.9580377024486281 0 0 0 0.15 13 112 124 124 187 499 
561 0.20379112403351465 0.09970341135088111 0.9559676033673704 0 0 0 0.24 13 113 98 159 187 500 
562 0.004496003976273772 0.10587698281042708 0.9636872063334606 0 0 0 0.3 13 114 98 160 187 501 
563 0.004027809909485378 0.10911234224223576 0.960106902762046 0 0 0 0.24 13 115 124 125 187 502 
564 -0.03182766295148348 0.11089914408156042 0.9625573788071461 0 0 0 0.26 13 116 16 291 187 503 
565 0.03364344323165137 0.11195597666114519 0.960776471153019 0 0 0 0.29 13 117 16 292 33 92 124 126 187 504 
566 0.03509829599308153 0.11205115810552023 0.959352331753345 0 0 0 0.28 13 118 98 161 124 127 187 505 
567 0.06525284102699615 0.11445013925253339 0.9581078461148018 0 0 0 0.26 13 119 124 128 187 506 
568 0.03676216214618665 0.11571263079153224 0.9587889649233587 0 0 0 0.12 13 120 124 129 187 507 
569 0.09995454380386147 0.12467925142205813 0.9554800271559788 0 0 0 0.09 13 121 109 50 187 508 
570 0.20601265213422168 0.12977254782148195 0.9531260560352406 0 0 0 0.63 13 122 93 95 187 509 
571 -0.0020700657472381722 0.15641517914125594 0.9299213531305531 0 0 0 0.82 13 123 98 162 187 510 
572 -0.08300990322574085 -0.0848598134521793 1.00642774165398 0 0 0 0.25 13 124 93 96 98 163 112 135 
573 0.03253623819758369 -0.07975118390327164 0.9938035898420922 0 0 0 0.19 13 125 16 293 93 97 98 164 124 130 187 511 
574 0.33760334378198553 -0.0770639391681804 0.9874590775270813 0 0 0 0.24 13 126 98 165 187 512 
575 -0.052079185841688885 -0.016100732372158682 0.9902164374467981 0 0 0 0.33 13 127 93 98 98 166 109 51 124 131 187 513 
576 0.07834999588676 -0.019746988802623062 0.985936267360595 0 0 0 0.14 13 128 124 132 187 514 
577 0.23552510440174798 0.03156556450871634 0.9731230940589365 0 0 0 0.38 13 129 98 167 112 136 187 515 
578 -0.049100542255407525 0.04238752645388168 0.979626157267551 0 0 0 0.11 13 130 16 294 33 93 187 516 
579 0.08407390395632584 0.04540935589848152 0.9728267695839221 0 0 0 0.11 13 131 112 137 124 133 187 517 
580 0.07437197412375515 0.05062489117256739 0.9679775768201035 0 0 0 0.2 13 132 112 138 187 518 
581 -0.06471588885638904 0.06278314715415953 0.9721750862948275 0 0 0 0.16 13 133 16 295 33 94 93 99 98 168 124 134 
582 0.10646475874398262 0.061256094679833784 0.964717793363497 0 0 0 0.16 13 134 109 52 187 519 
583 0.23867403526771938 0.05786397795493911 0.9607919677192781 0 0 0 0.29 13 135 33 95 92 143 93 100 98 169 187 520 
584 0.20914583623619423 0.06197328224159065 0.961961934619971 0 0 0 0.3 13 136 36 35 92 144 187 521 
585 0.212104856831629 0.06556039439680338 0.9622649632812847 0 0 0 0.26 13 137 44 140 187 522 
586 0.2396808488363866 0.06583879702561886 0.9619642012040207 0 0 0 0.27 13 138 93 101 98 170 109 53 124 135 187 523 
587 0.06853735325223927 0.07331051351249787 0.9655409643802354 0 0 0 0.1 13 139 93 102 110 55 187 524 
588 0.31083814823119377 0.06890390182245842 0.9623301957721979 0 0 0 0.46 13 140 124 136 187 525 
589 0.024049638151365 0.0818289306565562 0.9711769130282834 0 0 0 0.1 13 141 16 296 98 171 187 526 
590 0.02257466617971138 0.08342632288966892 0.9715527357205358 0 0 0 0.27 13 142 16 297 124 137 187 527 
591 0.21442927168743534 0.08495117856772802 0.9598237106314174 0 0 0 0.19 13 143 124 138 187 528 
592 0.2279256829153605 0.08836281321079666 0.9635882681879464 0 0 0 0.26 13 144 98 172 187 529 
593 0.03605108959289466 0.09187602603859543 0.9641814841297417 0 0 0 0.33 13 145 16 298 38 152 187 530 
594 -0.0004244079037770228 0.09759144710786524 0.9653222340921359 0 0 0 0.12 13 146 38 153 61 94 187 531 
595 0.21467688896254553 0.09803432391316469 0.9555637109726615 0 0 0 0.11 13 147 44 141 124 139 187 532 
596 0.2060014167230535 0.10399455371964918 0.9554971255266466 0 0 0 0.19 13 148 98 173 187 533 
597 0.13727992152402282 0.10518314798063341 0.9559096738392447 0 0 0 0.17 13 149 85 72 187 534 
598 0.13727992152402282 0.10518314798063341 0.9559096738392447 0 0 0 0.17 13 150 85 73 187 535 
599 0.21554094466420867 0.106211321911081 0.9553065774295025 0 0 0 0.35 13 151 50 164 98 174 187 536 
600 0.21171928367932336 0.10794734551962552 0.9547385056129719 0 0 0 0.33 13 152 19 24 98 175 124 140 187 537 
601 0.13696050823212622 0.11085411356091864 0.9548257759835275 0 0 0 0.23 13 153 33 96 85 74 187 538 
602 0.13693825467259915 0.1108267808762252 0.9547884105429559 0 0 0 0.24 13 154 33 97 187 539 
603 -0.029937074438792486 0.11298264363741198 0.963572055425361 0 0 0 0.27 13 155 16 299 93 103 187 540 
604 -0.030081260080702665 0.11287664411299839 0.9628126534223861 0 0 0 0.22 13 156 16 300 187 541 
605 -0.03186837242669704 0.11473616913255819 0.9631896209476946 0 0 0 0.33 13 157 92 145 93 104 124 141 187 542 
606 0.13700740700264422 0.11524207050219296 0.9543047434990738 0 0 0 0.14 13 158 50 165 85 75 187 543 
607 0.07003497585704697 0.11820463223544357 0.9570615365311108 0 0 0 0.17 13 159 38 154 187 544 
608 0.13916777401576164 0.11923496464998808 0.9536315127673576 0 0 0 0.21 13 160 52 23 187 545 
609 0.028202530004370542 0.12070029248204785 0.9587128559959065 0 0 0 0.17 13 161 50 166 98 176 124 142 187 546 
610 -0.033854418780730214 0.12166216068786194 0.9624387211075186 0 0 0 0.34 13 162 16 301 93 105 187 547 
611 0.14085385191242816 0.12151985739821046 0.9531229241276994 0 0 0 0.25 13 163 52 24 187 548 
612 -0.002455317655562291 0.15392721385893723 0.929721519506259 0 0 0 0.84 13 164 98 177 187 549 
613 -0.08680435537553811 -0.08232419865900953 1.006121295731335 0 0 0 0.19 13 165 16 302 17 129 77 162 98 178 112 139 124 143 
614 -0.08458839457218185 -0.08001906309992476 1.0048956081147953 0 0 0 0.28 13 166 38 155 92 146 98 179 112 140 124 144 
615 0.08893936122927223 -0.07960331767472766 0.9917169992016731 0 0 0 0.28 13 167 16 303 61 95 110 56 112 141 124 145 187 550 
616 0.12269821754276004 -0.07897995819380392 0.9895958715131716 0 0 0 0.23 13 168 16 304 36 36 50 167 77 163 85 76 92 147 93 106 98 180 112 142 124 146 187 551 
617 0.1561949442208166 -0.08088399192211328 0.990082899877072 0 0 0 0.4 13 169 17 130 38 156 44 142 91 21 92 148 93 107 98 181 109 54 118 130 124 147 187 552 
618 0.27028155944758375 -0.07963058469649935 0.987673554010781 0 0 0 0.36 13 170 112 143 187 553 
619 0.3016921419513886 -0.07955476952425661 0.9872756375768758 0 0 0 0.09 13 171 98 182 187 554 
620 0.23541951271012684 0.0277607395439862 0.973233140282349 0 0 0 0.37 13 172 98 183 187 555 
621 0.07200919017505801 0.060809586149678234 0.9664774010449734 0 0 0 0.25 13 173 36 37 187 556 
622 0.2741331227700767 0.06024791748887565 0.9617469433424721 0 0 0 0.19 13 174 61 96 85 77 98 184 124 148 187 557 
623 0.27399234073423023 0.060236543904869905 0.9615939996885325 0 0 0 0.19 13 175 61 97 187 558 
624 0.1667994298468352 0.06545859350864515 0.9620964954414638 0 0 0 0.27 13 176 36 38 124 149 187 559 
625 0.2355668251540168 0.0687620258298037 0.9624177062350423 0 0 0 0.27 13 177 98 185 187 560 
626 0.27967524469347566 0.08413915754367758 0.9583909551723058 0 0 0 0.43 13 178 17 131 61 98 98 186 187 561 
627 0.20677920270005876 0.08937768389997369 0.958770015131341 0 0 0 0.27 13 179 33 98 44 143 53 62 61 99 93 108 187 562 
628 0.2543933914435397 0.10106167842869108 0.9558839472538613 0 0 0 0.34 13 180 124 150 187 563 
629 0.10231208972600803 0.10501725755398378 0.9580245290789675 0 0 0 0.26 13 181 16 305 17 132 36 39 52 25 92 149 187 564 
630 0.06731398130133423 0.11666616360321588 0.9582427251844072 0 0 0 0.21 13 182 16 306 93 109 187 565 
631 0.13691446967303159 0.11925046162027544 0.953813063118987 0 0 0 0.29 13 183 50 168 85 78 124 151 187 566 
632 0.13641127012285773 0.13258101755768562 0.9515412218624439 0 0 0 0.33 13 184 118 131 187 567 
633 -0.03573445564721781 0.1349895844434074 0.9609569851158362 0 0 0 0.64 13 185 44 144 85 79 92 150 187 568 
634 0.06513611599387546 0.10952171155454014 0.9580993857295527 0 0 0 0.14 13 186 17 133 187 569 
635 0.03636007087505947 0.11340032902644415 0.9593597183109825 0 0 0 0.29 13 187 53 63 77 164 98 187 187 570 
636 0.09737254640264253 0.06690734052679458 0.9654069418771486 0 0 0 0.37 13 188 15 53 118 132 187 571 
637 0.20647430009549453 0.06651466747591207 0.9619838264484645 0 0 0 0.37 13 189 15 54 50 169 187 572 
638 0.11615192973911542 0.09589938019890851 0.9601527247506241 0 0 0 0.52 13 190 53 64 187 573 
639 0.21494128777163746 0.10065649770736282 0.9564783646184571 0 0 0 0.32 13 191 50 170 61 100 124 152 187 574 
640 -0.00639359618649828 0.15241189798612018 0.9290228458734349 0 0 0 0.35 13 192 77 165 187 575 
641 0.11292975307594386 0.1000417223893048 0.9579482103499558 0 0 0 0.31 13 193 17 134 50 171 61 101 96 51 124 153 187 576 
642 0.11311616977677927 0.10006154069309608 0.9582656988012195 0 0 0 0.31 13 194 17 135 61 102 124 154 187 577 
643 0.19715785655749074 0.10073647069782476 0.9617448367070285 0 0 0 0.52 13 195 53 65 187 578 
644 0.19781208329819447 0.1006138827579452 0.9625779065514894 0 0 0 0.24 13 196 124 155 187 579 
645 0.1274639860308425 0.13488335270031118 0.956849401656262 0 0 0 0.26 13 197 61 103 187 580 
646 0.04217199752391129 -0.09112303377322686 0.9943906453025071 0 0 0 0.31 13 198 98 188 124 156 187 581 
647 0.1934676069349301 -0.16649918844457343 1.0060370272788568 0 0 0 0.15 15 55 85 80 98 189 187 582 
648 0.19355305980466422 -0.16656726798027727 1.0060063967116322 0 0 0 0.21 15 56 85 81 96 52 187 583 
649 -0.0045016688190653315 -0.09747989818996584 0.999590755204849 0 0 0 0.27 15 57 17 136 44 145 92 151 98 190 124 157 187 584 
650 0.0756364627424805 -0.0814089161845478 0.9917995909789312 0 0 0 0.29 15 58 16 307 61 104 77 166 92 152 98 191 112 144 118 133 187 585 
651 -0.01644800759891889 -0.07625916819407745 0.9966155306011896 0 0 0 0.24 15 59 85 82 113 43 118 134 187 586 
652 0.1673254994548283 -0.015118747781116873 0.9807367090883755 0 0 0 0.29 15 60 61 105 91 22 96 53 98 192 118 135 187 587 
653 0.09532515474375722 -0.012110898580267558 0.9830736706180452 0 0 0 0.12 15 61 112 145 187 588 
654 -0.0639430463202769 0.04231284114574071 0.9717977167847165 0 0 0 0.22 15 62 16 308 50 172 118 136 187 589 
655 -0.056394365908974946 0.05709038695595709 0.9721396604567651 0 0 0 0.08 15 63 16 309 187 590 
656 0.06892103101017216 -0.10044374232440166 0.9971780824044026 0 0 0 0.64 15 64 50 173 98 193 112 146 187 591 
657 0.006343965248961296 0.03890091535856967 0.9749183568184574 0 0 0 0.27 15 65 50 174 61 106 187 592 
658 0.19442542517331485 0.0521574142133131 0.9668146984262926 0 0 0 0.53 15 66 50 175 98 194 112 147 187 593 
659 0.06643408230653126 0.06808046332180373 0.96634166439056 0 0 0 0.14 15 67 16 310 17 137 118 137 187 594 
660 0.09810947144525703 0.03938685216810566 0.9691735560810427 0 0 0 0.35 15 68 17 138 50 176 61 107 98 195 112 148 118 138 187 595 
661 0.2652889225584572 0.09079341456016939 0.9608484699295238 0 0 0 0.55 15 69 32 21 53 66 77 167 98 196 118 139 124 158 187 596 
662 0.2103214874895898 -0.0623652347756852 0.9864378652143182 0 0 0 0.21 15 70 44 146 187 597 
663 0.03892180501142696 0.041735286157100045 0.9720242730066729 0 0 0 0.7 15 71 112 149 187 598 
664 0.0443814432392718 0.10050998868182905 0.9633835531190375 0 0 0 0.3 15 72 52 26 53 67 61 108 96 54 103 20 187 599 
665 0.07680797801447489 -0.1079382030502042 0.9969411787831584 0 0 0 0.46 15 73 92 153 93 110 98 197 187 600 
666 0.10272072691089183 0.0708620951837657 0.9653355637325889 0 0 0 0.25 15 74 16 311 17 139 77 168 118 140 187 601 
667 0.05195131947266196 0.0713296219792395 0.9669695748556375 0 0 0 0.34 15 75 16 312 17 140 98 198 118 141 187 602 
668 0.053701354688271405 -0.12114962661817132 1.0004174800789587 0 0 0 0.12 16 313 112 150 187 603 
669 0.051381552952865055 -0.11955790658315237 1.0006575755622982 0 0 0 0.1 16 314 98 199 187 604 
670 0.009459873569447688 -0.11676076497802709 1.0014963575025897 0 0 0 0.29 16 315 98 200 187 605 
671 0.04057959526521251 -0.11363815606017015 0.9996138677732109 0 0 0 0.22 16 316 112 151 187 606 
672 0.012906678739829584 -0.11001903777454872 0.9997179793266813 0 0 0 0.27 16 317 38 157 187 607 
673 0.09131526883922349 -0.11059362890953328 0.9973302769776111 0 0 0 0.17 16 318 33 99 38 158 112 152 187 608 
674 0.02874082132823951 -0.10392131707628899 0.9981846126904764 0 0 0 0.17 16 319 50 177 98 201 187 609 
675 0.028622908962801015 -0.10365506622987425 0.99798285878733 0 0 0 0.2 16 320 112 153 187 610 
676 -0.06246896591888897 -0.10082998979978391 0.9968460152592052 0 0 0 0.28 16 321 33 100 38 159 98 202 
677 -0.058085580294731175 -0.09693176691012687 0.9987279337835969 0 0 0 0.28 16 322 33 101 98 203 
678 0.02655624003792141 -0.0991541522766258 0.9975911702921443 0 0 0 0.11 16 323 50 178 98 204 112 154 118 142 124 159 187 611 
679 0.06828015637215333 -0.09656924609275082 0.9956081123677321 0 0 0 0.31 16 324 33 102 124 160 187 612 
680 0.06831690886432625 -0.09646474904240253 0.995652641787657 0 0 0 0.23 16 325 112 155 187 613 
681 0.1126448935945066 -0.09636162759434069 0.9931857000010869 0 0 0 0.3 16 326 98 205 187 614 
682 -0.07625031531243891 -0.09192762405847732 1.0038713100009744 0 0 0 0.19 16 327 109 55 112 156 187 615 
683 0.04025631416451994 -0.09400448105852272 0.996803440292189 0 0 0 0.29 16 328 112 157 187 616 
684 0.034653349488599224 -0.0928154735048759 0.9965721363195736 0 0 0 0.28 16 329 50 179 98 206 124 161 187 617 
685 0.003755873482254192 -0.09163164825165633 0.9980550437232674 0 0 0 0.18 16 330 98 207 187 618 
686 0.08843874501436941 -0.09300838135734019 0.9950250268834187 0 0 0 0.25 16 331 33 103 187 619 
687 0.09539521989751812 -0.09114331394616247 0.9943110604786366 0 0 0 0.1 16 332 112 158 187 620 
688 -0.03812167428690916 -0.08812371944806986 0.999518402378277 0 0 0 0.07 16 333 112 159 187 621 
689 0.014272150141457862 -0.08869963517708859 0.9962643355505387 0 0 0 0.09 16 334 109 56 187 622 
690 -0.05873588373693328 -0.08672080720398759 1.0004408046684508 0 0 0 0.28 16 335 109 57 112 160 124 162 187 623 
691 -0.051637033973624895 -0.08629951265722197 0.9997789043674055 0 0 0 0.3 16 336 33 104 38 160 98 208 187 624 
692 -0.05163634837487253 -0.08627265296616948 0.9997620402160228 0 0 0 0.24 16 337 33 105 38 161 98 209 109 58 112 161 187 625 
693 -0.04864058150968146 -0.08608489019026105 0.9992128987074379 0 0 0 0.16 16 338 33 106 112 162 124 163 187 626 
694 -0.04583016225427107 -0.08604540329780345 0.9991905230866924 0 0 0 0.16 16 339 33 107 38 162 112 163 124 164 187 627 
695 0.14090257660425484 -0.08893978648685294 0.988704556467824 0 0 0 0.35 16 340 33 108 93 111 98 210 109 59 112 164 124 165 187 628 
696 -0.05312603580744642 -0.08489069727871437 0.9994396789127489 0 0 0 0.26 16 341 33 109 112 165 187 629 
697 -0.011865739202739005 -0.08456981107125082 0.9965815142720585 0 0 0 0.12 16 342 36 40 187 630 
698 -0.057298200148226425 -0.08317927408990139 0.9991478038839813 0 0 0 0.14 16 343 124 166 187 631 
699 -0.057281582355878616 -0.08310202212858465 0.9990135207690282 0 0 0 0.18 16 344 98 211 124 167 187 632 
700 -0.02396901205227335 -0.08285973811062011 0.9972572742966207 0 0 0 0.16 16 345 98 212 112 166 124 168 187 633 
701 0.12731904918579617 -0.08516156747394976 0.9903334122247626 0 0 0 0.51 16 346 91 23 93 112 98 213 112 167 124 169 187 634 
702 -0.012673267300261486 -0.07973895357772838 0.9959195678966859 0 0 0 0.13 16 347 112 168 124 170 187 635 
703 0.07396214553209979 -0.07923496975168727 0.9918135379009247 0 0 0 0.1 16 348 38 163 187 636 
704 -0.060430401223729426 -0.058193949881971484 0.9955210760228362 0 0 0 0.18 16 349 38 164 109 60 112 169 187 637 
705 0.13425202448723506 -0.05854595703320442 0.9871676149848851 0 0 0 0.14 16 350 98 214 187 638 
706 -0.060597360588406146 -0.052858739567208296 0.9945420568004059 0 0 0 0.31 16 351 98 215 187 639 
707 0.001270374381134707 -0.04877377625831538 0.9911628803427229 0 0 0 0.31 16 352 112 170 187 640 
708 0.06551148351836557 -0.0411711089585918 0.9865049236340067 0 0 0 0.29 16 353 112 171 187 641 
709 0.10679194396798908 -0.03507756546160635 0.9843396779284908 0 0 0 0.41 16 354 112 172 187 642 
710 -0.001672757791756546 -0.03054887402869519 0.9872907825543127 0 0 0 0.29 16 355 98 216 112 173 187 643 
711 0.06411819680286161 -0.028027941270401837 0.9859771606024424 0 0 0 0.15 16 356 112 174 187 644 
712 -0.005040546008092179 -0.026825992492471692 0.9901334219440315 0 0 0 0.18 16 357 98 217 187 645 
713 0.13373364219587427 -0.027142471519687402 0.9817522761736289 0 0 0 0.36 16 358 98 218 112 175 187 646 
714 0.05206963438979265 -0.02393353045162654 0.9841966032154835 0 0 0 0.31 16 359 44 147 98 219 112 176 124 171 187 647 
715 0.12486490654676616 -0.021187898906607088 0.981370374771871 0 0 0 0.42 16 360 52 27 93 113 112 177 187 648 
716 -0.09103461629623627 -0.01704361655357854 0.9977916870662582 0 0 0 0.5 16 361 98 220 187 649 
717 -0.09801309108933345 -0.016414691040862277 0.9980268152413645 0 0 0 0.25 16 362 38 165 187 650 
718 -0.09574274451253825 -0.01600907764970692 0.9978790275709101 0 0 0 0.19 16 363 33 110 112 178 187 651 
719 -0.07916964722084809 -0.015880973495254174 0.9954610319550197 0 0 0 0.07 16 364 98 221 112 179 
720 0.22240920208861387 -0.019083107922365405 0.9799371935681467 0 0 0 0.27 38 166 44 148 98 222 112 180 187 652 
721 0.023286193059745497 -0.015449176795577054 0.9868602365113738 0 0 0 0.09 16 365 112 181 187 653 
722 0.12879620043057985 -0.014546637992966342 0.9810751167321542 0 0 0 0.21 16 366 91 24 124 172 187 654 
723 0.06746407721376863 -0.010245778006975844 0.9820623359665733 0 0 0 0.06 16 367 112 182 187 655 
724 0.10046630637561788 -0.009821033049002064 0.9797860040868683 0 0 0 0.29 16 368 112 183 187 656 
725 0.10046630637561788 -0.009821033049002064 0.9797860040868683 0 0 0 0.29 16 369 112 184 187 657 
726 0.06526345508406911 -0.008873194520822945 0.9813264669915858 0 0 0 0.18 16 370 112 185 187 658 
727 0.06768354400374707 0.04161644807195122 0.9679304149717401 0 0 0 0.3 16 371 112 186 187 659 
728 -0.01879486263390755 0.04369453380819083 0.9778950988538778 0 0 0 0.1 16 372 98 223 187 660 
729 -0.035266441944721234 0.043647608913238184 0.9738911315298159 0 0 0 0.28 16 373 98 224 124 173 187 661 
730 -0.00429818886790236 0.04376100197036616 0.9738183179699529 0 0 0 0.2 16 374 98 225 112 187 187 662 
731 -0.10584166141213157 0.04512674086323312 0.9819105390646817 0 0 0 0.24 16 375 38 167 50 180 98 226 
732 0.10101468834424514 0.04445836653138029 0.9648821010230731 0 0 0 0.23 16 376 112 188 187 663 
733 -0.050887306745117815 0.04648711446427523 0.9795554108666312 0 0 0 0.16 16 377 92 154 187 664 
734 -0.04730316996679013 0.04654676666786982 0.9800238951023409 0 0 0 0.09 16 378 98 227 187 665 
735 0.09235171835780176 0.045579690399113006 0.9714255747637017 0 0 0 0.3 16 379 112 189 124 174 187 666 
736 0.1978128451284904 0.04670657389031199 0.9674564578848086 0 0 0 0.24 112 190 124 175 187 667 
737 0.10267141694338568 0.04787467602149158 0.9629741770786832 0 0 0 0.42 16 380 112 191 187 668 
738 -5.4625594189292366e-05 0.05250802474352717 0.9701838154517126 0 0 0 0.2 16 381 50 181 92 155 187 669 
739 0.1360579825597992 0.05358894573011661 0.96139234596472 0 0 0 0.18 16 382 93 114 187 670 
740 -0.061722990787454815 0.059659884952469586 0.97354946454688 0 0 0 0.42 16 383 33 111 187 671 
741 -0.012791979377401506 0.06087197376650225 0.975397517812529 0 0 0 0.14 16 384 92 156 187 672 
742 0.05790933135167725 0.061513696070005765 0.9727191582600601 0 0 0 0.2 16 385 98 228 187 673 
743 -0.10097366233302517 0.06462332661584551 0.9804775347672341 0 0 0 0.14 16 386 38 168 187 674 
744 0.00081057740940286 0.06518682077410186 0.9702565751907725 0 0 0 0.13 16 387 109 61 187 675 
745 0.03475900674047754 0.07655807656265658 0.9667987138493839 0 0 0 0.2 16 388 98 229 187 676 
746 0.2095533640320953 0.08356443166637527 0.9598219923627813 0 0 0 0.45 93 115 124 176 187 677 
747 -0.06865176930243291 0.08488098273811191 0.9684450210511037 0 0 0 0.15 16 389 33 112 93 116 
748 -0.010766564429657316 0.08960227627245143 0.9724651126856901 0 0 0 0.15 16 390 38 169 187 678 
749 -0.0001537992326510078 0.08968206283376641 0.9666851348050571 0 0 0 0.13 16 391 109 62 187 679 
750 -0.0005657116326178623 0.0922223412827566 0.9660569092139747 0 0 0 0.28 16 392 38 170 93 117 187 680 
751 0.06516023404982316 0.09268112372873917 0.9626122998170603 0 0 0 0.14 16 393 38 171 92 157 93 118 187 681 
752 -0.030122237467906737 0.10117251345770024 0.9658719874368488 0 0 0 0.13 16 394 93 119 187 682 
753 -0.0300959937572853 0.1050205690237191 0.9653572593295139 0 0 0 0.29 16 395 33 113 38 172 93 120 98 230 187 683 
