# 3D point list with one line of data per point:
#   POINT3D_ID, X, Y, Z, R, G, B, ERROR, TRACK[] as (IMAGE_ID, POINT2D_IDX)
# Number of points: 406, mean track length: 6.41
19 0.05446267712623674 -0.1547320158491115 1.2053791078806446 0 0 0 0.18 0 19 11 6 15 3 17 6 29 0 33 3 67 3 118 6 120 3 127 1 
20 -0.07725634331225228 -0.14599514217072 1.1481408494503298 0 0 0 0.34 0 20 1 1 11 7 15 4 17 7 27 3 29 1 44 2 50 5 71 4 77 3 85 1 96 7 97 4 111 3 118 7 120 4 160 14 
21 -0.07995787252942532 -0.1426676182605431 1.1465576279014085 0 0 0 0.18 0 21 15 5 97 5 120 5 160 15 
22 -0.14179867798805174 -0.13401220806510405 1.121813558997973 0 0 0 0.14 0 22 15 6 120 6 160 16 
23 -0.10039552181520722 -0.12998773344592582 1.1372302598510409 0 0 0 0.24 0 23 1 2 11 8 50 6 97 6 118 8 120 7 
24 0.06589929248412787 -0.13769490219965674 1.2096039594559367 0 0 0 0.24 0 24 12 1 33 4 44 3 50 7 73 0 120 8 
25 0.0659815128786073 -0.13777433720946788 1.2100282315287807 0 0 0 0.25 0 25 33 5 44 4 50 8 73 1 127 2 
26 -0.04738874258502042 -0.12520527510796617 1.163423143602641 0 0 0 0.21 0 26 120 9 160 17 
27 0.08387331211300861 -0.12999752696278963 1.2135355732506716 0 0 0 0.26 0 27 81 0 160 18 
28 -0.09354125613773438 -0.11952741163889496 1.1489115993422991 0 0 0 0.11 0 28 50 9 160 19 
29 0.03941511817127589 -0.12492811691180578 1.1965774739479331 0 0 0 0.28 0 29 44 5 96 8 160 20 
30 0.07988061185820283 -0.12334276489085828 1.2109196980305146 0 0 0 0.2 0 30 11 9 29 2 43 2 71 5 73 2 111 4 
31 -0.00892609304966792 -0.11122711530192558 1.1741901040210567 0 0 0 0.25 0 31 120 10 160 21 
32 0.11976117242634278 -0.03070896617607645 1.2272597612103564 0 0 0 0.51 0 32 17 8 77 4 118 9 
33 -0.0767022702310842 -0.01787899049327951 1.1288357697817106 0 0 0 0.16 0 33 3 4 50 10 53 4 120 11 160 22 
34 -0.015058478571640162 -0.01712681504158166 1.1589505175929116 0 0 0 0.41 0 34 1 3 11 10 17 9 33 6 41 1 50 11 71 6 73 3 111 5 112 2 118 10 120 12 
35 0.005285549139759581 -0.010057869161375882 1.1705092330585947 0 0 0 0.13 0 35 118 11 120 13 127 3 160 23 
36 -0.027565112069748002 -0.00636178557749995 1.1590545040761067 0 0 0 0.2 0 36 1 4 120 14 
37 -0.027144761094548643 -0.00679485371146673 1.1583668095065238 0 0 0 0.23 0 37 1 5 65 1 160 24 
38 -0.11076362252680678 -0.23917944587014395 1.2035538534905175 0 0 0 0.3 0 38 17 10 96 9 160 25 
39 -0.48511650903141906 -0.20725168039383088 1.060613311923824 0 0 0 0.2 0 39 11 11 118 12 
40 -0.43248005415017615 -0.2017118744266876 1.0423203100871015 0 0 0 0.24 0 40 3 5 11 12 12 2 27 4 33 7 53 5 67 4 96 10 97 7 118 13 
41 -0.3211725132935969 -0.19718063939176442 1.0718444909475084 0 0 0 0.29 0 41 1 6 3 6 11 13 17 11 27 5 32 1 33 8 44 6 50 12 77 5 81 1 88 0 96 11 97 8 111 6 160 26 
42 -0.4330887496078912 -0.19074552645747664 1.0463113445521466 0 0 0 0.37 0 42 1 7 3 7 11 14 17 12 32 2 33 9 43 3 50 13 53 6 64 1 65 2 77 6 92 1 97 9 111 7 
43 -0.34390999741135087 -0.19340657077688742 1.065548125898603 0 0 0 0.22 0 43 11 15 41 2 160 27 
44 -0.4114580945482402 -0.19029264338797838 1.0525697929619482 0 0 0 0.47 0 44 27 6 43 4 81 2 118 14 160 28 
45 -0.43615063072280597 -0.1864809204205758 1.0435060013280277 0 0 0 0.21 0 45 53 7 67 5 118 15 160 29 
46 0.007976407093574965 -0.19197264744775147 1.2195730756320806 0 0 0 0.29 0 46 11 16 17 13 50 14 118 16 120 15 160 30 
47 -0.11912123613408253 -0.1732435414463913 1.1360347372778319 0 0 0 0.51 0 47 11 17 15 7 17 14 27 7 33 10 38 1 44 7 50 15 53 8 60 1 63 1 73 4 77 7 85 2 96 12 97 10 110 1 111 8 118 17 120 16 127 4 160 31 
48 -0.4877869561105238 -0.15568385990905595 1.0256838240454038 0 0 0 0.41 0 48 33 11 97 11 
49 0.08928984601074495 -0.18825717629651692 1.253658802044255 0 0 0 0.37 0 49 11 18 50 16 118 18 120 17 160 32 
50 -0.013891068459770882 -0.17442838890294446 1.1760210930290145 0 0 0 0.13 0 50 1 8 81 3 120 18 160 33 
51 0.07445790347795285 -0.17713608293729005 1.216829682001242 0 0 0 0.38 0 51 3 8 33 12 50 17 67 6 73 5 81 4 160 34 
52 0.03969462407409107 -0.17329134963618859 1.2087388612028303 0 0 0 0.08 0 52 50 18 160 35 
53 -0.4907909166424166 -0.14309976736820154 1.022952585961638 0 0 0 0.16 0 53 11 19 160 36 
54 -0.4808894652666743 -0.13403632933938164 1.0280192665916126 0 0 0 0.29 0 54 1 9 3 9 73 6 81 5 85 3 96 13 118 19 
55 0.06491537826104517 -0.15473729578894846 1.2057637379732986 0 0 0 0.5 0 55 32 3 120 19 160 37 
56 0.06467786893899517 -0.1556612036149665 1.2137899748473198 0 0 0 0.24 0 56 60 2 120 20 160 38 
57 -0.07858129391212179 -0.1369216310382396 1.1468749035360468 0 0 0 0.28 0 57 11 20 17 15 41 3 81 6 111 9 120 21 160 39 
58 -0.15236628506119973 -0.1323675433187827 1.1226146283452372 0 0 0 0.2 0 58 3 10 11 21 50 19 120 22 160 40 
59 -0.15765495171795832 -0.12879661602346668 1.132363362074377 0 0 0 0.39 0 59 17 16 50 20 120 23 160 41 
60 -0.07305499721518481 -0.12894521992271782 1.147399698891682 0 0 0 0.16 0 60 50 21 120 24 160 42 
61 -0.014785377028096524 -0.11876159008534724 1.1705158105093474 0 0 0 0.26 0 61 1 10 15 8 44 8 118 20 120 25 160 43 
62 0.004155558931940697 -0.11123645941079802 1.1903694414659132 0 0 0 0.23 0 62 44 9 96 14 160 44 
63 -0.026180928092163557 -0.06824635295024177 1.1658053735200755 0 0 0 0.27 0 63 15 9 112 3 120 26 160 45 
64 -0.11438275957602344 -0.021473550767089077 1.1206144255372068 0 0 0 0.43 0 64 11 22 15 10 64 2 112 4 120 27 
65 -0.1284666723329237 -0.01386354107012599 1.1183232472411546 0 0 0 0.22 0 65 1 11 11 23 15 11 17 17 29 3 33 13 38 2 44 10 50 22 77 8 85 4 110 2 118 21 120 28 160 46 
66 -0.12322583678012722 -0.014127956001897353 1.1185709696501875 0 0 0 0.37 0 66 1 12 11 24 15 12 17 18 29 4 50 23 110 3 112 5 118 22 120 29 160 47 
67 -0.1185440396727287 -0.010897108264283598 1.1184172069576108 0 0 0 0.44 0 67 3 11 27 8 43 5 53 9 63 2 85 5 96 15 97 12 111 10 112 6 120 30 127 5 
68 -0.22679290870257007 -0.20719320311913383 1.1101193129352527 0 0 0 0.35 0 68 17 19 160 48 
69 -0.10551131798749999 -0.22283635326376186 1.2059921704045982 0 0 0 0.32 0 69 118 23 160 49 
70 -0.3836036223024922 -0.1787374046465529 1.050962329122486 0 0 0 0.33 0 70 1 13 3 12 27 9 41 4 50 24 65 3 96 16 111 11 
71 -0.374900754172941 -0.17986480849654995 1.0608972721028236 0 0 0 0.53 0 71 1 14 11 25 63 3 67 7 77 9 81 7 85 6 160 50 
72 -0.19738190204767542 -0.18608158942889208 1.1049169724199384 0 0 0 0.34 0 72 1 15 3 13 11 26 15 13 17 20 27 10 33 14 38 3 43 6 44 11 50 25 53 10 63 4 71 7 77 10 81 8 85 7 92 2 97 13 111 12 112 7 118 24 160 51 
73 0.00010961304507791411 -0.19061010514501406 1.214253311635892 0 0 0 0.04 0 73 50 26 160 52 
74 -0.24517920307775867 -0.16586310820129838 1.0898285278505566 0 0 0 0.86 0 74 1 16 3 14 11 27 33 15 44 12 67 8 71 8 88 1 96 17 97 14 111 13 112 8 
75 -0.11456529168330928 -0.16975234892134655 1.1376108079825018 0 0 0 0.44 0 75 3 15 11 28 17 21 27 11 32 4 33 16 44 13 50 27 53 11 73 7 77 11 81 9 85 8 96 18 97 15 110 4 111 14 112 9 118 25 120 31 160 53 
76 -0.15231212328065152 -0.16339385152931285 1.1232786523890754 0 0 0 0.42 0 76 1 17 27 12 33 17 44 14 50 28 73 8 77 12 81 10 111 15 160 54 
77 -0.22041019833281475 -0.15831929620373048 1.096230147735368 0 0 0 0.39 0 77 1 18 15 14 27 13 32 5 33 18 38 4 43 7 44 15 50 29 63 5 71 9 85 9 92 3 112 10 118 26 127 6 160 55 
78 -0.47458122805219355 -0.14129111699630667 1.0252300976998139 0 0 0 0.22 0 78 17 22 160 56 
79 0.03669873683267038 -0.164697752026091 1.2050555220344996 0 0 0 0.26 0 79 15 15 50 30 81 11 120 32 160 57 
80 0.10407510724224095 -0.16255166268566273 1.235575758304818 0 0 0 0.45 0 80 3 16 11 29 15 16 27 14 50 31 92 4 118 27 120 33 160 58 
81 -0.18973199266559707 -0.1391305195202468 1.1039986937804565 0 0 0 0.27 0 81 43 8 63 6 81 12 88 2 92 5 120 34 160 59 
82 -0.09268041725646982 -0.1355719697466562 1.1420140403991168 0 0 0 0.36 0 82 1 19 3 17 29 5 32 6 33 19 38 5 41 5 43 9 44 16 50 32 60 3 63 7 73 9 85 10 92 6 111 16 120 35 160 60 
83 -0.17297055502579153 -0.12943344584965302 1.1095356949124182 0 0 0 0.25 0 83 3 18 11 30 15 17 17 23 50 33 118 28 120 36 160 61 
84 -0.07603222539739192 -0.12062369342622302 1.1486111938961567 0 0 0 0.3 0 84 1 20 3 19 11 31 15 18 17 24 29 6 50 34 63 8 71 10 73 10 111 17 118 29 160 62 
85 -0.10555726605483061 -0.07680716964695103 1.132070206210937 0 0 0 0.22 0 85 77 13 111 18 
86 -0.06306212674401854 -0.06392019496141844 1.147313678051668 0 0 0 0.25 0 86 11 32 17 25 27 15 29 7 41 6 50 35 63 9 77 14 97 16 118 30 120 37 160 63 
87 -0.00034159299250539795 -0.0620875478054704 1.1821198860792612 0 0 0 0.25 0 87 50 36 160 64 
88 -0.035864703836973585 -0.020364152240207444 1.1511959161269159 0 0 0 0.14 0 88 50 37 53 12 120 38 160 65 
89 -0.4902007045756363 -0.2130615365790481 1.0621105514994116 0 0 0 0.82 0 89 17 26 27 16 50 38 73 11 118 31 160 66 
90 -0.4221603204258063 -0.20679674184025093 1.0503098172311198 0 0 0 0.28 0 90 1 21 11 33 33 20 81 13 88 3 160 67 
91 -0.3374778695862052 -0.20477474552145664 1.0710998088165018 0 0 0 0.28 0 91 1 22 11 34 67 9 81 14 88 4 160 68 
92 -0.45709102354174874 -0.1811645014115755 1.0357189340136383 0 0 0 0.26 0 92 1 23 33 21 50 39 53 13 97 17 
93 -0.41079493253348504 -0.1806059012061831 1.0516472482627683 0 0 0 0.39 0 93 1 24 3 20 11 35 33 22 50 40 67 10 77 15 81 15 88 5 160 69 
94 -0.44399283068912104 -0.17439051576972153 1.0408475681462226 0 0 0 0.33 0 94 1 25 33 23 50 41 96 19 97 18 118 32 
95 -0.42268575984144496 -0.17309403541922833 1.041753650391668 0 0 0 0.23 0 95 1 26 3 21 17 27 67 11 81 16 88 6 96 20 
96 -0.06946500814773117 -0.18125940564475673 1.1570609450688474 0 0 0 0.58 0 96 1 27 11 36 88 7 97 19 127 7 160 70 
97 -0.46874130436766964 -0.14787784975454238 1.0288476881548114 0 0 0 0.23 0 97 1 28 3 22 11 37 17 28 32 7 33 24 41 7 64 3 71 11 81 17 88 8 92 7 111 19 118 33 
98 -0.3641295841020236 -0.1454546407683289 1.0544448841214966 0 0 0 0.29 0 98 1 29 11 38 17 29 33 25 41 8 44 17 50 42 53 14 65 4 67 12 77 16 111 20 118 34 
99 -0.39618480533246875 -0.1398054324429524 1.0477084546244908 0 0 0 0.16 0 99 50 43 160 71 
100 -0.5000681497173323 -0.1320821672635008 1.0215511344668244 0 0 0 0.2 0 100 1 30 12 3 17 30 50 44 67 13 92 8 118 35 
101 -0.49983636131816966 -0.13204080900044632 1.021324107404568 0 0 0 0.25 0 101 1 31 3 23 12 4 17 31 41 9 43 10 50 45 53 15 64 4 67 14 81 18 92 9 96 21 111 21 118 36 
102 -0.08642730268853847 -0.14721308900780508 1.1467311891847696 0 0 0 0.3 0 102 1 32 3 24 11 39 15 19 17 32 27 17 29 8 43 11 44 18 50 46 53 16 60 4 63 10 65 5 71 12 73 12 77 17 81 19 85 11 96 22 111 22 112 11 118 37 120 39 127 8 160 72 
103 -0.001382310483627077 -0.14763461338418876 1.1775551683696766 0 0 0 0.69 0 103 1 33 11 40 12 5 15 20 27 18 33 26 53 17 71 13 73 13 77 18 81 20 85 12 92 10 96 23 120 40 127 9 160 73 
104 -0.4931621658624449 -0.12454995899736118 1.0196017195728122 0 0 0 0.38 0 104 1 34 3 25 11 41 17 33 27 19 43 12 44 19 53 18 65 6 67 15 71 14 77 19 81 21 88 9 96 24 97 20 111 23 118 38 
105 -0.06285249249728538 -0.1348365088866187 1.1573833543976941 0 0 0 0.44 0 105 3 26 11 42 17 34 29 9 41 10 77 20 81 22 97 21 160 74 
106 0.0897879250165818 0.0038662081060000823 1.2030213500404439 0 0 0 0.33 0 106 81 23 160 75 
107 -0.35610750284616194 -0.19628351413204687 1.054839428063294 0 0 0 1.04 0 107 11 43 33 27 81 24 118 39 160 76 
108 0.05787288405305928 -0.19146258869020924 1.2164362233532715 0 0 0 0.49 0 108 27 20 53 19 63 11 96 25 110 5 120 41 160 77 
109 -0.04546402692276018 -0.16796474492239793 1.1660496562883826 0 0 0 0.33 0 109 3 27 12 6 41 11 50 47 53 20 64 5 111 24 120 42 
110 0.04509489483478723 -0.1635694768970358 1.2034942014398897 0 0 0 0.36 0 110 11 44 15 21 27 21 33 28 50 48 71 15 77 21 81 25 112 12 120 43 127 10 160 78 
111 -0.07324365066641494 -0.14807166604731628 1.150337270477993 0 0 0 0.59 0 111 1 35 3 28 11 45 15 22 17 35 27 22 29 10 33 29 44 20 50 49 60 5 71 16 73 14 77 22 81 26 96 26 111 25 118 40 127 11 160 79 
112 -0.07322425649097693 -0.14749829748094836 1.1476642239864938 0 0 0 0.77 0 112 3 29 17 36 44 21 50 50 53 21 60 6 65 7 73 15 111 26 
113 -0.211308501767895 -0.1888233649817969 1.0895329293325924 0 0 0 0.15 0 113 17 37 160 80 
114 -0.41897446745033395 -0.18016540731588251 1.0479132863987417 0 0 0 0.26 0 114 1 36 11 46 12 7 32 8 33 30 50 51 67 16 71 17 81 27 118 41 160 81 
115 -0.4183745159256648 -0.18017938492029575 1.046838673659264 0 0 0 0.31 0 115 1 37 3 30 11 47 33 31 44 22 50 52 64 6 67 17 71 18 77 23 81 28 92 11 96 27 118 42 160 82 
116 -0.45884290455834914 -0.1635979461733251 1.027200345266772 0 0 0 0.34 0 116 3 31 11 48 12 8 27 23 33 32 50 53 53 22 67 18 71 19 81 29 96 28 118 43 
117 -0.03201800779635187 -0.16925153182105757 1.172624328577833 0 0 0 0.45 0 117 1 38 3 32 11 49 12 9 53 23 63 12 71 20 96 29 118 44 120 44 
118 -0.017933290526532242 -0.148333734368121 1.170546635772791 0 0 0 0.93 0 118 15 23 32 9 44 23 50 54 110 6 120 45 160 83 
119 0.04079084494914535 -0.14818921872025562 1.1983983093013428 0 0 0 0.51 0 119 12 10 33 33 53 24 67 19 81 30 85 13 120 46 127 12 160 84 
120 0.08984518332497551 -0.1338623156139706 1.2229398158313618 0 0 0 0.26 0 120 50 55 160 85 
121 -0.06292969347013178 -0.0701652597083068 1.146329054909151 0 0 0 0.27 0 121 118 45 160 86 
122 -0.43516266699363587 -0.20953042585445386 1.0506350874892847 0 0 0 0.42 0 122 1 39 3 33 11 50 27 24 43 13 50 56 53 25 81 31 118 46 
123 -0.4330480034797678 -0.18319317932420154 1.0419673085587042 0 0 0 0.39 0 123 1 40 11 51 43 14 50 57 81 32 88 10 160 87 
124 -0.43300128646578206 -0.18294682909507082 1.0418905860828847 0 0 0 0.52 0 124 1 41 3 34 11 52 50 58 88 11 96 30 97 22 118 47 
125 -0.1647262216846076 -0.19904143714740427 1.1258155772683802 0 0 0 0.29 0 125 53 26 160 88 
126 -0.46737723397615294 -0.1511790413085338 1.0272825319634635 0 0 0 0.46 0 126 1 42 11 53 12 11 50 59 73 16 77 24 92 12 96 31 97 23 
127 -0.09042874906050921 -0.1640154200387508 1.1424691324849423 0 0 0 0.47 0 127 3 35 15 24 27 25 32 10 44 24 50 60 63 13 77 25 85 14 92 13 118 48 127 13 160 89 
128 -0.04770503309291698 -0.14934553435939263 1.1638736735388708 0 0 0 0.48 0 128 3 36 32 11 44 25 50 61 60 7 73 17 120 47 160 90 
129 -0.045915097555956394 -0.13305027823000506 1.1593766645683017 0 0 0 0.46 0 129 29 11 63 14 65 8 71 21 97 24 118 49 120 48 
130 -0.03263453533401975 -0.1195688357300937 1.1725449605180331 0 0 0 0.98 0 130 12 12 43 15 50 62 64 7 
131 -0.1427476408355599 -0.10891199128552101 1.1250920615650224 0 0 0 0.65 0 131 32 12 50 63 64 8 160 91 
132 0.0615241256508523 -0.12205841176789217 1.2613307822224977 0 0 0 0.31 0 132 50 64 160 92 
133 -0.11130663784169331 -0.10756943479311536 1.1385826843297577 0 0 0 0.26 0 133 32 13 160 93 
134 -0.07944439706593667 -0.10533782926841664 1.1481934368645386 0 0 0 0.38 0 134 32 14 50 65 111 27 160 94 
135 -0.048336100109525826 -0.10548612848520648 1.1607477556892072 0 0 0 0.18 0 135 111 28 160 95 
136 0.013241276886968474 -0.10390633656361778 1.1934726961513946 0 0 0 0.43 0 136 44 26 160 96 
137 -0.09557660140894139 -0.09858192502543943 1.1403412468705545 0 0 0 0.41 0 137 1 43 50 66 77 26 120 49 160 97 
138 -0.09531233720223772 -0.09852119292594752 1.1398436613866896 0 0 0 0.44 0 138 1 44 50 67 77 27 97 25 160 98 
139 -0.03220263727474063 -0.06655160382580329 1.1590284286798376 0 0 0 0.22 0 139 120 50 160 99 
140 -0.0021031723458956077 -0.06693041697726375 1.1805287688673214 0 0 0 0.52 0 140 27 26 44 27 160 100 
141 -0.0019083868959780686 -0.0668228953514206 1.1765716258237582 0 0 0 0.63 0 141 17 38 27 27 44 28 71 22 112 13 118 50 120 51 160 101 
142 -0.03190688919858292 -0.0491299229873204 1.1587922312348458 0 0 0 0.37 0 142 120 52 160 102 
143 -0.03190688919858292 -0.0491299229873204 1.1587922312348458 0 0 0 0.37 0 143 120 53 160 103 
144 -0.0028684581125650276 -0.04920517777933934 1.170107388261024 0 0 0 0.37 0 144 11 54 118 51 160 104 
145 -0.0028684581125650276 -0.04920517777933934 1.170107388261024 0 0 0 0.37 0 145 11 55 118 52 160 105 
146 0.028451515103357514 -0.024791154144994516 1.1802770166637364 0 0 0 0.2 0 146 118 53 120 54 160 106 
147 0.02844557640596903 -0.02495091015429899 1.1822986679430734 0 0 0 0.24 0 147 11 56 15 25 118 54 120 55 160 107 
148 -0.18337743063825804 -0.17966511348353342 1.1110297294167781 0 0 0 0.39 0 148 1 45 17 39 43 16 50 68 85 15 120 56 160 108 
149 -0.0638698195893047 -0.12159324330333376 1.1587422014464872 0 0 0 0.72 0 149 12 13 27 28 50 69 160 109 
150 -0.016194406482592995 -0.07772294423497225 1.169549218914921 0 0 0 0.34 0 150 1 46 15 26 27 29 73 18 92 14 120 57 
151 -0.08527112854929442 -0.18563384415252396 1.1517145105913598 0 0 0 1.02 0 151 3 37 53 27 64 9 65 9 73 19 81 33 92 15 96 32 120 58 
152 -0.11433527818186519 -0.14791365062915043 1.1289892547815827 0 0 0 1.17 3 38 29 12 65 10 88 12 97 26 118 55 160 110 
153 -0.237658190252268 -0.2185166224704821 1.131308229371077 0 0 0 0.68 1 47 3 39 11 57 15 27 67 20 81 34 
154 -0.12744207519545256 -0.19133081742345046 1.1277614065241763 0 0 0 0.28 1 48 3 40 11 58 15 28 17 40 27 30 32 15 33 34 50 70 53 28 60 8 63 15 71 23 77 28 96 33 118 56 120 59 127 14 160 111 
155 -0.1675790789182931 -0.1889550762168925 1.1178113750287333 0 0 0 0.41 1 49 11 59 15 29 17 41 27 31 33 35 77 29 112 14 118 57 
156 -0.19904413689893802 -0.18093596611427137 1.1064929962151853 0 0 0 0.29 1 50 15 30 27 32 96 34 160 112 
157 0.04274430171677686 -0.13810941107422553 1.1984250390095788 0 0 0 0.28 1 51 3 41 11 60 27 33 33 36 60 9 96 35 111 29 120 60 
158 -0.15794903158233556 -0.17012160766867568 1.1212451105504013 0 0 0 0.3 1 52 15 31 17 42 27 34 38 6 44 29 50 71 77 30 112 15 118 58 120 61 160 113 
159 -0.15711328398476684 -0.1695042933440509 1.118463479394616 0 0 0 0.38 1 53 15 32 27 35 38 7 44 30 77 31 120 62 127 15 160 114 
160 0.013714991217449542 -0.13912830025835188 1.1875303655118707 0 0 0 0.3 1 54 29 13 50 72 67 21 110 7 111 30 112 16 120 63 127 16 160 115 
161 -0.00643270610851782 -0.13995637467835564 1.178822638502849 0 0 0 0.31 1 55 3 42 11 61 43 17 44 31 50 73 77 32 85 16 92 16 160 116 
162 -0.155416402157666 -0.15850586858614418 1.1200092405108921 0 0 0 0.26 1 56 15 33 27 36 44 32 50 74 73 20 77 33 111 31 112 17 118 59 120 64 160 117 
163 -0.43492154240851655 -0.1977055705990264 1.040907319517211 0 0 0 0.22 1 57 11 62 17 43 67 22 
164 -0.43490448865975173 -0.17531006035164862 1.0470578656358436 0 0 0 0.46 1 58 11 63 43 18 81 35 160 118 
165 -0.10195524840337915 -0.08934396620044543 1.130603393106345 0 0 0 0.33 1 59 3 43 11 64 118 60 120 65 160 119 
166 -0.07475214326425487 -0.2045361414188881 1.1634563082699332 0 0 0 0.73 1 60 15 34 41 12 
167 -0.006941480545144825 -0.18718663493455065 1.1745573004185914 0 0 0 0.49 1 61 97 27 120 66 160 120 
168 -0.016009561083377432 -0.18018950545020238 1.1784451369885223 0 0 0 0.04 1 62 120 67 160 121 
169 -0.265173081147724 -0.21985668365451277 1.087795178648775 0 0 0 0.25 1 63 12 14 43 19 53 29 81 36 96 36 
170 -0.08804636348866661 -0.17357098483434222 1.1477806111717945 0 0 0 0.44 1 64 3 44 11 65 15 35 27 37 44 33 50 75 77 34 81 37 96 37 118 61 160 122 
171 -0.3208126962119751 -0.19710164464482466 1.07141522214613 0 0 0 0.41 1 65 11 66 27 38 32 16 33 37 63 16 71 24 81 38 88 13 96 38 160 123 
172 -0.3273851572770954 -0.19750018589330995 1.071674514765993 0 0 0 0.29 1 66 3 45 11 67 27 39 41 13 50 76 53 30 65 11 67 23 96 39 97 28 111 32 
173 -0.4270215463303212 -0.2029499627893556 1.0480767993788778 0 0 0 0.32 1 67 3 46 12 15 33 38 41 14 43 20 44 34 64 10 71 25 77 35 81 39 88 14 92 17 96 40 
174 -0.4791144506627926 -0.20725173926974055 1.0659407971105839 0 0 0 0.18 1 68 3 47 50 77 53 31 118 62 
175 -0.3481657562875141 -0.1781518084701904 1.0606080219200702 0 0 0 0.28 1 69 11 68 27 40 50 78 53 32 63 17 67 24 111 33 
176 -0.3796846364656369 -0.1785902869152017 1.056159002741989 0 0 0 0.17 1 70 11 69 33 39 50 79 65 12 67 25 81 40 118 63 160 124 
177 -0.3797255747923457 -0.17860995778955177 1.0561934948018687 0 0 0 0.19 1 71 11 70 17 44 33 40 50 80 65 13 81 41 118 64 160 125 
178 -0.15309008776209082 -0.1373960950122975 1.1178977322250316 0 0 0 0.25 1 72 44 35 50 81 81 42 120 68 160 126 
179 -0.4432718086609075 -0.13663560735378516 1.0209364768453544 0 0 0 0.15 1 73 3 48 60 10 81 43 
180 -0.12144446735048411 -0.07228871804356135 1.1322824313132753 0 0 0 0.16 1 74 120 69 160 127 
181 -0.05429336788386807 -0.1960170419790835 1.1705607050855609 0 0 0 0.44 1 75 71 26 81 44 97 29 118 65 120 70 160 128 
182 0.013965735146489574 -0.164344941634535 1.190777016670911 0 0 0 0.24 1 76 3 49 11 71 15 36 44 36 50 82 71 27 81 45 85 17 120 71 160 129 
183 0.014028592931750999 -0.1642389352191224 1.1905858488513277 0 0 0 0.25 1 77 11 72 15 37 27 41 44 37 50 83 77 36 85 18 112 18 120 72 160 130 
184 -0.011252877992622937 -0.16550360806604814 1.1803916529761251 0 0 0 0.35 1 78 127 17 160 131 
185 -0.15435940035922915 -0.1778183843331031 1.1250803630264345 0 0 0 0.23 1 79 50 84 77 37 120 73 160 132 
186 -0.18245762812488409 -0.1787343079746749 1.1118557846790005 0 0 0 0.26 1 80 11 73 17 45 33 41 50 85 88 15 120 74 160 133 
187 -0.21292967518037687 -0.18182710269946714 1.1006656376546387 0 0 0 0.41 1 81 15 38 50 86 77 38 88 16 97 30 111 34 112 19 127 18 
188 -0.15257012199505937 -0.16355962585020412 1.1227704912600232 0 0 0 0.45 1 82 15 39 27 42 33 42 38 8 50 87 77 39 127 19 160 134 
189 -0.2378197288478583 -0.16240743092278045 1.089536844536978 0 0 0 0.32 1 83 3 50 11 74 33 43 38 9 44 38 50 88 63 18 71 28 77 40 85 19 88 17 96 41 111 35 118 66 127 20 160 135 
190 -0.10972013733621667 -0.12761189066774262 1.1339763039291895 0 0 0 0.43 1 84 3 51 11 75 15 40 38 10 50 89 120 75 160 136 
191 -0.4776451871172435 -0.18328554353393298 1.0478619841890449 0 0 0 0.59 1 85 11 76 53 33 96 42 
192 -0.45824723579971266 -0.17284240192808514 1.0317503510408446 0 0 0 0.57 1 86 3 52 50 90 67 26 81 46 96 43 97 31 
193 -0.39203102851430943 -0.14572603835776618 1.0462441494288772 0 0 0 0.36 1 87 3 53 11 77 50 91 53 34 81 47 92 18 118 67 160 137 
194 -0.49429970477484664 -0.12316463102512686 1.0007117152215466 0 0 0 0.22 1 88 53 35 97 32 
195 -0.046534936515601796 -0.013629126985753222 1.1488896995204436 0 0 0 0.5 1 89 53 36 65 14 96 44 160 138 
196 -0.23371983004661717 -0.17131808753585617 1.092058856656226 0 0 0 0.24 1 90 11 78 17 46 38 11 67 27 71 29 97 33 111 36 112 20 118 68 127 21 
197 -0.0497759318945459 -0.006783267329166517 1.1629196770852244 0 0 0 0.41 1 91 15 41 118 69 
198 -0.19406178831988588 -0.21269425380720075 1.1143702623249525 0 0 0 1.44 1 92 11 79 15 42 44 39 53 37 77 41 85 20 118 70 
199 0.018119579686265375 -0.1476475613767877 1.1875960755383452 0 0 0 0.68 1 93 11 80 12 16 15 43 27 43 32 17 33 44 44 40 50 92 53 38 67 28 71 30 73 21 77 42 81 48 85 21 92 19 96 45 118 71 120 76 127 22 160 139 
200 0.032053659341695934 -0.1345418179734215 1.189676215259689 0 0 0 0.62 1 94 27 44 29 14 63 19 67 29 71 31 77 43 96 46 97 34 118 72 127 23 
201 -0.08038728698348215 -0.13668364303815678 1.1488173949882987 0 0 0 0.77 1 95 11 81 15 44 17 47 29 15 33 45 44 41 50 93 77 44 81 49 111 37 118 73 120 77 160 140 
202 -0.1390808119388545 -0.17371775527656003 1.128680319986388 0 0 0 1.43 1 96 3 54 15 45 27 45 43 21 53 39 63 20 81 50 85 22 88 18 
203 -0.44882642415487223 -0.14923322409559883 1.0288436173569644 0 0 0 0.18 1 97 17 48 27 46 
204 -0.06345164951124538 -0.048015960360886005 1.1438056334187445 0 0 0 0.35 1 98 120 78 160 141 
205 -0.06345164951124538 -0.048015960360886005 1.1438056334187445 0 0 0 0.35 1 99 120 79 160 142 
206 -0.1059107248603496 -0.23763272705469227 1.1999415649793657 0 0 0 0.28 3 55 15 46 41 15 53 40 97 35 118 74 
207 -0.02558145986695449 -0.2004157048745731 1.1779245157675093 0 0 0 0.2 3 56 11 82 15 47 33 46 120 80 160 143 
208 -0.20870442926740593 -0.19625340815600203 1.09672847365511 0 0 0 0.39 3 57 11 83 15 48 17 49 27 47 50 94 60 11 71 32 96 47 160 144 
209 -0.12315359029478921 -0.18973021264402057 1.1308169071127352 0 0 0 0.28 3 58 11 84 15 49 43 22 60 12 71 33 96 48 111 38 160 145 
210 -0.11463572873603851 -0.1859855057852321 1.1324221532133267 0 0 0 0.44 3 59 11 85 17 50 27 48 33 47 60 13 110 8 118 75 160 146 
211 -0.1365150231805477 -0.18513934831131254 1.129505037739797 0 0 0 0.31 3 60 11 86 17 51 27 49 32 18 33 48 44 42 50 95 60 14 77 45 85 23 96 49 110 9 112 21 118 76 160 147 
212 -0.11065257688010756 -0.1838283448920868 1.1351195026595693 0 0 0 0.25 3 61 11 87 60 15 71 34 96 50 160 148 
213 -0.2358253818365081 -0.18466139456344524 1.0842339444026585 0 0 0 0.36 3 62 17 52 60 16 71 35 96 51 111 39 112 22 118 77 160 149 
214 -0.43639155208056946 -0.19078646371532307 1.0432707575924884 0 0 0 0.24 3 63 33 49 41 16 160 150 
215 -0.17682425531510484 -0.17593878108812797 1.1119057906892498 0 0 0 0.13 3 64 53 41 120 81 160 151 
216 -0.12060469868766951 -0.16908216609795484 1.1357127126338205 0 0 0 0.26 3 65 32 19 43 23 96 52 97 36 120 82 160 152 
217 0.0725228755981551 -0.16247069083677468 1.2104615390173248 0 0 0 0.24 3 66 33 50 73 22 111 40 120 83 160 153 
218 -0.3801759870167448 -0.16951781854747497 1.0534960806066718 0 0 0 0.49 3 67 50 96 160 154 
219 -0.19050258817215582 -0.15999758486678214 1.1097032200533115 0 0 0 0.17 3 68 71 36 160 155 
220 0.014301524978177564 -0.1545927301215364 1.1843718024776924 0 0 0 0.29 3 69 11 88 50 97 96 53 118 78 120 84 160 156 
221 -0.4599320577165079 -0.16821919106484778 1.0301836619383948 0 0 0 0.18 3 70 11 89 118 79 160 157 
222 -0.45397161581636186 -0.16803256645761905 1.0326773423118774 0 0 0 0.4 3 71 11 90 50 98 160 158 
223 -0.03805093778907902 -0.15388869679986739 1.1623490342161344 0 0 0 0.51 3 72 32 20 60 17 64 11 111 41 120 85 160 159 
224 -0.01517967481145155 -0.152524788230012 1.1681765978896996 0 0 0 0.25 3 73 50 99 120 86 160 160 
225 -0.028771384055286262 -0.15293122019649968 1.16368995907161 0 0 0 0.27 3 74 17 53 50 100 120 87 160 161 
226 0.013456641066339354 -0.15148057424899067 1.1827675081612048 0 0 0 0.3 3 75 11 91 50 101 96 54 160 162 
227 -0.08280251090345998 -0.15039305880590959 1.1476354370005606 0 0 0 0.35 3 76 27 50 33 51 50 102 96 55 120 88 160 163 
228 -0.046878463985471484 -0.14475359962300546 1.1627731153720782 0 0 0 0.49 3 77 60 18 120 89 127 24 160 164 
229 -0.06296627845723039 -0.1419385048918333 1.1536866900167375 0 0 0 0.59 3 78 11 92 15 50 17 54 27 51 33 52 50 103 73 23 77 46 96 56 97 37 120 90 
230 -0.13831585405680924 -0.14179098802617143 1.1271380648093021 0 0 0 0.34 3 79 12 17 15 51 33 53 44 43 160 165 
231 -0.04658587235472145 -0.13812180635559096 1.1643699762549122 0 0 0 0.15 3 80 33 54 160 166 
232 -0.3805165328428325 -0.14701793131520732 1.0483200339507612 0 0 0 0.12 3 81 67 30 111 42 160 167 
233 -0.37402329708725035 -0.1470353982383756 1.0527699749378268 0 0 0 0.29 3 82 41 17 67 31 111 43 160 168 
234 -0.009075614917475456 -0.07747141496305354 1.173747087303838 0 0 0 0.3 3 83 111 44 160 169 
235 0.034442443519761876 -0.06662635854218413 1.199781277982917 0 0 0 0.21 3 84 53 42 96 57 120 91 160 170 
236 0.020369868437373644 -0.007091152239292577 1.1761090436978647 0 0 0 0.1 3 85 15 52 160 171 
237 -0.18822893033047702 -0.18854124605156625 1.1104381978830251 0 0 0 0.46 3 86 11 93 27 52 43 24 77 47 92 20 97 38 120 92 160 172 
238 -0.43275957211566624 -0.1938989072700977 1.0425429127020829 0 0 0 0.17 3 87 17 55 27 53 50 104 111 45 160 173 
239 -0.0469500236960414 -0.17608809441146275 1.165812384940221 0 0 0 0.18 3 88 112 23 118 80 160 174 
240 -0.19043430092660085 -0.16983901362177886 1.1084184142438438 0 0 0 0.75 3 89 15 53 33 55 44 44 50 105 85 24 92 21 111 46 118 81 120 93 160 175 
241 -0.22921436112929147 -0.16615974336962608 1.0932051303513277 0 0 0 0.1 3 90 11 94 63 21 71 37 118 82 
242 -0.045310574199870564 -0.16003745878347156 1.165085273756863 0 0 0 0.39 3 91 11 95 17 56 50 106 120 94 160 176 
243 0.06587313396019027 -0.1503503270963558 1.2063050937089321 0 0 0 0.4 3 92 44 45 111 47 120 95 127 25 160 177 
244 -0.39143755587858575 -0.15340191485051763 1.049893071197254 0 0 0 0.27 3 93 11 96 27 54 32 21 33 56 43 25 53 43 96 58 111 48 118 83 160 178 
245 0.0521881787067463 -0.13801992439742145 1.2040738093192969 0 0 0 0.33 3 94 15 54 27 55 33 57 43 26 44 46 50 107 60 19 67 32 71 38 77 48 92 22 96 59 120 96 127 26 160 179 
246 0.0179163418662633 -0.13625166141623096 1.1928261148395547 0 0 0 0.35 3 95 11 97 53 44 67 33 97 39 120 97 
247 -0.07368979853674326 -0.13392445129392228 1.1503399208140495 0 0 0 0.19 3 96 15 55 33 58 41 18 50 108 60 20 111 49 120 98 160 180 
248 -0.17884145410029517 -0.1341473907629068 1.1084961656021313 0 0 0 0.19 3 97 15 56 44 47 50 109 118 84 120 99 160 181 
249 -0.18329790766390142 -0.13352299932057296 1.1078601512571413 0 0 0 0.44 3 98 44 48 118 85 160 182 
250 0.12372417717409452 -0.0744304297675743 1.2298754212559 0 0 0 0.26 3 99 12 18 15 57 50 110 53 45 63 22 67 34 111 50 118 86 120 100 
251 0.12392087870170629 -0.06292815085534573 1.229437518538044 0 0 0 0.3 3 100 11 98 15 58 17 57 50 111 53 46 
252 0.12346759113752692 -0.006190103502484822 1.2164855792981695 0 0 0 0.3 3 101 15 59 50 112 67 35 120 101 
253 -0.08308732342095144 -0.011353590767384653 1.132827483856164 0 0 0 0.14 3 102 112 24 160 183 
254 0.03618322114829901 0.033519978278407636 1.1774869943704642 0 0 0 0.36 3 103 11 99 15 60 17 58 33 59 43 27 50 113 53 47 63 23 71 39 73 24 77 49 96 60 111 51 118 87 120 102 127 27 
255 -0.32701069689160656 -0.1974026468393855 1.071040554850433 0 0 0 0.33 3 104 11 100 27 56 41 19 50 114 64 12 96 61 97 40 111 52 160 184 
256 -0.3238035025773943 -0.19262894698435737 1.0704578643819556 0 0 0 0.12 3 105 81 51 111 53 160 185 
257 -0.13457335042464466 -0.1800765338208689 1.1318108636884499 0 0 0 0.27 3 106 15 61 27 57 32 22 33 60 38 12 44 49 63 24 77 50 85 25 111 54 160 186 
258 -0.4425673612608682 -0.18234078815006402 1.0433870702204442 0 0 0 0.64 3 107 33 61 41 20 65 15 73 25 81 52 96 62 
259 -0.43404669887027636 -0.18153247724972574 1.0452191014108563 0 0 0 0.18 3 108 53 48 71 40 118 88 
260 -0.16102084089720392 -0.13782487836728916 1.1165376495964445 0 0 0 0.37 3 109 11 101 12 19 17 59 43 28 44 50 50 115 92 23 110 10 111 55 118 89 120 103 160 187 
261 -0.12057927390972918 -0.1308880905847718 1.134394549784949 0 0 0 0.27 3 110 41 21 112 25 118 90 160 188 
262 -0.4498102057563762 -0.13847546990191337 1.0325256737903656 0 0 0 0.34 3 111 81 53 160 189 
263 0.07487236725420877 -0.012370934730878493 1.1959345415187894 0 0 0 0.39 3 112 33 62 44 51 50 116 160 190 
264 0.015061528640320496 -0.01451637582319371 1.1701305474857284 0 0 0 0.4 3 113 96 63 160 191 
265 0.015061528640320496 -0.01451637582319371 1.1701305474857284 0 0 0 0.4 3 114 96 64 160 192 
266 -0.1203200767202485 -0.19293484590306276 1.1232688526325725 0 0 0 1.17 3 115 11 102 15 62 65 16 160 193 
267 -0.06996497629837412 -0.16749508893974682 1.1548913428925427 0 0 0 0.49 3 116 17 60 33 63 41 22 60 21 63 25 64 13 65 17 71 41 73 26 77 51 96 65 111 56 112 26 120 104 127 28 160 194 
268 -0.040334725617202964 -0.15960771560484857 1.1705785636917574 0 0 0 0.07 3 117 53 49 73 27 
269 0.11857949662410315 -0.14626794359980472 1.2228219720245632 0 0 0 0.45 3 118 11 103 17 61 81 54 120 105 160 195 
270 -0.14178126307320085 -0.12920939665547915 1.1247752459488645 0 0 0 0.62 3 119 11 104 17 62 50 117 118 91 120 106 160 196 
271 -0.037746306806510685 -0.06827711892249742 1.156194770263533 0 0 0 0.22 3 120 27 58 160 197 
272 0.059837746948018106 0.040963468794569025 1.1844230506972 0 0 0 0.37 3 121 12 20 50 118 53 50 81 55 
273 -0.3674523442846868 -0.17256711096952831 1.0616681908819532 0 0 0 0.3 3 122 63 26 96 66 
274 -0.10587229593883932 -0.14583842483030335 1.14005917222515 0 0 0 0.62 3 123 12 21 44 52 50 119 81 56 127 29 160 198 
275 -0.03293248622723536 -0.19436963168012888 1.178578109108379 0 0 0 0.4 3 124 15 63 27 59 53 51 63 27 96 67 110 11 120 107 160 199 
276 -0.032635108472251304 -0.19458236210928925 1.1764413748934806 0 0 0 0.25 3 125 60 22 64 14 81 57 160 200 
277 -0.41635696451621435 -0.1654674043115416 1.0460164200048103 0 0 0 0.63 3 126 17 63 32 23 33 64 50 120 67 36 77 52 81 58 88 19 96 68 160 201 
278 0.04408058729635969 0.01735159484124225 1.1784838423494117 0 0 0 0.35 3 127 11 105 17 64 44 53 50 121 65 18 73 28 81 59 118 92 120 108 160 202 
279 0.04393400322052641 0.0174122026066886 1.182464150090258 0 0 0 0.35 3 128 11 106 15 64 17 65 33 65 44 54 50 122 65 19 81 60 118 93 120 109 160 203 
280 0.05899973842282413 0.017293409074839956 1.1880356952548285 0 0 0 0.31 3 129 50 123 81 61 118 94 160 204 
281 -0.43186948080964005 -0.21501734309409484 1.045124285457985 0 0 0 0.56 11 107 17 66 33 66 50 124 118 95 160 205 
282 -0.13703919982023993 -0.19869754386078328 1.1302098582583648 0 0 0 0.25 11 108 15 65 63 28 71 42 96 69 160 206 
283 -0.1013982716225114 -0.16702048621454665 1.134596414990461 0 0 0 0.32 11 109 77 53 160 207 
284 -0.4643032663011769 -0.15156778203493151 1.0276417365431159 0 0 0 0.22 11 110 53 52 160 208 
285 -0.1554255401924895 -0.13562789872479467 1.1211961997246684 0 0 0 0.38 11 111 118 96 160 209 
286 -0.03955925472202333 -0.20679491543534007 1.1710270368415499 0 0 0 0.18 11 112 15 66 160 210 
287 -0.2580004956557919 -0.20494520496585372 1.0887189651084872 0 0 0 0.3 11 113 67 37 71 43 77 54 96 70 
288 -0.44864654654159075 -0.20069268865784481 1.0411022847286058 0 0 0 0.3 11 114 71 44 160 211 
289 -0.4268160538882748 -0.1880025831029874 1.0458225193946364 0 0 0 0.2 11 115 27 60 53 53 160 212 
290 -0.16678889225423368 -0.18343196174494758 1.1195699586780021 0 0 0 0.27 11 116 15 67 17 67 27 61 33 67 38 13 50 125 71 45 73 29 77 55 112 27 127 30 160 213 
291 0.013962708365804993 -0.17587891623430024 1.1922094095295057 0 0 0 0.2 11 117 43 29 67 38 120 110 127 31 160 214 
292 -0.10806326497044846 -0.17138887567104905 1.1379711417646046 0 0 0 0.57 11 118 27 62 77 56 96 71 160 215 
293 -0.48114914155526683 -0.17109818416716324 1.016317932597718 0 0 0 0.18 11 119 53 54 97 41 
294 -0.3756284293538712 -0.16911954566216442 1.0526378542036379 0 0 0 0.16 11 120 118 97 160 216 
295 -0.43083789982226833 -0.16659751056497177 1.029999257745746 0 0 0 0.36 11 121 50 126 118 98 160 217 
296 0.02271832001806382 -0.15466676729635315 1.1914622960869217 0 0 0 0.21 11 122 33 68 50 127 120 111 160 218 
297 -0.18518122823648187 -0.151378621235001 1.1084520219934835 0 0 0 0.27 11 123 63 29 112 28 160 219 
298 -0.10012814017779248 -0.14773686258766017 1.141422006098515 0 0 0 0.33 11 124 15 68 33 69 38 14 50 128 118 99 120 112 160 220 
299 -0.3484588924541751 -0.14679348517542806 1.0590827687820659 0 0 0 0.42 11 125 27 63 33 70 50 129 160 221 
300 -0.48295584159201854 -0.1458893456658523 1.0197839039965229 0 0 0 0.64 11 126 118 100 160 222 
301 -0.06490661591419421 -0.1390868720240083 1.1560594902785168 0 0 0 0.29 11 127 27 64 118 101 160 223 
302 0.11830013445266187 -0.12943253174370925 1.2369461026609347 0 0 0 0.27 11 128 27 65 160 224 
303 -0.11824513352037443 -0.015555273949146919 1.1211703792827419 0 0 0 0.3 11 129 15 69 50 130 97 42 112 29 120 113 160 225 
304 -0.10140179875972401 -0.22617740244350817 1.1721376931757124 0 0 0 0.11 11 130 53 55 97 43 
305 -0.4258113611842977 -0.21177914604323322 1.0504053190107923 0 0 0 0.28 11 131 33 71 160 226 
306 -0.21060962097881009 -0.19828397440628667 1.0932318657672235 0 0 0 0.44 11 132 15 70 96 72 127 32 160 227 
307 -0.31706263648961586 -0.20139602114133515 1.076094964442723 0 0 0 0.33 11 133 27 66 33 72 71 46 88 20 97 44 118 102 
308 -0.030594941471569794 -0.18598247818955255 1.1724550773822566 0 0 0 0.18 11 134 50 131 120 114 160 228 
309 -0.019152014520814418 -0.18604174624618852 1.1788597889730947 0 0 0 0.25 11 135 33 73 160 229 
310 -0.24507179626259107 -0.17884215839200995 1.0799507446581071 0 0 0 0.23 11 136 71 47 96 73 118 103 160 230 
311 -0.17398805184619784 -0.15935001325800638 1.1118148442621285 0 0 0 0.34 11 137 17 68 71 48 112 30 120 115 160 231 
312 -0.4775677181904476 -0.15915385684042693 1.028735072219377 0 0 0 0.12 11 138 32 24 160 232 
313 -0.42821936536952016 -0.15417949706428383 1.039673979342186 0 0 0 0.26 11 139 32 25 50 132 71 49 92 24 96 74 111 57 118 104 160 233 
314 -0.12579066363969746 -0.1489290734678499 1.1312781173160649 0 0 0 0.14 11 140 97 45 160 234 
315 -0.0007805095753763156 -0.13971028601299765 1.1812179000167968 0 0 0 0.33 11 141 15 71 17 69 27 67 29 16 32 26 33 74 60 23 110 12 120 116 160 235 
316 -0.4105100661760186 -0.1409289959677576 1.0444809224590368 0 0 0 0.19 11 142 17 70 160 236 
317 0.11980951104523034 -0.1348086310882519 1.23489477986755 0 0 0 0.25 11 143 43 30 53 56 71 50 77 57 160 237 
318 -0.14750929679831906 -0.1336509686212236 1.121995437584346 0 0 0 0.14 11 144 15 72 120 117 160 238 
319 -0.039696064913576246 -0.0807364821724813 1.1610407478525515 0 0 0 0.24 11 145 33 75 50 133 160 239 
320 -0.026300850008142 -0.08073722341854582 1.1738092788169545 0 0 0 0.34 11 146 27 68 160 240 
321 -0.04603352512247338 -0.019904500589194834 1.1464899260146286 0 0 0 0.31 11 147 27 69 53 57 96 75 120 118 127 33 160 241 
322 -0.41477910579336263 -0.19459030132138402 1.049381924618209 0 0 0 0.3 11 148 17 71 27 70 43 31 81 62 160 242 
323 -0.3492807193215622 -0.18863634404371815 1.066624248494738 0 0 0 0.59 11 149 27 71 50 134 160 243 
324 -0.4612510009658973 -0.14154387926879622 1.032804703596209 0 0 0 0.2 11 150 111 58 160 244 
325 -0.1351523440089486 -0.22499791135021227 1.131069241647471 0 0 0 0.37 11 151 12 22 15 73 53 58 71 51 96 76 110 13 
326 0.10406215256766606 -0.16224822564512206 1.232734882521472 0 0 0 0.23 11 152 15 74 27 72 50 135 118 105 120 119 160 245 
327 0.040996125309835284 0.04278521354076027 1.1772911536773913 0 0 0 0.95 11 153 17 72 50 136 65 20 77 58 97 46 118 106 120 120 
328 -0.14811658118378979 -0.22711445331778837 1.1362796977775484 0 0 0 0.61 11 154 118 107 120 121 160 246 
329 -0.05494994856362852 -0.1794722333465463 1.1659980165034862 0 0 0 0.43 11 155 92 25 120 122 160 247 
330 -0.09817449186294046 -0.13033213852500553 1.1478516161792847 0 0 0 0.35 11 156 15 75 17 73 50 137 160 248 
331 -0.044870952588977886 -0.006670299894277674 1.1409821267773352 0 0 0 0.32 11 157 17 74 44 55 53 59 92 26 111 59 118 108 120 123 160 249 
332 -0.23193566965102283 -0.19749843946625179 1.1019511128185528 0 0 0 0.42 11 158 53 60 160 250 
333 -0.17953106189662968 -0.2195016998866365 1.1712764246741945 0 0 0 1.01 11 159 97 47 160 251 
334 -0.3910376335386478 -0.16233318053374787 1.045040591727095 0 0 0 0.5 11 160 27 73 44 56 50 138 71 52 81 63 88 21 96 77 160 252 
335 -0.08148960551345175 -0.13787973914037846 1.1551831297600246 0 0 0 0.48 11 161 17 75 118 109 120 124 160 253 
336 -0.015965050506562783 -0.13223189784547967 1.171387355086938 0 0 0 0.68 11 162 12 23 17 76 44 57 53 61 71 53 160 254 
337 0.015104909796705273 -0.13218057145844 1.192201158134389 0 0 0 0.24 11 163 17 77 120 125 160 255 
338 -0.09490134364670164 -0.07079335734875315 1.137498175068061 0 0 0 0.39 11 164 12 24 15 76 17 78 33 76 38 15 77 59 118 110 120 126 127 34 160 256 
339 -0.0946824399427561 -0.07081765495325672 1.13712537440194 0 0 0 0.53 11 165 12 25 15 77 17 79 32 27 33 77 38 16 50 139 65 21 77 60 97 48 120 127 127 35 160 257 
340 0.07830952631229958 -0.13683833566394632 1.2146021883262752 0 0 0 0.27 12 26 15 78 44 58 50 140 118 111 120 128 160 258 
341 0.12366265839444424 -0.06911709606096729 1.2290148631474493 0 0 0 0.28 12 27 15 79 29 17 50 141 53 62 111 60 118 112 
342 -0.02361776953318468 0.0014566571461357943 1.1568867309187856 0 0 0 0.36 12 28 33 78 73 30 92 27 110 14 127 36 
343 -0.00812314985288142 -0.1563223769688221 1.1783479131472827 0 0 0 0.46 12 29 50 142 53 63 160 259 
344 0.05400052845741694 -0.00402558954209315 0.9959777878156276 0 0 0 1.2 43 32 53 64 65 22 
345 -0.06446014094101607 -0.09458579024282597 1.1538932638879065 0 0 0 0.45 12 30 27 74 77 61 160 260 
346 -0.0783599333308404 -0.08195396667653505 1.1441387942017243 0 0 0 0.38 12 31 77 62 97 49 160 261 
347 -0.11967691813329595 -0.24045748193464053 1.2241452696181951 0 0 0 0.17 15 80 17 80 96 78 118 113 
348 0.06543030567743274 -0.19710897806155056 1.216109092475567 0 0 0 0.22 15 81 27 75 160 262 
349 -0.21004225363844792 -0.18777742779728107 1.1041394273511758 0 0 0 0.08 15 82 71 54 160 263 
350 -0.16707342852438803 -0.17991164627378806 1.1187088429068364 0 0 0 0.23 15 83 112 31 160 264 
351 0.05948485379217821 -0.1827646258848513 1.2112476446350113 0 0 0 0.22 15 84 43 33 50 143 53 65 160 265 
352 -0.22369020494421435 -0.16106506741756824 1.0926129692993136 0 0 0 0.25 15 85 96 79 118 114 127 37 160 266 
353 -0.22304277533429456 -0.16086844950976426 1.08996407792221 0 0 0 0.16 15 86 118 115 160 267 
354 0.10325982209862927 -0.15095571819428555 1.2158052390726468 0 0 0 0.05 15 87 120 129 160 268 
355 -0.07215115961966814 -0.139107384849353 1.1482936115660278 0 0 0 0.19 15 88 118 116 160 269 
356 0.0343162227710566 -0.07272124550820303 1.195466463412437 0 0 0 0.13 15 89 120 130 160 270 
357 -0.06915874121410703 -0.19963231469048778 1.1598296600377027 0 0 0 0.26 15 90 73 31 160 271 
358 -0.038138355960939965 -0.20109998395851902 1.1762010655268922 0 0 0 0.11 15 91 120 131 160 272 
359 -0.10571977602832543 -0.1657437331222772 1.142184171892648 0 0 0 0.46 15 92 27 76 63 30 77 63 97 50 120 132 160 273 
360 -0.2098548803590663 -0.16330231314108318 1.10160649771811 0 0 0 0.1 15 93 120 133 160 274 
361 -0.07265403074839166 -0.14318576812650838 1.155263775050667 0 0 0 0.26 15 94 17 81 27 77 50 144 97 51 118 117 120 134 160 275 
362 -0.17233764990482844 -0.1344689556209469 1.1088478772342578 0 0 0 0.35 15 95 71 55 120 135 160 276 
363 -0.08265182785071509 -0.13414634410594656 1.1457691063483288 0 0 0 0.12 15 96 71 56 120 136 160 277 
364 -0.10932710833860682 -0.13296075750712558 1.1320843287887856 0 0 0 0.17 15 97 73 32 111 61 
365 0.11213644743548826 -0.1352680432188609 1.2288932839966311 0 0 0 0.49 15 98 44 59 50 145 53 66 73 33 77 64 118 118 120 137 160 278 
366 0.034676001626017416 -0.0778802224571243 1.1952062410843034 0 0 0 0.34 15 99 50 146 53 67 77 65 96 80 160 279 
367 -0.08902961063334178 -0.12968568397617813 1.1455946551320209 0 0 0 0.3 15 100 44 60 50 147 160 280 
368 -0.010580235967008099 -0.1269952554159841 1.1743800912170386 0 0 0 0.36 15 101 53 68 160 281 
369 -0.2460305934707004 -0.2292783646884686 1.158076803909893 0 0 0 0.64 15 102 53 69 81 64 160 282 
370 0.12276550281112728 -0.09205826246452639 1.2320450767634774 0 0 0 0.32 15 103 43 34 50 148 160 283 
371 0.08918967605771695 -0.13237775080493377 1.2091312478534657 0 0 0 0.68 15 104 50 149 71 57 120 138 160 284 
372 0.030406215188386616 0.014749266606404484 1.165570093352608 0 0 0 0.26 15 105 17 82 65 23 
373 0.029905969674932184 0.01521361805866565 1.1710465966253256 0 0 0 0.55 15 106 17 83 44 61 65 24 
374 -0.003134364431788919 -0.09460680621837364 1.186155086854552 0 0 0 0.25 15 107 50 150 160 285 
375 -0.4426992373343775 -0.1490293724296638 1.035728697001917 0 0 0 0.29 17 84 32 28 160 286 
376 -0.4428743653672448 -0.1492000127701442 1.0362865544826267 0 0 0 0.21 17 85 92 28 160 287 
377 -0.45554774342655363 -0.15497872339238936 1.032959510122546 0 0 0 0.21 17 86 33 79 43 35 44 62 53 70 71 58 92 29 96 81 160 288 
378 0.1082194798234252 -0.1394024853949822 1.2280726043152372 0 0 0 0.43 17 87 27 78 44 63 50 151 73 34 77 66 85 26 97 52 118 119 120 139 160 289 
379 -0.09465851624334762 -0.0813778324778858 1.134545785754003 0 0 0 0.23 17 88 41 23 50 152 118 120 160 290 
380 -0.023997595249610575 -0.003294638521959307 1.1544352411287515 0 0 0 0.27 17 89 43 36 53 71 73 35 92 30 96 82 120 140 160 291 
381 -0.05371887414173088 -0.16563586519454057 1.149462016853487 0 0 0 0.32 17 90 97 53 118 121 
382 -0.06178131129841257 0.030166936005040324 1.1353291620509576 0 0 0 0.41 17 91 44 64 50 153 96 83 111 62 120 141 
383 -0.046410889814378964 0.012218594102764177 1.144085026828273 0 0 0 0.15 17 92 44 65 50 154 81 65 118 122 120 142 160 292 
384 -0.04671173937092312 0.012211606056961987 1.1492561615907955 0 0 0 0.38 17 93 65 25 120 143 160 293 
385 0.07376722971570865 0.01778816659241997 1.1941508810965773 0 0 0 0.1 17 94 50 155 160 294 
386 -0.41399779668217973 -0.14924256725205334 1.0411105771589761 0 0 0 0.53 17 95 50 156 160 295 
387 -0.03065465799858193 0.012221120761563915 1.149267848451826 0 0 0 0.65 17 96 27 79 60 24 111 63 160 296 
388 -0.061869518225534555 0.012780919215963724 1.135648519759615 0 0 0 0.42 17 97 50 157 120 144 160 297 
389 -0.06197609157686791 0.01278365295437319 1.1369963855596623 0 0 0 0.37 17 98 50 158 81 66 120 145 160 298 
390 -0.38003569176407975 -0.19560034604132334 1.0591659499415855 0 0 0 0.31 27 80 32 29 92 31 160 299 
391 -0.09064931093876832 -0.14038314739506672 1.1489848936032088 0 0 0 0.25 27 81 41 24 160 300 
392 -0.4729617290126707 -0.15156632104191103 1.0267441793524654 0 0 0 0.32 27 82 41 25 44 66 67 39 77 67 85 27 96 84 111 64 160 301 
393 -0.13187697084936414 -0.1933385064799517 1.127164254980881 0 0 0 0.56 27 83 60 25 71 59 77 68 96 85 118 123 120 146 160 302 
394 -0.23286646100438085 -0.1670807335723484 1.0920202326296544 0 0 0 0.43 27 84 44 67 50 159 64 15 77 69 85 28 112 32 160 303 
395 -0.09394757645226086 -0.1600906291727812 1.1440711201497777 0 0 0 0.35 27 85 33 80 44 68 50 160 53 72 77 70 120 147 160 304 
396 -0.08680873292087034 -0.1543062206674527 1.1418980898243005 0 0 0 0.51 27 86 44 69 53 73 96 86 118 124 120 148 160 305 
397 -0.4125200040665646 -0.15376031420044 1.0434648073703119 0 0 0 0.26 27 87 33 81 96 87 111 65 
398 -0.15382168963035223 -0.17776321635037243 1.1245056286809876 0 0 0 0.61 27 88 50 161 65 26 127 38 160 306 
399 -0.43449501670677887 -0.14585985032245227 1.0371007516514053 0 0 0 0.18 27 89 92 32 160 307 
400 0.08855628446469835 -0.15369608263190218 1.2093058659846336 0 0 0 1.1 27 90 50 162 67 40 160 308 
401 -0.032418762754616914 -0.13345060327657224 1.1663099094572489 0 0 0 0.36 29 18 33 82 50 163 97 54 118 125 160 309 
402 -0.04819783254690682 -0.14932679023463996 1.1647639955707 0 0 0 0.55 32 30 33 83 50 164 71 60 97 55 118 126 120 149 127 39 160 310 
403 -0.0471118619078867 -0.13340996595943386 1.161741372333983 0 0 0 0.47 29 19 53 74 63 31 71 61 160 311 
404 0.10111001355087076 -0.147828346895917 1.2141401264656462 0 0 0 0.23 44 70 50 165 160 312 
405 0.08698250360846203 -0.13558404567982885 1.215152578315638 0 0 0 0.51 32 31 44 71 50 166 92 33 120 150 160 313 
406 0.08815895799583086 -0.14012185798823 1.2178246369283756 0 0 0 0.31 32 32 33 84 44 72 50 167 160 314 
407 -0.024258006125498662 -0.14043070657487325 1.1713277254087806 0 0 0 0.09 32 33 110 15 160 315 
408 0.09854696114702767 -0.136071462077231 1.223125419029179 0 0 0 0.4 32 34 33 85 160 316 
409 -0.4505022472879613 -0.1660817088357635 1.0409105425078493 0 0 0 0.54 32 35 50 168 53 75 67 41 160 317 
410 0.03168707976984585 -0.13458581027536706 1.190551654843648 0 0 0 0.62 67 42 73 36 77 71 127 40 160 318 
411 -0.002910772361204333 -0.09417014986170298 1.181781353774213 0 0 0 0.86 32 36 50 169 65 27 160 319 
412 0.07814337033452452 -0.14989790738630263 1.210032122593872 0 0 0 0.38 33 86 44 73 160 320 
413 0.07172851533821467 -0.18264810049078434 1.2150525341041605 0 0 0 0.44 33 87 50 170 97 56 160 321 
414 -0.480916711556581 -0.1515123681549006 1.02875007002087 0 0 0 0.46 33 88 97 57 160 322 
415 -0.4181222043583594 -0.14972591965254103 1.045268756982404 0 0 0 0.61 33 89 53 76 67 43 88 22 96 88 
416 -0.47301135396072264 -0.1516111550529548 1.0267661422910157 0 0 0 0.19 41 26 44 74 77 72 111 66 160 323 
417 -0.13094156475933846 -0.13070065158979408 1.1195358292388138 0 0 0 0.2 41 27 97 58 118 127 120 151 160 324 
418 0.055689402253753004 -0.18005864917421646 1.207469988121161 0 0 0 0.37 43 37 50 171 53 77 92 34 96 89 120 152 127 41 160 325 
419 0.0941988535626321 -0.07569576937495405 1.2185050677802323 0 0 0 0.49 43 38 44 75 160 326 
420 0.050136862394552235 -0.17305747865926815 1.203409465322355 0 0 0 0.24 43 39 81 67 111 67 160 327 
421 -0.017001462144203346 0.039183402674760975 0.9793960300668356 0 0 0 0.15 43 40 65 28 120 153 
422 -0.4997957813903232 -0.1410223350118732 1.0215267479951902 0 0 0 0.26 43 41 73 37 88 23 92 35 97 59 160 328 
423 -0.21660099869106939 -0.15690000061631093 1.0991214665284479 0 0 0 0.21 44 76 50 172 160 329 
424 0.053310415872827865 0.030101601973769807 1.1800586822754424 0 0 0 0.26 44 77 118 128 160 330 
