# 3D point list with one line of data per point:
#   POINT3D_ID, X, Y, Z, R, G, B, ERROR, TRACK[] as (IMAGE_ID, POINT2D_IDX)
# Number of points: 249, mean track length: 13.24
460 -0.8131499900119776 0.12456675970633942 1.3513563489098628 51 54 50 2.72 46 157 47 162 48 164 49 164 50 161 51 156 52 139 53 110 54 90 57 98 58 95 59 53 60 86 62 93 63 89 64 87 65 88 66 88 67 92 68 88 69 72 70 73 71 62 
461 -0.8831075337827773 0.08316716110365371 1.5323098307602903 108 100 94 1.71 46 158 47 163 48 165 49 165 50 162 51 157 52 140 53 111 54 91 57 99 58 96 60 87 62 94 63 90 64 88 65 89 66 89 67 93 68 89 69 73 70 74 71 63 
462 -0.8886070438394909 0.1342294888053271 1.543008497221259 140 142 144 1.72 46 159 47 164 48 166 49 166 50 163 51 158 52 141 53 112 54 92 57 100 58 97 60 88 62 95 63 91 64 89 65 90 66 90 67 94 68 90 70 75 71 64 
463 -0.8842000891568373 0.26456341043620096 1.519451647507904 129 129 130 1.49 46 160 47 165 48 167 49 167 50 164 51 159 52 142 53 113 54 93 57 101 58 98 60 89 
464 -0.8553875895429952 0.37693438496342085 1.4422854552701352 88 81 75 1.86 46 161 47 166 48 168 49 168 50 165 51 160 52 143 53 114 54 94 57 102 
465 -0.7200463230627053 -0.10581348586461996 1.2008473123358696 148 147 146 1.53 46 162 47 167 48 169 49 169 50 166 51 161 52 144 53 115 54 95 57 103 58 99 59 54 60 90 61 40 62 96 63 92 64 90 65 91 66 91 67 95 68 91 69 74 70 76 71 65 72 33 
466 -0.7220367648662593 0.26828751776788834 1.1813723379767558 30 20 22 1.71 49 170 50 167 51 162 52 145 53 116 54 96 57 104 58 100 59 55 60 91 62 97 63 93 64 91 65 92 66 92 67 96 68 92 69 75 70 77 
467 -0.77436945852989 -0.03474187267057369 1.308892354985605 145 145 143 1.03 46 163 47 168 48 170 49 171 50 168 51 163 52 146 53 117 54 97 57 105 58 101 59 56 60 92 62 98 63 94 64 92 65 93 66 93 67 97 68 93 69 76 70 78 71 66 
468 -0.2071702252198147 -0.18888938441119138 0.6674369832745319 79 80 88 9.59 69 77 70 79 71 67 74 161 75 191 76 195 77 185 
469 0.007905198001746343 -0.21594912637485605 0.7842629098622391 68 68 92 9.2 66 94 67 98 68 94 69 78 70 80 72 34 73 2 74 162 75 192 76 196 77 186 
470 0.16467911995642925 0.18633780344837714 0.45935323257587723 82 72 52 9.26 72 35 73 3 74 163 75 193 76 197 
471 0.05798581793551793 -0.3181708787473257 0.8228937139908414 103 115 120 5.79 73 4 74 164 75 194 76 198 77 187 
472 0.07616892413069344 -0.27044099760980034 0.8329584846565394 115 115 133 6.84 72 36 73 5 74 165 75 195 76 199 77 188 
473 0.5374302229248314 0.022312190551516328 1.0445020265849791 22 16 16 7.28 67 99 68 95 75 196 76 200 77 189 78 193 
474 -0.14115926034579646 -0.07394724817936592 0.6803338009037556 102 100 105 9.31 68 96 69 79 70 81 71 68 72 37 73 6 74 166 75 197 76 201 77 190 
475 0.5439732307708923 0.13984901481649803 1.0101419456917156 92 90 90 6.13 73 7 74 167 75 198 76 202 77 191 78 194 
476 0.1482410087081787 -0.2685770503445822 0.8738447463219082 51 42 47 9.47 66 95 67 100 68 97 69 80 72 38 73 8 74 168 75 199 76 203 77 192 
477 -0.18673768240044541 -0.16785353713408574 0.6736404102455164 112 99 98 9.11 69 81 70 82 71 69 73 9 74 169 75 200 76 204 77 193 
478 0.3776418684757569 0.10130320358350334 0.9193778285393801 146 142 150 6.89 70 83 76 205 77 194 
479 0.3319715134577635 -0.2530572866495367 0.980351918202296 82 92 94 7.05 67 101 68 98 72 39 73 10 74 170 75 201 76 206 77 195 
480 0.31607281273125526 0.14408607281413194 0.6738421916196472 69 98 56 5.4 75 202 76 207 77 196 
481 0.16140386171500912 -0.2927804005895353 0.8776597769830518 145 118 122 6.68 72 40 73 11 74 171 75 203 76 208 77 197 
482 -0.12020704994075866 -0.22106162660665493 0.7333467245070316 165 188 213 8.72 66 96 67 102 68 99 69 82 70 84 71 70 73 12 74 172 75 204 76 209 77 198 
483 0.4644920783301096 -0.1861500343018289 1.0372739692507997 181 183 191 6.65 66 97 67 103 68 100 70 85 74 173 75 205 76 210 77 199 
484 -0.06654501577797538 0.07431638782526534 0.7067703163631599 144 165 181 8.69 66 98 67 104 68 101 73 13 74 174 75 206 76 211 77 200 
485 0.5307989871783014 -0.09109811729004771 1.0602637707405065 157 169 193 6.16 67 105 68 102 74 175 75 207 76 212 77 201 78 195 
486 -0.1147360274068404 0.00555510691370902 0.6842384909283076 42 34 41 8.6 67 106 68 103 69 83 70 86 71 71 72 41 73 14 74 176 75 208 76 213 77 202 
487 0.4480341448147743 -0.2924143248458674 1.03833221906104 78 72 73 8.27 67 107 68 104 70 87 72 42 73 15 74 177 75 209 76 214 77 203 78 196 
488 0.07060919088925849 0.07759509284638776 0.4693384056218183 83 97 67 6.31 72 43 73 16 75 210 76 215 
489 0.40815293967872784 -0.2722297283294631 1.0154911870096501 161 145 140 8.41 66 99 67 108 68 105 70 88 71 72 72 44 73 17 74 178 75 211 76 216 77 204 
490 -0.0882633991892202 -0.02391743147422133 0.7029557424249413 60 54 52 9.05 67 109 68 106 69 84 70 89 71 73 72 45 73 18 74 179 75 212 76 217 77 205 
491 0.7158623268163506 -0.23667868172688009 1.1867711559060743 58 46 46 6.81 67 110 68 107 72 46 73 19 74 180 75 213 76 218 77 206 78 197 
492 0.6255994613443323 -0.0450876918371221 0.9759331703986358 130 142 96 5.51 73 20 74 181 75 214 76 219 77 207 
493 0.4728825418281404 0.0012031289778525603 0.9944139929852902 117 142 113 8.27 66 100 67 111 68 108 69 85 75 215 76 220 77 208 78 198 
494 0.44805801883440677 -0.2775014963872535 1.0386973492618983 149 119 115 8.28 66 101 67 112 68 109 70 90 71 74 72 47 73 21 74 182 75 216 76 221 77 209 
495 0.71966553248507 -0.0682612786970571 1.1547654892099932 149 140 150 6.57 67 113 68 110 73 22 74 183 75 217 76 222 77 210 78 199 
496 0.27645207857259685 -0.26339435396447675 0.9444020278596486 54 45 48 8.59 66 102 67 114 68 111 69 86 71 75 72 48 73 23 74 184 75 218 76 223 77 211 
497 0.15437722025831518 0.09966077935156323 0.5155972845761052 62 76 42 7.92 72 49 73 24 74 185 75 219 76 224 
498 -0.09289056245041302 0.02776391297983179 0.7100106144115983 111 132 147 7.54 66 103 67 115 68 112 69 87 70 91 71 76 72 50 73 25 74 186 75 220 76 225 77 212 
499 -0.23607920963388204 -0.07774832156102642 0.6343778650246044 90 82 75 9.26 68 113 69 88 70 92 71 77 72 51 73 26 74 187 75 221 76 226 
500 0.728233940303137 -0.06258228916421893 1.1559405696495209 72 55 47 5.39 66 104 67 116 68 114 73 27 74 188 75 222 76 227 77 213 
501 0.33358051303583003 -0.2840854671666095 0.973689753163852 135 110 112 7.6 66 105 67 117 68 115 72 52 73 28 74 189 75 223 76 228 77 214 
502 -0.1998316783796771 -0.019091869878345116 0.6413943297536245 100 91 92 9.41 68 116 69 89 70 93 71 78 72 53 73 29 74 190 75 224 76 229 77 215 
503 0.6533628101815075 -0.14270511053368254 1.1376211304070376 195 195 198 6.36 67 118 68 117 73 30 74 191 75 225 76 230 77 216 78 200 
504 0.07974714914165539 0.028517958069413013 0.4725028336199517 71 90 34 5.93 73 31 75 226 76 231 
505 0.46050985182680165 -0.22964408097734426 1.0399859160434108 190 193 200 8.28 66 106 67 119 68 118 70 94 71 79 72 54 73 32 74 192 75 227 76 232 77 217 
506 0.5355912279982966 -0.1561140601239612 1.081228338924254 66 49 59 6.33 67 120 68 119 74 193 75 228 76 233 77 218 78 201 
507 -0.11420647603627194 -0.02218421226962529 0.6882505120238945 18 13 11 8.56 67 121 68 120 69 90 70 95 71 80 72 55 73 33 74 194 75 229 76 234 77 219 
508 -0.03738814711906262 -0.02017408215694822 0.7292204716538996 27 20 16 8.2 67 122 68 121 69 91 70 96 71 81 72 56 73 34 74 195 75 230 76 235 
509 -0.11579553023656076 -0.1900406850206742 0.7344611534211047 45 61 69 8.41 66 107 67 123 68 122 69 92 70 97 71 82 73 35 74 196 75 231 76 236 77 220 
510 -0.09747586945859314 -0.1922681926586269 0.7453724429656399 81 87 89 8.56 66 108 67 124 68 123 69 93 70 98 71 83 73 36 74 197 75 232 76 237 77 221 
511 -0.19338025937217665 -0.009201922550021176 0.641662321138451 131 131 132 9.29 68 124 69 94 70 99 71 84 72 57 73 37 74 198 75 233 76 238 77 222 
512 0.27355452946023595 -0.22827667521192485 0.9415874747604364 124 140 153 7.61 66 109 67 125 68 125 69 95 71 85 72 58 73 38 74 199 75 234 76 239 77 223 
513 0.059050735868048744 0.05805533660649641 0.4953386496034447 43 59 28 7.02 73 39 74 200 75 235 76 240 
514 0.7421734880082894 -0.2033662096287632 1.1957152346972293 147 155 169 6.0 67 126 68 126 73 40 74 201 75 236 76 241 77 224 78 202 
515 -0.03617978681824157 0.07536454469095374 0.7145642629501456 54 48 53 8.72 66 110 67 127 72 59 74 202 75 237 76 242 77 225 
516 -0.06974030509493317 0.046395254869146814 0.7160712376242165 122 134 140 9.16 67 128 68 127 69 96 70 100 71 86 72 60 73 41 74 203 75 238 76 243 
517 -0.2654898885999295 -0.02489152553308588 0.6315764051775492 73 64 55 8.07 67 129 68 128 69 97 70 101 71 87 72 61 73 42 74 204 75 239 76 244 
518 0.5335480632830502 0.10538271893326011 1.0340491544808583 152 165 185 6.32 75 240 76 245 77 226 78 203 
519 -0.2198272578910312 -0.08490078095255625 0.6431284559524745 137 137 135 9.48 69 98 70 102 71 88 72 62 73 43 74 205 75 241 76 246 77 227 
520 -0.7231516502713432 0.010881046730408543 1.2101894439341556 163 165 167 2.51 46 164 47 169 48 171 49 172 50 169 51 164 52 147 53 118 54 98 57 106 58 102 59 57 60 93 61 41 62 99 63 95 64 93 65 94 66 111 67 130 68 129 69 99 70 103 71 89 
521 -0.6897353028301254 0.3383544782687504 0.9864194887563753 32 39 32 1.85 46 165 47 170 48 172 49 173 50 170 51 165 52 148 53 119 54 99 57 107 58 103 59 58 62 100 63 96 64 94 65 95 66 112 67 131 68 130 69 100 70 104 
522 -0.41639047102948956 -0.05538944175991858 0.5976746629047621 143 145 152 4.98 46 166 47 171 48 173 49 174 50 171 51 166 52 149 53 120 54 100 57 108 59 59 61 42 63 97 64 95 65 96 66 113 67 132 68 131 69 101 70 105 71 90 73 44 74 206 
523 -0.6648885270149564 0.13951612392914428 1.0653855592213715 120 108 111 1.62 46 167 47 172 48 174 49 175 50 172 51 167 52 150 53 121 54 101 57 109 58 104 59 60 60 94 61 43 62 101 63 98 64 96 65 97 66 114 67 133 68 132 69 102 70 106 
524 -0.655006579712198 0.2577765233624572 1.0322177254107583 34 34 42 1.38 46 168 47 173 48 175 49 176 50 173 51 168 52 151 53 122 54 102 57 110 58 105 59 61 61 44 62 102 63 99 64 97 65 98 66 115 67 134 68 133 69 103 
525 -0.6997114203282213 0.12037429828763856 1.1458725166496004 127 111 111 1.93 46 169 47 174 48 176 49 177 50 174 51 169 52 152 53 123 54 103 57 111 58 106 59 62 60 95 61 45 62 103 63 100 64 98 65 99 66 116 67 135 68 134 69 104 70 107 
526 -0.4348977179403534 -0.08827547905760703 0.6413223106477937 126 117 117 3.83 46 170 47 175 48 177 49 178 50 175 51 170 52 153 53 124 54 104 57 112 59 63 61 46 63 101 64 99 65 100 66 117 67 136 68 135 69 105 70 108 71 91 
527 -0.728447027798558 0.03391605323148898 1.219644594619868 166 162 160 2.55 46 171 47 176 48 178 49 179 50 176 51 171 52 154 53 125 54 105 57 113 58 107 59 64 60 96 62 104 63 102 64 100 65 101 66 118 67 137 68 136 69 106 70 109 71 92 
528 -0.690689246546456 0.1993950564685997 1.1109028932324911 122 114 113 1.46 47 177 48 179 49 180 50 177 51 172 52 155 53 126 54 106 57 114 58 108 59 65 60 97 61 47 62 105 63 103 64 101 65 102 66 119 67 138 68 137 69 107 70 110 
529 -0.8783119633293484 0.3134817983060807 0.8036126683096056 98 94 102 6.72 52 156 54 107 59 66 62 106 64 102 66 120 67 139 
530 -0.5244272268010576 0.11427779961833057 0.790420485109245 72 62 70 2.45 46 172 47 178 48 180 49 181 50 178 51 173 52 157 53 127 54 108 57 115 58 109 59 67 60 98 61 48 62 107 63 104 64 103 65 103 66 121 67 140 72 63 
531 -0.5477593979588004 -0.18349080130692433 0.8701284708320209 153 159 165 3.19 46 173 47 179 48 181 49 182 50 179 51 174 52 158 53 128 54 109 57 116 58 110 59 68 60 99 61 49 62 108 63 105 64 104 65 104 66 122 67 141 68 138 69 108 70 111 71 93 72 64 
532 -0.5156162982147635 -0.17988904861243793 0.8079262335925551 77 73 85 3.56 46 174 47 180 48 182 49 183 50 180 51 175 52 159 53 129 54 110 57 117 58 111 59 69 60 100 61 50 62 109 63 106 64 105 65 105 66 123 67 142 68 139 69 109 70 112 71 94 72 65 
533 -0.48820132785844794 -0.3126082618638237 0.7721220427960925 127 123 127 3.48 46 175 47 181 48 183 49 184 50 181 51 176 53 130 54 111 57 118 58 112 59 70 60 101 61 51 63 107 67 143 71 95 
534 -0.44048875791035924 -0.1254925893882044 0.6569891678203177 92 61 67 4.07 46 176 47 182 48 184 49 185 50 182 51 177 52 160 53 131 54 112 57 119 59 71 61 52 62 110 63 108 64 106 65 106 66 124 67 144 68 140 69 110 70 113 71 96 
535 -0.5575981540979744 0.051880391757345365 0.8747202434819648 73 61 68 2.6 46 177 47 183 48 185 49 186 50 183 51 178 52 161 53 132 54 113 57 120 58 113 59 72 60 102 61 53 62 111 63 109 64 107 65 107 66 125 67 145 68 141 72 66 
536 -0.5676183463104212 -0.21535029653031232 0.9153092387497744 181 183 181 2.97 46 178 47 184 48 186 49 187 50 184 51 179 52 162 53 133 54 114 57 121 58 114 59 73 60 103 61 54 62 112 63 110 64 108 65 108 66 126 67 146 68 142 69 111 70 114 71 97 72 67 
537 -0.41082795060278815 -0.3334685891277437 0.6248409861157186 70 70 66 3.17 46 179 47 185 48 187 49 188 50 185 51 180 52 163 53 134 54 115 57 122 59 74 61 55 63 111 
538 -0.8065436103289316 0.09460713274379196 1.3887103445360636 130 126 134 2.93 46 180 47 186 48 188 49 189 50 186 51 181 52 164 53 135 54 116 57 123 58 115 59 75 60 104 62 113 63 112 64 109 65 109 66 127 67 147 68 143 69 112 70 115 71 98 
539 -0.6871249300289592 0.2765360317538938 1.0964579705361333 80 64 68 1.77 47 187 48 189 49 190 50 187 51 182 52 165 53 136 54 117 57 124 58 116 59 76 61 56 62 114 63 113 64 110 65 110 66 128 67 148 68 144 69 113 
540 -0.5665918765507852 -0.029451994290533974 0.8876818354966823 143 134 135 2.82 46 181 47 188 48 190 49 191 50 188 51 183 52 166 53 137 54 118 57 125 58 117 59 77 60 105 61 57 62 115 63 114 64 111 65 111 66 129 67 149 68 145 69 114 70 116 71 99 72 68 
541 -0.547921855621057 -0.029863152128917193 0.8492220312598878 73 81 95 2.83 46 182 47 189 48 191 49 192 50 189 51 184 52 167 53 138 54 119 57 126 58 118 59 78 60 106 61 58 62 116 63 115 64 112 65 112 66 130 67 150 68 146 69 115 70 117 71 100 72 69 
542 -0.6048565816792305 0.021682398920863925 0.9574753570197609 103 71 76 2.24 46 183 47 190 48 192 49 193 50 190 51 185 52 168 53 139 54 120 57 127 58 119 59 79 60 107 61 59 62 117 63 116 64 113 65 113 66 131 67 151 68 147 69 116 70 118 72 70 
543 -0.5556829574852162 -0.16401315618923598 0.8824052974813655 177 174 171 3.0 46 184 47 191 48 193 49 194 50 191 51 186 52 169 53 140 54 121 57 128 58 120 59 80 60 108 61 60 62 118 63 117 64 114 65 114 66 132 67 152 68 148 69 117 70 119 71 101 72 71 
544 -0.6048099231647769 0.13915586825020337 0.9423811738457845 122 116 116 1.76 46 185 47 192 48 194 49 195 50 192 51 187 52 170 53 141 54 122 57 129 58 121 59 81 60 109 61 61 62 119 63 118 64 115 65 115 66 133 67 153 68 149 69 118 
545 -0.8237255721251132 -0.055185313311498944 1.4483405873100117 139 136 137 3.84 46 186 47 193 48 195 49 196 50 193 51 188 52 171 53 142 54 123 57 130 58 122 59 82 60 110 62 120 63 119 64 116 65 116 66 134 67 154 68 150 69 119 70 120 71 102 
546 -0.5611538077828817 0.18982747767102434 0.8650118359876416 65 50 61 2.04 46 187 47 194 48 196 49 197 50 194 51 189 52 172 53 143 54 124 57 131 58 123 59 83 60 111 61 62 62 121 63 120 64 117 65 117 66 135 67 155 68 151 
547 -0.7152279743788706 0.305522826190699 1.1796587336425461 41 28 33 2.06 50 195 51 190 52 173 53 144 54 125 57 132 58 124 59 84 62 122 63 121 64 118 65 118 66 136 67 156 68 152 69 120 70 121 
548 -0.4360406532399178 -0.04192225398978682 0.6174945983579975 184 184 182 3.58 46 188 47 195 48 197 49 198 50 196 51 191 52 174 53 145 54 126 57 133 59 85 61 63 63 122 64 119 65 119 66 137 67 157 68 153 69 121 70 122 71 103 72 72 73 45 74 207 
549 -0.4610194663572087 -0.03299580945345184 0.6265995076626786 176 183 182 5.3 46 189 47 196 48 198 49 199 50 197 51 192 52 175 53 146 54 127 57 134 59 86 61 64 63 123 64 120 65 120 66 138 67 158 68 154 69 122 70 123 71 104 72 73 
550 -0.776337381353192 0.04573348432888327 1.3282446854571888 74 84 99 2.88 46 190 47 197 48 199 49 200 50 198 51 193 52 176 53 147 54 128 57 135 58 125 59 87 60 112 62 123 63 124 64 121 65 121 66 139 67 159 68 155 69 123 70 124 71 105 
551 -0.7637504122302131 0.22655017010341788 1.2786175024822677 69 64 69 2.29 53 148 54 129 57 136 58 126 59 88 60 113 62 124 63 125 64 122 65 122 66 140 67 160 68 156 69 124 70 125 
552 -0.6078224005672257 0.09048344381887612 0.9555486520822052 148 148 149 1.64 46 191 47 198 48 200 49 201 50 199 51 194 52 177 53 149 54 130 57 137 58 127 59 89 60 114 61 65 62 125 63 126 64 123 65 123 66 141 67 161 68 157 69 125 
553 -0.48549091032247743 -0.16606935370525874 0.7471766201806418 88 91 102 4.08 46 192 47 199 48 201 49 202 50 200 51 195 52 178 53 150 54 131 57 138 58 128 59 90 60 115 61 66 62 126 63 127 64 124 65 124 66 142 67 162 68 158 69 126 70 126 71 106 72 74 
554 -0.4547181323135912 0.23301150170096555 0.5307944982345826 49 46 46 4.13 46 193 47 200 48 202 49 203 50 201 51 196 52 179 53 151 59 91 63 128 64 125 65 125 66 143 67 163 68 159 69 127 70 127 
555 -0.49080396971888723 -0.19246065692505043 0.7614842821789899 170 170 168 3.8 46 194 47 201 48 203 49 204 50 202 51 197 52 180 53 152 54 132 57 139 58 129 59 92 60 116 61 67 62 127 63 129 64 126 65 126 66 144 67 164 68 160 69 128 70 128 71 107 72 75 
556 -0.523454306938926 -0.011636333964030254 0.7976538927363221 149 147 145 2.73 46 195 47 202 48 204 49 205 50 203 51 198 52 181 53 153 54 133 57 140 58 130 59 93 60 117 61 68 62 128 63 130 64 127 65 127 66 145 67 165 68 161 70 129 71 108 72 76 
557 -0.44037592427088607 -0.12108921101179468 0.6563476887668989 185 181 179 4.57 46 196 47 203 48 205 49 206 50 204 51 199 52 182 53 154 54 134 57 141 59 94 61 69 62 129 63 131 64 128 65 128 66 146 67 166 68 162 69 129 70 130 71 109 72 77 
558 -0.6659581030405717 0.3291867569439503 0.9312766697488177 126 133 136 2.03 46 197 47 204 48 206 49 207 50 205 51 200 52 183 53 155 54 135 57 142 58 131 59 95 62 130 63 132 64 129 65 129 66 147 67 167 68 163 69 130 70 131 
559 -0.5511601918347552 0.06023604081725004 0.5800184437412834 138 147 149 6.16 46 198 48 207 49 208 50 206 52 184 59 96 61 70 63 133 64 130 65 130 66 148 69 131 
560 -0.5394685817114901 -4.811296494518356e-05 0.828654122236963 115 97 95 2.79 46 199 47 205 48 208 49 209 50 207 51 201 52 185 53 156 54 136 57 143 58 132 59 97 60 118 61 71 62 131 63 134 64 131 65 131 66 149 67 168 68 164 69 132 71 110 72 78 
561 -0.42676981719724766 -0.3296172382341885 0.6565166201975364 65 54 52 3.11 46 200 47 206 48 209 49 210 50 208 51 202 52 186 53 157 54 137 57 144 59 98 61 72 63 135 
562 -0.4960833057300651 -0.017338240059643722 0.7477412870397478 172 168 167 3.44 46 201 47 207 48 210 49 211 50 209 51 203 52 187 53 158 54 138 57 145 58 133 59 99 60 119 61 73 62 132 63 136 64 132 65 132 66 150 67 169 69 133 70 132 71 111 72 79 
563 -0.5535664889356793 -0.03141451549605597 0.8610878896643074 174 177 179 2.75 46 202 47 208 48 211 49 212 50 210 51 204 52 188 53 159 54 139 57 146 58 134 59 100 60 120 61 74 62 133 63 137 64 133 65 133 66 151 67 170 68 165 69 134 70 133 71 112 72 80 
564 -0.5999959664291601 -0.0685993353490854 0.9574118622169484 105 97 103 2.32 46 203 47 209 48 212 49 213 50 211 51 205 52 189 53 160 54 140 57 147 58 135 59 101 60 121 61 75 62 134 63 138 64 134 65 134 66 152 67 171 68 166 69 135 70 134 71 113 72 81 
565 -0.5935406976673587 0.30524476910991427 0.8979056851687874 72 69 62 1.65 46 204 47 210 48 213 49 214 50 212 51 206 52 190 53 161 54 141 57 148 58 136 59 102 62 135 63 139 64 135 65 135 66 153 67 172 68 167 72 82 
566 -0.441365865394078 -0.24493464054366215 0.676217316387678 99 89 93 4.74 46 205 47 211 48 214 49 215 50 213 51 207 52 191 53 162 54 142 57 149 59 103 60 122 61 76 62 136 63 140 64 136 65 136 66 154 67 173 68 168 69 136 70 135 71 114 72 83 
567 -0.5537790030677971 0.26756911799571104 0.8397618476035378 69 50 53 2.07 46 206 47 212 48 215 49 216 50 214 51 208 52 192 53 163 54 143 57 150 58 137 59 104 62 137 63 141 64 137 65 137 66 155 67 174 68 169 72 84 
568 -0.6310330096514498 -0.06808938655531051 1.0215590119316413 102 96 103 2.31 46 207 47 213 48 216 49 217 50 215 51 209 52 193 53 164 54 144 57 151 58 138 59 105 60 123 61 77 62 138 63 142 64 138 65 138 66 156 67 175 68 170 69 137 70 136 71 115 72 85 
569 -0.8457100262370957 0.20229190021108853 1.331439903067266 124 127 130 6.3 54 145 57 152 58 139 59 106 60 124 62 139 63 143 64 139 65 139 66 157 67 176 68 171 70 137 71 116 
570 -0.7283410578389986 0.2712394357045924 1.2121969627090703 47 29 33 1.86 51 210 52 194 53 165 54 146 57 153 58 140 59 107 60 125 62 140 63 144 64 140 65 140 66 158 67 177 68 172 69 138 70 138 
571 -0.5254151021452145 0.2893634468225196 0.7622538139731783 81 91 98 2.64 46 208 47 214 48 217 49 218 50 216 51 211 52 195 53 166 54 147 57 154 58 141 59 108 62 141 63 145 64 141 65 141 66 159 67 178 68 173 70 139 71 117 72 86 
572 -0.7233543259828107 -0.03426223798148475 1.2170528492989465 167 165 165 2.81 46 209 47 215 48 218 49 219 50 217 51 212 52 196 53 167 54 148 57 155 58 142 59 109 60 126 61 78 62 142 63 146 64 142 65 142 66 160 67 179 68 174 69 139 70 140 71 118 72 87 
573 -0.7086500453615635 0.02408285763119454 1.1760264471574258 94 78 79 2.37 46 210 47 216 48 219 49 220 50 218 51 213 52 197 53 168 54 149 57 156 58 143 59 110 60 127 61 79 62 143 63 147 64 143 65 143 66 161 67 180 68 175 69 140 70 141 71 119 
574 -0.6833262110354474 0.1961817018572285 1.0957097576260235 169 172 173 1.31 47 217 48 220 49 221 50 219 51 214 52 198 53 169 54 150 57 157 58 144 59 111 60 128 61 80 62 144 63 148 64 144 65 144 66 162 67 181 68 176 69 141 70 142 
575 -0.6397042687976328 -0.042736923830759 1.0372666282538288 80 74 81 2.27 46 211 47 218 48 221 49 222 50 220 51 215 52 199 53 170 54 151 57 158 58 145 59 112 60 129 61 81 62 145 63 149 64 145 65 145 66 163 67 182 68 177 69 142 70 143 71 120 72 88 
576 -0.4159010746724775 -0.3535262959688118 0.6046851761203026 214 238 251 2.56 46 212 47 219 48 222 49 223 50 221 51 216 52 200 53 171 54 152 57 159 59 113 61 82 
577 -0.4108247207649163 -0.34954152910770414 0.6052314683984192 19 19 19 2.39 46 213 47 220 48 223 49 224 50 222 51 217 52 201 53 172 54 153 57 160 59 114 61 83 
578 -0.5289606307330956 0.039184987988913796 0.819248606585573 52 38 41 2.37 46 214 47 221 48 224 49 225 50 223 51 218 52 202 53 173 54 154 57 161 58 146 59 115 60 130 61 84 62 146 63 150 64 146 65 146 66 164 67 183 68 178 72 89 
579 -0.6239132881922776 -0.10348504705734723 1.0115929576946192 88 89 100 2.5 46 215 47 222 48 225 49 226 50 224 51 219 52 203 53 174 54 155 57 162 58 147 59 116 60 131 61 85 62 147 63 151 64 147 65 147 66 165 67 184 68 179 69 143 70 144 71 121 72 90 
580 -0.8997626463604815 0.3264946836650145 0.8673200768496199 101 89 96 5.73 49 227 50 225 52 204 53 175 54 156 59 117 62 148 64 148 65 148 66 166 67 185 
581 -0.41415839528058523 -0.19223263666051385 0.6160464327356284 98 90 94 4.97 46 216 47 223 48 226 49 228 50 226 51 220 52 205 53 176 54 157 57 163 59 118 61 86 63 152 64 149 65 149 66 167 67 186 68 180 69 144 70 145 71 122 73 46 74 208 
582 -0.5656782344332534 0.2816307356470061 0.7004144457060654 79 79 84 2.69 46 217 47 224 48 227 49 229 50 227 51 221 52 206 53 177 54 158 57 164 58 148 59 119 62 149 63 153 64 150 65 150 66 168 67 187 68 181 69 145 70 146 71 123 72 91 
583 -0.7326656621868887 0.10635629518182034 1.221291963491007 25 20 21 2.24 46 218 47 225 48 228 49 230 50 228 51 222 52 207 53 178 54 159 57 165 58 149 59 120 60 132 62 150 63 154 64 151 65 151 66 169 67 188 68 182 69 146 70 147 
584 -0.7758279736816398 0.21560274959406175 1.299737880603045 144 142 140 2.4 53 179 54 160 57 166 58 150 59 121 60 133 62 151 63 155 64 152 65 152 66 170 67 189 68 183 69 147 70 148 
585 -0.6948477049665451 0.2324127705910864 1.1184571904924283 113 111 114 1.55 47 226 48 229 49 231 50 229 51 223 52 208 53 180 54 161 57 167 58 151 59 122 60 134 61 87 62 152 63 156 64 153 65 153 66 171 67 190 68 184 69 148 70 149 
586 -0.47480444104153813 -0.08954413197850003 0.7171015492814391 75 79 94 4.51 46 219 47 227 48 230 49 232 50 230 51 224 52 209 53 181 54 162 57 168 58 152 59 123 60 135 61 88 62 153 63 157 64 154 65 154 66 172 67 191 68 185 69 149 70 150 71 124 72 92 
587 -0.5306943971504964 -0.13048754785616076 0.829468799699471 117 113 115 3.28 46 220 47 228 48 231 49 233 50 231 51 225 52 210 53 182 54 163 57 169 58 153 59 124 60 136 61 89 62 154 63 158 64 155 65 155 66 173 67 192 68 186 69 150 70 151 71 125 72 93 
588 -0.5613300631385651 0.05978196393576135 0.603571697164028 130 133 136 6.28 46 221 48 232 49 234 50 232 51 226 52 211 53 183 59 125 61 90 62 155 63 159 64 156 65 156 66 174 67 193 68 187 69 151 70 152 72 94 
589 -0.5573799754677202 0.09343851086176452 0.8713118306494534 66 44 51 2.16 46 222 47 229 48 233 49 235 50 233 51 227 52 212 53 184 54 164 57 170 58 154 59 126 60 137 61 91 62 156 63 160 64 157 65 157 66 175 67 194 68 188 
590 -0.40269968150828855 -0.1031967562242247 0.5808959875542445 96 95 90 4.32 46 223 47 230 48 234 49 236 50 234 51 228 52 213 53 185 54 165 59 127 61 92 63 161 64 158 65 158 66 176 67 195 68 189 69 152 70 153 71 126 74 209 
591 -0.6324234582801442 0.15825744930749533 0.9925103906324637 69 65 69 1.31 46 224 47 231 48 235 49 237 50 235 51 229 52 214 53 186 54 166 57 171 58 155 59 128 60 138 61 93 62 157 63 162 64 159 65 159 66 177 67 196 68 190 69 153 
592 -0.627373619892155 0.1876540768632341 0.9796699248895631 136 130 131 1.42 46 225 47 232 48 236 49 238 50 236 51 230 52 215 53 187 54 167 57 172 58 156 59 129 60 139 61 94 62 158 63 163 64 160 65 160 66 178 67 197 68 191 69 154 
593 -0.7680551830506884 0.28694474573973383 1.2704927526553553 90 73 66 1.55 54 168 57 173 58 157 59 130 60 140 62 159 63 164 64 161 65 161 66 179 67 198 68 192 69 155 70 154 
594 -0.8281435566120038 -0.03839305828315758 1.4538267103856968 159 153 157 4.3 46 226 47 233 48 237 49 239 50 237 51 231 52 216 53 188 54 169 57 174 58 158 59 131 60 141 62 160 63 165 64 162 65 162 66 180 67 199 68 193 69 156 70 155 71 127 
595 -0.7158899069901898 0.28466141896641517 1.182332508864063 65 53 66 2.36 49 240 50 238 51 232 52 217 53 189 54 170 57 175 58 159 59 132 62 161 63 166 64 163 65 163 66 181 67 200 68 194 69 157 70 156 
596 -0.755364696968418 0.3716012865923373 1.2540447098304315 43 44 48 2.69 49 241 52 218 53 190 54 171 57 176 58 160 59 133 62 162 63 167 64 164 65 164 66 182 67 201 68 195 69 158 70 157 
597 -0.5711185439431095 0.07064420895680701 0.9020310063740465 46 35 40 2.59 46 227 47 234 48 238 49 242 50 239 51 233 52 219 53 191 54 172 57 177 58 161 59 134 60 142 61 95 62 163 63 168 64 165 65 165 66 183 67 202 68 196 69 159 
598 -0.49253978361814976 0.07058169267120287 0.6718652536088747 56 60 54 4.15 46 228 47 235 48 239 49 243 50 240 51 234 52 220 53 192 54 173 57 178 59 135 60 143 61 96 62 164 66 184 67 203 69 160 70 158 71 128 72 95 73 47 
599 -0.5030263870856727 -0.15956222235794157 0.7805126600174833 116 121 125 3.61 46 229 47 236 48 240 49 244 50 241 51 235 52 221 53 193 54 174 57 179 58 162 59 136 60 144 61 97 62 165 63 169 64 166 65 166 66 185 67 204 68 197 69 161 70 159 71 129 72 96 
600 -0.5601116855531562 0.2251251660474893 0.8586282146779084 64 48 58 1.91 46 230 47 237 48 241 49 245 50 242 51 236 52 222 53 194 54 175 57 180 58 163 59 137 61 98 62 166 63 170 64 167 65 167 66 186 67 205 68 198 
601 -0.693765427319585 0.34024212565087464 1.0024746071914166 27 24 24 1.48 46 231 47 238 48 242 49 246 50 243 51 237 52 223 53 195 54 176 57 181 58 164 59 138 62 167 63 171 64 168 65 168 66 187 67 206 68 199 69 162 70 160 
602 -0.7290728394334407 0.35139306323282704 1.0524559035525913 105 109 116 1.94 46 232 47 239 48 243 49 247 50 244 51 238 52 224 53 196 54 177 57 182 58 165 59 139 62 168 63 172 64 169 65 169 66 188 67 207 68 200 69 163 70 161 
603 -0.7392624235579983 -0.04068324997721473 1.2535802350789933 135 127 132 3.29 46 233 47 240 48 244 49 248 50 245 51 239 52 225 53 197 54 178 57 183 58 166 59 140 60 145 62 169 63 173 64 170 65 170 66 189 67 208 68 201 69 164 70 162 71 130 72 97 
604 -0.49002850256286645 -0.07385789670710109 0.7427834663787258 79 72 80 3.82 46 234 47 241 48 245 49 249 50 246 51 240 52 226 53 198 54 179 57 184 58 167 59 141 60 146 61 99 62 170 63 174 64 171 65 171 66 190 67 209 68 202 69 165 70 163 71 131 72 98 
605 -0.5996264294382048 0.05408969473585884 0.9418618480978883 56 50 53 2.16 46 235 47 242 48 246 49 250 50 247 51 241 52 227 53 199 54 180 57 185 58 168 59 142 60 147 61 100 62 171 63 175 64 172 65 172 66 191 67 210 68 203 69 166 72 99 
606 -0.6503545932131471 0.24024502471090256 1.0231159596775998 144 136 135 1.33 46 236 47 243 48 247 49 251 50 248 51 242 52 228 53 200 54 181 57 186 58 169 59 143 60 148 61 101 62 172 63 176 64 173 65 173 66 192 67 211 68 204 69 167 
607 -0.6642867122997291 -0.16434999915246937 1.10795110849778 167 170 165 2.66 46 237 47 244 48 248 49 252 50 249 51 243 52 229 53 201 54 182 57 187 58 170 59 144 60 149 61 102 62 173 63 177 64 174 65 174 66 193 67 212 68 205 69 168 70 164 71 132 72 100 
608 -0.5279965995184798 0.26565841848111893 0.6666931427921423 71 66 66 2.82 46 238 47 245 48 249 49 253 50 250 51 244 52 230 53 202 54 183 57 188 59 145 62 174 63 178 64 175 65 175 66 194 67 213 68 206 70 165 71 133 72 101 
609 -0.6759721632908433 0.1463100976361791 1.0870454326052956 161 162 166 1.57 46 239 47 246 48 250 49 254 50 251 51 245 52 231 53 203 54 184 57 189 58 171 59 146 60 150 61 103 62 175 63 179 64 176 65 176 66 195 67 214 68 207 69 169 70 166 
610 -0.6079637762751727 0.222244251481012 0.9349398749479458 154 149 145 1.33 46 240 47 247 48 251 49 255 50 252 51 246 52 232 53 204 54 185 57 190 58 172 59 147 60 151 61 104 62 176 63 180 64 177 65 177 66 196 67 215 68 208 
611 -0.5179288958112348 0.0529550423810179 0.7791997842240085 184 183 180 2.76 46 241 47 248 48 252 49 256 50 253 51 247 52 233 53 205 54 186 57 191 58 173 59 148 60 152 61 105 62 177 63 181 64 178 65 178 66 197 67 216 71 134 72 102 
612 -0.6659434285743286 -0.14833852508363785 1.1081265094268828 193 192 188 2.61 46 242 47 249 48 253 49 257 50 254 51 248 52 234 53 206 54 187 57 192 58 174 59 149 60 153 61 106 62 178 63 182 64 179 65 179 66 198 67 217 68 209 69 170 70 167 71 135 72 103 
613 -0.4494853728705559 -0.20878079411340386 0.685685999607501 116 95 102 4.32 46 243 47 250 48 254 49 258 50 255 51 249 52 235 53 207 54 188 57 193 59 150 60 154 61 107 62 179 63 183 64 180 65 180 66 199 67 218 68 210 69 171 70 168 71 136 72 104 
614 -0.48847736911107975 -0.23884732709977952 0.7647092642680496 107 110 117 3.91 46 244 47 251 48 255 49 259 50 256 51 250 52 236 53 208 54 189 57 194 58 175 59 151 60 155 61 108 62 180 63 184 64 181 65 181 66 200 67 219 68 211 69 172 70 169 71 137 72 105 
615 -0.5404819974818732 -0.06306729034236272 0.8395240220459889 152 161 171 3.03 46 245 47 252 48 256 49 260 50 257 51 251 52 237 53 209 54 190 57 195 58 176 59 152 60 156 61 109 62 181 63 185 64 182 65 182 66 201 67 220 68 212 69 173 70 170 71 138 72 106 
616 -0.5900901914860804 0.006656926133727042 0.930444090840585 153 154 153 2.24 46 246 47 253 48 257 49 261 50 258 51 252 52 238 53 210 54 191 57 196 58 177 59 153 60 157 61 110 62 182 63 186 64 183 65 183 66 202 67 221 68 213 69 174 72 107 
617 -0.7717019929471667 0.14304002822578435 1.306044305675627 60 48 56 2.71 49 262 50 259 51 253 52 239 53 211 54 192 57 197 58 178 59 154 60 158 62 183 63 187 64 184 65 184 66 203 67 222 68 214 69 175 70 171 
618 -0.6590478130160483 0.3230577135896584 0.8979407547399956 107 110 116 3.08 46 247 47 254 48 258 49 263 50 260 51 254 52 240 53 212 54 193 57 198 58 179 59 155 62 184 63 188 64 185 65 185 66 204 67 223 68 215 69 176 70 172 
619 -0.684505052340197 0.16763918808487913 1.1019386324858869 167 165 165 1.48 46 248 47 255 48 259 49 264 50 261 51 255 52 241 53 213 54 194 57 199 58 180 59 156 60 159 61 111 62 185 63 189 64 186 65 186 66 205 67 224 68 216 69 177 70 173 
620 -0.5156700714955372 0.27506547290466 0.748095229152687 66 58 59 2.39 46 249 47 256 48 260 49 265 50 262 51 256 52 242 53 214 54 195 57 200 58 181 59 157 62 186 63 190 64 187 65 187 66 206 67 225 71 139 72 108 
621 -0.46726638961905415 -0.2544916742392424 0.7278563645506243 160 159 159 4.83 46 250 47 257 48 261 49 266 50 263 51 257 52 243 53 215 54 196 57 201 58 182 59 158 60 160 61 112 62 187 63 191 64 188 65 188 66 207 67 226 68 217 69 178 70 174 71 140 72 109 
622 -0.7173943622808243 0.03243853838598645 1.1941735388900783 157 154 154 2.44 46 251 47 258 48 262 49 267 50 264 51 258 52 244 53 216 54 197 57 202 58 183 59 159 60 161 61 113 62 188 63 192 64 189 65 189 66 208 67 227 68 218 69 179 70 175 71 141 
623 -0.6936429491969076 0.34021186736931636 1.0089376720357728 157 169 171 1.67 46 252 47 259 48 263 49 268 50 265 51 259 52 245 53 217 54 198 57 203 58 184 59 160 62 189 63 193 64 190 65 190 66 209 67 228 68 219 69 180 70 176 
624 -0.5683480756629578 -0.23510720301200683 0.9209842322915135 95 93 101 3.11 46 253 47 260 48 264 49 269 50 266 51 260 52 246 53 218 54 199 57 204 58 185 59 161 60 162 61 114 62 190 63 194 64 191 65 191 66 210 67 229 68 220 69 181 70 177 71 142 72 110 
625 -0.6582552716990776 0.3251720049518864 0.9316492052768701 31 36 32 2.28 46 254 47 261 48 265 49 270 50 267 51 261 52 247 53 219 54 200 57 205 58 186 59 162 62 191 63 195 64 192 65 192 66 211 67 230 68 221 69 182 70 178 
626 -0.5599295973128637 -0.1860733117828421 0.8941810135409738 159 162 165 2.98 46 255 47 262 48 266 49 271 50 268 51 262 52 248 53 220 54 201 57 206 58 187 59 163 60 163 61 115 62 192 63 196 64 193 65 193 66 212 67 231 68 222 69 183 70 179 71 143 72 111 
627 -0.5221484343242999 0.21677700299712319 0.7592043245087792 155 149 147 1.92 46 256 47 263 48 267 49 272 50 269 51 263 52 249 53 221 54 202 57 207 58 188 59 164 61 116 62 193 63 197 64 194 65 194 66 213 72 112 
628 -0.5418073092525438 -0.20210874526679945 0.8615057166190047 138 137 140 3.27 46 257 47 264 48 268 49 273 50 270 51 264 52 250 53 222 54 203 57 208 58 189 59 165 60 164 61 117 62 194 63 198 64 195 65 195 66 214 67 232 68 223 69 184 70 180 71 144 72 113 
629 -0.6976273230186316 0.2542979170692031 1.129869855855785 49 31 38 2.1 48 269 49 274 50 271 51 265 52 251 53 223 54 204 57 209 58 190 59 166 60 165 61 118 62 195 63 199 64 196 65 196 66 215 67 233 68 224 69 185 70 181 
630 -0.5524214382904581 0.20950335500981268 0.566478199396328 40 41 39 6.12 46 258 48 270 49 275 50 272 52 252 59 167 63 200 64 197 65 197 66 216 67 234 68 225 69 186 70 182 71 145 72 114 
631 -0.5148920891854333 -0.05804931254652817 0.7877810366351231 68 65 74 3.24 46 259 47 265 48 271 49 276 50 273 51 266 52 253 53 224 54 205 57 210 58 191 59 168 60 166 61 119 62 196 63 201 64 198 65 198 66 217 67 235 68 226 69 187 70 183 71 146 72 115 
632 -0.6980726817137493 -0.01998321642149195 1.1607562846619306 172 175 177 2.94 46 260 47 266 48 272 49 277 50 274 51 267 52 254 53 225 54 206 57 211 58 192 59 169 60 167 61 120 62 197 63 202 64 199 65 199 66 218 67 236 68 227 69 188 70 184 71 147 72 116 
633 -0.5161723667781184 0.28015694874229913 0.7296456585138529 57 54 53 3.09 46 261 47 267 48 273 49 278 50 275 51 268 52 255 53 226 54 207 57 212 58 193 59 170 62 198 63 203 64 200 65 200 66 219 67 237 68 228 70 185 71 148 72 117 
634 -0.4452006830232338 -0.3032791923515122 0.6910139808312052 81 66 78 3.2 46 262 47 268 48 274 49 279 50 276 51 269 52 256 53 227 54 208 57 213 59 171 60 168 61 121 63 204 67 238 
635 -0.8617316766772422 0.32149986622152626 0.8501239460800506 89 78 87 4.69 49 280 50 277 51 270 52 257 53 228 54 209 57 214 58 194 59 172 62 199 63 205 64 201 65 201 66 220 67 239 68 229 
636 -0.5478690496367904 -0.2664894725628827 0.8869613256266186 125 123 134 3.7 46 263 47 269 48 275 49 281 50 278 51 271 52 258 53 229 54 210 57 215 58 195 59 173 60 169 61 122 62 200 63 206 64 202 65 202 66 221 67 240 68 230 69 189 70 186 71 149 72 118 
637 -0.6194153726685823 0.2503641757511606 0.9567137796256622 84 54 56 1.36 46 264 47 270 48 276 49 282 50 279 51 272 52 259 53 230 54 211 57 216 58 196 59 174 61 123 62 201 63 207 64 203 65 203 66 222 67 241 68 231 69 190 
638 -0.4048059729507745 -0.21960820267996742 0.6065865199779831 81 67 75 4.68 46 265 47 271 48 277 49 283 50 280 51 273 52 260 53 231 54 212 57 217 59 175 61 124 63 208 64 204 65 204 66 223 67 242 68 232 69 191 70 187 71 150 74 210 
639 -0.611973074816809 0.2007143209401633 0.9464283841747707 140 133 133 1.43 46 266 47 272 48 278 49 284 50 281 51 274 52 261 53 232 54 213 57 218 58 197 59 176 60 170 61 125 62 202 63 209 64 205 65 205 66 224 67 243 68 233 69 192 
640 -0.5323739635735247 0.05357132657737941 0.8266332562237675 57 41 47 2.92 46 267 47 273 48 279 49 285 50 282 51 275 52 262 53 233 54 214 57 219 58 198 59 177 60 171 61 126 62 203 63 210 64 206 65 206 66 225 67 244 68 234 72 119 
641 -0.546212811793466 0.29125740210649986 0.7591981963304848 137 162 187 2.6 46 268 47 274 48 280 49 286 50 283 51 276 52 263 53 234 54 215 57 220 58 199 59 178 62 204 63 211 64 207 65 207 66 226 67 245 68 235 71 151 72 120 
642 -0.6485389551579145 -0.011399194139900998 1.0512891579941637 158 160 161 2.22 46 269 47 275 48 281 49 287 50 284 51 277 52 264 53 235 54 216 57 221 58 200 59 179 60 172 61 127 62 205 63 212 64 208 65 208 66 227 67 246 68 236 69 193 70 188 71 152 72 121 
643 -0.5197469328880248 -0.279390076300408 0.8325751286376172 167 169 170 3.96 46 270 47 276 48 282 49 288 50 285 51 278 53 236 54 217 57 222 58 201 59 180 60 173 61 128 63 213 64 209 65 209 66 228 67 247 68 237 69 194 70 189 71 153 72 122 
644 -0.6241216273071201 -0.040010719182027324 1.0027358819605892 183 181 176 2.33 46 271 47 277 48 283 49 289 50 286 51 279 52 265 53 237 54 218 57 223 58 202 59 181 60 174 61 129 62 206 63 214 64 210 65 210 66 229 67 248 68 238 69 195 70 190 71 154 72 123 
645 -0.7292620230308201 -0.05620356582736816 1.233224117367463 157 156 158 2.97 46 272 47 278 48 284 49 290 50 287 51 280 52 266 53 238 54 219 57 224 58 203 59 182 60 175 61 130 62 207 63 215 64 211 65 211 66 230 67 249 68 239 69 196 70 191 71 155 72 124 
646 -0.4508533692023248 -0.330691534612505 0.7035642155770632 182 183 176 2.97 46 273 47 279 48 285 49 291 50 288 51 281 52 267 53 239 54 220 57 225 59 183 60 176 61 131 63 216 
647 -0.8552667765400191 0.17951113301831367 1.3382503508059367 32 50 49 5.54 51 282 52 268 53 240 54 221 57 226 58 204 59 184 60 177 62 208 63 217 64 212 65 212 66 231 67 250 68 240 70 192 71 156 
648 -0.6056165307660385 -0.009204719791137735 0.9612359503664467 114 118 129 2.12 46 274 47 280 48 286 49 292 50 289 51 283 52 269 53 241 54 222 57 227 58 205 59 185 60 178 61 132 62 209 63 218 64 213 65 213 66 232 67 251 68 241 69 197 70 193 72 125 
649 -0.7482416095696548 -0.16085147854227017 1.294724036851214 165 154 152 3.73 46 275 47 281 48 287 49 293 50 290 51 284 52 270 53 242 57 228 58 206 59 186 60 179 62 210 63 219 64 214 65 214 66 233 67 252 68 242 69 198 70 194 71 157 72 126 
650 -0.782941125467553 -0.11026353162697457 1.3663912832116465 162 155 149 3.66 46 276 47 282 48 288 49 294 50 291 51 285 52 271 53 243 54 223 57 229 58 207 59 187 60 180 62 211 63 220 64 215 65 215 66 234 67 253 68 243 69 199 70 195 71 158 72 127 
651 -0.560038685905337 0.12195849816404358 0.5478084409980433 9 13 10 6.24 49 295 50 292 52 272 59 188 61 133 63 221 64 216 69 200 70 196 
652 0.44208078429889686 0.097277258330883 0.8876197585139693 52 58 54 1.82 79 189 80 182 81 182 82 167 83 174 84 159 85 161 88 211 
653 0.35361571154247706 0.11917660622783548 0.8169046290612364 57 37 38 1.27 79 190 80 183 81 183 82 168 83 175 84 160 85 162 86 161 
654 0.18901944169179039 0.005272425823219748 0.7434136299004108 56 59 59 2.04 79 191 80 184 81 184 82 169 83 176 
655 0.17465871960661303 -0.25300804072202904 0.7810919857312592 124 104 100 2.37 79 192 80 185 81 185 82 170 83 177 85 163 86 162 87 171 88 212 89 212 90 18 91 16 92 16 93 19 94 17 95 15 96 13 
656 0.4277737941921638 -0.18916117231839277 0.9273082163122645 138 158 180 3.82 79 193 80 186 81 186 82 171 83 178 84 161 85 164 86 163 87 172 88 213 89 213 90 19 91 17 92 17 93 20 94 18 95 16 96 14 97 5 
657 0.32518584651773214 -0.0670319168196994 0.8336219841249576 119 105 101 1.87 79 194 80 187 81 187 82 172 83 179 84 162 85 165 90 20 91 18 92 18 93 21 94 19 95 17 
658 0.19505250256512632 0.064897101691278 0.5367107946861492 132 153 83 3.81 79 195 82 173 83 180 89 214 91 19 
659 0.586268217978401 -0.122170316224296 1.0007829860621065 58 64 77 1.88 79 196 80 188 81 188 84 163 85 166 86 164 87 173 88 214 89 215 90 21 91 20 92 19 93 22 94 20 95 18 96 15 97 6 
660 0.2689553195472568 0.09557207014719879 0.785560963270367 143 150 166 1.39 79 197 80 189 81 189 82 174 83 181 84 164 85 167 86 165 87 174 
661 0.8523338762376687 -0.24621134047952775 1.1688975693709733 84 71 65 2.92 79 198 80 190 81 190 84 165 85 168 86 166 87 175 88 215 89 216 90 22 91 21 92 20 93 23 94 21 95 19 
662 0.3356989291623554 -0.06895078512997085 0.8400831350479736 155 150 149 1.84 79 199 80 191 81 191 82 175 83 182 84 166 85 169 89 217 90 23 91 22 92 21 93 24 94 22 95 20 
663 0.2189637550945157 -0.17342263488657528 0.7928433841663272 156 157 158 1.65 79 200 80 192 81 192 82 176 83 183 84 167 85 170 86 167 87 176 88 216 89 218 90 24 91 23 92 22 93 25 94 23 95 21 96 16 
664 0.10832888066621335 0.07307365985787471 0.6956507313156476 51 47 50 3.07 79 201 80 193 82 177 83 184 88 217 89 219 90 25 91 24 
665 0.4926948931011777 -0.01514195488351684 0.9224577257914709 77 71 80 1.86 79 202 80 194 81 193 87 177 88 218 89 220 90 26 91 25 92 23 93 26 94 24 95 22 96 17 
666 0.1062856109964165 0.04587907270882742 0.7031231315951741 124 136 158 2.45 79 203 80 195 82 178 83 185 88 219 
667 0.10418468907414243 -0.0878938336068775 0.7070954236762188 49 50 45 2.95 79 204 80 196 82 179 83 186 90 27 93 27 94 25 95 23 96 18 
668 0.4221903766041608 0.010232828339930852 0.8746393887842014 86 88 98 1.81 79 205 80 197 81 194 82 180 83 187 84 168 88 220 89 221 90 28 91 26 
669 0.26527796290536965 0.10232734046652822 0.7694395428886104 99 86 84 1.79 79 206 80 198 81 195 82 181 83 188 84 169 85 171 86 168 87 178 88 221 
670 0.18654694932459484 -0.12054642383917112 0.7640529472336676 153 149 147 2.37 79 207 80 199 81 196 82 182 83 189 85 172 86 169 87 179 88 222 89 222 90 29 91 27 92 24 93 28 94 26 95 24 96 19 
671 0.5929429975646479 0.02187928606481429 0.6930016104401839 76 85 49 3.31 79 208 80 200 81 197 83 190 84 170 85 173 86 170 87 180 88 223 89 223 90 30 91 28 94 27 
672 0.16274862714900853 -0.1779082748867048 0.7707028339277746 109 126 150 2.87 79 209 80 201 81 198 82 183 83 191 85 174 86 171 87 181 88 224 89 224 90 31 91 29 92 25 93 29 94 28 95 25 96 20 
673 0.2920679225030479 -0.0023077479880671903 0.805349464129032 125 117 118 1.4 79 210 80 202 81 199 82 184 83 192 84 171 85 175 86 172 91 30 
674 0.5553943305955118 0.047319030913880865 0.7117572909068076 91 98 79 3.45 79 211 80 203 81 200 82 185 83 193 84 172 85 176 86 173 87 182 88 225 89 225 90 32 91 31 92 26 93 30 94 29 
675 0.6102123482380053 0.0009427562162629292 0.6844858866857823 74 90 46 5.38 79 212 80 204 81 201 83 194 84 173 85 177 86 174 87 183 88 226 89 226 90 33 91 32 
676 0.25762447430617297 -0.022302212844350206 0.7880553662313535 86 73 76 1.5 79 213 80 205 81 202 82 186 83 195 84 174 85 178 86 175 93 31 
677 0.2770177226552505 0.009862016094934492 0.813525238281594 61 70 65 1.8 79 214 80 206 81 203 82 187 83 196 84 175 85 179 86 176 91 33 
678 0.09044128947796296 -0.217061116475939 0.7271239748320606 140 140 140 3.57 79 215 80 207 82 188 83 197 88 227 89 227 90 34 91 34 92 27 93 32 94 30 95 26 96 21 
679 0.28805649103109693 0.12601943307442043 0.7976037527368783 121 135 145 1.67 79 216 80 208 81 204 82 189 83 198 84 176 85 180 86 177 87 184 88 228 
680 0.2761064744915469 -0.2522475232952637 0.8394827640563008 107 89 82 2.3 79 217 80 209 81 205 82 190 83 199 84 177 85 181 86 178 87 185 88 229 89 228 90 35 91 35 92 28 93 33 94 31 95 27 96 22 97 7 
681 0.2335883399527055 -0.14376139260787446 0.7958352442382074 151 146 145 1.65 79 218 80 210 81 206 82 191 83 200 84 178 85 182 86 179 87 186 88 230 89 229 90 36 91 36 92 29 93 34 94 32 95 28 96 23 
682 0.25315713760384395 -0.1681975609106469 0.8125573610399307 166 166 166 1.61 79 219 80 211 81 207 82 192 83 201 84 179 85 183 86 180 87 187 88 231 89 230 90 37 91 37 92 30 93 35 94 33 95 29 96 24 
683 0.5662746020418374 0.045233579648996734 0.7122523089326387 56 70 52 4.48 79 220 80 212 81 208 82 193 83 202 84 180 85 184 86 181 87 188 88 232 89 231 90 38 91 38 92 31 93 36 94 34 
684 0.2514412394962326 -0.021165970663395088 0.5052895839311728 96 111 81 3.68 79 221 82 194 83 203 
685 0.20688059511525037 0.12711872388456422 0.5375623952445567 61 68 34 4.55 79 222 82 195 83 204 89 232 
686 0.2648976028817027 -0.07918731039266959 0.8003900034412058 54 43 34 1.91 79 223 80 213 81 209 82 196 83 205 84 181 85 185 86 182 88 233 90 39 91 39 92 32 93 37 94 35 95 30 
687 0.15777626215319132 -0.007613595341889442 0.7301565069422363 26 22 15 2.51 79 224 80 214 81 210 82 197 83 206 
688 0.29956749939219424 -0.1470058232390341 0.8484070587921115 63 65 67 2.3 79 225 80 215 81 211 82 198 83 207 84 182 85 186 86 183 87 189 88 234 89 233 90 40 91 40 92 33 93 38 94 36 95 31 96 25 
689 0.16941645795111712 -0.09620528093425368 0.7523552885515542 42 34 43 2.68 79 226 80 216 81 212 82 199 83 208 88 235 89 234 90 41 91 41 92 34 93 39 94 37 95 32 96 26 
690 0.5137918731706922 0.0512100892588552 0.7401235662944705 45 56 28 5.17 79 227 80 217 81 213 82 200 83 209 84 183 85 187 86 184 87 190 88 236 89 235 90 42 91 42 
691 0.2626892837686975 -0.147011141071493 0.8171935324064461 102 103 116 1.64 79 228 80 218 81 214 82 201 83 210 84 184 85 188 86 185 87 191 88 237 89 236 90 43 91 43 92 35 93 40 94 38 95 33 96 27 
692 0.32650786952773353 0.10977574730861557 0.8212490776701645 140 151 164 1.21 79 229 80 219 81 215 82 202 83 211 84 185 85 189 86 186 
693 0.05670795694719522 -0.21748881969103734 0.7087263562843507 125 116 106 4.03 79 230 82 203 83 212 88 238 89 237 90 44 91 44 92 36 93 41 94 39 95 34 96 28 
694 0.5730458609736795 -0.20463179796968115 1.0072346564801182 168 156 150 1.73 79 231 80 220 81 216 84 186 85 190 86 187 87 192 88 239 89 238 90 45 91 45 92 37 93 42 94 40 95 35 96 29 97 8 
695 0.12063157266522076 -0.015753817399780674 0.7093439655055237 133 131 130 2.23 79 232 80 221 82 204 83 213 
696 0.42972686366703305 -0.11346658550880176 0.9104602681018394 133 144 160 2.7 79 233 80 222 81 217 82 205 83 214 84 187 85 191 86 188 87 193 88 240 89 239 90 46 91 46 92 38 93 43 94 41 95 36 96 30 97 9 
697 0.21371386457596164 -0.14223136727876448 0.7838548397692927 44 43 58 1.92 79 234 80 223 81 218 82 206 83 215 84 188 85 192 86 189 87 194 88 241 89 240 90 47 91 47 92 39 93 44 94 42 95 37 96 31 
698 0.5082362627081269 0.042506630328745534 0.9230459853724051 140 142 142 1.4 79 235 80 224 81 219 87 195 88 242 89 241 
699 0.30769252300086103 0.1251372229603136 0.8087345496830419 133 145 160 1.85 79 236 80 225 81 220 82 207 83 216 84 189 85 193 86 190 87 196 88 243 
700 0.27277906683725933 0.1174767880404291 0.7774929898612924 140 164 185 2.15 79 237 80 226 81 221 82 208 83 217 84 190 85 194 86 191 87 197 88 244 89 242 
701 0.32847272408446193 -0.23123384459334592 0.8664613981168925 115 90 92 2.11 79 238 80 227 81 222 82 209 83 218 84 191 85 195 86 192 87 198 88 245 89 243 90 48 91 48 92 40 93 45 94 43 95 38 96 32 97 10 
702 0.26040922956642804 0.1143189388879236 0.7608158142619603 121 116 118 1.89 79 239 80 228 81 223 82 210 83 219 84 192 85 196 86 193 87 199 89 244 
703 0.10393385835668095 -0.12953031174208027 0.7360166552024702 72 111 140 4.1 79 240 80 229 82 211 83 220 88 246 89 245 91 49 92 41 93 46 94 44 95 39 96 33 
704 0.5592913068120183 0.03160943194142881 0.7382967296179673 118 125 101 4.0 79 241 80 230 81 224 82 212 83 221 84 193 85 197 87 200 88 247 89 246 90 49 91 50 92 42 93 47 94 45 
705 0.2253835310320775 -0.2162993364759201 0.8045208508909283 154 148 144 1.82 79 242 80 231 81 225 82 213 83 222 84 194 85 198 86 194 87 201 88 248 89 247 90 50 91 51 92 43 93 48 94 46 95 40 96 34 
706 0.4166532641980924 0.11319456932880265 0.6171500415836506 18 22 14 5.23 79 243 80 232 81 226 82 214 83 223 
707 0.5345367927682904 0.059889505349492396 0.7226422966446894 62 72 41 3.48 79 244 80 233 81 227 82 215 83 224 84 195 85 199 86 195 87 202 88 249 89 248 90 51 91 52 92 44 
708 0.27293956792673457 0.017669003024357956 0.474163267659608 108 120 54 5.18 79 245 82 216 83 225 
