# 3D point list with one line of data per point:
#   POINT3D_ID, X, Y, Z, R, G, B, ERROR, TRACK[] as (IMAGE_ID, POINT2D_IDX)
# Number of points: 347, mean track length: 6.86
53 0.354679437545266 0.09867169834784635 0.9949922011867122 0 0 0 0.16 2 53 44 28 107 53 
54 0.4115453569475953 0.10191213968011738 1.0072067388035888 0 0 0 0.23 2 54 44 29 107 54 162 4 
55 0.2681611006908979 0.10171429628534207 0.9951621340264656 0 0 0 0.18 2 55 44 30 107 55 
56 0.27031927971445696 0.10156428869677318 0.9917102435610834 0 0 0 0.19 2 56 33 21 91 7 107 56 164 16 
57 0.2895995207792093 0.10716936934352123 0.9946008368736755 0 0 0 0.21 2 57 52 2 85 16 107 57 136 2 148 13 
58 0.3828060346457944 0.10729950004846278 0.994931760798906 0 0 0 0.24 2 58 4 13 85 17 107 58 
59 0.21321783342680595 0.10862026975548078 0.9964401290304857 0 0 0 0.24 2 59 40 17 44 31 85 18 107 59 109 7 
60 0.4100010996627603 0.1096176320570839 1.0054993224167463 0 0 0 0.2 2 60 4 14 105 18 107 60 
61 0.42809178951866617 0.11097964796492557 1.0146714503418977 0 0 0 0.42 2 61 4 15 19 23 60 9 85 19 105 19 107 61 127 2 163 1 
62 0.43160840246235166 0.11118540001923599 1.013804934315828 0 0 0 0.42 2 62 19 24 50 14 60 10 107 62 162 5 163 2 
63 0.23373922987804352 0.11002517035323084 0.9934911681344236 0 0 0 0.31 2 63 19 25 42 4 44 32 61 9 85 20 91 8 93 9 105 20 107 63 
64 0.271213384255103 0.11068113310518793 0.9928830479717278 0 0 0 0.24 2 64 11 5 19 26 33 22 40 18 105 21 107 64 110 5 136 3 146 8 148 14 164 17 165 12 
65 0.22226468136400096 0.11184103619333167 0.994479481367561 0 0 0 0.27 2 65 11 6 38 3 52 3 60 11 91 9 107 65 146 9 158 3 
66 0.22258645393063953 0.11188896793894809 0.9952126321804944 0 0 0 0.44 2 66 11 7 13 4 19 27 33 23 38 4 60 12 71 3 77 11 85 21 91 10 107 66 124 6 135 6 146 10 163 3 164 18 175 2 
67 0.2283923658905523 0.1119819368216127 0.9947414159284694 0 0 0 0.31 2 67 4 16 50 15 52 4 60 13 77 12 91 11 107 67 135 7 
68 0.3832464605901265 0.11573822746135147 0.9944838989664634 0 0 0 0.37 2 68 4 17 33 24 35 1 42 5 53 1 60 14 71 4 107 68 110 6 148 15 
69 0.3198427591574378 0.1187307541054255 0.9927070432937126 0 0 0 0.24 2 69 33 25 40 19 44 33 107 69 124 7 
70 0.3197768116487637 0.11872200397187928 0.992624053175035 0 0 0 0.26 2 70 19 28 33 26 44 34 105 22 107 70 124 8 
71 0.17986995258185043 0.1198856538683416 0.995008246769686 0 0 0 0.3 2 71 9 9 13 5 19 29 33 27 44 35 60 15 93 10 107 71 135 8 175 3 
72 0.35290191890087114 0.12080827927036075 0.9899317203319927 0 0 0 0.27 2 72 33 28 105 23 107 72 
73 0.1100635338582525 0.12304705137266678 0.9972763165964055 0 0 0 0.11 2 73 33 29 50 16 107 73 124 9 
74 0.3604513694948574 0.12623133061509412 0.9890576909783227 0 0 0 0.23 2 74 4 18 11 8 19 30 33 30 40 20 42 6 105 24 107 74 148 16 164 19 
75 0.39032886349971607 0.12857092664432282 0.9930181298797368 0 0 0 0.25 2 75 4 19 19 31 32 9 33 31 40 21 42 7 44 36 52 5 60 16 77 13 85 22 105 25 107 75 127 3 148 17 164 20 165 13 
76 0.3812053450488966 0.1321591956616775 0.9914432527385899 0 0 0 0.31 2 76 4 20 44 37 50 17 105 26 107 76 164 21 
77 0.42704828542558587 0.1353369770385219 1.0097895052711936 0 0 0 0.19 2 77 4 21 19 32 44 38 107 77 
78 0.35584689261538405 0.1365353575637445 0.9879436173475021 0 0 0 0.46 2 78 19 33 33 32 40 22 107 78 111 1 162 6 163 4 164 22 
79 0.32130288118952144 0.14424375588362423 0.9873112235400173 0 0 0 0.17 2 79 19 34 36 2 40 23 42 8 60 17 107 79 
80 -0.0038849356062581946 -0.09785849148950468 1.0401265871982057 0 0 0 0.44 2 80 19 35 107 80 
81 0.12353452109979007 -0.08759313185201668 1.0345291942483532 0 0 0 0.26 2 81 9 10 19 36 33 33 40 24 44 39 50 18 92 12 93 11 107 81 109 8 124 10 135 9 157 5 159 5 164 23 175 4 
82 0.37748729149359933 -0.08704149103111433 1.0303217377013614 0 0 0 0.46 2 82 4 22 32 10 40 25 43 0 44 40 77 14 85 23 92 13 93 12 105 27 107 82 124 11 146 11 165 14 
83 -0.2266273374623631 -0.09000757960506442 1.0733489467872945 0 0 0 0.36 2 83 71 5 77 15 93 13 107 83 111 2 
84 0.31655719303236957 -0.08543991577721888 1.0300892041453789 0 0 0 0.27 2 84 9 11 19 37 33 34 40 26 105 28 107 84 
85 0.31654697197542225 -0.08542976851731847 1.0300765140132235 0 0 0 0.28 2 85 19 38 32 11 33 35 40 27 105 29 107 85 
86 0.3199090036554319 -0.0852566363408934 1.0290421082609094 0 0 0 0.23 2 86 19 39 40 28 44 41 105 30 107 86 
87 0.3240657027835588 -0.08519074529757309 1.02890912222993 0 0 0 0.25 2 87 9 12 17 2 19 40 33 36 40 29 44 42 50 19 61 10 105 31 107 87 146 12 
88 -0.22805561546545325 -0.08709708386497751 1.0756371719091504 0 0 0 0.27 2 88 3 2 4 23 9 13 19 41 32 12 33 37 44 43 50 20 53 2 60 18 61 11 77 16 85 24 92 14 93 14 107 88 109 9 110 7 111 3 118 3 124 12 146 13 148 18 157 6 158 4 159 6 162 7 164 24 176 7 
89 -0.2279811580990275 -0.08710233720145523 1.075534890251369 0 0 0 0.23 2 89 4 24 9 14 11 9 19 42 32 13 33 38 44 44 50 21 60 19 77 17 92 15 93 15 107 89 109 10 110 8 111 4 118 4 146 14 148 19 157 7 159 7 162 8 164 25 176 8 
90 0.2862929379681552 -0.08275409711514667 1.029134502383805 0 0 0 0.32 2 90 60 20 93 16 107 90 
91 0.3258171387611254 -0.08275343951608594 1.029290272245652 0 0 0 0.23 2 91 9 15 33 39 105 32 107 91 
92 -0.20727382759016486 -0.08487306139214125 1.071468022980841 0 0 0 0.35 2 92 32 14 33 40 40 30 44 45 60 21 92 16 107 92 110 9 148 20 164 26 
93 0.3852997911319288 -0.08127526092264065 1.0284084725448885 0 0 0 0.31 2 93 4 25 19 43 40 31 77 18 91 12 107 93 110 10 136 4 
94 -0.2125147931665688 -0.08447963752662681 1.071577039464859 0 0 0 0.27 2 94 3 3 9 16 33 41 40 32 53 3 60 22 85 25 92 17 93 17 107 94 109 11 127 4 148 21 159 8 162 9 164 27 
95 -0.3480032041506592 -0.06411470730895118 1.0963948958597434 0 0 0 0.4 2 95 3 4 44 46 50 22 85 26 92 18 107 95 109 12 110 11 148 22 
96 -0.17156927856710447 -0.028257477069009995 1.0567578390717358 0 0 0 0.45 2 96 4 26 32 15 38 5 50 23 77 19 92 19 107 96 110 12 111 5 118 5 124 13 146 15 148 23 157 8 159 9 164 28 176 9 
97 0.37356507598216143 -0.02710898128111374 1.0210278426083905 0 0 0 0.3 38 6 52 6 107 97 164 29 
98 -0.2992971794610318 -0.017787127105917535 1.0787247346144164 0 0 0 0.28 2 97 17 3 77 20 107 98 
99 0.39103716892377705 0.00035872206208251964 1.015392743411836 0 0 0 0.23 2 98 33 42 44 47 92 20 107 99 118 6 165 15 
100 0.4021762176200419 0.011809414866503646 1.0185022838644435 0 0 0 0.3 2 99 4 27 11 10 17 4 19 44 42 9 44 48 50 24 61 12 77 21 85 27 91 13 92 21 105 33 107 100 118 7 136 5 148 24 162 10 164 30 165 16 
101 0.40902965012524545 0.012173903984837886 1.019806889950875 0 0 0 0.46 2 100 4 28 19 45 32 16 44 49 63 1 107 101 165 17 
102 0.4248464044844375 0.01868868455962402 1.0277135788030265 0 0 0 0.27 2 101 11 11 19 46 60 23 63 2 71 6 77 22 91 14 92 22 105 34 107 102 111 6 118 8 162 11 163 5 164 31 165 18 
103 0.42125996231781204 0.021229713490028917 1.0259343225569209 0 0 0 0.35 2 102 4 29 19 47 60 24 77 23 92 23 107 103 110 13 148 25 162 12 165 19 
104 0.38495028510530954 0.04198175185338229 1.0082689114266903 0 0 0 0.22 2 103 17 5 61 13 85 28 92 24 107 104 110 14 118 9 148 26 165 20 
105 0.3241955877486307 0.044326606630404324 1.0012850048146165 0 0 0 0.19 2 104 40 33 53 4 73 1 107 105 165 21 
106 0.37570541829132253 0.045551259591648435 1.0084109353744621 0 0 0 0.19 2 105 4 30 91 15 107 106 164 32 
107 -0.25010238317475003 0.048031454675989585 1.0578444563678195 0 0 0 0.33 2 106 4 31 19 48 33 43 44 50 50 25 77 24 85 29 93 18 107 107 109 13 110 15 118 10 148 27 164 33 
108 -0.25017717598784744 0.04799800167481719 1.0579782385808572 0 0 0 0.36 2 107 4 32 19 49 44 51 50 26 85 30 107 108 109 14 148 28 164 34 
109 0.4241266016561902 0.047254246842247105 1.022931719306794 0 0 0 0.28 2 108 19 50 40 34 44 52 92 25 107 109 
110 -0.2633504301640017 0.05338603558504376 1.0543318222685978 0 0 0 0.46 2 109 93 19 107 110 148 29 162 13 
111 -0.26133347756317715 0.06108917875938696 1.0554378952497732 0 0 0 0.31 2 110 93 20 107 111 162 14 
112 -0.21991502727336176 0.06289847571384727 1.049601518198774 0 0 0 0.26 2 111 17 6 19 51 107 112 
113 0.1421987978196389 0.06007535527062718 1.0039131195334676 0 0 0 0.31 2 112 9 17 19 52 32 17 33 44 40 35 44 53 60 25 61 14 77 25 85 31 93 21 107 113 111 7 124 14 135 10 136 6 158 5 162 15 
114 0.2172932656188696 0.06081753078462775 1.0033927828605027 0 0 0 0.23 2 113 9 18 14 0 19 53 32 18 33 45 40 36 44 54 50 27 61 15 107 114 111 8 124 15 135 11 158 6 162 16 163 6 175 5 
115 0.287958560362226 0.061751273039999145 1.0018937535044807 0 0 0 0.19 2 114 19 54 33 46 40 37 42 10 44 55 50 28 60 26 61 16 92 26 105 35 107 115 124 16 162 17 164 35 
116 0.34769470191318746 0.06285382117272044 1.0012550422486963 0 0 0 0.25 2 115 19 55 32 19 33 47 107 116 162 18 164 36 
117 -0.2421143539628965 0.06616723612556794 1.0488825108874884 0 0 0 0.55 2 116 19 56 44 56 107 117 146 16 162 19 
118 0.36538167612839545 0.06280210148460807 1.0014388199176667 0 0 0 0.36 2 117 44 57 92 27 107 118 165 22 
119 0.3820372794128334 0.06344262094194522 1.0023637253478426 0 0 0 0.22 2 118 11 12 17 7 19 57 32 20 33 48 40 38 44 58 50 29 53 5 61 17 73 2 85 32 91 16 92 28 105 36 107 119 111 9 118 11 164 37 165 23 
120 -0.1869069287857606 0.06640338259684177 1.037766789693809 0 0 0 0.3 2 119 33 49 93 22 107 120 
121 0.3448736641372402 0.06477178790039322 1.0035024375803607 0 0 0 0.3 2 120 32 21 35 2 36 3 44 59 50 30 61 18 93 23 107 121 
122 -0.2696569608418756 0.07039853925927954 1.0535683354564758 0 0 0 0.34 2 121 33 50 43 1 44 60 60 27 107 122 157 9 164 38 
123 0.381502799742046 0.06869044780503539 1.004441664040759 0 0 0 0.26 2 122 19 58 33 51 44 61 50 31 61 19 85 33 91 17 107 123 118 12 162 20 164 39 
124 0.427296619261973 0.07036308563442235 1.0170536850237342 0 0 0 0.25 2 123 19 59 61 20 107 124 111 10 
125 0.39653789287669367 0.07008294786875276 1.0031800214548672 0 0 0 0.31 2 124 3 5 4 33 19 60 33 52 44 62 60 28 71 7 77 26 85 34 91 18 105 37 107 125 110 16 136 7 148 30 162 21 163 7 165 24 
126 0.38851305834717387 0.07330458166365367 1.0018226863581223 0 0 0 0.2 2 125 4 34 11 13 19 61 33 53 40 39 44 63 50 32 60 29 61 21 71 8 77 27 85 35 91 19 105 38 107 126 110 17 127 5 136 8 148 31 162 22 165 25 
127 0.38385164041625713 0.07411558017445284 1.0020818192894436 0 0 0 0.16 2 126 4 35 33 54 44 64 73 3 107 127 162 23 164 40 
128 0.4167158841915504 0.07490138822178705 1.0140545402681835 0 0 0 0.41 2 127 3 6 42 11 50 33 53 6 85 36 107 128 147 0 164 41 
129 0.2168976660546092 0.07889911251547814 1.0019205225496963 0 0 0 0.24 2 128 9 19 19 62 33 55 40 40 44 65 50 34 61 22 107 129 111 11 124 17 135 12 162 24 
130 0.21689585441374973 0.07890959292718781 1.001876917953634 0 0 0 0.25 2 129 9 20 19 63 40 41 44 66 50 35 61 23 107 130 111 12 124 18 
131 -0.19526729714315566 0.08466082826964016 1.0370709429449796 0 0 0 0.37 2 130 19 64 33 56 44 67 50 36 60 30 77 28 107 131 146 17 158 7 162 25 164 42 176 10 
132 0.38773762320441324 0.09109913581380728 0.9988798870305624 0 0 0 0.32 2 131 11 14 19 65 40 42 42 12 44 68 52 7 60 31 63 3 77 29 105 39 107 132 110 18 111 13 148 32 164 43 165 26 
133 0.21748145420666046 0.09225581510603507 0.9993415270541369 0 0 0 0.21 2 132 33 57 44 69 50 37 107 133 
134 0.21749068926848455 0.09224349653189443 0.9996601599526884 0 0 0 0.3 2 133 33 58 44 70 61 24 107 134 127 6 163 8 
135 0.390591672378696 0.09255282843130425 0.9990507429618348 0 0 0 0.26 2 134 4 36 11 15 19 66 33 59 35 3 40 43 42 13 44 71 50 38 52 8 60 32 73 4 77 30 85 37 105 40 107 135 110 19 136 9 162 26 164 44 165 27 
136 0.3903809616294139 0.09790465251966078 0.9969586723883137 0 0 0 0.29 2 135 4 37 19 67 60 33 63 4 73 5 77 31 107 136 110 20 111 14 164 45 
137 -0.06440072736064542 0.10196372228439345 1.009399457454393 0 0 0 0.59 2 136 19 68 33 60 44 72 93 24 107 137 124 19 
138 0.37851790644409755 0.10311799031615596 0.9940089543914129 0 0 0 0.35 2 137 19 69 33 61 40 44 42 14 73 6 107 138 148 33 
139 0.420068549337094 0.11043106751408509 1.010020316899576 0 0 0 0.19 2 138 19 70 60 34 77 32 105 41 107 139 162 27 
140 0.2418037702803954 0.11224154276321832 0.9948054399582161 0 0 0 0.33 2 139 4 38 19 71 42 15 44 73 53 7 60 35 71 9 91 20 93 25 105 42 107 140 109 15 110 21 111 15 158 8 164 46 165 28 
141 0.3690561833203655 0.11649212618287538 0.9929815802891648 0 0 0 0.26 2 140 19 72 44 74 77 33 85 38 105 43 107 141 111 16 164 47 165 29 
142 0.36900266344312904 0.11660876520983977 0.9929237194698121 0 0 0 0.2 2 141 44 75 77 34 85 39 107 142 164 48 
143 0.37165113910600656 0.11720318248202449 0.9915357105811872 0 0 0 0.26 2 142 4 39 19 73 32 22 33 62 40 45 44 76 61 25 85 40 105 44 107 143 110 22 118 13 148 34 164 49 
144 0.3717145625153627 0.11718892563911652 0.9919759571769853 0 0 0 0.24 2 143 4 40 11 16 19 74 33 63 35 4 40 46 44 77 50 39 60 36 61 26 77 35 85 41 91 21 105 45 107 144 110 23 127 7 136 10 148 35 162 28 163 9 164 50 165 30 
145 0.10745212469454717 0.12146091117585835 0.9978911756831695 0 0 0 0.32 2 144 19 75 33 64 44 78 92 29 107 145 124 20 175 6 
146 0.3560663708503327 0.12119114377844642 0.9899768529414464 0 0 0 0.38 2 145 17 8 19 76 36 4 40 47 44 79 50 40 107 146 
147 0.395249109183214 0.12587074480787644 0.9966949940747882 0 0 0 0.1 2 146 33 65 107 147 162 29 
148 0.3952702709378637 0.1259601120585657 0.9969769437867708 0 0 0 0.24 2 147 4 41 11 17 17 9 33 66 43 2 107 148 162 30 164 51 165 31 
149 0.1418525732747983 -0.14943654290543937 1.045148721762488 0 0 0 0.29 2 148 4 42 11 18 33 67 38 7 43 3 50 41 61 27 63 5 71 10 89 0 93 26 96 1 107 149 118 14 157 10 164 52 
150 -0.24426092923661122 -0.15204887042400922 1.0904717473922232 0 0 0 0.27 2 149 50 42 61 28 107 150 152 1 
151 -0.36128370605376003 -0.12199921473439844 1.1091991827186773 0 0 0 0.33 2 150 44 80 92 30 107 151 
152 0.03391637323491409 -0.09701675415828125 1.0408602816693613 0 0 0 0.38 2 151 9 21 17 10 19 77 33 68 36 5 40 48 44 81 50 43 53 8 61 29 69 0 77 36 85 42 89 1 92 31 93 27 100 0 107 152 109 16 124 21 135 13 146 18 157 11 158 9 164 53 176 11 
153 -0.20313884959177728 -0.09097918552211987 1.0725239264776352 0 0 0 0.29 2 152 9 22 13 6 19 78 32 23 33 69 40 49 44 82 50 44 53 9 61 30 71 11 77 37 85 43 92 32 93 28 107 153 109 17 110 24 111 17 124 22 146 19 157 12 159 10 164 54 176 12 
154 -0.28034291208113266 -0.09017320502611437 1.0864463946121832 0 0 0 0.41 2 153 3 7 17 11 32 24 33 70 44 83 60 37 61 31 71 12 77 38 93 29 107 154 110 25 111 18 118 15 146 20 148 36 152 2 159 11 164 55 176 13 
155 -0.1672146455595785 -0.02467706247175201 1.0561754892313817 0 0 0 0.29 2 154 9 23 19 79 33 71 52 9 60 38 77 39 85 44 93 30 107 155 148 37 159 12 164 56 
156 0.13816915851566008 -0.018274224612398724 1.0232034851258107 0 0 0 0.28 2 155 3 8 4 43 11 19 33 72 38 8 52 10 63 6 69 1 77 40 91 22 107 156 148 38 175 7 
157 -0.1714868531932678 -0.015188737255927218 1.055652293528609 0 0 0 0.29 2 156 19 80 33 73 44 84 50 45 107 157 157 13 
158 0.434130203327431 0.0082368921066573 1.0349610551673902 0 0 0 0.35 2 157 19 81 60 39 63 7 89 2 107 158 110 26 127 8 136 11 162 31 
159 0.42959689539890733 0.0196944421838709 1.0304802487109124 0 0 0 0.41 2 158 60 40 61 32 105 46 107 159 127 9 163 10 
160 0.3993968170383195 0.03426843781593759 1.014047604556514 0 0 0 0.34 2 159 17 12 33 74 44 85 53 10 92 33 107 160 165 32 
161 0.357553582663747 0.04568758352723946 1.005865861831989 0 0 0 0.45 2 160 19 82 107 161 164 57 
162 0.3917124442645277 0.0641208223704212 1.002808108235388 0 0 0 0.26 2 161 3 9 11 20 17 13 19 83 33 75 40 50 44 86 60 41 61 33 63 8 92 34 107 162 163 11 164 58 
163 0.34405417096584556 0.08776051067084538 1.0007051521565908 0 0 0 0.36 2 162 40 51 44 87 50 46 61 34 73 7 107 163 111 19 136 12 158 10 162 32 
164 0.37223312297772454 0.08826573399210376 0.999286229633579 0 0 0 0.26 2 163 44 88 107 164 111 20 
165 0.21755032810838346 0.08935320158154643 1.0000413035349716 0 0 0 0.31 2 164 9 24 11 21 19 84 40 52 50 47 60 42 107 165 111 21 127 10 135 14 162 33 
166 0.21748324858972723 0.08946237487736619 0.9998923786249297 0 0 0 0.23 2 165 9 25 19 85 40 53 50 48 60 43 107 166 111 22 135 15 162 34 
167 0.14132880159548392 0.09437810680191984 0.9991995615588428 0 0 0 0.3 2 166 9 26 19 86 32 25 33 76 40 54 44 89 60 44 69 2 107 167 111 23 152 3 
168 0.3121838437093773 0.09853962812572603 0.9970810463079693 0 0 0 0.46 2 167 19 87 44 90 73 8 105 47 107 168 111 24 
169 0.27871462632985144 0.10061907851433602 0.9956593524694921 0 0 0 0.35 2 168 4 44 14 1 19 88 33 77 40 55 43 4 44 91 50 49 53 11 61 35 73 9 77 41 85 45 91 23 93 31 96 2 107 169 109 18 135 16 136 13 148 39 158 11 162 35 163 12 164 59 
170 0.4201659800665072 0.10370423892635147 1.0101839413300373 0 0 0 0.29 2 169 11 22 19 89 60 45 61 36 107 170 111 25 147 1 164 60 165 33 
171 0.42719764665410065 0.10471495431220314 1.0139074300330368 0 0 0 0.33 2 170 3 10 19 90 43 5 44 92 50 50 60 46 63 9 107 171 111 26 118 16 162 36 164 61 165 34 
172 0.23860415290966575 0.10408351172361278 0.99478046016914 0 0 0 0.34 2 171 19 91 33 78 40 56 42 16 43 6 85 46 88 0 91 24 96 3 107 172 109 19 111 27 127 11 148 40 162 37 163 13 164 62 
173 0.4058774093225406 0.10509729249512442 1.004643310220929 0 0 0 0.39 2 172 4 45 11 23 17 14 33 79 42 17 43 7 44 93 50 51 53 12 60 47 61 37 63 10 77 42 107 173 110 27 118 17 127 12 136 14 148 41 162 38 163 14 164 63 165 35 
174 0.3493276903759475 0.10533102559242237 0.9937882840203024 0 0 0 0.31 2 173 44 94 50 52 107 174 111 28 162 39 
175 0.3997633547468816 0.10765025630959803 1.0020954543081924 0 0 0 0.21 2 174 3 11 11 24 42 18 53 13 61 38 107 175 
176 0.3996672467162223 0.10773449208691221 1.001977815582013 0 0 0 0.2 2 175 3 12 11 25 17 15 42 19 44 95 50 53 61 39 77 43 107 176 118 18 148 42 163 15 
177 0.4193259054551299 0.11764878442008433 1.0089365015793337 0 0 0 0.36 2 176 3 13 4 46 17 16 19 92 32 26 42 20 44 96 50 54 53 14 60 48 85 47 105 48 107 177 110 28 111 29 127 13 136 15 164 64 165 36 
178 0.36270643895684096 0.12395821868563707 0.9889444483790752 0 0 0 0.56 2 177 3 14 4 47 11 26 17 17 19 93 32 27 33 80 40 57 43 8 44 97 50 55 61 40 63 11 77 44 85 48 105 49 107 178 111 30 118 19 127 14 146 21 148 43 158 12 165 37 
179 0.3975601421770381 0.12875558644799256 0.9975869830268344 0 0 0 0.4 2 178 11 27 17 18 19 94 43 9 107 179 111 31 148 44 
180 0.39738561302542885 0.006207819395729271 1.0175486852165379 0 0 0 0.29 2 179 4 48 17 19 19 95 32 28 33 81 40 58 42 21 52 11 60 49 63 12 71 13 73 10 77 45 85 49 91 25 105 50 107 180 111 32 118 20 136 16 147 2 148 45 162 40 164 65 165 38 
181 0.3982264022457106 0.016227740979791117 1.0153849251588962 0 0 0 0.33 2 180 19 96 43 10 60 50 73 11 77 46 105 51 107 181 111 33 165 39 
182 0.41716339614179787 0.018433299062035915 1.0257164326795596 0 0 0 0.52 2 181 3 15 4 49 19 97 42 22 60 51 63 13 71 14 85 50 91 26 107 182 111 34 162 41 164 66 165 40 
183 0.4348973128133582 0.019635267190683904 1.0331732641982792 0 0 0 0.56 2 182 107 183 111 35 162 42 163 16 
184 0.38170443110359586 0.04142345828610484 1.0090957072852227 0 0 0 0.38 2 183 3 16 17 20 40 59 92 35 107 184 111 36 148 46 165 41 
185 0.3921625671217492 0.07370781912197898 1.0013380075475766 0 0 0 0.47 2 184 3 17 4 50 14 2 17 21 19 98 33 82 35 5 42 23 43 11 44 98 53 15 61 41 63 14 69 3 71 15 73 12 77 47 85 51 89 3 100 1 105 52 107 185 110 29 118 21 127 15 129 0 147 3 148 47 162 43 164 67 165 42 
186 0.1498724620360846 0.09257489111305234 0.9997974468152434 0 0 0 0.49 2 185 9 27 19 99 33 83 44 99 50 56 61 42 92 36 93 32 107 186 111 37 135 17 136 17 148 48 163 17 
187 0.3353509174699632 0.0938880163907523 0.9982442671739117 0 0 0 0.24 2 186 11 28 33 84 40 60 43 12 88 1 105 53 107 187 
188 0.2506688984780634 0.1066517747941942 0.9920910022374189 0 0 0 0.34 2 187 4 51 19 100 33 85 40 61 43 13 44 100 52 12 53 16 60 52 63 15 71 16 85 52 88 2 91 27 105 54 107 188 110 30 127 16 147 4 148 49 162 44 163 18 164 68 165 43 
189 -0.2772566644309266 0.11557083590291736 1.0471675153225801 0 0 0 0.39 2 188 107 189 162 45 
190 0.3931967331539854 0.11926474129958559 0.9962585144831178 0 0 0 0.34 2 189 3 18 4 52 11 29 17 22 19 101 32 29 33 86 35 6 42 24 43 14 44 101 50 57 60 53 61 43 71 17 77 48 105 55 107 190 110 31 111 38 118 22 147 5 148 50 162 46 163 19 164 69 165 44 
191 0.31924149979573946 0.1321510614582294 0.9892508512411502 0 0 0 0.34 2 190 43 15 44 102 50 58 61 44 73 13 93 33 107 191 111 39 158 13 
192 0.3194669199191189 0.13222182289241638 0.9895115657964666 0 0 0 0.36 2 191 32 30 33 87 61 45 69 4 73 14 93 34 107 192 111 40 158 14 
193 0.384339559793749 0.13749218331838703 0.9975744863510111 0 0 0 0.35 2 192 43 16 77 49 107 193 164 70 
194 0.15847305993747712 -0.13044719968530305 1.0453306021963698 0 0 0 0.63 2 193 9 28 44 103 88 3 92 37 107 194 118 23 
195 -0.21087000361736286 -0.015185357154185458 1.0633815977496073 0 0 0 0.31 2 194 4 53 17 23 32 31 44 104 77 50 88 4 92 38 93 35 107 195 114 0 118 24 124 23 146 22 148 51 158 15 164 71 
196 -0.168956379875357 0.08573280707239253 1.0325093842950295 0 0 0 0.32 2 195 19 102 44 105 60 54 88 5 107 196 162 47 
197 0.3118301345527489 0.10617962992259211 0.9986866018184802 0 0 0 0.36 2 196 3 19 40 62 44 106 107 197 111 41 118 25 
198 0.3783716549026895 0.10824573509416223 0.9935952881814953 0 0 0 0.44 2 197 3 20 4 54 11 30 19 103 33 88 43 17 52 13 53 17 71 18 73 15 77 51 85 53 107 198 110 32 111 42 127 17 129 1 136 18 148 52 162 48 163 20 164 72 165 45 
199 0.3256931864664912 0.10855511228373291 0.9933290268082611 0 0 0 0.34 2 198 3 21 13 7 17 24 19 104 33 89 44 107 53 18 61 46 71 19 105 56 107 199 111 43 146 23 158 16 159 13 175 8 
200 0.3253041017586994 0.11972321488256082 0.990869167573124 0 0 0 0.27 2 199 33 90 36 6 44 108 63 16 93 36 107 200 127 18 159 14 163 21 
201 0.16608641711700553 -0.006819663749902277 1.0224948420775168 0 0 0 0.8 2 200 9 29 11 31 17 25 50 59 61 47 69 5 92 39 107 201 109 20 118 26 135 18 146 24 147 6 152 4 157 14 158 17 159 15 176 14 
202 0.37320034283810416 0.059714211923484584 0.9997785134315781 0 0 0 0.76 2 201 17 26 81 0 107 202 111 44 129 2 
203 0.36636309770969716 0.1086411337637542 0.9920412843712952 0 0 0 0.35 2 202 44 109 61 48 73 16 77 52 105 57 107 203 111 45 129 3 162 49 163 22 
204 0.36028825493539 0.11943397292444038 0.9897479941411198 0 0 0 0.27 2 203 3 22 4 55 11 32 17 27 44 110 50 60 60 55 61 49 73 17 77 53 81 1 88 6 100 2 107 204 146 25 164 73 
205 0.3600648388455724 0.1192639331782223 0.9892629310605134 0 0 0 0.28 2 204 3 23 4 56 19 105 44 111 50 61 60 56 61 50 73 18 77 54 81 2 88 7 100 3 107 205 111 46 127 19 129 4 146 26 158 18 163 23 164 74 
206 0.3855614757930605 0.1282287559307311 0.9941262264829893 0 0 0 0.43 2 205 3 24 4 57 11 33 19 106 33 91 43 18 44 112 50 62 53 19 77 55 85 54 105 58 107 206 110 33 111 47 147 7 162 50 163 24 164 75 165 46 
207 0.38501412502349963 0.11849541722007946 0.9938453646145234 0 0 0 0.45 2 206 3 25 19 107 43 19 44 113 50 63 61 51 71 20 73 19 77 56 100 4 107 207 111 48 127 20 129 5 163 25 164 76 
208 0.41022239182920417 0.11778186501414326 1.007193331528809 0 0 0 0.43 2 207 11 34 44 114 50 64 69 6 100 5 107 208 147 8 
209 0.38195709610434136 0.13028413636773087 0.9939477790732972 0 0 0 0.07 2 208 107 209 163 26 
210 -0.046836320910676146 -0.07374448624914853 1.0408390642259482 0 0 0 0.91 2 209 13 8 43 20 77 57 85 55 107 210 111 49 129 6 152 5 
211 0.35589813604243525 0.07693953978156251 0.9994841469191829 0 0 0 0.32 2 210 3 26 4 58 33 92 40 63 43 21 44 115 53 20 61 52 71 21 73 20 81 3 91 28 107 211 111 50 129 7 136 19 147 9 148 53 162 51 163 27 164 77 
212 0.35595370360881695 0.07689259040711345 0.999598935163754 0 0 0 0.37 2 211 3 27 4 59 19 108 33 93 35 7 40 64 43 22 53 21 61 53 63 17 71 22 73 21 81 4 91 29 105 59 107 212 110 34 111 51 129 8 136 20 147 10 148 54 162 52 163 28 164 78 
213 0.3711176987815388 0.1104886284904699 0.9929048305795795 0 0 0 0.3 2 212 3 28 4 60 11 35 33 94 43 23 44 116 50 65 53 22 61 54 69 7 73 22 100 6 105 60 107 213 111 52 127 21 129 9 158 19 165 47 
214 0.2879081931321074 0.12127380295649114 0.9923914482826184 0 0 0 0.62 2 213 11 36 33 95 40 65 50 66 88 8 107 214 110 35 162 53 163 29 164 79 165 48 
215 0.02055465125960004 -0.07338881817372486 1.0390184447211814 0 0 0 0.8 2 214 14 3 107 215 162 54 
216 -0.25137440710241205 0.07429464234321341 1.0516126626374882 0 0 0 0.31 2 215 19 109 44 117 52 14 88 9 107 216 164 80 
217 -0.21313772479029414 0.07358939396833952 1.0451601452744335 0 0 0 0.42 2 216 19 110 44 118 52 15 77 58 85 56 88 10 93 37 107 217 164 81 
218 0.38437640267376166 0.09490082496775819 0.9968258666885652 0 0 0 0.38 2 217 3 29 4 61 11 37 17 28 19 111 33 96 35 8 43 24 44 119 50 67 53 23 61 55 63 18 71 23 73 23 105 61 107 218 110 36 111 53 118 27 127 22 129 10 136 21 147 11 148 55 162 55 163 30 164 82 165 49 
219 0.3379830478841223 0.11328365348929331 0.9940102482298541 0 0 0 0.42 2 218 19 112 33 97 36 7 40 66 43 25 63 19 71 24 88 11 107 219 127 23 129 11 162 56 163 31 
220 0.33792978140298874 0.11328657754992887 0.9938921044213411 0 0 0 0.43 2 219 19 113 33 98 36 8 40 67 43 26 63 20 71 25 73 24 88 12 107 220 129 12 162 57 163 32 
221 0.14161157695666626 -0.14958757599878025 1.0459258108902272 0 0 0 0.44 3 30 50 68 61 56 63 21 71 26 89 4 93 38 96 4 107 221 147 12 158 20 
222 -0.18461947594904446 -0.08487404175831366 1.0667512259229195 0 0 0 0.41 3 31 13 9 60 57 61 57 93 39 96 5 107 222 109 21 114 1 162 58 164 83 
223 -0.17468303620230563 -0.02421960069477267 1.0570580743383664 0 0 0 0.28 3 32 4 62 9 30 19 114 33 99 43 27 44 120 60 58 77 59 85 57 92 40 93 40 96 6 107 223 109 22 110 37 124 24 127 24 146 27 148 56 157 15 159 16 164 84 176 15 
224 0.4752440827386984 0.012372963988830164 1.0522386594695825 0 0 0 0.32 3 33 4 63 19 115 44 121 63 22 71 27 77 60 105 62 107 224 111 54 162 59 
225 0.4557244426359011 0.016890381851588577 1.0424432838930355 0 0 0 0.26 3 34 4 64 11 38 17 29 19 116 32 32 42 25 44 122 50 69 61 58 71 28 73 25 77 61 85 58 92 41 105 63 107 225 111 55 147 13 162 60 163 33 164 85 165 50 
226 0.4835221867585601 0.019981780411554687 1.0539894218657506 0 0 0 0.41 3 35 4 65 11 39 17 30 19 117 32 33 50 70 107 226 118 28 162 61 163 34 165 51 
227 0.39563424329443425 0.0633717669859552 1.0019008545891783 0 0 0 0.25 3 36 4 66 11 40 17 31 19 118 33 100 60 59 73 26 85 59 91 30 105 64 107 227 111 56 127 25 136 22 148 57 164 86 
228 0.3956304386568347 0.06340312117368589 1.0020338854380473 0 0 0 0.23 3 37 44 123 60 60 61 59 63 23 71 29 73 27 77 62 107 228 136 23 164 87 165 52 
229 0.42263216902485223 0.06955657747418538 1.016748992754795 0 0 0 0.38 3 38 11 41 53 24 60 61 73 28 107 229 162 62 
230 0.4128530528745708 0.0741884627093988 0.9844933115140584 0 0 0 2.6 3 39 107 230 158 21 
231 0.4485803208983835 0.08324125752600953 1.0277405216937265 0 0 0 0.21 3 40 44 124 61 60 107 231 164 88 
232 0.4524002463991873 0.10724581963333595 1.0258115129034389 0 0 0 0.33 3 41 19 119 50 71 73 29 85 60 105 65 107 232 111 57 136 24 162 63 163 35 164 89 165 53 
233 0.4644265653176545 0.11335724486023717 1.0319978240405094 0 0 0 0.36 3 42 107 233 162 64 
234 0.27687123233237443 0.10951496885066804 0.9926881754790395 0 0 0 0.34 3 43 14 4 19 120 33 101 52 16 53 25 60 62 63 24 96 7 107 234 110 38 111 58 136 25 163 36 165 54 
235 0.356623708949981 0.11318693166569324 0.9919837150547401 0 0 0 0.34 3 44 17 32 42 26 43 28 44 125 61 61 73 30 77 63 107 235 118 29 146 28 162 65 163 37 164 90 
236 -0.21972777112941283 -0.09069592559711857 1.0756286085027116 0 0 0 0.44 3 45 19 121 33 102 44 126 61 62 96 8 107 236 110 39 114 2 127 26 148 58 158 22 159 17 162 66 176 16 
237 0.3947120589938494 -0.001203433656683904 1.0154805916529837 0 0 0 0.27 3 46 4 67 19 122 33 103 44 127 53 26 73 31 77 64 91 31 92 42 105 66 107 237 111 59 118 30 148 59 164 91 165 55 
238 0.4452564865951511 0.02182973509875585 1.037341029753167 0 0 0 0.52 3 47 43 29 73 32 85 61 105 67 107 238 164 92 
239 0.47395893566262504 0.023853275877611085 1.050136156974016 0 0 0 0.3 3 48 4 68 44 128 77 65 107 239 
240 0.27833609514401886 0.09403440499206484 0.9990490232558756 0 0 0 0.31 3 49 4 69 14 5 17 33 19 123 40 68 43 30 60 63 61 63 73 33 77 66 85 62 91 32 93 41 96 9 105 68 107 240 111 60 147 14 162 67 163 38 164 93 
241 0.2963479547080513 0.10564879464887239 0.9934942949156937 0 0 0 0.28 3 50 44 129 53 27 61 64 69 8 88 13 107 241 110 40 118 31 129 13 148 60 163 39 
242 0.2966941513472256 0.10590525434111055 0.9945388466996276 0 0 0 0.15 3 51 44 130 53 28 61 65 88 14 107 242 163 40 
243 0.2867382346776696 0.10668942284550552 0.9940012731197326 0 0 0 0.34 3 52 4 70 19 124 33 104 40 69 42 27 43 31 52 17 53 29 60 64 88 15 89 5 91 33 107 243 111 61 136 26 162 68 164 94 165 56 
244 0.380383495079594 0.11590275012161823 0.996753400742767 0 0 0 0.45 3 53 17 34 100 7 107 244 
245 0.34552787172218946 0.12243764192792583 0.9953337347193231 0 0 0 0.14 3 54 36 9 107 245 
246 0.4022228064134118 0.07383732938784009 1.0046567748569353 0 0 0 0.58 3 55 17 35 19 125 35 9 43 32 44 131 107 246 111 62 165 57 
247 0.29084937761281643 0.10151415272002758 0.9939078550293408 0 0 0 0.54 3 56 13 10 17 36 19 126 33 105 40 70 50 72 52 18 53 30 61 66 69 9 71 30 85 63 107 247 111 63 118 32 124 25 136 27 146 29 158 23 162 69 163 41 175 9 
248 0.47094844295910704 0.11264781415454735 1.0344892338722307 0 0 0 0.43 3 57 44 132 53 31 61 67 85 64 107 248 120 0 129 14 163 42 
249 0.4498298895321973 0.12996764296090535 1.0213160736958515 0 0 0 0.51 3 58 4 71 19 127 44 133 50 73 77 67 85 65 105 69 107 249 147 15 
250 0.43806874965748455 0.11968905489707644 1.0181422761946428 0 0 0 0.62 3 59 43 33 50 74 53 32 61 68 69 10 77 68 100 8 107 250 
251 0.39365893472725333 0.1366723302948536 0.9942830221299026 0 0 0 0.41 3 60 107 251 111 64 
252 0.35484835161580286 0.11736030522693025 0.9920646389853303 0 0 0 0.31 3 61 4 72 19 128 33 106 40 71 43 34 61 69 63 25 69 11 73 34 77 69 81 5 85 66 100 9 107 252 110 41 111 65 118 33 129 15 158 24 162 70 163 43 165 58 
253 0.35484864503011715 0.11736711675426462 0.9920590109876727 0 0 0 0.3 3 62 4 73 19 129 33 107 40 72 43 35 61 70 63 26 69 12 71 31 73 35 77 70 81 6 85 67 100 10 107 253 110 42 118 34 129 16 158 25 162 71 163 44 165 59 
254 0.37203995980599064 0.07696632290208238 0.9983826054023506 0 0 0 0.53 3 63 33 108 43 36 52 19 71 32 73 36 107 254 110 43 111 66 129 17 136 28 162 72 163 45 
255 0.40624750406965954 0.0844972743975169 1.0068709070256507 0 0 0 0.57 3 64 4 74 35 10 43 37 63 27 107 255 129 18 147 16 165 60 
256 0.4383393237204406 0.08830870461718501 1.0252754128106618 0 0 0 0.34 3 65 71 33 107 256 129 19 162 73 163 46 
257 -0.003293056560807046 -0.1313273645230306 1.0480874089664067 0 0 0 0.55 4 75 13 11 32 34 43 38 44 134 53 33 60 65 61 71 92 43 107 257 157 16 158 26 
258 -0.1787400181599491 -0.10270363190710274 1.063941615252493 0 0 0 0.21 4 76 19 130 33 109 77 71 107 258 164 95 176 17 
259 -0.22548209709853037 -0.0998220625624726 1.0741472003754997 0 0 0 0.27 4 77 9 31 32 35 33 110 44 135 50 75 61 72 107 259 124 26 
260 0.3751212911970346 -0.029705450643028982 1.0224038289228479 0 0 0 0.45 4 78 50 76 107 260 165 61 
261 0.461943603557626 -0.01680041566173974 1.0512196189018652 0 0 0 0.49 4 79 35 11 107 261 
262 0.1375450666446818 -0.014592467501731385 1.0245941967399002 0 0 0 0.31 4 80 17 37 50 77 77 72 91 34 107 262 127 27 136 29 157 17 
263 0.4691066752845869 0.018001440036529027 1.0498777239176447 0 0 0 0.52 4 81 19 131 105 70 107 263 165 62 
264 0.4828240624494977 0.030325379521088384 1.0525818782375598 0 0 0 0.48 4 82 85 68 107 264 
265 0.35679154174862526 0.051532916998114735 0.9987620020643257 0 0 0 0.11 4 83 44 136 107 265 
266 0.4549335046016768 0.0736247111589135 1.028622373282782 0 0 0 0.34 4 84 105 71 107 266 136 30 164 96 
267 0.45377134876455877 0.07591085315231105 1.0305840998086566 0 0 0 0.31 4 85 107 267 164 97 165 63 
268 0.2704540968228234 0.0902225810697069 1.0008203047726163 0 0 0 0.25 4 86 11 42 13 12 19 132 33 111 38 9 44 137 85 69 93 42 107 268 109 23 124 27 136 31 146 30 175 10 
269 0.40388810184177715 0.1016413173250007 1.0031259124101704 0 0 0 0.32 4 87 11 43 19 133 61 73 73 37 77 73 105 72 107 269 148 61 162 74 164 98 165 64 
270 0.15579415460855617 0.09998665287336675 1.000966326869729 0 0 0 0.45 4 88 42 28 44 138 52 20 85 70 107 270 111 67 164 99 
271 0.3712556513884635 0.10618781109920798 0.9907018536564666 0 0 0 0.16 4 89 19 134 44 139 91 35 105 73 107 271 164 100 165 65 
272 0.3987368447501849 0.11056682879228491 0.9997783808138769 0 0 0 0.35 4 90 19 135 105 74 107 272 165 66 
273 0.3744981135986458 0.11643775602886366 0.9939973821747132 0 0 0 0.53 4 91 33 112 85 71 91 36 105 75 107 273 110 44 148 62 165 67 
274 0.38348276582982743 0.12427438589943485 0.9908312061558883 0 0 0 0.3 4 92 19 136 33 113 35 12 42 29 85 72 105 76 107 274 110 45 148 63 164 101 165 68 
275 0.44624459419694573 0.13147652748179134 1.0192232206695062 0 0 0 0.34 4 93 19 137 50 78 77 74 85 73 105 77 107 275 110 46 164 102 
276 0.21303089188145308 -0.0861238033360612 1.0321846194530906 0 0 0 0.42 4 94 9 32 11 44 13 13 19 138 32 36 33 114 38 10 44 140 60 66 85 74 91 37 93 43 107 276 109 24 159 18 164 103 175 11 
277 -0.1363872778973601 -0.08804544172758931 1.058952349906424 0 0 0 0.19 4 95 38 11 85 75 107 277 176 18 
278 -0.09285933840820541 -0.08617737302916041 1.0505974304545793 0 0 0 0.34 4 96 9 33 19 139 77 75 85 76 107 278 109 25 110 47 124 28 136 32 159 19 176 19 
279 -0.13321891552901224 -0.08573938997857722 1.0582331886197645 0 0 0 0.25 4 97 9 34 13 14 19 140 44 141 61 74 85 77 92 44 93 44 107 279 109 26 110 48 124 29 136 33 146 31 152 6 164 104 
280 0.4604690198564628 -0.040850636921958956 1.0540485750770132 0 0 0 0.51 4 98 32 37 42 30 85 78 105 78 107 280 164 105 
281 0.4020011319009783 0.0036955009030359342 1.0197474869263177 0 0 0 0.36 4 99 11 45 19 141 33 115 50 79 61 75 77 76 91 38 92 45 105 79 107 281 136 34 148 64 162 75 163 47 164 106 165 69 
282 0.4212954369549117 0.016325926266435444 1.026389025128737 0 0 0 0.27 4 100 17 38 19 142 42 31 60 67 61 76 77 77 92 46 107 282 110 49 118 35 148 65 162 76 164 107 
283 0.4579977604367191 0.020645012742826405 1.0429161337896997 0 0 0 0.3 4 101 42 32 44 142 85 79 105 80 107 283 163 48 164 108 
284 0.3693662212725912 0.04552674583524373 1.0083808926983675 0 0 0 0.24 4 102 9 35 91 39 107 284 111 68 162 77 
285 0.3978605823266875 0.06718045800543354 1.0024858894433029 0 0 0 0.33 4 103 19 143 33 116 63 28 105 81 107 285 110 50 127 28 136 35 163 49 164 109 
286 0.42245454529505766 0.07037697249660445 1.018044263300842 0 0 0 0.37 4 104 11 46 35 13 42 33 44 143 85 80 105 82 107 286 136 36 164 110 
287 0.42434667783837327 0.08830179477657621 1.016264876968301 0 0 0 0.18 4 105 44 144 107 287 
288 0.27594753437464725 0.10347479220884229 0.9982333412250041 0 0 0 0.65 4 106 19 144 40 73 60 68 73 38 96 10 107 288 111 69 127 29 163 50 164 111 165 70 
289 0.3686391839916642 0.10564334257092908 0.9908243296193491 0 0 0 0.23 4 107 19 145 107 289 136 37 165 71 
290 0.38040553713222897 0.11721578814758662 0.9944973121994263 0 0 0 0.3 4 108 42 34 43 39 60 69 73 39 85 81 107 290 110 51 
291 0.36299202687501564 0.12802668199247735 0.9893516415248428 0 0 0 0.27 4 109 11 47 19 146 33 117 40 74 44 145 61 77 77 78 107 291 111 70 148 66 164 112 
292 0.4445837723489143 0.1366035446205679 1.0196805115959742 0 0 0 0.28 4 110 11 48 17 39 44 146 50 80 73 40 77 79 105 83 107 292 163 51 165 72 
293 0.07684550515822548 -0.09083153315900726 1.0370314154807827 0 0 0 0.39 4 111 9 36 12 0 13 15 19 147 32 38 33 118 36 10 40 75 42 35 43 40 44 147 53 34 61 78 63 29 107 293 109 27 111 71 118 36 124 30 127 30 135 19 152 7 164 113 
294 0.38289100034010715 0.006746407350674214 1.015907772516695 0 0 0 0.23 4 112 11 49 52 21 105 84 107 294 111 72 162 78 164 114 
295 0.45027717785199234 0.013220481164668176 1.0401696589046356 0 0 0 0.27 4 113 19 148 71 34 73 41 77 80 85 82 91 40 92 47 105 85 107 295 162 79 163 52 165 73 
296 0.225327061500068 0.09214517268897865 0.9995209949582213 0 0 0 0.48 4 114 17 40 19 149 71 35 77 81 107 296 109 28 110 52 111 73 127 31 
297 -0.27631432025852615 0.08955914518679253 1.0507755992885697 0 0 0 0.4 4 115 33 119 44 148 107 297 
298 0.26169855453043267 0.10954660371863865 0.9939667388866057 0 0 0 0.33 4 116 19 150 42 36 52 22 53 35 63 30 91 41 96 11 105 86 107 298 110 53 148 67 164 115 165 74 
299 0.38187339925415026 0.140915858420805 0.9990148479170953 0 0 0 0.25 4 117 19 151 43 41 85 83 107 299 110 54 111 74 163 53 
300 -0.2201590631757234 -0.014516174538029555 1.0656081754648707 0 0 0 0.22 4 118 9 37 40 76 44 149 50 81 52 23 60 70 77 82 96 12 107 300 109 29 146 32 148 68 158 27 159 20 
301 0.21798725006565883 0.04140078426463107 1.0047962479428172 0 0 0 0.33 4 119 19 152 77 83 107 301 159 21 
302 0.3604330944996624 0.09237397339969794 0.9929652648828914 0 0 0 0.3 4 120 33 120 43 42 63 31 71 36 73 42 85 84 88 16 91 42 105 87 107 302 111 75 127 32 148 69 162 80 164 116 165 75 
303 0.4574418915296058 0.13748720679246768 1.0229991569620005 0 0 0 0.64 4 121 44 150 53 36 69 13 73 43 107 303 147 17 158 28 
304 0.3396762733648535 0.09820533771880315 0.9965921584818053 0 0 0 0.49 4 122 11 50 19 153 33 121 40 77 44 151 52 24 53 37 63 32 71 37 73 44 77 84 85 85 91 43 105 88 107 304 110 55 111 76 118 37 129 20 136 38 147 18 148 70 164 117 165 76 
305 0.42353829607133714 0.1281668342724091 1.0104118984687482 0 0 0 0.66 4 123 44 152 107 305 164 118 
306 0.42350558992233994 0.12832418797679593 1.0104903156056178 0 0 0 0.58 4 124 11 51 43 43 44 153 107 306 164 119 
307 0.0204358436014433 -0.04328486334000156 1.0355393208466448 0 0 0 0.66 4 125 52 25 77 85 107 307 
308 0.08063463312779236 -0.14916484259597776 1.0448732326757753 0 0 0 0.25 9 38 61 79 85 86 107 308 
309 -0.24705287045591806 -0.1585709294817036 1.0931955453980449 0 0 0 0.18 17 41 44 154 50 82 107 309 
310 -0.18800385078011556 -0.13044014273803142 1.0768803157838671 0 0 0 0.43 9 39 19 154 32 39 36 11 44 155 85 87 92 48 107 310 124 31 
311 -0.02084042470781283 -0.1085466151818707 1.0459955715793168 0 0 0 0.1 9 40 13 16 107 311 
312 0.1547330381829465 -0.09493496722343203 1.0320189514675238 0 0 0 0.05 9 41 13 17 107 312 
313 0.08568497270947674 -0.09573769972680479 1.0389044039341164 0 0 0 0.39 9 42 36 12 50 83 61 80 92 49 107 313 124 32 135 20 146 33 159 22 175 12 
314 0.08267837178140687 -0.09301519220676242 1.0371830745249306 0 0 0 0.23 9 43 32 40 92 50 107 314 109 30 124 33 159 23 
315 0.14276179838873113 -0.08713122121353589 1.033195829960982 0 0 0 0.27 9 44 33 122 50 84 61 81 92 51 93 45 107 315 135 21 164 120 
316 -0.03670242481136709 -0.09530440011003424 1.0442606179216714 0 0 0 0.02 9 45 107 316 109 31 
317 -0.34863084526191096 -0.0783474431655072 1.0989497330384763 0 0 0 0.39 36 13 52 26 85 88 92 52 107 317 109 32 157 18 
318 0.3949427896799183 -0.03215449583573355 1.023509951129461 0 0 0 0.19 32 41 33 123 85 89 91 44 107 318 
319 -0.36212820481522173 -0.056831797994160535 1.0926731483538197 0 0 0 0.48 77 86 107 319 110 56 
320 0.22824052281289853 -0.01591619942614888 1.0213854296738312 0 0 0 0.24 9 46 19 155 85 90 105 89 107 320 
321 -0.1661524533173668 -0.021229079323953248 1.055303528537371 0 0 0 0.56 9 47 52 27 60 71 85 91 107 321 
322 0.3928220749000655 0.11370084842672884 0.9969547970802013 0 0 0 0.24 19 156 60 72 105 90 107 322 164 121 165 77 
323 -0.20140105486252238 0.11125186006289713 1.0341229478805731 0 0 0 0.36 9 48 44 156 52 28 60 73 107 323 110 57 148 71 164 122 
324 0.3802898265525332 0.12063050093210903 0.9920961425685717 0 0 0 0.1 19 157 32 42 107 324 
325 0.3919941572714656 0.13055058457363428 0.9929345574206846 0 0 0 0.33 33 124 40 78 42 37 105 91 107 325 127 33 148 72 164 123 
326 0.17763852130921062 0.12928831069138713 0.9933605791336207 0 0 0 0.27 9 49 33 125 93 46 107 326 
327 -0.13659994215029284 -0.14531721347056276 1.0714511304215149 0 0 0 0.34 9 50 19 158 32 43 36 14 44 157 53 38 60 74 63 33 77 87 89 6 92 53 107 327 159 24 164 124 
328 -0.2978704918269184 -0.14441032311907995 1.1234092497490047 0 0 0 0.31 52 29 107 328 109 33 
329 0.12633973350051125 -0.1046331953530204 1.036925423247455 0 0 0 0.36 9 51 61 82 107 329 135 22 
330 0.15142068577238124 -0.09965783694849781 1.0298634036294376 0 0 0 0.27 9 52 13 18 92 54 107 330 
331 0.3653945249948585 -0.08416909064733503 1.0274144897834614 0 0 0 0.45 35 14 44 158 107 331 
332 0.33064870763912235 -0.08501501246357537 1.0279152956697208 0 0 0 0.31 13 19 61 83 91 45 92 55 107 332 
333 0.32370086792417513 -0.08518377229084412 1.0284697471374156 0 0 0 0.32 9 53 40 79 61 84 93 47 107 333 
334 0.3184687096982305 -0.082691367626999 1.0287264569805619 0 0 0 0.39 9 54 33 126 40 80 50 85 60 75 61 85 92 56 93 48 105 92 107 334 146 34 164 125 
335 0.31862930785276783 -0.08272526858540377 1.0291263005600926 0 0 0 0.3 9 55 33 127 40 81 50 86 61 86 105 93 107 335 146 35 
336 0.32111708576922593 -0.08263245831224618 1.028477168686677 0 0 0 0.53 9 56 19 159 33 128 92 57 93 49 105 94 107 336 163 54 
337 0.32147857788093825 -0.0826677975230189 1.0293673399187968 0 0 0 0.16 9 57 33 129 105 95 107 337 
338 0.2364412071402676 -0.08582222524857416 1.0315357138477104 0 0 0 0.28 9 58 19 160 33 130 44 159 61 87 85 92 105 96 107 338 124 34 135 23 157 19 
339 0.21018075466272168 -0.08638746573200617 1.0336867306287472 0 0 0 0.51 9 59 19 161 32 44 42 38 44 160 77 88 93 50 107 339 109 34 157 20 
340 0.22571546499021025 -0.08581679786858469 1.0322972587855326 0 0 0 0.36 9 60 13 20 19 162 32 45 33 131 40 82 52 30 61 88 85 93 92 58 93 51 105 97 107 340 135 24 157 21 
341 0.17992584934613026 -0.08646183041262691 1.0326901169375393 0 0 0 0.21 9 61 40 83 61 89 107 341 
342 0.15438622387415676 -0.08719839578436314 1.0339628754423196 0 0 0 0.39 9 62 92 59 93 52 107 342 109 35 
343 0.1542774568298208 -0.08711172558368671 1.0333911208989965 0 0 0 0.33 9 63 44 161 50 87 92 60 93 53 107 343 135 25 
344 0.06944743165221047 -0.08781588463029985 1.0363489508182817 0 0 0 0.33 9 64 13 21 33 132 85 94 107 344 124 35 
345 0.1565628801887757 -0.08410793859132962 1.0335497835463836 0 0 0 0.4 9 65 13 22 50 88 92 61 93 54 107 345 109 36 135 26 
346 0.15644509422927214 -0.08447081720123917 1.0349295365280407 0 0 0 0.34 9 66 93 55 107 346 109 37 135 27 
347 0.16097345456572076 -0.0840609461725618 1.0335255230612748 0 0 0 0.32 9 67 13 23 19 163 85 95 92 62 93 56 107 347 109 38 
348 -0.1772269028935123 -0.10068472779392611 1.0658888522647987 0 0 0 0.22 9 68 19 164 32 46 33 133 44 162 60 76 107 348 124 36 
349 -0.09945671112402303 -0.08558592589408884 1.0485939215624647 0 0 0 0.28 9 69 32 47 92 63 107 349 164 126 
350 -0.3558180177456118 -0.10339602547568508 1.1021701464461917 0 0 0 0.52 92 64 93 57 107 350 110 58 164 127 
351 -0.22541281813731198 -0.08478984606933407 1.0751668762589262 0 0 0 0.35 9 70 13 24 19 165 33 134 44 163 53 39 92 65 93 58 96 13 107 351 109 39 148 73 162 81 164 128 
352 -0.33989502664697413 -0.08006404419245305 1.097432377661743 0 0 0 0.32 19 166 32 48 53 40 92 66 107 352 109 40 110 59 159 25 
353 0.4463623496716565 -0.04225234185498644 1.0482956673325776 0 0 0 0.13 85 96 107 353 110 60 
354 0.4458775335315496 -0.0421124182039614 1.0458931748709457 0 0 0 0.27 19 167 44 164 77 89 85 97 92 67 107 354 110 61 163 55 
355 0.44873010459757445 -0.039454728218299075 1.0489924628588791 0 0 0 0.44 19 168 32 49 44 165 63 34 85 98 92 68 107 355 110 62 164 129 165 78 
356 0.21034435612954427 -0.01330686915671773 1.021523011526133 0 0 0 0.21 9 71 92 69 107 356 
357 0.1920202059544529 -0.013639263263719994 1.0230343721325277 0 0 0 0.19 9 72 19 169 38 12 107 357 135 28 148 74 
358 -0.18338990860795212 -0.023960549026890966 1.059762843442838 0 0 0 0.25 9 73 60 77 93 59 107 358 159 26 
359 -0.1998700732420623 -0.024207283169078213 1.0603019161441005 0 0 0 0.23 9 74 19 170 44 166 77 90 85 99 107 359 111 77 148 75 159 27 162 82 164 130 
360 -0.28186487528482773 -0.019600025256383324 1.0755368462306956 0 0 0 0.62 33 135 93 60 107 360 
361 0.3937921831269655 0.0106643793725163 1.01371371610144 0 0 0 0.18 35 15 44 167 85 100 107 361 
362 0.39376933021340643 0.010593731868409617 1.0136393590450838 0 0 0 0.31 19 171 35 16 44 168 91 46 92 70 107 362 162 83 165 79 
363 0.12751358224189868 0.039799379430192766 1.0173768473561573 0 0 0 0.28 9 75 19 172 52 31 60 78 107 363 
364 0.11945096112216318 0.04266628632296046 1.0144297461233287 0 0 0 0.18 9 76 19 173 33 136 107 364 136 39 
365 0.203404109636417 0.05466370860544133 1.0090640180680002 0 0 0 0.25 9 77 85 101 107 365 110 63 
366 0.03392236241738051 0.05921040676288038 1.0113362169197375 0 0 0 0.31 9 78 13 25 19 174 61 90 92 71 107 366 124 37 135 29 
367 0.037259774465010734 0.05917028616921975 1.0109570637906578 0 0 0 0.32 9 79 13 26 61 91 92 72 107 367 124 38 135 30 158 29 175 13 
368 0.03734600626556824 0.059082764086612116 1.0111164140712885 0 0 0 0.28 9 80 13 27 61 92 107 368 135 31 158 30 
369 0.39839823874818736 0.06719928565203075 1.0045397961490918 0 0 0 0.23 11 52 17 42 35 17 44 169 60 79 73 45 77 91 85 102 92 73 107 369 111 78 136 40 165 80 
370 -0.027631975120391276 0.05839291263892472 1.011690626466464 0 0 0 0.14 9 81 33 137 107 370 
371 0.13856214469655184 0.06290803289275483 1.0043596930335918 0 0 0 0.21 9 82 44 170 107 371 
372 0.03949249798411762 0.06202575149460006 1.0115487831231507 0 0 0 0.28 9 83 33 138 61 93 107 372 124 39 158 31 175 14 
373 -0.19940176292021167 0.06011583476612452 1.0420519323152437 0 0 0 0.19 9 84 19 175 44 171 93 61 107 373 124 40 
374 -0.2505162764774641 0.060538393714069695 1.0551335092390537 0 0 0 0.23 9 85 19 176 107 374 164 131 
375 -0.279093886668179 0.061369834982697526 1.054942348616931 0 0 0 0.48 19 177 44 172 107 375 146 36 
376 0.35690638371600153 0.07575509828057889 0.9976540799342388 0 0 0 0.07 19 178 33 139 107 376 
377 0.35710386312015496 0.08908018038469959 0.9957871207460813 0 0 0 0.17 19 179 40 84 44 173 105 98 107 377 
378 0.3406356588085591 0.09223125685809619 0.9999009315979355 0 0 0 0.48 19 180 44 174 50 89 61 94 107 378 
379 0.07132394376262201 0.10632765996416442 1.0010661417421367 0 0 0 0.09 9 86 33 140 107 379 
380 0.18625452956280705 0.12504175434384757 0.9935130222818441 0 0 0 0.07 9 87 33 141 50 90 107 380 162 84 
381 0.4018932604227998 0.1324411038517235 0.999344754502548 0 0 0 0.33 44 175 107 381 111 79 
382 0.2127110520449438 -0.1396399714671586 1.044558914546192 0 0 0 0.32 9 88 69 14 85 103 107 382 
383 -0.2573541809963383 -0.16069335442053087 1.0901087472708875 0 0 0 0.17 32 50 36 15 44 176 92 74 107 383 
384 0.09073709739989913 -0.11776318201792929 1.0422819439462774 0 0 0 0.37 9 89 13 28 92 75 107 384 
385 -0.25051862852274964 -0.1362846673494386 1.0885653749606492 0 0 0 0.27 19 181 40 85 85 104 107 385 148 76 
386 -0.2582824584111878 -0.13652426556916242 1.090666745314498 0 0 0 0.56 77 92 92 76 107 386 109 41 
387 -0.18553215465196343 -0.12627565466321206 1.0750160772416264 0 0 0 0.34 9 90 85 105 92 77 107 387 
388 -0.19205956327647014 -0.12670177245122569 1.0755799332523708 0 0 0 0.3 9 91 85 106 107 388 
389 0.024611499381327485 -0.10917304899795711 1.043717762349323 0 0 0 0.2 9 92 44 177 61 95 92 78 107 389 109 42 
390 0.1570816449240811 -0.09931122114253386 1.0306411217327516 0 0 0 0.21 9 93 13 29 107 390 135 32 
391 -0.004376412951683608 -0.10438943864859407 1.0441028464413264 0 0 0 0.23 9 94 44 178 92 79 107 391 109 43 135 33 
392 -0.004321275299972724 -0.10436706688159558 1.0438909301274384 0 0 0 0.26 9 95 17 43 44 179 92 80 100 11 107 392 109 44 135 34 
393 -0.009633515102679109 -0.10060065002988432 1.0442743173362 0 0 0 0.43 9 96 13 30 19 182 44 180 50 91 77 93 93 62 107 393 135 35 152 8 159 28 164 132 
394 0.18655505007454942 -0.08997019791906817 1.0342693745407 0 0 0 0.23 9 97 13 31 19 183 32 51 40 86 107 394 111 80 124 41 135 36 152 9 
395 0.14587733760819463 -0.09091201047594981 1.0337395627163422 0 0 0 0.14 9 98 12 1 13 32 107 395 135 37 
396 0.15524285474368593 -0.09086354940525769 1.03540789561942 0 0 0 0.38 9 99 12 2 13 33 43 44 63 35 92 81 107 396 109 45 135 38 159 29 
397 0.0010382037587908437 -0.08271803213103747 1.0391354643533743 0 0 0 0.25 9 100 61 96 107 397 157 22 
398 -0.3970124180559901 -0.06808735812917933 1.108147205723777 0 0 0 0.45 44 181 85 107 92 82 107 398 
399 -0.32019406260510763 -0.049833049567888185 1.0874194287453987 0 0 0 0.24 96 14 107 399 109 46 118 38 
