# 3D point list with one line of data per point:
#   POINT3D_ID, X, Y, Z, R, G, B, ERROR, TRACK[] as (IMAGE_ID, POINT2D_IDX)
# Number of points: 359, mean track length: 6.65
5191 -0.00974032781656064 0.10672487574465306 1.032163670590874 0 0 0 0.07 136 530 146 1219 213 1545 
5192 -0.20479455215288095 0.09364122806779254 0.9996023870199455 0 0 0 0.14 53 1834 96 1111 110 1279 113 379 128 609 136 531 146 1220 157 765 159 964 164 1573 176 1217 179 241 204 858 213 1546 214 889 219 697 227 656 
5193 -0.06790156214582349 0.10276875952866003 1.0211847230297204 0 0 0 0.27 110 1280 146 1221 164 1574 204 859 214 890 219 698 
5194 -0.121033311874754 0.09991928432329807 1.0097684147309802 0 0 0 0.12 113 380 164 1575 176 1218 213 1547 
5195 -0.25588791426449337 0.09303862702595456 0.9963320664028008 0 0 0 0.21 113 381 146 1222 176 1219 
5196 -0.31947907580306817 0.09028144339425476 0.9902965540498925 0 0 0 0.59 113 382 146 1223 158 577 176 1220 213 1548 
5197 -0.12854383514832798 0.10286853672515234 1.0074873649201437 0 0 0 0.21 113 383 176 1221 231 258 
5198 -0.12530424225383738 0.10290713465341923 1.0081824769453447 0 0 0 0.4 113 384 146 1224 172 716 176 1222 213 1549 214 891 219 699 222 738 231 259 
5199 -0.265091864312025 0.09978888269761269 0.9939637565034332 0 0 0 0.34 113 385 146 1225 157 766 
5200 -0.31485520644571774 0.10608326507393581 0.9919660697308522 0 0 0 0.3 110 1281 113 386 128 610 157 767 162 677 164 1576 213 1550 232 1258 
5201 -0.33716876615462 0.12963880557975413 0.9783012328580556 0 0 0 0.14 113 387 146 1226 232 1259 
5202 -0.0638060470148104 0.145576416285117 1.007503095951687 0 0 0 0.12 146 1227 176 1223 188 82 213 1551 214 892 
5203 0.0166064232629047 0.1530838795846316 1.0234655647284836 0 0 0 0.16 110 1282 146 1228 148 1465 213 1552 
5204 -0.09432327713405714 0.1467292177183026 1.0007425604584128 0 0 0 0.11 113 388 146 1229 176 1224 
5205 -0.020211643299825954 0.15209136102097098 1.0129789984804427 0 0 0 0.37 53 1835 135 257 146 1230 157 768 158 578 172 717 175 208 176 1225 185 588 197 738 204 860 213 1553 219 700 223 164 231 260 
5206 -0.003414103161170409 0.15269301834706986 1.015833481016692 0 0 0 0.53 136 532 157 769 219 701 222 739 
5207 -0.28193703013261634 0.1408704398439144 0.9810799132676337 0 0 0 0.32 110 1283 113 389 146 1231 148 1466 157 770 164 1577 176 1226 200 561 204 861 
5208 -0.28160219537985937 0.14088430478789765 0.9806540577380809 0 0 0 0.51 110 1284 113 390 127 542 128 611 158 579 176 1227 204 862 213 1554 
5209 -0.17739930741741014 0.14497426441668548 0.9865254135754318 0 0 0 0.29 96 1112 113 391 128 612 136 533 157 771 158 580 176 1228 204 863 213 1555 219 702 227 657 231 261 
5210 -0.07386756623131709 0.15137957607519614 1.0042381867479195 0 0 0 0.11 113 392 200 562 231 262 
5211 -0.2830941088499533 0.1430141736318405 0.9808170316112683 0 0 0 0.17 85 1691 110 1285 113 393 146 1232 148 1467 157 772 159 965 164 1578 172 718 196 988 204 864 213 1556 224 481 
5212 -0.08638405048132314 0.1525415150746434 0.9962631957312745 0 0 0 0.21 92 1746 113 394 158 581 164 1579 176 1229 214 893 231 263 
5213 -0.03339299404472665 0.15786550970469904 1.0053624865000361 0 0 0 0.22 146 1233 213 1557 231 264 
5214 -0.15314622162101665 0.15365627733083062 0.9876730015054308 0 0 0 0.49 85 1692 113 395 146 1234 158 582 176 1230 185 589 194 775 200 563 213 1558 214 894 
5215 -0.058647069421019424 0.15882329496005776 1.0008468790916893 0 0 0 0.24 92 1747 146 1235 148 1468 159 966 164 1580 188 83 194 776 204 865 213 1559 214 895 219 703 
5216 0.0131587662351118 0.16500422898436987 1.0186504008457715 0 0 0 0.22 85 1693 110 1286 136 534 146 1236 148 1469 197 739 214 896 223 165 
5217 -0.30392395660290206 0.15002655104001492 0.9735764310260085 0 0 0 0.3 113 396 164 1581 224 482 
5218 -0.24076791641530484 0.15335578721767024 0.9780305491881157 0 0 0 0.27 85 1694 92 1748 113 397 146 1237 148 1470 164 1582 176 1231 213 1560 219 704 
5219 -0.24065389141806853 0.15338364347757483 0.9779257270643886 0 0 0 0.1 113 398 146 1238 148 1471 213 1561 
5220 -0.02662182299199903 0.16387790894744095 1.0078864616080994 0 0 0 0.2 92 1749 146 1239 148 1472 194 777 213 1562 234 356 
5221 -0.0005797862656305367 0.16531975647471314 1.012527229076132 0 0 0 0.16 136 535 185 590 194 778 213 1563 
5222 -0.1660613240643729 0.1579170045159915 0.9836027506317991 0 0 0 0.18 113 399 148 1473 176 1232 213 1564 
5223 -0.000727779133984855 0.16794815426590132 1.0126839264002194 0 0 0 0.23 176 1233 194 779 213 1565 
5224 -0.20742993697190049 0.1597343115915465 0.979144460389648 0 0 0 0.19 113 400 146 1240 164 1583 176 1234 213 1566 
5225 -0.13815549627036197 0.16219042685253948 0.9829727635629575 0 0 0 0.36 113 401 148 1474 164 1584 194 780 213 1567 214 897 
5226 -0.30419696914663685 0.1575317218904919 0.9729141179727339 0 0 0 0.21 113 402 159 967 176 1235 
5227 -0.20523089405065315 0.16081587577318843 0.979377600594403 0 0 0 0.41 113 403 146 1241 213 1568 
5228 -0.30034041737301154 0.15778026023683164 0.9721036164187484 0 0 0 0.2 113 404 159 968 176 1236 204 866 219 705 
5229 -0.2091802860246142 0.16435495764101213 0.9775625254064646 0 0 0 0.23 113 405 158 583 176 1237 219 706 
5230 -0.26354137103485675 0.16784655388562597 0.9730562708452009 0 0 0 0.27 110 1287 113 406 146 1242 176 1238 213 1569 
5231 -0.034304922023856044 0.17793900013116673 1.0063456507179716 0 0 0 0.3 213 1570 232 1260 234 357 
5232 -0.07711055221077004 0.17650049338127488 0.9949179338821514 0 0 0 0.35 113 407 148 1475 164 1585 214 898 
5233 -0.07405563889887382 0.17779894666739773 0.997559756500906 0 0 0 0.31 113 408 127 543 176 1239 194 781 213 1571 
5234 -0.07405563889887382 0.17779894666739773 0.997559756500906 0 0 0 0.31 113 409 127 544 176 1240 194 782 213 1572 
5235 -0.32465405692616367 0.1715935743889394 0.9654253914369472 0 0 0 0.34 53 1836 92 1750 113 410 146 1243 157 773 176 1241 204 867 213 1573 
5236 -0.22310363149166543 0.17550208275865864 0.9765205456384168 0 0 0 0.47 92 1751 113 411 157 774 164 1586 176 1242 200 564 213 1574 224 483 
5237 -0.09516086297328231 0.1806128557959311 0.991895724904811 0 0 0 0.5 113 412 188 84 194 783 213 1575 214 899 
5238 -0.316943355720664 0.1738718449062452 0.968144776221991 0 0 0 0.33 113 413 164 1587 176 1243 
5239 -0.32343117265307797 0.17573568220781666 0.9660986360129024 0 0 0 0.11 113 414 157 775 176 1244 
5240 -0.2875658371636252 0.17783421042446787 0.9710122563622209 0 0 0 0.42 92 1752 110 1288 113 415 148 1476 213 1576 
5241 -0.1665160212916151 0.18179650341506642 0.9787085549556627 0 0 0 0.86 92 1753 113 416 146 1244 176 1245 214 900 
5242 -0.3246509257869137 0.1767153426947468 0.9644782634504585 0 0 0 0.35 113 417 146 1245 157 776 176 1246 213 1577 
5243 -0.2414361787797638 0.1804228556306276 0.9710399433284291 0 0 0 0.3 113 418 148 1477 164 1588 224 484 
5244 -0.19104972172312037 0.18293437206256236 0.9789845698368611 0 0 0 0.37 113 419 176 1247 213 1578 214 901 
5245 -0.18697067768737874 0.1830437773318584 0.9783044768263733 0 0 0 0.27 113 420 146 1246 214 902 
5246 -0.2911650499273869 0.17997595510416 0.9694066995268013 0 0 0 0.19 113 421 157 777 172 719 
5247 -0.33939741986740307 0.1782150994579512 0.9623327626279464 0 0 0 0.22 113 422 176 1248 213 1579 
5248 -0.3290482099392819 0.17964993172819707 0.964800104870257 0 0 0 0.14 113 423 146 1247 213 1580 
5249 -0.1712695130227174 0.18518702270976997 0.9768735883644438 0 0 0 0.34 92 1754 110 1289 113 424 146 1248 176 1249 213 1581 214 903 
5250 -0.12996055443691842 0.1884881790935216 0.9788516231235661 0 0 0 0.16 110 1290 126 519 164 1589 214 904 
5251 -0.20083809766940453 0.1874348439611584 0.9743472098272133 0 0 0 0.39 113 425 213 1582 231 265 
5252 -0.35119749031593783 0.18374821242183872 0.9639409579737066 0 0 0 0.58 92 1755 113 426 164 1590 
5253 -0.23009359892297782 0.18934927161986795 0.9692868479580661 0 0 0 0.25 113 427 146 1249 176 1250 213 1583 
5254 -0.21024019903535435 0.18982493491459537 0.9711641675273658 0 0 0 0.14 113 428 146 1250 148 1478 213 1584 
5255 -0.21530650493511733 0.1907278241505523 0.9693984083133003 0 0 0 0.44 92 1756 113 429 148 1479 158 584 172 720 176 1251 204 868 
5256 -0.2324003036109453 0.19065614442172987 0.9694581836245011 0 0 0 0.24 113 430 146 1251 176 1252 200 565 213 1585 
5257 -0.16848079215651815 0.19562556520447907 0.973960906138498 0 0 0 0.29 113 431 146 1252 176 1253 213 1586 
5258 -0.16613460105704822 0.20487581668307492 0.9717076287376016 0 0 0 0.31 110 1291 113 432 146 1253 200 566 214 905 231 266 
5259 -0.20256408700873646 0.20670399496829323 0.9688713155275098 0 0 0 0.15 113 433 146 1254 213 1587 
5260 -0.022333424283378554 0.012110533722410291 1.0510066813349523 0 0 0 0.29 185 591 220 393 221 839 222 740 
5261 -0.0968006857688004 0.009168729110872239 1.033088322093218 0 0 0 0.4 85 1695 126 520 128 613 136 536 213 1588 219 707 
5262 0.0013241292707323964 0.020198558153182698 1.051432313055862 0 0 0 0.2 148 1480 158 585 164 1591 
5263 -0.1002618015961221 0.010687024451194045 1.0308996705385092 0 0 0 0.39 128 614 148 1481 162 678 213 1589 214 906 219 708 
5264 -0.07083750138499617 0.017079532999546072 1.0380102059748797 0 0 0 0.27 148 1482 157 778 213 1590 214 907 
5265 -0.005593355059394961 0.024496668629148524 1.049251295080551 0 0 0 0.37 159 969 176 1254 204 869 213 1591 221 840 232 1261 
5266 -0.02139473151185875 0.02322341494759543 1.0475216088644093 0 0 0 0.35 85 1696 96 1113 110 1292 126 521 135 258 136 537 146 1255 157 779 158 586 159 970 164 1592 176 1255 185 592 200 567 213 1592 227 658 234 358 
5267 -0.08529062059431336 0.01815363065047829 1.0338891369058627 0 0 0 0.42 147 638 152 226 157 780 176 1256 213 1593 214 908 
5268 -0.08490802308588366 0.018056789469291686 1.032806781924999 0 0 0 0.27 63 692 85 1697 147 639 152 227 213 1594 214 909 
5269 -0.035493187161902716 0.023532250881946756 1.0435782759369399 0 0 0 0.83 85 1698 96 1114 126 522 135 259 136 538 146 1256 148 1483 159 971 185 593 194 784 196 989 200 568 204 870 219 709 227 659 
5270 0.026118018209519308 0.03362829451915797 1.0504159899160257 0 0 0 0.29 92 1757 96 1115 146 1257 157 781 175 209 176 1257 213 1595 214 910 219 710 234 359 
5271 -0.035577656602323655 0.02907681959556063 1.0425342803119044 0 0 0 0.42 92 1758 146 1258 147 640 164 1593 176 1258 213 1596 214 911 217 201 221 841 
5272 -0.07332382890071161 0.029124860716381647 1.0347723109200648 0 0 0 0.34 96 1116 127 545 135 260 146 1259 148 1484 157 782 164 1594 176 1259 185 594 196 990 200 569 204 871 213 1597 214 912 222 741 224 485 232 1262 
5273 -0.12500325661345846 0.024380183718714962 1.0233755938388824 0 0 0 0.67 85 1699 146 1260 148 1485 157 783 158 587 159 972 162 679 164 1595 176 1260 185 595 222 742 224 486 
5274 -0.3329689053808076 0.00774208999746204 1.0080976624028077 0 0 0 0.5 113 434 162 680 164 1596 176 1261 
5275 -0.0007493630785158961 0.03744881623369882 1.0481715400741551 0 0 0 0.43 92 1759 110 1293 127 546 135 261 157 784 176 1262 194 785 214 913 
5276 -0.10329130557836368 0.030081389844466993 1.0277600130031321 0 0 0 0.81 96 1117 157 785 176 1263 194 786 204 872 214 914 219 711 231 267 
5277 -0.23045912345961928 0.02024011380923717 1.0123140667924386 0 0 0 0.16 162 681 196 991 224 487 
5278 -0.13081795492834933 0.028879566347720684 1.020601150047622 0 0 0 0.7 85 1700 148 1486 157 786 158 588 162 682 176 1264 194 787 196 992 204 873 214 915 219 712 221 842 
5279 0.013571406993165796 0.0423923430190552 1.0491347860798586 0 0 0 0.31 127 547 135 262 146 1261 159 973 176 1265 185 596 194 788 
5280 -0.10521521201745732 0.03174661497211444 1.0261244832060872 0 0 0 0.35 92 1760 146 1262 157 787 158 589 159 974 176 1266 204 874 213 1598 219 713 
5281 -0.2797953401607757 0.018102577786826845 1.014274159804296 0 0 0 0.58 53 1837 92 1761 110 1294 128 615 146 1263 157 788 164 1597 213 1599 232 1263 
5282 -0.19283944746071344 0.025174554597369007 1.0203065034992576 0 0 0 0.4 128 616 148 1487 164 1598 219 714 221 843 
5283 -0.13372880801358641 0.03148644836743954 1.019371538912898 0 0 0 0.66 85 1701 92 1762 126 523 136 539 158 590 159 975 164 1599 172 721 176 1267 185 597 194 789 196 993 200 570 204 875 213 1600 222 743 224 488 232 1264 
5284 -0.023110027380863492 0.0416564666526788 1.0417627806298007 0 0 0 0.29 146 1264 148 1488 157 789 164 1600 213 1601 214 916 222 744 
5285 -0.22443061659965177 0.024401638218574846 1.0094481595840543 0 0 0 0.15 164 1601 220 394 224 489 
5286 -0.1325162618279402 0.033581016993639544 1.0196461321082835 0 0 0 0.32 148 1489 158 591 159 976 185 598 194 790 204 876 232 1265 
5287 -0.24617525779122648 0.024449650572629118 1.0178201175816546 0 0 0 0.69 113 435 204 877 219 715 
5288 -0.06642631576500999 0.043854779172071 1.0305832098781704 0 0 0 0.42 92 1763 110 1295 126 524 127 548 136 540 162 683 194 791 196 994 200 571 227 660 
5289 -0.15750275594819832 0.037898382571801746 1.0181991589449644 0 0 0 0.5 162 684 164 1602 176 1268 179 242 196 995 213 1602 224 490 
5290 -0.062160136021516516 0.04818946676334732 1.0296721622048162 0 0 0 0.16 148 1490 159 977 196 996 214 917 
5291 -0.21707772116838567 0.03606364567366184 1.0146714785893514 0 0 0 0.54 53 1838 113 436 127 549 146 1265 159 978 176 1269 190 743 204 878 213 1603 219 716 227 661 232 1266 
5292 -0.2106612150205634 0.036582804380285286 1.0152687014037132 0 0 0 0.37 110 1296 148 1491 164 1603 196 997 221 844 224 491 
5293 -0.22391642580973498 0.038263641080607515 1.011937928939635 0 0 0 0.5 113 437 159 979 227 662 
5294 -0.2177496635348567 0.038651722259103086 1.0128097232002573 0 0 0 0.44 110 1297 113 438 127 550 128 617 136 541 172 722 179 243 204 879 219 717 227 663 
5295 -0.26734490455296184 0.035440234717206164 1.009719176848691 0 0 0 0.08 113 439 126 525 172 723 
5296 -0.14678257296799552 0.04570974540495966 1.0155978175757125 0 0 0 0.42 92 1764 110 1298 127 551 146 1266 148 1492 157 790 162 685 164 1604 213 1604 214 918 224 492 
5297 -0.3712393844814495 0.028096547776859545 0.9951244212450003 0 0 0 0.25 148 1493 164 1605 224 493 
5298 0.03319620274686031 0.06270649857787355 1.049147880432422 0 0 0 0.27 92 1765 126 526 127 552 135 263 146 1267 157 791 163 311 175 210 176 1270 197 740 200 572 213 1605 214 919 219 718 
5299 0.035199793163220985 0.06457745792951682 1.0507226108320065 0 0 0 0.56 146 1268 176 1271 221 845 
5300 -0.22806133967731873 0.043648333743891946 1.011210677954797 0 0 0 0.13 113 440 159 980 204 880 232 1267 
5301 0.0403099580463275 0.07239685729254547 1.0547132645251374 0 0 0 0.18 164 1606 185 599 220 395 
5302 0.04272549264989303 0.07379775912077063 1.0538504172602796 0 0 0 0.26 148 1494 159 981 162 686 163 312 194 792 196 998 220 396 
5303 -0.3723488919232353 0.057991118722930085 0.9901191350567982 0 0 0 0.41 113 441 148 1495 164 1607 
5304 -0.01440519932432075 0.08844576201551879 1.0349742207537127 0 0 0 0.32 128 618 176 1272 197 741 204 881 213 1606 
5305 -0.2851110385896327 0.0817794288480965 0.9971050843695524 0 0 0 0.17 113 442 176 1273 224 494 
5306 -0.3144913139619907 0.08172791196231531 0.9946783026637119 0 0 0 0.56 92 1766 110 1299 113 443 128 619 146 1269 176 1274 204 882 213 1607 219 719 221 846 232 1268 
5307 -0.24831326878662038 0.08666140968371426 0.9987040230835041 0 0 0 0.45 63 693 85 1702 92 1767 110 1300 113 444 126 527 127 553 146 1270 148 1496 157 792 158 592 159 982 164 1608 196 999 204 883 213 1608 220 397 221 847 224 495 232 1269 
5308 -0.2313641139488114 0.08865213381914921 1.000622021539553 0 0 0 0.33 85 1703 110 1301 113 445 126 528 159 983 172 724 176 1275 204 884 
5309 -0.3199329723896078 0.08615698624132367 0.9907878964710326 0 0 0 0.09 113 446 148 1497 159 984 
5310 -0.3208472373371202 0.08626221346705254 0.9923801633067016 0 0 0 0.08 113 447 176 1276 204 885 
5311 -0.0119525465142668 0.10847367793505812 1.0316778922107908 0 0 0 0.35 92 1768 146 1271 159 985 176 1277 197 742 204 886 213 1609 214 920 221 848 
5312 -0.016559649109042573 0.10816290244643843 1.0308466509834215 0 0 0 0.45 92 1769 127 554 135 264 146 1272 162 687 176 1278 197 743 213 1610 219 720 231 268 
5313 -0.07022870684250951 0.10490520158016099 1.0217962353055647 0 0 0 0.25 172 725 176 1279 213 1611 221 849 222 745 
5314 -0.09677209805313833 0.10300822486589456 1.0108037139605575 0 0 0 0.07 53 1839 128 620 204 887 
5315 -0.2356573100845246 0.09523161809460633 0.9969423712834936 0 0 0 0.27 113 448 213 1612 232 1270 
5316 -0.3622654989945902 0.09550318732659861 0.9855966102121668 0 0 0 0.27 128 621 162 688 164 1609 
5317 -0.24067910551478253 0.10367510852384888 0.9932971513300881 0 0 0 0.31 113 449 146 1273 148 1498 164 1610 213 1613 
5318 -0.34030858333711544 0.11539399916111978 0.9818204597748892 0 0 0 0.45 113 450 148 1499 164 1611 224 496 
5319 -0.0914107794484331 0.13013242158446273 1.0104927079399972 0 0 0 0.21 146 1274 188 85 213 1614 
5320 -0.013906471873140296 0.1458921983544137 1.0215579518836062 0 0 0 0.29 146 1275 164 1612 172 726 197 744 213 1615 221 850 232 1271 
5321 0.01814453016269317 0.1495415376006533 1.0243116391437725 0 0 0 0.17 110 1302 146 1276 148 1500 157 793 197 745 213 1616 
5322 0.04901133220446796 0.15457984204977068 1.0328990828835967 0 0 0 0.19 128 622 176 1280 213 1617 
5323 0.027439515260871856 0.1524825003892139 1.0205737856210886 0 0 0 0.23 85 1704 128 623 146 1277 194 793 214 921 232 1272 
5324 -0.2781980779432234 0.13804537233890946 0.9821912321796342 0 0 0 0.29 53 1840 96 1118 113 451 146 1278 164 1613 213 1618 232 1273 
5325 -0.31383832667608763 0.14808441994700802 0.9767811307128619 0 0 0 0.29 53 1841 110 1303 113 452 162 689 176 1281 204 888 213 1619 219 721 232 1274 
5326 -0.31717607247749546 0.14813042668007412 0.9771388228725617 0 0 0 0.14 113 453 176 1282 204 889 219 722 
5327 -0.11503767158692292 0.15667577309697373 0.9906155418985275 0 0 0 0.25 113 454 146 1279 157 794 176 1283 213 1620 221 851 231 269 232 1275 
5328 -0.31569441918239 0.1502820172296339 0.9736548715708727 0 0 0 0.32 53 1842 113 455 159 986 172 727 176 1284 190 744 204 890 219 723 
5329 0.019320744914723298 0.16722721612156827 1.0198243563676948 0 0 0 0.24 136 542 164 1614 172 728 197 746 214 922 
5330 -0.24168636082355832 0.164388525935507 0.9755868550720829 0 0 0 0.35 113 456 128 624 148 1501 
5331 -0.04083181256321102 0.18140743035597834 1.004019753713006 0 0 0 0.3 148 1502 164 1615 194 794 213 1621 223 166 234 360 
5332 -0.12513206329698273 0.177493131576002 0.9858920309347663 0 0 0 0.69 92 1770 110 1304 113 457 146 1280 148 1503 164 1616 176 1285 194 795 196 1000 204 891 213 1622 214 923 
5333 -0.0936944119088855 0.18082525943952754 0.991879679669737 0 0 0 0.47 85 1705 92 1771 110 1305 113 458 146 1281 148 1504 164 1617 176 1286 188 86 204 892 213 1623 232 1276 
5334 -0.2944560582424541 0.1735132401313212 0.9681650256679444 0 0 0 0.58 53 1843 113 459 204 893 213 1624 219 724 232 1277 
5335 -0.3564918983939126 0.1716170316008191 0.95539449978163 0 0 0 0.59 113 460 148 1505 164 1618 
5336 -0.32696006932644206 0.17534244966490858 0.9646099555980031 0 0 0 0.17 92 1772 113 461 172 729 176 1287 
5337 -0.2256698623370223 0.17956524946457256 0.9763117753451718 0 0 0 0.14 113 462 176 1288 204 894 
5338 -0.3058154042838371 0.17698137842254483 0.966857676729558 0 0 0 0.4 113 463 146 1282 164 1619 224 497 
5339 -0.19754825293101658 0.18263178492585275 0.9780319990362467 0 0 0 0.55 85 1706 92 1773 113 464 148 1506 164 1620 176 1289 213 1625 214 924 219 725 
5340 -0.2570039057521698 0.1851908314380786 0.9691435887076453 0 0 0 0.43 96 1119 146 1283 157 795 158 593 176 1290 204 895 219 726 232 1278 
5341 -0.30416575856133576 0.19060926233620423 0.9606170395375908 0 0 0 0.73 113 465 146 1284 164 1621 214 925 
5342 -0.2673826314448355 0.19193201359777523 0.9656921480006011 0 0 0 0.72 53 1844 92 1774 96 1120 110 1306 113 466 146 1285 148 1507 164 1622 176 1291 213 1626 219 727 224 498 232 1279 
5343 -0.07072098390543885 0.2012502941767757 0.9874122087503505 0 0 0 0.36 53 1845 113 467 146 1286 172 730 213 1627 232 1280 
5344 -0.11291297916115813 0.22084082595192814 0.9748747272637975 0 0 0 0.32 85 1707 113 468 172 731 194 796 
5345 -0.10132250902369735 0.002654181977199603 1.0279504154663952 0 0 0 0.36 126 529 127 555 128 625 152 228 157 796 158 594 159 987 162 690 172 732 176 1292 213 1628 219 728 224 499 227 664 
5346 -0.2840936221246286 0.0020474437323462495 1.0155672003375404 0 0 0 0.39 53 1846 127 556 128 626 138 95 146 1287 148 1508 157 797 158 595 159 988 162 691 164 1623 179 244 190 745 196 1001 204 896 213 1629 219 729 221 852 224 500 227 665 232 1281 
5347 0.04120519854358249 0.03486730470118859 1.0520266817808683 0 0 0 0.17 63 694 126 530 148 1509 152 229 159 989 176 1293 185 600 197 747 204 897 213 1630 219 730 220 398 222 746 227 666 232 1282 
5348 -0.029776735264752253 0.03059454676285592 1.0432183529524244 0 0 0 0.49 85 1708 146 1288 157 798 158 596 159 990 164 1624 176 1294 185 601 213 1631 221 853 222 747 234 361 
5349 -0.06720325539240199 0.027365346990895868 1.0368521655096898 0 0 0 0.34 158 597 159 991 164 1625 222 748 224 501 
5350 -0.20393219068103485 0.020322369370675886 1.012143725124168 0 0 0 0.25 190 746 204 898 219 731 
5351 -0.016134710892284316 0.051626540411762914 1.040133376375456 0 0 0 0.64 96 1121 127 557 148 1510 159 992 194 797 217 202 227 667 
5352 -0.2726682254580161 0.03526152522616461 1.0080209619954639 0 0 0 0.37 85 1709 113 469 162 692 200 573 
5353 0.011578432079350331 0.05904789537204143 1.0474986649395321 0 0 0 0.39 53 1847 172 733 176 1295 197 748 213 1632 219 732 221 854 
5354 -0.042796711531811554 0.058515247266567955 1.03805163537293 0 0 0 0.25 164 1626 172 734 213 1633 232 1283 
5355 0.021202326639043586 0.06875371679835807 1.0476484585547834 0 0 0 0.28 157 799 164 1627 172 735 176 1296 213 1634 221 855 222 749 232 1284 
5356 -0.347481864075459 0.05326663202268789 0.9994328374514616 0 0 0 0.43 92 1775 110 1307 113 470 146 1289 157 800 172 736 232 1285 
5357 -0.30296068716017505 0.05927936323757059 1.00031820571975 0 0 0 0.3 96 1122 113 471 128 627 164 1628 213 1635 221 856 232 1286 
5358 0.04259418062731505 0.09415177060406416 1.0459638408847045 0 0 0 0.37 128 628 157 801 200 574 
5359 -0.34628850669401323 0.08122524096955294 0.9958997034003417 0 0 0 0.59 53 1848 113 472 157 802 172 737 176 1297 190 747 213 1636 219 733 221 857 232 1287 
5360 -0.19082696061780682 0.0970221979343432 1.0090076378660426 0 0 0 1.53 53 1849 113 473 185 602 204 899 232 1288 
5361 -0.014280377632895608 0.11034304212835236 1.0304519717214045 0 0 0 0.23 92 1776 135 265 213 1637 222 750 227 668 
5362 -0.1657434668883478 0.10167529438915893 1.0026594915762528 0 0 0 0.43 110 1308 113 474 126 531 146 1290 147 641 157 803 158 598 159 993 164 1629 172 738 176 1298 185 603 204 900 213 1638 
5363 -0.36379511762069433 0.10219388142460212 0.9850418994545632 0 0 0 0.42 113 475 148 1511 224 502 
5364 -0.3363548980054033 0.12533184266510347 0.9794548230434929 0 0 0 0.9 113 476 127 558 128 629 146 1291 148 1512 158 599 164 1630 172 739 176 1299 181 274 213 1639 224 503 
5365 -0.09465073337140381 0.14429556692605175 1.003553791169761 0 0 0 0.64 113 477 158 600 164 1631 172 740 190 748 204 901 231 270 
5366 0.015463317905470422 0.16702951204757352 1.019002927162088 0 0 0 0.34 197 749 221 858 223 167 
5367 -0.21217909025896708 0.15821924638641896 0.9797994831680328 0 0 0 0.52 113 478 146 1292 164 1632 
5368 -0.2556457016882144 0.15738182208945312 0.978694075725249 0 0 0 0.14 113 479 176 1300 204 902 
5369 -0.0034213488208753623 0.18555550539450655 1.006925717263524 0 0 0 0.49 92 1777 96 1123 110 1309 126 532 147 642 158 601 162 693 164 1633 172 741 196 1002 204 903 213 1640 214 926 217 203 222 751 223 168 227 669 231 271 232 1289 234 362 
5370 -0.22872321097793227 0.17768797435586944 0.9734988641230173 0 0 0 0.53 113 480 176 1301 204 904 221 859 
5371 -0.2793347974655062 0.17675924595142667 0.9712213619411609 0 0 0 0.29 113 481 157 804 179 245 213 1641 
5372 -0.26927653723641426 0.20632067697347903 0.9647955579023813 0 0 0 0.25 113 482 200 575 224 504 
5373 -0.056741740966239844 0.004979807138884694 1.042017129919982 0 0 0 0.52 92 1778 127 559 147 643 148 1513 162 694 220 399 
5374 -0.04229178750795741 0.021765869477133364 1.0431678766115702 0 0 0 0.46 53 1850 96 1124 126 533 127 560 148 1514 158 602 159 994 164 1634 172 742 176 1302 196 1003 204 905 214 927 222 752 227 670 232 1290 
5375 -0.08426484174663013 0.02962734967033622 1.0307500891080397 0 0 0 0.55 85 1710 110 1310 152 230 157 805 158 603 194 798 214 928 
5376 -0.3003240680234816 0.013173826299361275 1.0124722652711196 0 0 0 0.4 113 483 159 995 162 695 185 604 224 505 
5377 -0.1507678969182391 0.08532164395984408 1.0086986575321328 0 0 0 0.22 113 484 126 534 127 561 220 400 
5378 -0.3458143671492778 0.08864509592326221 0.9915078569997208 0 0 0 0.29 113 485 148 1515 213 1642 221 860 232 1291 
5379 -0.30696580677112356 0.09391904528900952 0.9923986011891432 0 0 0 0.31 110 1311 113 486 146 1293 148 1516 157 806 172 743 221 861 
5380 -0.2643187126011993 0.103897504610499 0.993907740616088 0 0 0 0.63 53 1851 96 1125 113 487 157 807 158 604 172 744 179 246 190 749 213 1643 227 671 232 1292 
5381 0.0072009635191191915 0.028006256862898746 1.0525030761298613 0 0 0 0.29 113 488 172 745 204 906 
5382 -0.06673675236758725 0.023031010101992454 1.0358969867145684 0 0 0 0.41 157 808 176 1303 204 907 213 1644 214 929 221 862 
5383 -0.15853568556963438 0.02212593441929551 1.020476986538169 0 0 0 0.2 63 695 128 630 147 644 157 809 213 1645 232 1293 
5384 0.03626861576501025 0.06960879874374246 1.050704019694657 0 0 0 0.38 146 1294 147 645 148 1517 152 231 159 996 162 696 164 1635 172 746 185 605 204 908 217 204 
5385 0.04272680157230693 0.07020346481819857 1.0546840108446474 0 0 0 0.31 127 562 136 543 148 1518 159 997 162 697 163 313 164 1636 185 606 194 799 196 1004 
5386 -0.27619541819956656 0.10906971098303206 0.9915421668876861 0 0 0 0.33 88 287 113 489 164 1637 
5387 -0.018377326036104206 0.17685875557303618 1.0078971825264171 0 0 0 0.78 53 1852 175 211 188 87 190 750 194 800 232 1294 
5388 -0.25972677108920245 0.1696482613209688 0.9774614356437653 0 0 0 0.56 113 490 158 605 176 1304 
5389 -0.16169424126594353 0.1977352588842726 0.9776323525233476 0 0 0 0.42 113 491 128 631 221 863 
5390 -0.33045425366018993 -0.00907717727262973 1.0424717941662662 0 0 0 0.66 88 288 96 1126 128 632 152 232 157 810 172 747 179 247 181 275 190 751 198 422 213 1646 227 672 
5391 -0.03724998877534833 0.027303734313596156 1.0438246709349561 0 0 0 0.45 127 563 148 1519 152 233 196 1005 198 423 213 1647 217 205 220 401 221 864 232 1295 
5392 0.038578216848159805 0.05900247758566742 1.049034487088923 0 0 0 0.46 197 750 198 424 214 930 
5393 -0.019220833421443918 0.06017574273076618 1.0474580732633527 0 0 0 0.88 164 1638 200 576 217 206 
5394 -0.34503125200304613 0.059889565498143525 0.9941882197894233 0 0 0 0.54 53 1853 113 492 146 1295 157 811 176 1305 204 909 219 734 227 673 232 1296 
5395 -0.36014037901537277 0.08511738868413181 0.9886303069475029 0 0 0 0.31 88 289 113 493 126 535 148 1520 164 1639 198 425 224 506 
5396 -0.09405952347274177 0.037675133875872346 1.0244348986311895 0 0 0 0.95 152 234 162 698 179 248 198 426 200 577 232 1297 
5397 -0.30633560622634953 0.026257075822490494 0.9980869913922692 0 0 0 0.53 113 494 190 752 221 865 232 1298 
5398 -0.14533208860965566 0.14537740177237074 0.9876521508776716 0 0 0 0.79 53 1854 92 1779 96 1127 113 495 127 564 128 633 136 544 146 1296 147 646 148 1521 157 812 159 998 164 1640 176 1306 181 276 190 753 213 1648 214 931 219 735 220 402 221 866 231 272 232 1299 
5399 -0.23727265584052445 0.06638945194170584 1.0050787654774327 0 0 0 0.6 53 1855 88 290 92 1780 96 1128 113 496 127 565 128 634 146 1297 148 1522 157 813 158 606 162 699 164 1641 172 748 179 249 181 277 190 754 198 427 213 1649 219 736 220 403 224 507 232 1300 
5400 -0.055755060692404615 0.10657161161946935 1.0187753273503046 0 0 0 0.82 127 566 128 635 146 1298 147 647 148 1523 152 235 157 814 172 749 198 428 213 1650 217 207 221 867 232 1301 
5401 -0.1347940918455345 0.10470667462296715 1.0012023629720401 0 0 0 0.61 113 497 147 648 148 1524 
5402 -0.23752682903004604 0.10331239880588494 0.9966138662981354 0 0 0 0.48 113 498 164 1642 221 868 
5403 -0.027302713520596752 0.13633864023594558 1.0166097527837936 0 0 0 0.25 146 1299 152 236 188 88 221 869 
5404 -0.17022884837179375 0.20634743235528105 0.9741400546907644 0 0 0 0.43 113 499 146 1300 221 870 
5405 -0.12241472451005046 0.05471697313228853 1.0184102211511759 0 0 0 0.49 126 536 128 636 190 755 221 871 222 753 232 1302 
5406 -0.28175267519512204 0.05535492589215841 1.0009697364290076 0 0 0 0.34 113 500 146 1301 181 278 
5407 -0.01330372776084289 0.07990063641149249 1.0347979828346447 0 0 0 0.96 85 1711 110 1312 128 637 138 96 146 1302 147 649 148 1525 152 237 157 815 176 1307 190 756 198 429 200 578 204 910 213 1651 217 208 220 404 221 872 232 1303 
5408 -0.09612670322138372 0.07610632664588196 1.0191716621894642 0 0 0 0.76 53 1856 63 696 85 1712 88 291 110 1313 127 567 128 638 138 97 146 1303 147 650 148 1526 157 816 158 607 159 999 162 700 176 1308 179 250 185 607 190 757 194 801 196 1006 198 430 200 579 204 911 213 1652 214 932 217 209 219 737 221 873 222 754 231 273 232 1304 
5409 -0.06943794262342685 0.07847930956202251 1.0236557517579332 0 0 0 0.88 63 697 85 1713 88 292 92 1781 110 1314 126 537 127 568 128 639 146 1304 147 651 148 1527 152 238 157 817 158 608 159 1000 162 701 172 750 176 1309 185 608 190 758 194 802 196 1007 198 431 200 580 204 912 213 1653 214 933 217 210 219 738 220 405 221 874 222 755 231 274 232 1305 
5410 -0.06960122859001082 0.0785689814669233 1.0238425243777411 0 0 0 0.82 63 698 85 1714 88 293 110 1315 127 569 128 640 136 545 138 98 146 1305 147 652 148 1528 152 239 157 818 158 609 159 1001 162 702 172 751 176 1310 179 251 185 609 190 759 194 803 196 1008 198 432 200 581 204 913 213 1654 214 934 217 211 219 739 220 406 221 875 222 756 232 1306 
5411 -0.04152058351045001 0.07912325981275832 1.0294621732739968 0 0 0 1.01 85 1715 128 641 136 546 146 1306 147 653 152 240 157 819 159 1002 172 752 175 212 176 1311 190 760 194 804 198 433 200 582 204 914 213 1655 214 935 217 212 221 876 232 1307 
5412 -0.12252963630641299 0.07574909886900229 1.0133886222221107 0 0 0 0.69 53 1857 63 699 85 1716 88 294 110 1316 127 570 128 642 136 547 138 99 146 1307 147 654 148 1529 157 820 158 610 159 1003 162 703 172 753 176 1312 179 252 181 279 185 610 190 761 194 805 196 1009 198 434 200 583 204 915 213 1656 214 936 217 213 219 740 221 877 222 757 224 508 231 275 232 1308 
5413 -0.2372096246623698 0.08703207960160403 1.001336764254833 0 0 0 0.4 113 501 221 878 232 1309 
5414 -0.06960124765787139 0.10064972210191524 1.0185376535564445 0 0 0 0.61 88 295 92 1782 128 643 146 1308 148 1530 152 241 157 821 158 611 162 704 172 754 176 1313 185 611 198 435 200 584 204 916 213 1657 214 937 217 214 219 741 221 879 222 758 232 1310 
5415 0.014571702219347454 0.1342666211273573 1.0275933302498126 0 0 0 0.52 152 242 188 89 198 436 217 215 
5416 -0.03934444141875776 0.146478141417499 1.0068528617104877 0 0 0 0.76 113 502 147 655 148 1531 221 880 
5417 -0.09545149343207365 0.16802717570542888 0.9933968626632982 0 0 0 0.59 85 1717 88 296 113 503 126 538 146 1309 147 656 158 612 164 1643 172 755 188 90 190 762 194 806 198 437 204 917 213 1658 214 938 221 881 222 759 232 1311 
5418 -0.122441677141876 0.16754228429633927 0.9884461940238792 0 0 0 0.66 88 297 113 504 146 1310 164 1644 198 438 213 1659 214 939 220 407 221 882 232 1312 
5419 -0.15419458469880082 0.07364640522433526 1.0129223337945958 0 0 0 0.87 110 1317 113 505 190 763 204 918 
5420 -0.013014834963598896 0.13502572419774697 1.0205105428605583 0 0 0 0.61 147 657 194 807 220 408 232 1313 
5421 0.07100221192673953 -0.02027629316952697 1.0831314455361505 0 0 0 0.21 126 539 204 919 232 1314 
5422 -0.18967775364848682 -0.030946034937853795 1.0359611020517525 0 0 0 0.38 126 540 128 644 157 822 162 705 164 1645 204 920 
5423 0.19594144084107062 -0.0028503063063831276 1.172556159137999 0 0 0 0.65 126 541 136 548 148 1532 196 1010 
5424 0.06437640350943767 -0.00716158370752914 1.0720429605495299 0 0 0 0.34 126 542 148 1533 157 823 
5425 0.07997203963288776 -0.006304272204454873 1.0756576677295009 0 0 0 0.49 126 543 127 571 148 1534 152 243 213 1660 221 883 232 1315 
5426 0.18451264546543253 0.0008464082989702407 1.1727700319385692 0 0 0 0.44 126 544 148 1535 196 1011 
5427 -0.313022607479474 -0.023149132163734536 0.8133668824357484 0 0 0 0.07 126 545 196 1012 224 509 
5428 0.1886367262214684 0.0036985325251768855 1.17507831796102 0 0 0 0.56 126 546 148 1536 196 1013 
5429 0.1886367262214684 0.0036985325251768855 1.17507831796102 0 0 0 0.56 126 547 148 1537 196 1014 
5430 -0.3187896956050363 -0.01596287953957502 0.8416166370208202 0 0 0 0.1 126 548 159 1004 196 1015 
5431 -0.1279313308482933 -0.005468998368345174 1.0359454982077654 0 0 0 0.31 126 549 147 658 148 1538 232 1316 
5432 -0.08587992337784375 -0.0027457270277898215 1.0373835529064965 0 0 0 0.44 126 550 162 706 220 409 
5433 0.14655054119627584 0.009461023491960485 1.09408867428537 0 0 0 0.15 126 551 148 1539 164 1646 
5434 -0.3180548231808694 -0.012790301534717347 0.8504690603297688 0 0 0 0.54 126 552 148 1540 164 1647 
5435 -0.3241317262712611 -0.01191930208613146 0.8689617805658953 0 0 0 0.25 126 553 196 1016 224 510 
5436 0.057401945802788304 0.009150915921775254 1.069856310300254 0 0 0 0.36 85 1718 126 554 146 1311 148 1541 159 1005 162 707 176 1314 
5437 -0.3739461575536985 -0.010680893377667243 1.0151843886336205 0 0 0 0.06 126 555 148 1542 232 1317 
5438 -0.37402313165281476 -0.010469493771188549 1.0152640932957415 0 0 0 0.38 126 556 148 1543 221 884 232 1318 
5439 0.0024764336376546627 0.008854312937574852 1.0534060905988454 0 0 0 0.54 126 557 147 659 185 612 213 1661 222 760 232 1319 
5440 -0.1744871626380344 0.002651146434018056 1.0269129313627134 0 0 0 0.51 53 1858 92 1783 96 1129 126 558 128 645 136 549 146 1312 147 660 148 1544 158 613 159 1006 162 708 164 1648 172 756 176 1315 179 253 185 613 196 1017 204 921 219 742 220 410 224 511 227 674 232 1320 
5441 -0.2381863893598569 0.0006037383608304718 1.0235651348565677 0 0 0 0.26 126 559 127 572 148 1545 224 512 
5442 -0.09193233346972983 0.007624583413276247 1.033866985758694 0 0 0 0.58 126 560 127 573 136 550 176 1316 222 761 
5443 0.07958621332912263 0.020848800311892526 1.0722254923331367 0 0 0 0.52 63 700 96 1130 126 561 128 646 152 244 158 614 172 757 220 411 221 885 227 675 
5444 0.08865721915122851 0.024874713204651858 1.0743940335146085 0 0 0 0.32 63 701 126 562 163 314 185 614 222 762 
5445 0.1908103305847607 0.034500447282185175 1.0963315746080387 0 0 0 0.3 85 1719 92 1784 126 563 159 1007 165 756 235 811 
5446 -0.3317737139662211 0.013466971054827694 1.0193097341203137 0 0 0 0.52 126 564 148 1546 164 1649 
5447 -0.10576105251474013 0.02435254052432052 1.0279339620965602 0 0 0 0.25 53 1859 63 702 85 1720 92 1785 96 1131 126 565 127 574 128 647 136 551 138 100 146 1313 147 661 148 1547 152 245 157 824 158 615 159 1008 162 709 164 1650 172 758 176 1317 179 254 185 615 190 764 194 808 196 1018 200 585 204 922 213 1662 214 940 217 216 219 743 220 412 222 763 224 513 227 676 232 1321 
5448 -0.14902428209581411 0.02311622658118568 1.0212683515555372 0 0 0 0.28 126 566 127 575 148 1548 
5449 -0.16506730696422664 0.022836257788109965 1.0221794640351138 0 0 0 0.69 53 1860 63 703 85 1721 96 1132 126 567 127 576 146 1314 148 1549 164 1651 185 616 194 809 
5450 -0.32920905329655 0.01729254373895096 1.0055463443752544 0 0 0 0.65 85 1722 92 1786 126 568 127 577 146 1315 148 1550 159 1009 162 710 164 1652 176 1318 185 617 219 744 
5451 -0.2994005216192061 0.01835822827852121 1.0138949967749578 0 0 0 0.33 126 569 159 1010 227 677 
5452 0.03915168766154734 0.032215349438067066 1.0519806341540137 0 0 0 0.25 126 570 148 1551 194 810 
5453 -0.26893640530195745 0.020750345063064494 1.0145828574559583 0 0 0 0.42 126 571 159 1011 185 618 
5454 -0.1459350599449736 0.02548963140165209 1.0148181548997575 0 0 0 0.49 53 1861 63 704 85 1723 92 1787 96 1133 110 1318 126 572 127 578 128 648 136 552 146 1316 147 662 148 1552 157 825 159 1012 162 711 164 1653 172 759 176 1319 185 619 190 765 196 1019 204 923 213 1663 214 941 219 745 220 413 222 764 227 678 232 1322 
5455 0.07148353903359168 0.03427259351451277 1.0653001511168214 0 0 0 0.48 126 573 164 1654 185 620 214 942 232 1323 
5456 -0.19605801657175728 0.02471272285858106 1.020009041265736 0 0 0 0.6 53 1862 96 1134 126 574 128 649 158 616 194 811 204 924 219 746 224 514 227 679 232 1324 
5457 -0.06379684748609481 0.02985935501427002 1.0347871636306158 0 0 0 0.19 126 575 157 826 159 1013 176 1320 222 765 
5458 -0.026686693861244653 0.03145390897620775 1.043694388898541 0 0 0 0.52 126 576 135 266 136 553 159 1014 176 1321 185 621 200 586 214 943 222 766 
5459 -0.05635784273473658 0.0309644850963241 1.0358308571661488 0 0 0 0.2 126 577 159 1015 204 925 219 747 
5460 -0.23347049941412448 0.024771504268487104 1.0121601902297401 0 0 0 0.28 126 578 148 1553 172 760 224 515 
5461 0.11166236621601947 0.03888433161418175 1.0678615787706789 0 0 0 0.36 53 1863 96 1135 126 579 146 1317 148 1554 152 246 159 1016 176 1322 182 286 184 639 190 766 197 751 204 926 213 1664 221 886 227 680 235 812 
5462 -0.370072049606486 0.02223817831082047 1.0037024224807318 0 0 0 0.25 126 580 127 579 159 1017 
5463 -0.2633795960736704 0.03188160060488712 1.00925636156913 0 0 0 0.6 126 581 127 580 158 617 204 927 
5464 -0.024993970224979376 0.04576864219235289 1.0371114668011634 0 0 0 0.5 126 582 127 581 148 1555 164 1655 
5465 0.03464702079795649 0.04849485837723189 1.0534440720303906 0 0 0 0.34 63 705 92 1788 96 1136 126 583 159 1018 185 622 194 812 197 752 214 944 222 767 227 681 
5466 -0.3063084073659514 0.03708677241841504 0.9997827976036104 0 0 0 0.07 126 584 172 761 227 682 
5467 -0.08120652365104854 0.045001065024860905 1.0267949196844086 0 0 0 0.16 126 585 136 554 172 762 219 748 
5468 0.09808899262684595 0.05221652809524914 1.0677062393327075 0 0 0 0.42 85 1724 92 1789 96 1137 126 586 128 650 136 555 148 1556 157 827 163 315 172 763 175 213 182 287 194 813 197 753 200 587 214 945 220 414 227 683 
5469 -0.2928830339867695 0.039283778976864435 1.0065063521601074 0 0 0 0.25 126 587 128 651 157 828 159 1019 204 928 213 1665 219 749 224 516 227 684 
5470 0.05734848335606385 0.05204813510145715 1.0573048744785554 0 0 0 0.44 96 1138 126 588 136 556 148 1557 185 623 194 814 213 1666 234 363 
5471 0.10195404624142476 0.05455710817827041 1.0680714632741788 0 0 0 0.9 126 589 127 582 158 618 172 764 184 640 185 624 196 1020 204 929 214 946 
5472 0.128101257893402 0.05569207333436614 1.0720284469603973 0 0 0 0.45 126 590 136 557 148 1558 159 1020 176 1323 204 930 
5473 -0.008866220749691268 0.05201977878092359 1.0418052028527325 0 0 0 0.31 126 591 127 583 159 1021 194 815 196 1021 214 947 
5474 0.08208357305314794 0.05559997891354667 1.062524534944894 0 0 0 0.23 126 592 204 931 219 750 232 1325 
5475 -0.20058143218196722 0.04667829809688086 1.011416657219994 0 0 0 0.3 126 593 136 558 148 1559 159 1022 172 765 179 255 185 625 
5476 -0.05502967845296981 0.0512647417778184 1.0316357071268372 0 0 0 0.25 126 594 157 829 158 619 176 1324 204 932 219 751 
5477 0.2133543084099325 0.060643416505490946 1.0943345259943065 0 0 0 0.42 126 595 222 768 235 813 
5478 0.21358457840872566 0.06069229633400717 1.0953808579998165 0 0 0 0.48 110 1319 126 596 127 584 136 559 162 712 182 288 184 641 213 1667 222 769 235 814 
5479 -0.06544642736124873 0.0517264121047118 1.032494745210146 0 0 0 0.15 126 597 148 1560 224 517 
5480 -0.4116081938893966 0.04218155093546978 0.9972614983520728 0 0 0 0.28 85 1725 126 598 148 1561 159 1023 196 1022 224 518 
5481 0.09476163034561445 0.05795181239661471 1.0645421760378564 0 0 0 0.21 126 599 159 1024 163 316 164 1656 185 626 196 1023 
5482 -0.1019616451041914 0.053036391104128326 1.0312828814221455 0 0 0 0.23 126 600 148 1562 159 1025 224 519 
5483 -0.4030842607888992 0.04418877228460956 0.9986708689841547 0 0 0 0.52 126 601 164 1657 224 520 
5484 -0.09858522885621537 0.05466806372245337 1.0301261194795397 0 0 0 0.15 126 602 148 1563 159 1026 
5485 0.01233403870628335 0.059124289731567053 1.0478775426023796 0 0 0 0.06 126 603 148 1564 194 816 
5486 0.01603082707270698 0.05910194491522557 1.0513757788231834 0 0 0 0.26 126 604 159 1027 196 1024 
5487 -0.3254417507982631 0.04306300502948707 0.855117749797605 0 0 0 0.25 126 605 159 1028 196 1025 
5488 0.1278492597936793 0.06564199498488203 1.0781885472324466 0 0 0 0.55 126 606 159 1029 163 317 
5489 -0.36200843650880726 0.051008719363872294 0.997965653049873 0 0 0 0.47 53 1864 110 1320 126 607 159 1030 176 1325 196 1026 219 752 224 521 227 685 232 1326 
5490 0.062461267126571005 0.06619497164673611 1.0615044696395863 0 0 0 0.16 126 608 162 713 185 627 
5491 0.06863098273947701 0.06860281133204615 1.0535125323009926 0 0 0 0.2 126 609 148 1565 220 415 
5492 0.16309034606026493 0.07201537517436266 1.0785985780114966 0 0 0 0.23 126 610 127 585 159 1031 185 628 196 1027 
5493 -0.26384954456544174 0.06418839244113501 1.0044405957221907 0 0 0 0.34 126 611 138 101 172 766 
5494 -0.31742227545024165 0.05285953724473821 0.8137309109767707 0 0 0 0.35 126 612 159 1032 196 1028 
5495 -0.10175095569320923 0.07359694306914226 1.017746665924358 0 0 0 0.2 126 613 148 1566 224 522 
5496 0.2414170157803308 0.08523825102284348 1.1050551320084867 0 0 0 0.3 92 1790 126 614 148 1567 164 1658 165 757 220 416 235 815 
5497 -0.36000408896290725 0.07145400011988705 0.9977836085903043 0 0 0 0.51 126 615 127 586 148 1568 164 1659 224 523 
5498 -0.32246476278751435 0.06400023968658267 0.8204700550469728 0 0 0 0.67 126 616 148 1569 159 1033 196 1029 224 524 
5499 -0.18150114707170856 0.08092052985221442 1.0036845114799289 0 0 0 0.32 126 617 148 1570 214 948 
5500 0.0636350054072194 0.08696653267958128 1.0538251479554885 0 0 0 0.37 126 618 163 318 185 629 
5501 -0.23309237465418856 0.08073973145317653 1.003270183759003 0 0 0 0.22 126 619 176 1326 179 256 204 933 
5502 0.09891614066820087 0.08866003561188358 1.0625439017398608 0 0 0 0.14 126 620 194 817 196 1030 
5503 -0.12959328430782124 0.08336276296805102 1.0110324048651005 0 0 0 0.29 126 621 136 560 146 1318 148 1571 159 1034 162 714 176 1327 200 588 204 934 213 1668 214 949 219 753 222 770 
5504 -0.05016543798736124 0.0872482457781211 1.028816502964908 0 0 0 0.12 126 622 159 1035 162 715 214 950 
5505 -0.021675978381638376 0.08841810787763316 1.0344068895021965 0 0 0 0.27 126 623 127 587 136 561 159 1036 
5506 0.21850213624339068 0.09770886020197368 1.0976692574194766 0 0 0 0.17 126 624 148 1572 220 417 
5507 -0.3284605152836832 0.0763458498145611 0.8662515010173417 0 0 0 0.68 110 1321 126 625 148 1573 159 1037 164 1660 196 1031 224 525 
5508 0.09162940970245445 0.09512275051058937 1.0584725595576168 0 0 0 0.12 126 626 159 1038 162 716 185 630 
5509 -0.27422165006188637 0.0897570954926867 0.9942676362142703 0 0 0 0.34 53 1865 85 1726 110 1322 126 627 148 1574 159 1039 172 767 176 1328 179 257 204 935 219 754 224 526 
5510 0.0754008976508515 0.09600902408282659 1.0528733423784153 0 0 0 0.19 53 1866 126 628 148 1575 159 1040 185 631 194 818 200 589 213 1669 220 418 222 771 
5511 0.09927945404993016 0.09744778324583443 1.059563945486103 0 0 0 0.58 126 629 148 1576 159 1041 194 819 
5512 -0.3271883090477726 0.07842378258976627 0.8511325301485438 0 0 0 0.39 126 630 148 1577 159 1042 164 1661 224 527 
5513 -0.3337047569968219 0.08116364860871003 0.8859638719433134 0 0 0 0.46 126 631 148 1578 159 1043 164 1662 196 1032 
5514 0.12717561842911845 0.09889239420341037 1.066690649466989 0 0 0 0.07 126 632 159 1044 220 419 
5515 0.22267650583083265 0.10154120379617185 1.0888826006947727 0 0 0 0.19 126 633 136 562 148 1579 220 420 
5516 -0.2792529018396159 0.0919138912727712 0.9960229329936866 0 0 0 0.14 126 634 196 1033 224 528 
5517 0.06869087436278064 0.09856779532798228 1.0513854787377261 0 0 0 0.2 53 1867 126 635 128 652 176 1329 185 632 204 936 219 755 222 772 
5518 -0.14353515875694678 0.0971669796512292 1.00393612883101 0 0 0 0.44 126 636 148 1580 164 1663 196 1034 214 951 220 421 224 529 
5519 0.220833563911354 0.10493892722007939 1.0864234075062724 0 0 0 0.32 92 1791 126 637 136 563 148 1581 164 1664 165 758 184 642 196 1035 213 1670 235 816 
5520 -0.3211888250207362 0.08513752429455398 0.8524227336808226 0 0 0 0.32 126 638 148 1582 164 1665 
5521 0.20731373956549856 0.10562829660830393 1.0779026998361187 0 0 0 0.38 126 639 127 588 148 1583 
5522 -0.39946727996353537 0.09605653193926635 0.9774279572817864 0 0 0 0.23 126 640 148 1584 224 530 
5523 -0.08688323961923973 0.10083522849047413 1.0154038344194318 0 0 0 0.51 126 641 148 1585 164 1666 
5524 0.051826127473340165 0.1035981458114703 1.0447311949703753 0 0 0 0.39 96 1139 126 642 128 653 135 267 148 1586 152 247 157 830 158 620 159 1045 164 1667 175 214 176 1330 182 289 185 633 200 590 204 937 213 1671 214 952 234 364 
5525 0.07519703677037293 0.10556685125532027 1.0511910814832015 0 0 0 0.35 126 643 138 102 152 248 158 621 159 1046 176 1331 204 938 219 756 234 365 
5526 0.2304655600456817 0.10937064230614228 1.0942288076467266 0 0 0 0.37 85 1727 92 1792 126 644 136 564 148 1587 164 1668 213 1672 235 817 
5527 0.21884376815812517 0.1084935901987628 1.0834437383175772 0 0 0 0.43 126 645 148 1588 164 1669 165 759 213 1673 235 818 
5528 -0.33615802393583527 0.1002488384005733 0.986308849343239 0 0 0 0.76 110 1323 126 646 146 1319 148 1589 159 1047 164 1670 181 280 196 1036 224 531 232 1327 
5529 -0.18985603406130352 0.1036689072147242 1.0017555702143988 0 0 0 0.13 126 647 159 1048 185 634 
5530 0.15618958001739813 0.11023248835951409 1.0710240894418366 0 0 0 0.11 126 648 148 1590 196 1037 
5531 -0.3578960453175473 0.10343050269155793 0.9898067769947856 0 0 0 0.37 126 649 127 589 159 1049 232 1328 
5532 -0.356833107279884 0.10330018786379509 0.989266549233353 0 0 0 0.4 126 650 128 654 224 532 
5533 0.0985794894586587 0.11426914279943723 1.0516789865711913 0 0 0 0.25 126 651 162 717 196 1038 
5534 -0.36146918439208336 0.10980983128874593 0.9786887221231308 0 0 0 0.41 85 1728 92 1793 113 506 126 652 127 590 148 1591 157 831 159 1050 162 718 164 1671 176 1332 196 1039 224 533 
5535 -0.3320946692525995 0.10990657438903365 0.9833650818521701 0 0 0 0.51 96 1140 126 653 146 1320 148 1592 157 832 172 768 204 939 213 1674 221 887 224 534 
5536 0.006784825077871664 0.11418791448051874 1.0330883519877436 0 0 0 0.21 85 1729 126 654 148 1593 159 1051 185 635 
5537 0.0628593001920468 0.11783837279406136 1.0482134982642628 0 0 0 0.06 126 655 159 1052 185 636 
5538 0.23032356403389412 0.1252433553590496 1.0881674381662485 0 0 0 0.48 85 1730 126 656 127 591 148 1594 164 1672 196 1040 213 1675 220 422 
5539 0.04527717248456057 0.12287477937852509 1.0403631308170223 0 0 0 0.18 126 657 159 1053 194 820 
5540 -0.36460555803877165 0.12212214868495622 0.9747977939125778 0 0 0 0.48 126 658 148 1595 224 535 
5541 0.23156556201275047 0.13530717120205446 1.0878996050891974 0 0 0 0.75 63 706 85 1731 126 659 136 565 148 1596 163 319 165 760 182 290 184 643 196 1041 213 1676 235 819 
5542 -0.40979888183386726 0.1298052585505806 0.9749181535962499 0 0 0 0.39 126 660 148 1597 159 1054 
5543 0.07315334106896877 0.13500461595827862 1.0438134939262804 0 0 0 0.1 126 661 148 1598 194 821 
5544 -0.328211823653199 0.11948736767525102 0.8518843096903499 0 0 0 0.56 126 662 148 1599 159 1055 164 1673 196 1042 224 536 
5545 -0.27616631466482866 0.13504679684215437 0.9814598188793632 0 0 0 0.42 126 663 148 1600 164 1674 
5546 -0.10655640246330508 0.13494539579251638 0.9964177769990512 0 0 0 0.35 126 664 157 833 213 1677 
5547 -0.19909321119451193 0.1376731722446487 0.9936772002088051 0 0 0 0.1 126 665 159 1056 185 637 
5548 -0.28294996397443845 0.13799800250818964 0.9816226203976309 0 0 0 0.44 53 1868 92 1794 96 1141 113 507 126 666 128 655 146 1321 158 622 159 1057 162 719 172 769 176 1333 190 767 204 940 213 1678 219 757 221 888 224 537 232 1329 
5549 0.05053460459932079 0.1399384939885783 1.0351487181153143 0 0 0 0.3 126 667 159 1058 194 822 
