# 3D point list with one line of data per point:
#   POINT3D_ID, X, Y, Z, R, G, B, ERROR, TRACK[] as (IMAGE_ID, POINT2D_IDX)
# Number of points: 253, mean track length: 11.36
9059 0.258939362235876 0.1671314605437472 0.5724246415640054 0 0 0 0.58 137 1480 140 2731 144 2600 151 3994 193 3841 
9060 -0.005466780454582301 0.17843573358390777 0.5650543772590253 0 0 0 0.84 137 1481 143 1683 166 2927 191 2258 193 3842 215 1299 46 2930 189 1736 186 1516 31 1070 121 183 178 1090 23 2036 119 2151 8 1504 
9061 -0.013988398762693288 -0.6955261649038524 0.9142087991932475 0 0 0 0.77 137 1482 143 1684 218 3014 
9062 0.031592021827127406 -0.41109819743307874 0.8010423116910261 0 0 0 0.44 137 1483 145 1804 161 2122 211 2778 46 2931 55 1911 57 2508 116 4232 
9063 0.08832985776966988 -0.4242042377508529 0.7946599605092272 0 0 0 0.82 122 1414 137 1484 143 1685 145 1805 149 2773 177 1937 193 3843 212 2279 216 2874 226 2219 34 2215 57 2509 59 2105 86 2363 23 2037 173 2357 178 1091 7 2145 
9064 -0.03978064829609552 -0.1376341809868435 0.6677443920933565 0 0 0 1.0 94 3723 137 1485 140 2732 145 1806 149 2774 151 3995 166 2928 202 1764 211 2779 215 1300 228 3734 233 2114 37 2547 46 2932 57 2510 59 2106 86 2364 119 2152 183 1877 189 1737 191 2259 131 1276 150 1220 178 1092 186 1517 115 354 
9065 0.19099545571200177 -0.12297318160183805 0.7465862935521848 0 0 0 0.55 137 1486 161 2123 183 1878 205 1845 46 2933 186 1518 
9066 -0.26513322737213724 -0.036217099754418745 0.6797797429730946 0 0 0 0.37 137 1487 149 2775 161 2124 205 1846 34 2216 
9067 -0.1268385737857628 -0.03347089192772009 0.6721498815072129 0 0 0 0.28 137 1488 144 2601 145 1807 183 1879 
9068 0.5922813498142986 -0.14654998130407315 0.3628224549535275 0 0 0 0.44 137 1489 139 2212 140 2733 202 1765 55 1912 72 1837 150 1221 177 1938 78 44 79 5 
9069 0.43593494094282376 -0.05799259929609642 0.6473360905885696 0 0 0 0.87 122 1415 137 1490 143 1686 151 3996 166 2929 177 1939 233 2115 59 2107 144 2602 189 1738 150 1222 
9070 0.5600673329658712 -0.052188391551297515 0.6937889100997477 0 0 0 0.77 137 1491 144 2603 191 2260 37 2548 186 1519 55 1913 59 2108 150 1223 228 3735 
9071 -0.047787418172813505 0.01048029709930654 0.6387542516547647 0 0 0 0.8 94 3724 116 4233 137 1492 139 2213 140 2734 143 1687 144 2604 145 1808 151 3997 154 3326 161 2125 205 1847 212 2280 215 1301 218 3015 228 3736 149 2776 55 1914 57 2511 59 2109 30 1223 102 1507 178 1093 7 2146 133 391 168 219 
9072 0.5806015824876984 -0.042409039966183074 0.5978488090983892 0 0 0 0.52 137 1493 139 2214 140 2735 144 2605 154 3327 166 2930 177 1940 191 2261 202 1766 211 2780 212 2281 216 2875 228 3737 233 2116 30 1224 57 2512 59 2110 86 2365 99 1553 131 1277 150 1224 171 1692 178 1094 180 2683 189 1739 225 525 24 1127 31 1071 115 355 106 1189 210 1334 68 483 174 292 55 1915 102 1508 133 392 
9073 0.5789326511217842 -0.053379600590243555 0.5299162189310279 0 0 0 0.55 116 4234 137 1494 144 2606 145 1809 154 3328 161 2126 202 1767 205 1848 216 2876 228 3738 233 2117 57 2513 59 2111 189 1740 30 1225 99 1554 143 1688 150 1225 171 1693 178 1095 180 2684 225 526 72 1838 8 1505 115 356 119 2153 24 1128 31 1072 68 484 191 2262 
9074 0.5429624205228153 -0.051138848427953215 0.4598257053625039 0 0 0 0.27 137 1495 140 2736 161 2127 177 1941 
9075 -0.374855963579927 0.07675438241290881 0.6108051496692135 0 0 0 0.52 137 1496 143 1689 161 2128 205 1849 34 2217 51 891 55 1916 57 2514 
9076 0.5707247020552497 -0.03837946244465462 0.4305267259590639 0 0 0 0.54 137 1497 140 2737 233 2118 57 2515 119 2154 59 2112 72 1839 150 1226 180 2685 189 1741 191 2263 24 1129 31 1073 115 357 177 1942 106 1190 68 485 
9077 -0.3062203731103782 0.09204764905795644 0.6221807143312453 0 0 0 0.28 137 1498 153 1251 226 2220 72 1840 168 220 
9078 0.5775929924409045 -0.024897023596706428 0.37986972964817667 0 0 0 0.58 137 1499 139 2215 140 2738 233 2119 189 1742 30 1226 171 1694 24 1130 115 358 106 1191 68 486 
9079 0.5712916923949524 -0.00648966561475568 0.4296187600866569 0 0 0 0.7 119 2155 137 1500 139 2216 140 2739 144 2607 177 1943 216 2877 59 2113 189 1743 24 1131 72 1841 106 1192 180 2686 
9080 0.5821776578438433 -0.019014031168541626 0.3982531331164504 0 0 0 0.56 137 1501 216 2878 233 2120 57 2516 140 2740 177 1944 189 1744 115 359 150 1227 106 1193 
9081 -0.2845889811761371 0.09782457532124862 0.6070382902999526 0 0 0 0.23 137 1502 183 1880 211 2781 215 1302 
9082 0.5800806623615639 0.10522967737826389 0.5988294545578778 0 0 0 0.56 137 1503 139 2217 143 1690 144 2608 212 2282 228 3739 
9083 -0.2159631939749882 0.14867420006527765 0.5677114579616449 0 0 0 0.53 58 2714 137 1504 140 2741 144 2609 149 2777 154 3329 177 1945 183 1881 193 3844 218 3016 55 1917 23 2038 72 1842 178 1096 102 1509 167 1754 186 1520 8 1506 174 293 
9084 -0.44506221207967284 0.16244665199992958 0.5540497396414298 0 0 0 0.7 137 1505 143 1691 144 2610 34 2218 57 2517 59 2114 212 2283 216 2879 189 1745 55 1918 102 1510 72 1843 18 1683 121 184 115 360 
9085 0.5822300461966853 0.17346511408722257 0.6062413259577926 0 0 0 0.67 137 1506 166 2931 191 2264 202 1768 228 3740 57 2518 59 2115 189 1746 24 1132 99 1555 180 2687 31 1074 150 1228 106 1194 168 221 
9086 0.5733388793419307 0.1421476240944645 0.4694636240968818 0 0 0 0.38 137 1507 144 2611 216 2880 228 3741 177 1946 57 2519 189 1747 24 1133 
9087 0.0652380550782153 0.18211459470812613 0.5693767596240961 0 0 0 0.43 137 1508 145 1810 191 2265 
9088 0.5779306079910254 0.09928064028910366 0.3346154616649053 0 0 0 0.44 137 1509 140 2742 177 1947 23 2039 59 2116 72 1844 99 1556 150 1229 24 1134 31 1075 68 487 78 45 80 23 168 222 
9089 0.5807936122518276 0.10663400461980713 0.3494141659363802 0 0 0 0.55 137 1510 140 2743 143 1692 55 1919 57 2520 59 2117 23 2040 150 1230 171 1695 24 1135 30 1227 99 1557 72 1845 106 1195 78 46 168 223 
9090 -0.24111937255811747 0.19803405369109306 0.5681141345058828 0 0 0 0.72 137 1511 161 2129 183 1882 233 2121 
9091 -0.2253467104078093 0.19625408476038161 0.548850600866326 0 0 0 0.29 137 1512 183 1883 228 3742 
9092 -0.0027390286996693066 -0.5871866250096025 0.8819094488894397 0 0 0 0.67 90 1279 94 3725 116 4235 125 4483 132 813 137 1513 139 2218 144 2612 151 3998 166 2932 202 1769 205 1850 211 2782 212 2284 218 3017 34 2219 46 2934 47 609 57 2521 59 2118 86 2366 55 1920 102 1511 131 1278 149 2778 173 2358 178 1097 186 1521 225 527 8 1507 133 393 210 1335 174 294 45 925 230 96 
9093 0.04859042243743205 -0.443805439649253 0.806555632272444 0 0 0 0.34 137 1514 139 2219 161 2130 205 1851 55 1921 
9094 -0.310957393892888 -0.15080888317140334 0.7973689966624625 0 0 0 0.81 137 1515 145 1811 161 2131 205 1852 55 1922 183 1884 
9095 -0.3052875414254967 -0.026571263215537225 0.6613251031384703 0 0 0 0.43 58 2715 94 3726 116 4236 119 2156 125 4484 132 814 137 1516 139 2220 140 2744 143 1693 144 2613 145 1812 149 2779 151 3999 153 1252 154 3330 161 2132 166 2933 183 1885 191 2266 193 3845 202 1770 205 1853 211 2783 212 2285 215 1303 216 2881 218 3018 226 2221 228 3743 233 2122 37 2549 46 2935 86 2367 189 1748 7 2147 167 1755 34 2220 55 1923 57 2522 59 2119 23 2041 72 1846 102 1512 173 2359 178 1098 180 2688 225 528 8 1508 18 1684 115 361 133 394 131 1279 168 224 174 295 
9096 -0.19365309581410148 -0.036374922196708015 0.6690349299646179 0 0 0 0.51 137 1517 205 1854 216 2882 34 2221 55 1924 57 2523 58 2716 59 2120 94 3727 116 4237 119 2157 125 4485 140 2745 143 1694 144 2614 145 1813 149 2780 151 4000 154 3331 161 2133 166 2934 177 1948 202 1771 211 2784 212 2286 215 1304 218 3019 226 2222 228 3744 23 2042 30 1228 102 1513 131 1280 132 815 139 2221 180 2689 225 529 153 1253 173 2360 7 2148 8 1509 115 362 133 395 174 296 
9097 -0.2602959364652843 -0.01358942727830661 0.6658917481404071 0 0 0 0.63 119 2158 125 4486 137 1518 139 2222 143 1695 144 2615 151 4001 154 3332 161 2134 166 2935 193 3846 205 1855 215 1305 226 2223 228 3745 34 2222 55 1925 183 1886 225 530 8 1510 23 2043 115 363 174 297 
9098 0.5937369683673482 -0.12372204225528234 0.41230485407198714 0 0 0 0.32 137 1519 140 2746 191 2267 55 1926 57 2524 59 2121 189 1749 150 1231 
9099 0.03261419034814938 0.06097882853273416 0.6026329265542923 0 0 0 0.73 137 1520 143 1696 215 1306 55 1927 72 1847 102 1514 178 1099 210 1336 31 1076 115 364 121 185 133 396 
9100 0.58120369633097 0.03013064743749961 0.5958878981171039 0 0 0 0.65 137 1521 139 2223 140 2747 144 2616 191 2268 193 3847 202 1772 210 1337 216 2883 228 3746 57 2525 59 2122 189 1750 8 1511 24 1136 30 1229 31 1077 99 1558 115 365 116 4238 131 1281 133 397 150 1232 178 1100 180 2690 23 2044 106 1196 121 186 
9101 0.5036823019468838 0.018472489921833746 0.4551973058397774 0 0 0 0.28 137 1522 161 2135 212 2287 
9102 0.5774383584280924 0.04361539443577307 0.5067823523183552 0 0 0 0.53 137 1523 139 2224 140 2748 144 2617 154 3333 161 2136 212 2288 216 2884 59 2123 30 1230 99 1559 119 2159 150 1233 180 2691 189 1751 24 1137 31 1078 133 398 68 488 
9103 0.597370946139114 0.07317304682310309 0.5533333216200018 0 0 0 0.64 137 1524 139 2225 140 2749 144 2618 154 3334 191 2269 202 1773 212 2289 216 2885 228 3747 57 2526 59 2124 30 1231 99 1560 121 187 131 1282 150 1234 171 1696 178 1101 180 2692 24 1138 31 1079 133 399 189 1752 106 1197 68 489 168 225 
9104 0.1504587033089077 0.14064776272523874 0.6124461025685445 0 0 0 1.17 137 1525 140 2750 151 4002 211 2785 212 2290 8 1512 55 1928 115 366 133 400 168 226 
9105 0.580353176726678 0.09390326688419103 0.4258185734725883 0 0 0 0.63 137 1526 139 2226 216 2886 57 2527 189 1753 191 2270 30 1232 99 1561 102 1515 119 2160 31 1080 133 401 23 2045 106 1198 
9106 0.5887372962209519 0.07003296705494783 0.35532717188634916 0 0 0 0.65 137 1527 191 2271 216 2887 233 2123 189 1754 23 2046 72 1848 99 1562 180 2693 24 1139 30 1233 31 1081 57 2528 106 1199 
9107 0.5886704586831187 0.16572519229862437 0.5854388980050105 0 0 0 0.43 137 1528 191 2272 202 1774 
9108 0.5820474051810272 0.1549165340322249 0.5118289935608855 0 0 0 0.35 137 1529 140 2751 191 2273 228 3748 121 188 178 1102 31 1082 216 2888 143 1697 168 227 
9109 -0.03953438179146504 0.19626778851181673 0.5565582178844932 0 0 0 0.44 137 1530 139 2227 143 1698 144 2619 218 3020 228 3749 34 2223 183 1887 180 2694 168 228 
9110 0.09583791044637924 -0.20739754039840738 0.700561355968076 0 0 0 0.73 137 1531 139 2228 145 1814 151 4003 154 3335 161 2137 205 1856 215 1307 216 2889 218 3021 55 1929 23 2047 30 1234 47 610 173 2361 133 402 
9111 -0.47048123615320453 -0.03454570100177908 0.6343985369950568 0 0 0 0.64 51 892 58 2717 94 3728 116 4239 119 2161 125 4487 137 1532 139 2229 143 1699 144 2620 145 1815 151 4004 153 1254 154 3336 161 2138 166 2936 183 1888 191 2274 193 3848 202 1775 211 2786 212 2291 216 2890 218 3022 228 3750 34 2224 37 2550 46 2936 55 1930 57 2529 59 2125 86 2368 189 1755 48 592 102 1516 131 1283 173 2362 178 1103 180 2695 225 531 18 1685 167 1756 72 1849 133 403 168 229 
9112 0.5705714031881125 -0.12892412667919556 0.4490263886628279 0 0 0 0.54 137 1533 139 2230 140 2752 143 1700 145 1816 177 1949 191 2275 57 2530 59 2126 144 2621 189 1756 150 1235 168 230 72 1850 99 1563 180 2696 216 2891 233 2124 8 1513 24 1140 31 1083 115 367 106 1200 68 490 
9113 0.043937781728084976 0.000849161953689845 0.6330231334678891 0 0 0 0.36 137 1534 139 2231 205 1857 216 2892 
9114 0.5893116251236328 -0.04860631304322695 0.3542310119837172 0 0 0 0.35 137 1535 139 2232 140 2753 177 1950 202 1776 23 2048 150 1236 106 1201 
9115 -0.4472888382803548 0.09941949307353688 0.6003224236190123 0 0 0 1.09 137 1536 139 2233 211 2787 34 2225 144 2622 151 4005 37 2551 58 2718 186 1522 202 1777 212 2292 174 298 8 1514 102 1517 167 1757 
9116 -0.06216439488973264 0.11756471476599213 0.6215105900784357 0 0 0 0.79 94 3729 116 4240 137 1537 140 2754 143 1701 144 2623 145 1817 151 4006 154 3337 161 2139 177 1951 191 2276 202 1778 210 1338 215 1308 218 3023 228 3751 23 2049 46 2937 55 1931 59 2127 72 1851 99 1564 102 1518 171 1697 173 2363 178 1104 180 2697 37 2552 186 1523 31 1084 8 1515 115 368 121 189 168 231 203 817 
9117 0.5703755304331255 0.09467299162076445 0.3652205750135061 0 0 0 0.82 137 1538 140 2755 177 1952 191 2277 216 2893 57 2531 189 1757 30 1235 72 1852 99 1565 150 1237 180 2698 24 1141 31 1085 78 47 143 1702 168 232 
9118 0.5776909774325739 0.12079478855990226 0.3809423599853688 0 0 0 0.73 137 1539 140 2756 177 1953 191 2278 30 1236 119 2162 150 1238 171 1698 216 2894 24 1142 
9119 -0.0486693670527008 -0.37564237710590354 0.8855430095526062 0 0 0 0.72 137 1540 143 1703 191 2279 186 1524 
9120 -0.04066189465861284 -0.09521473438006908 0.711762364837106 0 0 0 0.31 137 1541 139 2234 161 2140 205 1858 30 1237 8 1516 
9121 0.02912394253184752 -0.10356723930443232 0.662048069929131 0 0 0 1.08 90 1280 137 1542 161 2141 205 1859 45 926 
9122 -0.22478845663817384 0.028375740605600552 0.6485298772045542 0 0 0 1.09 137 1543 216 2895 34 2226 37 2553 46 2938 57 2532 58 2719 59 2128 86 2369 94 3730 116 4241 125 4488 140 2757 144 2624 151 4007 154 3338 166 2937 189 1758 193 3849 211 2788 212 2293 218 3024 23 2050 72 1853 102 1519 131 1284 143 1704 153 1255 173 2364 178 1105 180 2699 202 1779 215 1309 225 532 226 2224 167 1758 228 3752 8 1517 133 404 191 2280 168 233 115 369 
9123 0.560954999191328 -0.054138204463354024 0.5418301890755558 0 0 0 0.85 137 1544 140 2758 144 2625 154 3339 177 1954 202 1780 212 2294 216 2896 228 3753 143 1705 57 2533 59 2129 72 1854 102 1520 171 1699 178 1106 180 2700 31 1086 106 1202 55 1932 168 234 
9124 0.5862950683159482 0.06871774483261538 0.3752409910594327 0 0 0 0.65 137 1545 140 2759 177 1955 191 2281 57 2534 59 2130 189 1759 72 1855 150 1239 106 1203 68 491 
9125 0.31533012714376013 0.16378095538278442 0.569193052335426 0 0 0 0.8 137 1546 140 2760 151 4008 193 3850 216 2897 55 1933 228 3754 
9126 -0.03422052323791814 -0.30983680288188337 0.8854526698688728 0 0 0 1.03 58 2720 94 3731 116 4242 125 4489 132 816 137 1547 139 2235 143 1706 144 2626 145 1818 149 2781 151 4009 153 1256 154 3340 161 2142 166 2938 177 1956 193 3851 202 1781 205 1860 211 2789 212 2295 216 2898 218 3025 34 2227 37 2554 46 2939 55 1934 59 2131 86 2370 189 1760 23 2051 102 1521 131 1285 173 2365 180 2701 7 2149 8 1518 57 2535 133 405 174 299 
9127 0.4317283314016083 -0.20764684959413734 0.745980633233068 0 0 0 0.99 94 3732 116 4243 122 1416 125 4490 139 2236 140 2761 144 2627 149 2782 151 4010 154 3341 166 2939 177 1957 193 3852 202 1782 211 2790 216 2899 218 3026 233 2125 34 2228 37 2555 45 927 46 2940 55 1935 57 2536 59 2132 189 1761 23 2052 131 1286 150 1240 171 1700 173 2366 178 1107 180 2702 24 1143 31 1087 133 406 191 2282 106 1204 68 492 174 300 230 97 
9128 0.005250837934965403 -0.12436743606704317 0.6699202762406162 0 0 0 0.06 137 1548 161 2143 205 1861 
9129 0.09018115163876164 -0.0709833641097197 0.6549012060541719 0 0 0 1.09 116 4244 119 2163 125 4491 137 1549 139 2237 140 2762 143 1707 144 2628 145 1819 149 2783 151 4011 154 3342 166 2940 183 1889 193 3853 202 1783 205 1862 215 1310 216 2900 218 3027 228 3755 233 2126 34 2229 37 2556 46 2941 47 611 59 2133 189 1762 212 2296 72 1856 99 1566 102 1522 173 2367 178 1108 180 2703 31 1088 133 407 117 400 7 2150 
9130 0.5811112902150177 -0.14766200277775243 0.5937989724950277 0 0 0 0.83 137 1550 144 2629 212 2297 139 2238 140 2763 177 1958 202 1784 233 2127 55 1936 59 2134 189 1763 99 1567 102 1523 131 1287 150 1241 171 1701 178 1109 180 2704 225 533 228 3756 205 1863 24 1144 31 1089 115 370 133 408 106 1205 68 493 
9131 0.6517932783153092 -0.08062897962813086 0.6337220861484415 0 0 0 0.87 137 1551 144 2630 154 3343 166 2941 202 1785 212 2298 216 2901 228 3757 55 1937 57 2537 59 2135 86 2371 189 1764 191 2283 
9132 0.577973019107549 0.1057479772592851 0.44909794928735886 0 0 0 0.66 137 1552 140 2764 216 2902 228 3758 
9133 0.5793467895387343 0.0764902207091767 0.328725084501303 0 0 0 0.37 137 1553 140 2765 177 1959 191 2284 57 2538 189 1765 8 1519 30 1238 31 1090 24 1145 
9134 0.11159048249993256 -0.27739756425305634 0.7393982557277461 0 0 0 1.28 137 1554 154 3344 205 1864 215 1311 216 2903 226 2225 55 1938 145 1820 23 2053 131 1288 173 2368 8 1520 174 301 
9135 0.3718873858388699 -0.051048873295400636 0.6244438296551056 0 0 0 0.89 137 1555 139 2239 151 4012 212 2299 215 1312 216 2904 57 2539 133 409 
9136 -0.2846421991383702 0.07269912176319547 0.6088302986246736 0 0 0 1.09 125 4492 140 2766 144 2631 149 2784 154 3345 202 1786 211 2791 228 3759 34 2230 37 2557 59 2136 18 1686 178 1110 180 2705 167 1759 24 1146 
9137 -0.08313925934214954 0.07556995514186238 0.6216799816940725 0 0 0 1.13 70 48 90 1281 94 3733 108 36 116 4245 119 2164 125 4493 132 817 137 1556 139 2240 140 2767 143 1708 144 2632 145 1821 149 2785 151 4013 166 2942 177 1960 183 1890 191 2285 192 28 193 3854 211 2792 212 2300 215 1313 216 2905 218 3028 228 3760 34 2231 37 2558 46 2942 55 1939 57 2540 59 2137 189 1766 30 1239 102 1524 178 1111 68 494 
9138 -0.06944856943116186 -0.08640785273793235 0.7141058786066665 0 0 0 0.86 94 3734 116 4246 119 2165 125 4494 137 1557 140 2768 143 1709 144 2633 145 1822 151 4014 154 3346 161 2144 166 2943 177 1961 183 1891 191 2286 193 3855 202 1787 211 2793 212 2301 215 1314 218 3029 226 2226 228 3761 233 2128 34 2232 37 2559 46 2943 55 1940 57 2541 59 2138 86 2372 189 1767 23 2054 30 1240 72 1857 102 1525 131 1289 173 2369 178 1112 180 2706 186 1525 8 1521 115 371 
9139 -0.004613585744652918 -0.6673753930326326 0.8904450408793473 0 0 0 0.5 139 2241 205 1865 218 3030 37 2560 46 2944 94 3735 59 2139 186 1526 202 1788 144 2634 
9140 0.02802746194268578 -0.6113205239904649 0.864541755330204 0 0 0 0.44 94 3736 116 4247 119 2166 125 4495 132 818 139 2242 144 2635 149 2786 151 4015 166 2944 183 1892 202 1789 205 1866 211 2794 218 3031 226 2227 212 2302 34 2233 37 2561 46 2945 55 1941 57 2542 189 1768 86 2373 131 1290 173 2370 186 1527 18 1687 
9141 0.0263447860902863 -0.505689776728421 0.8237989773414993 0 0 0 0.52 94 3737 116 4248 125 4496 132 819 139 2243 144 2636 151 4016 161 2145 166 2945 191 2287 211 2795 212 2303 218 3032 205 1867 34 2234 37 2562 46 2946 55 1942 86 2374 189 1769 173 2371 178 1113 225 534 131 1291 174 302 226 2228 
9142 0.026542830383844886 -0.4913356087994209 0.7941688226504496 0 0 0 0.4 94 3738 116 4249 125 4497 139 2244 144 2637 149 2787 151 4017 161 2146 166 2946 205 1868 211 2796 212 2304 218 3033 34 2235 37 2563 46 2947 55 1943 86 2375 90 1282 226 2229 18 1688 57 2543 
9143 0.018801755502010978 -0.4533918275190035 0.8180218184077381 0 0 0 0.35 139 2245 149 2788 161 2147 193 3856 205 1869 216 2906 226 2230 37 2564 
9144 -0.02499234686646373 -0.43491097268436646 0.8572641580285717 0 0 0 0.32 139 2246 193 3857 205 1870 226 2231 
9145 0.10318025358724656 -0.46261920907112025 0.7949261075054556 0 0 0 0.39 139 2247 151 4018 161 2148 211 2797 216 2907 37 2565 94 3739 
9146 -0.47286086959117163 -0.2846908563176766 0.7435041622136301 0 0 0 0.65 94 3740 116 4250 119 2167 125 4498 139 2248 143 1710 151 4019 161 2149 166 2947 191 2288 193 3858 211 2798 218 3034 
9147 0.03966822814199098 -0.4144091997342005 0.7647613002799207 0 0 0 0.43 139 2249 161 2150 211 2799 37 2566 
9148 0.08058936973264903 -0.368579901152937 0.7598009356991945 0 0 0 0.39 94 3741 116 4251 125 4499 139 2250 154 3347 161 2151 166 2948 177 1962 183 1893 218 3035 46 2948 59 2140 86 2376 23 2055 
9149 -0.022332391054041046 -0.3295383554329125 0.8800403831432713 0 0 0 0.31 58 2721 94 3742 116 4252 125 4500 139 2251 143 1711 149 2789 151 4020 154 3348 161 2152 166 2949 177 1963 193 3859 211 2800 212 2305 216 2908 218 3036 34 2236 37 2567 46 2949 55 1944 86 2377 189 1770 23 2056 102 1526 153 1257 173 2372 180 2707 186 1528 7 2151 167 1760 57 2544 
9150 -0.04351794053068778 -0.2954951857154992 0.719670208394993 0 0 0 0.72 139 2252 166 2950 177 1964 193 3860 205 1871 46 2950 86 2378 23 2057 186 1529 117 401 47 612 154 3349 
9151 -0.04761121455811518 -0.2724752517060792 0.7224303714094636 0 0 0 0.62 139 2253 154 3350 166 2951 47 613 7 2152 8 1522 
9152 -0.0514016756493782 -0.2652728734173849 0.803556161705307 0 0 0 0.34 139 2254 140 2769 151 4021 161 2153 193 3861 202 1790 205 1872 211 2801 212 2306 216 2909 37 2568 46 2951 86 2379 189 1771 186 1530 
9153 -0.5012074947295092 -0.16012126195438758 0.6889962562273272 0 0 0 0.19 139 2255 161 2154 216 2910 
9154 0.09076404547448949 -0.2724248935972571 0.7068034470878338 0 0 0 0.22 139 2256 143 1712 205 1873 211 2802 
9155 -0.032815950506017044 -0.24174233970677192 0.7086293216191609 0 0 0 0.42 139 2257 149 2790 151 4022 161 2155 205 1874 47 614 55 1945 23 2058 180 2708 94 3743 140 2770 150 1242 193 3862 7 2153 211 2803 
9156 -0.04182396955106351 -0.2228856819722947 0.7752659982636445 0 0 0 1.08 139 2258 149 2791 151 4023 202 1791 211 2804 212 2307 228 3762 46 2952 59 2141 94 3744 86 2380 178 1114 150 1243 186 1531 18 1689 171 1702 180 2709 193 3863 
9157 -0.4783322258701756 -0.11307964742824717 0.901868486486245 0 0 0 0.81 139 2259 154 3351 166 2952 211 2805 212 2308 86 2381 153 1258 178 1115 180 2710 186 1532 202 1792 18 1690 167 1761 24 1147 
9158 -0.014266373686984657 -0.2156734385698784 0.7042886516537371 0 0 0 0.39 139 2260 140 2771 149 2792 151 4024 177 1965 193 3864 205 1875 211 2806 216 2911 37 2569 46 2953 47 615 30 1241 72 1858 173 2373 180 2711 7 2154 45 928 117 402 
9159 -0.5013466240499725 -0.12674958925644597 0.6652436899166866 0 0 0 0.27 139 2261 144 2638 211 2807 
9160 -0.4875871975209759 -0.08168246242974476 0.8817650091770303 0 0 0 0.68 139 2262 161 2156 211 2808 228 3763 
9161 -0.49880335917378094 -0.03890954459073257 1.0725570598965235 0 0 0 1.19 139 2263 211 2809 228 3764 
9162 -0.27263230450219916 -0.09411170539846428 0.7222538264343047 0 0 0 0.26 139 2264 161 2157 212 2309 
9163 0.10046192760349794 -0.15456138640647182 0.6826317507496186 0 0 0 0.53 139 2265 154 3352 161 2158 177 1966 205 1876 216 2912 86 2382 143 1713 23 2059 72 1859 173 2374 180 2712 31 1091 102 1527 106 1206 
9164 0.2987902273591616 -0.1617325560531752 0.8084531651036397 0 0 0 0.46 139 2266 149 2793 211 2810 
9165 -0.45310135105565263 -0.06936009551472576 0.6541310956904509 0 0 0 0.34 139 2267 211 2811 216 2913 
9166 0.03831051328900983 -0.13380756815166764 0.6701851359229348 0 0 0 0.38 139 2268 149 2794 161 2159 183 1894 211 2812 216 2914 37 2570 46 2954 150 1244 
9167 -0.3943102844161459 -0.05247605413446443 0.6694484891572033 0 0 0 0.24 139 2269 143 1714 191 2289 
9168 -0.4847381809142075 -0.010705615857411456 0.8271025884692639 0 0 0 0.62 139 2270 151 4025 202 1793 211 2813 57 2545 59 2142 186 1533 167 1762 
9169 0.5820050598502893 -0.15761679328981265 0.6083674530171777 0 0 0 0.34 116 4253 139 2271 140 2772 144 2639 145 1823 154 3353 161 2160 193 3865 205 1877 212 2310 216 2915 228 3765 233 2129 57 2546 59 2143 23 2060 72 1860 99 1568 150 1245 171 1703 180 2713 8 1523 24 1148 31 1092 106 1207 
9170 -0.4796653731533169 0.027046875487087837 0.8970662862645008 0 0 0 1.04 139 2272 151 4026 211 2814 
9171 0.2460796900079651 -0.08608696124142547 0.7217471697135819 0 0 0 0.44 139 2273 140 2773 145 1824 183 1895 193 3866 215 1315 226 2232 94 3745 116 4254 125 4501 154 3354 166 2953 211 2815 216 2916 37 2571 46 2955 72 1861 173 2375 180 2714 99 1569 150 1246 7 2155 31 1093 55 1946 137 1558 
9172 0.5476488315319517 -0.16871138789332363 0.4581485243513206 0 0 0 0.35 139 2274 161 2161 205 1878 
9173 0.5814158185366128 -0.1548074526112215 0.4880437696476437 0 0 0 0.53 139 2275 154 3355 161 2162 205 1879 216 2917 233 2130 23 2061 150 1247 180 2715 228 3766 8 1524 31 1094 145 1825 106 1208 
9174 -0.4106257707807394 -0.010359421679198538 0.6514642296328619 0 0 0 0.35 94 3746 139 2276 143 1715 153 1259 161 2163 166 2954 193 3867 226 2233 23 2062 72 1862 173 2376 180 2716 18 1691 
9175 -0.17429013879258756 -0.030758368528369422 0.6676779220310931 0 0 0 0.53 139 2277 151 4027 177 1967 216 2918 46 2956 86 2383 94 3747 132 820 144 2640 154 3356 210 1339 218 3037 30 1242 72 1863 102 1528 171 1704 180 2717 
9176 -0.23093575996136367 -0.02568402745877255 0.656472571391843 0 0 0 0.44 139 2278 161 2164 183 1896 211 2816 212 2311 218 3038 226 2234 
9177 -0.06460333003922239 -0.03788354447470021 0.6794090431773622 0 0 0 0.41 139 2279 211 2817 218 3039 46 2957 132 821 
9178 -0.17367820890072108 -0.015212294320596684 0.6719770166331529 0 0 0 0.3 139 2280 143 1716 166 2955 218 3040 34 2237 
9179 0.5825844938863226 -0.11471102224380225 0.5605680188562377 0 0 0 0.42 139 2281 166 2956 216 2919 228 3767 59 2144 99 1570 131 1292 150 1248 180 2718 
9180 0.5893269052457122 -0.15718779800343632 0.3488470101768634 0 0 0 1.09 139 2282 140 2774 177 1968 191 2290 23 2063 72 1864 99 1571 102 1529 150 1249 8 1525 24 1149 30 1243 31 1095 202 1794 106 1209 68 495 
9181 0.5857525319413682 -0.15620056447107436 0.3509888935128987 0 0 0 0.4 139 2283 177 1969 191 2291 202 1795 
9182 0.5764992393142958 -0.13443897369598648 0.448501508360196 0 0 0 0.95 139 2284 140 2775 143 1717 161 2165 216 2920 78 48 
9183 0.5868882140723524 -0.09972310129356622 0.6005848191606015 0 0 0 0.43 139 2285 166 2957 205 1880 211 2818 228 3768 233 2131 86 2384 122 1417 23 2064 99 1572 150 1250 180 2719 106 1210 140 2776 
9184 0.05912984493639147 -0.031995157655272326 0.6442103441354768 0 0 0 0.29 139 2286 149 2795 161 2166 183 1897 193 3868 205 1881 216 2921 228 3769 47 616 150 1251 7 2156 
9185 0.5891154955657427 -0.07570539348793896 0.6611896251978839 0 0 0 0.62 139 2287 211 2819 216 2922 228 3770 140 2777 154 3357 166 2958 193 3869 57 2547 151 4028 59 2145 86 2385 180 2720 8 1526 24 1150 23 2065 106 1211 173 2377 
9186 0.5720311056988902 -0.1143509419124432 0.4441230644462927 0 0 0 0.32 139 2288 140 2778 144 2641 145 1826 154 3358 216 2923 55 1947 106 1212 
9187 0.589005849562869 -0.08590254865049768 0.5608832340754288 0 0 0 0.35 139 2289 145 1827 228 3771 161 2167 205 1882 
9188 0.5699592315325301 -0.10581540688242344 0.46154936473184915 0 0 0 0.36 139 2290 144 2642 145 1828 205 1883 216 2924 233 2132 140 2779 154 3359 30 1244 180 2721 72 1865 171 1705 99 1573 78 49 
9189 -0.4865754133561832 0.07267258313267445 0.8287746617391137 0 0 0 0.69 139 2291 211 2820 228 3772 
9190 -0.1875791797999892 0.009999716647033864 0.6549248436182086 0 0 0 0.47 58 2722 94 3748 116 4255 125 4502 139 2292 140 2780 145 1829 149 2796 151 4029 161 2168 183 1898 193 3870 205 1884 228 3773 233 2133 34 2238 37 2572 46 2958 55 1948 186 1534 7 2157 174 303 
9191 0.5745888922805428 -0.11503612705084215 0.39886520740029513 0 0 0 0.49 139 2293 140 2781 216 2925 30 1245 150 1252 
9192 0.592414579389384 -0.044799600147075756 0.7096943751180158 0 0 0 0.32 139 2294 154 3360 166 2959 
9193 0.5695422649200257 -0.08554324916911484 0.5215785740175054 0 0 0 0.38 139 2295 144 2643 216 2926 228 3774 233 2134 161 2169 99 1574 150 1253 154 3361 180 2722 8 1527 
9194 -0.48551583927481984 0.08172577549079578 0.8456876335207182 0 0 0 0.76 139 2296 211 2821 228 3775 
9195 -0.3914464713145051 0.02902300793919787 0.6438956462298449 0 0 0 0.25 139 2297 211 2822 216 2927 228 3776 46 2959 
9196 0.5862334327395925 -0.0437461861843527 0.7130482362318081 0 0 0 0.67 139 2298 140 2782 151 4030 193 3871 211 2823 218 3041 233 2135 34 2239 46 2960 86 2386 23 2066 99 1575 180 2723 186 1535 210 1340 
9197 0.5741326869927782 -0.10141449746658748 0.43962474440319516 0 0 0 0.45 139 2299 144 2644 145 1830 154 3362 161 2170 216 2928 140 2783 177 1970 55 1949 30 1246 99 1576 150 1254 171 1706 180 2724 233 2136 72 1866 31 1096 106 1213 
9198 0.5667293212072252 -0.0759955304741997 0.5345831033838129 0 0 0 0.73 119 2168 139 2300 140 2784 143 1718 154 3363 202 1796 205 1885 216 2929 228 3777 233 2137 99 1577 131 1293 144 2645 145 1831 171 1707 178 1116 180 2725 225 535 8 1528 31 1097 161 2171 212 2312 106 1214 168 235 150 1255 
9199 0.5682745539281998 -0.0727109017641963 0.5407178989519866 0 0 0 0.51 139 2301 145 1832 154 3364 205 1886 72 1867 99 1578 140 2785 171 1708 210 1341 
9200 0.5870002204376379 -0.11522013273858421 0.36351954318863167 0 0 0 0.51 139 2302 140 2786 216 2930 233 2138 30 1247 99 1579 171 1709 78 50 80 24 
9201 -0.49044832883697603 0.06905505062474863 0.7669750416458563 0 0 0 0.69 139 2303 211 2824 228 3778 
9202 0.3551178874014386 -0.020142645133959792 0.6753260405389194 0 0 0 0.65 139 2304 144 2646 151 4031 177 1971 215 1316 99 1580 210 1342 
9203 0.5644594622007032 -0.08859589308372753 0.4558494479422565 0 0 0 0.45 139 2305 140 2787 145 1833 154 3365 161 2172 205 1887 55 1950 57 2548 72 1868 180 2726 106 1215 
9204 0.5859852487062415 -0.10741160503701987 0.3700368366231162 0 0 0 0.56 139 2306 140 2788 233 2139 99 1581 150 1256 171 1710 180 2727 216 2931 24 1151 57 2549 106 1216 68 496 
9205 -0.4886123733668926 0.08171740699308612 0.8024903915714613 0 0 0 0.7 139 2307 211 2825 228 3779 154 3366 57 2550 171 1711 186 1536 
9206 0.576676300536131 -0.08819533436246936 0.4443215579421821 0 0 0 0.65 139 2308 140 2789 144 2647 145 1834 161 2173 177 1972 55 1951 30 1248 150 1257 78 51 180 2728 233 2140 72 1869 106 1217 
9207 0.5709447591776486 -0.07429392950254222 0.49770004895111547 0 0 0 0.32 139 2309 161 2174 212 2313 57 2551 59 2146 131 1294 180 2729 228 3780 
9208 0.5861720894197326 -0.10237622564643095 0.3718359505097462 0 0 0 0.54 139 2310 140 2790 191 2292 216 2932 233 2141 57 2552 30 1249 99 1582 102 1530 171 1712 180 2730 8 1529 31 1098 106 1218 80 25 
9209 -0.38714551377696627 0.040299470185235824 0.6369403894763855 0 0 0 0.33 139 2311 151 4032 183 1899 37 2573 45 929 57 2553 145 1835 121 190 
9210 0.17608460460404166 0.007875819788837807 0.6822404600261812 0 0 0 0.02 139 2312 161 2175 233 2142 
9211 -0.26628017315744656 0.037181000566633336 0.6446117896543245 0 0 0 0.26 139 2313 183 1900 216 2933 233 2143 7 2158 
9212 0.5841150160385677 -0.09320366381348359 0.36210929418471605 0 0 0 0.43 139 2314 216 2934 233 2144 23 2067 99 1583 171 1713 106 1219 
9213 0.5759715294229044 -0.04549442987489873 0.4910548171453622 0 0 0 0.37 139 2315 145 1836 154 3367 216 2935 228 3781 233 2145 150 1258 180 2731 
9214 0.5785849096464167 -0.056369722194959206 0.4234205653449329 0 0 0 0.35 139 2316 216 2936 233 2146 78 52 
9215 -0.00705657074405146 0.034485103673024556 0.6132271480507151 0 0 0 0.41 125 4503 139 2317 143 1719 151 4033 154 3368 161 2176 166 2960 177 1973 193 3872 205 1888 218 3042 226 2235 37 2574 46 2961 57 2554 30 1250 99 1584 131 1295 
9216 0.5675680808964364 -0.03716712298330441 0.4718240081331451 0 0 0 0.35 139 2318 145 1837 212 2314 106 1220 216 2937 
9217 0.5835666946504263 -0.039461868973285574 0.4608394685975477 0 0 0 0.37 139 2319 161 2177 205 1889 
9218 0.5599731243932172 -0.03832289068284631 0.45457163465744194 0 0 0 0.5 139 2320 161 2178 177 1974 205 1890 216 2938 
9219 -0.00020740855487576357 0.05967880411904519 0.6032206391724242 0 0 0 0.43 139 2321 140 2791 145 1838 149 2797 154 3369 193 3873 215 1317 218 3043 228 3782 183 1901 210 1343 226 2236 72 1870 102 1531 143 1720 18 1692 31 1099 99 1585 173 2378 106 1221 203 818 
9220 -0.49336682432099976 0.13708505319450282 0.7848140507227885 0 0 0 0.67 139 2322 211 2826 228 3783 37 2575 57 2555 
9221 -0.3495861084695825 0.08552129867740774 0.6185924869826402 0 0 0 0.37 139 2323 149 2798 216 2939 226 2237 37 2576 46 2962 7 2159 
9222 -0.49862911471504323 0.09334128707042 0.6196186426870506 0 0 0 0.54 139 2324 144 2648 154 3370 228 3784 
9223 -0.04086399388955049 0.06471726919365647 0.5944984878126393 0 0 0 0.52 139 2325 151 4034 177 1975 211 2827 216 2940 228 3785 183 1902 210 1344 218 3044 86 2387 23 2068 116 4256 180 2732 171 1714 18 1693 31 1100 
9224 -0.2581904212675157 0.0894512204020431 0.6211727670527062 0 0 0 0.38 139 2326 144 2649 191 2293 205 1891 212 2315 34 2240 55 1952 37 2577 45 930 58 2723 116 4257 140 2792 151 4035 193 3874 215 1318 216 2941 218 3045 228 3786 183 1903 226 2238 23 2069 30 1251 102 1532 153 1260 154 3371 161 2179 171 1715 173 2379 180 2733 72 1871 143 1721 18 1694 149 2799 7 2160 203 819 210 1345 86 2388 178 1117 8 1530 
9225 0.5649525241442488 0.020102584429009862 0.4751441980639039 0 0 0 0.46 139 2327 154 3372 161 2180 205 1892 212 2316 216 2942 228 3787 30 1252 99 1586 102 1533 140 2793 150 1259 171 1716 180 2734 31 1101 
9226 -0.13310051891289967 0.09589638097627194 0.624788090369667 0 0 0 0.32 90 1283 116 4258 139 2328 140 2794 145 1839 149 2800 151 4036 154 3373 161 2181 183 1904 210 1346 218 3046 226 2239 37 2578 125 4504 23 2070 
9227 0.5748041157273756 0.017265847375635187 0.4085198194817614 0 0 0 0.44 139 2329 140 2795 144 2650 154 3374 57 2556 216 2943 23 2071 30 1253 99 1587 150 1260 180 2735 72 1872 8 1531 106 1222 68 497 
9228 -0.42334213516515395 0.11527109584006687 0.6098956780917998 0 0 0 0.24 139 2330 151 4037 154 3375 228 3788 
9229 0.3970648472932365 0.10233875302183758 0.6430155254191917 0 0 0 0.36 94 3749 119 2169 122 1418 139 2331 144 2651 149 2801 191 2294 202 1797 212 2317 215 1319 216 2944 218 3047 226 2240 228 3789 46 2963 57 2557 59 2147 23 2072 180 2736 31 1102 
9230 -0.1071334574115481 0.11781610047423977 0.6173264560174351 0 0 0 0.62 94 3750 116 4259 139 2332 140 2796 151 4038 154 3376 161 2182 183 1905 205 1893 210 1347 211 2828 216 2945 218 3048 226 2241 228 3790 233 2147 37 2579 30 1254 186 1537 7 2161 46 2964 99 1588 203 820 
9231 0.13420081187337576 0.11450929954298651 0.6121752046481447 0 0 0 0.31 137 1559 139 2333 144 2652 161 2183 183 1906 205 1894 211 2829 216 2946 228 3791 55 1953 57 2558 
9232 -0.16401557427289895 0.12661021973729664 0.6102649651152364 0 0 0 0.73 139 2334 161 2184 205 1895 210 1348 226 2242 228 3792 233 2148 34 2241 72 1873 
9233 0.5760627040395231 0.05843349014419024 0.45091459205453166 0 0 0 0.36 139 2335 161 2185 216 2947 228 3793 99 1589 140 2797 171 1717 180 2737 106 1223 131 1296 
9234 0.5862708296711134 0.11354196397178538 0.6113021264017543 0 0 0 0.21 122 1419 139 2336 140 2798 143 1722 177 1976 193 3875 218 3049 226 2243 180 2738 186 1538 
9235 -0.10907919221451627 0.13909211741052407 0.60707087562326 0 0 0 0.55 139 2337 149 2802 215 1320 55 1954 132 822 228 3794 30 1255 68 498 116 4260 211 2830 216 2948 
9236 0.016965576652131182 0.13523014476244857 0.5818819864503275 0 0 0 0.82 139 2338 193 3876 195 16 211 2831 212 2318 34 2242 23 2073 30 1256 7 2162 183 1907 68 499 154 3377 
9237 0.2753939450511287 0.14246016662386438 0.622934116841118 0 0 0 0.2 139 2339 193 3877 211 2832 
9238 0.4170520989801074 0.13839098276388806 0.6121765738071131 0 0 0 0.26 139 2340 154 3378 215 1321 218 3050 
9239 0.20632688386114875 0.14315570088581756 0.5928921609492653 0 0 0 0.44 90 1284 116 4261 139 2341 140 2799 143 1723 166 2961 177 1977 218 3051 228 3795 23 2074 106 1224 
9240 0.2731336791016064 0.14820130444271365 0.6107005105850086 0 0 0 0.86 116 4262 139 2342 140 2800 149 2803 151 4039 166 2962 193 3878 218 3052 228 3796 233 2149 37 2580 72 1874 131 1297 7 2163 23 2075 8 1532 180 2739 106 1225 173 2380 
9241 0.5706951962050696 0.09843298451365443 0.45450076945819756 0 0 0 0.32 139 2343 144 2653 161 2186 177 1978 205 1896 228 3797 57 2559 212 2319 30 1257 131 1298 99 1590 140 2801 145 1840 154 3379 171 1718 180 2740 78 53 
9242 0.5705466478261728 0.11736447354710856 0.5054084652497987 0 0 0 0.1 139 2344 144 2654 228 3798 
9243 -0.011706290379115528 0.15077644695314554 0.5737390164663224 0 0 0 0.59 139 2345 149 2804 193 3879 233 2150 7 2164 
9244 -0.013388480777096722 0.15391458250305032 0.5705797449222094 0 0 0 0.57 139 2346 149 2805 151 4040 166 2963 193 3880 211 2833 228 3799 57 2560 30 1258 72 1875 106 1226 180 2741 
9245 0.2417956531123196 0.15403781549233075 0.578475498895774 0 0 0 0.38 139 2347 143 1724 215 1322 55 1955 57 2561 137 1560 
9246 0.0806761299020963 0.169866092280016 0.5670608529264214 0 0 0 0.87 139 2348 143 1725 151 4041 193 3881 215 1323 230 98 
9247 -0.3819894865971832 0.16563670016922655 0.5519836856890407 0 0 0 0.44 139 2349 143 1726 191 2295 
9248 -0.043470510244063114 0.1950127859382896 0.5572222405921301 0 0 0 0.44 139 2350 193 3882 228 3800 23 2076 30 1259 72 1876 99 1591 180 2742 211 2834 18 1695 31 1103 
9249 -0.03862029459916099 0.1946761095613956 0.5539716413722858 0 0 0 0.46 139 2351 143 1727 193 3883 211 2835 228 3801 23 2077 72 1877 99 1592 171 1719 173 2381 180 2743 191 2296 215 1324 31 1104 68 500 
9250 0.10655478281560299 -0.4579752987933419 0.8557393295880588 0 0 0 0.26 139 2352 161 2187 205 1897 211 2836 
9251 -0.02932351829748727 -0.29539624634118766 0.7148704153778198 0 0 0 0.51 132 823 139 2353 177 1979 211 2837 218 3053 
9252 0.02643295769905224 -0.27416784346371725 0.7136318170399778 0 0 0 0.55 122 1420 139 2354 140 2802 145 1841 149 2806 151 4042 154 3380 161 2188 166 2964 177 1980 183 1908 205 1898 211 2838 212 2320 34 2243 37 2581 55 1956 59 2148 86 2389 23 2078 30 1260 131 1299 150 1261 180 2744 7 2165 8 1533 24 1152 106 1227 90 1285 117 403 
9253 0.09122971972841606 -0.27354815617296363 0.7145334994424632 0 0 0 0.59 139 2355 140 2803 144 2655 161 2189 166 2965 183 1909 193 3884 205 1899 210 1349 211 2839 218 3054 226 2244 30 1261 37 2582 72 1878 180 2745 186 1539 7 2166 18 1696 24 1153 106 1228 154 3381 117 404 
9254 0.06940462157901323 -0.25265864325277554 0.725460329863407 0 0 0 0.73 139 2356 144 2656 154 3382 161 2190 211 2840 
9255 -0.4671842609756823 -0.10617434903417067 0.8125265205890663 0 0 0 0.79 58 2724 125 4505 139 2357 151 4043 154 3383 161 2191 166 2966 202 1798 211 2841 216 2949 228 3802 46 2965 57 2562 86 2390 171 1720 186 1540 24 1154 180 2746 153 1261 193 3885 
9256 0.0653601651462638 -0.1988313296213016 0.7084475067055469 0 0 0 0.3 139 2358 161 2192 205 1900 211 2842 37 2583 55 1957 30 1262 150 1262 186 1541 
9257 -0.45540605153215197 -0.09187297724851869 0.6661598866794319 0 0 0 0.37 139 2359 151 4044 154 3384 228 3803 55 1958 
9258 -0.20813074969961493 -0.027627067801540436 0.6677089936532611 0 0 0 0.55 58 2725 90 1286 94 3751 125 4506 132 824 139 2360 140 2804 144 2657 149 2807 151 4045 154 3385 166 2967 177 1981 191 2297 211 2843 212 2321 218 3055 226 2245 228 3804 34 2244 37 2584 46 2966 57 2563 59 2149 86 2391 189 1772 23 2079 30 1263 72 1879 99 1593 102 1534 18 1697 7 2167 167 1763 203 821 
9259 -0.49645635874926686 0.04402816952642233 0.8709941943291414 0 0 0 1.1 139 2361 211 2844 228 3805 
9260 -0.25863315998346875 -0.00015857386336720736 0.664448341501172 0 0 0 0.43 139 2362 161 2193 205 1901 216 2950 30 1264 
9261 -0.18709246390347037 -0.002951875501207956 0.6620699151203548 0 0 0 0.56 139 2363 205 1902 233 2151 86 2392 94 3752 119 2170 140 2805 191 2298 193 3886 216 2951 226 2246 7 2168 149 2808 174 304 
9262 -0.6118329510137412 0.02561443419827455 0.5927756997361356 0 0 0 0.43 139 2364 202 1799 218 3056 228 3806 86 2393 48 593 102 1535 125 4507 178 1118 225 536 167 1764 8 1534 24 1155 
9263 -0.4964784657089079 0.03680906898937058 0.6315111536286102 0 0 0 0.44 48 594 58 2726 125 4508 139 2365 144 2658 145 1842 151 4046 154 3386 166 2968 202 1800 211 2845 212 2322 216 2952 228 3807 34 2245 46 2967 57 2564 59 2150 86 2394 153 1262 37 2585 171 1721 193 3887 173 2382 180 2747 225 537 167 1765 8 1535 24 1156 
9264 0.5824814644505062 -0.11651871458757135 0.36921183366898197 0 0 0 0.88 139 2366 140 2806 177 1982 191 2299 202 1801 216 2953 233 2152 55 1959 57 2565 143 1728 189 1773 30 1265 8 1536 106 1229 72 1880 150 1263 180 2748 78 54 79 6 
9265 0.5655982544997629 -0.0911064203785104 0.4477288521257755 0 0 0 0.23 139 2367 161 2194 216 2954 55 1960 57 2566 59 2151 72 1881 
9266 -0.11614059149648005 0.03093116176892872 0.646206907420897 0 0 0 0.34 139 2368 205 1903 233 2153 46 2968 189 1774 211 2846 7 2169 30 1266 68 501 
9267 0.5799282116675479 -0.07575555523498205 0.3888474536903469 0 0 0 0.54 139 2369 140 2807 143 1729 191 2300 202 1802 216 2955 233 2154 55 1961 59 2152 30 1267 72 1882 99 1594 150 1264 171 1722 180 2749 225 538 31 1105 106 1230 80 26 
9268 -0.6073504488849215 0.06149983993023011 0.5904131903069133 0 0 0 0.3 139 2370 154 3387 191 2301 228 3808 
9269 0.25522591220058277 0.02935363248144946 0.6574709293125486 0 0 0 0.25 139 2371 145 1843 191 2302 205 1904 211 2847 233 2155 
9270 0.5745031270258716 -0.002811312211981004 0.6163805933847805 0 0 0 0.94 139 2372 140 2808 144 2659 191 2303 193 3888 211 2848 59 2153 86 2395 99 1595 131 1300 154 3388 215 1325 24 1157 31 1106 68 502 
9271 0.513183625284292 0.0219195807214774 0.6833450601959785 0 0 0 0.17 139 2373 211 2849 228 3809 
9272 0.5803024456934731 -0.03411705397848286 0.3613148946941893 0 0 0 0.61 139 2374 177 1983 216 2956 233 2156 140 2809 202 1803 55 1962 59 2154 23 2080 180 2750 72 1883 150 1265 57 2567 99 1596 102 1536 171 1723 225 539 8 1537 115 372 106 1231 80 27 
9273 0.5783617718650587 -0.02136076629973818 0.3616224535207908 0 0 0 0.41 139 2375 140 2810 177 1984 216 2957 233 2157 55 1963 57 2568 23 2081 30 1268 72 1884 99 1597 102 1537 150 1266 171 1724 180 2751 106 1232 68 503 
9274 -0.20640168933556502 0.09210687420647433 0.6150527950535413 0 0 0 0.34 139 2376 143 1730 211 2850 37 2586 46 2969 58 2727 189 1775 212 2323 23 2082 30 1269 34 2246 45 931 55 1964 57 2569 59 2155 72 1885 90 1287 94 3753 99 1598 102 1538 116 4263 119 2171 125 4509 131 1301 132 825 140 2811 144 2660 149 2809 151 4047 153 1263 154 3389 161 2195 166 2969 171 1725 173 2383 177 1985 180 2752 183 1910 191 2304 193 3889 202 1804 205 1905 215 1326 216 2958 218 3057 226 2247 228 3810 186 1542 18 1698 7 2170 210 1350 167 1766 8 1538 24 1158 174 305 203 822 
9275 0.4030959488141915 0.0736897695770683 0.6392501842545284 0 0 0 0.63 139 2377 149 2810 177 1986 191 2305 212 2324 215 1327 55 1965 99 1599 102 1539 171 1726 173 2384 178 1119 180 2753 24 1159 86 2396 106 1233 117 405 
9276 -0.4883835897095061 0.1579018070543669 0.7733043426234074 0 0 0 0.84 51 893 139 2378 154 3390 211 2851 228 3811 57 2570 
9277 -0.48644738241823593 0.11458408779992872 0.5833269085994117 0 0 0 0.25 139 2379 151 4048 212 2325 59 2156 102 1540 24 1160 
9278 0.012934523783359523 0.11078671601863332 0.5930671145790182 0 0 0 0.42 139 2380 151 4049 218 3058 30 1270 
9279 0.4202737857857122 0.14269562252576715 0.6003095740711675 0 0 0 0.49 119 2172 125 4510 139 2381 166 2970 191 2306 193 3890 211 2852 216 2959 233 2158 30 1271 150 1267 178 1120 68 504 
9280 0.39871411851213695 0.1510501949400551 0.6050299849791655 0 0 0 0.43 139 2382 166 2971 211 2853 34 2247 37 2587 46 2970 57 2571 59 2157 116 4264 125 4511 144 2661 151 4050 189 1776 191 2307 193 3891 212 2326 218 3059 228 3812 233 2159 150 1268 
9281 0.04922376046090697 -0.6227858102685416 0.866092400350014 0 0 0 0.37 139 2383 205 1906 211 2854 144 2662 189 1777 212 2327 
9282 0.0726527019382783 -0.4677719021999361 0.8347531625475537 0 0 0 0.6 139 2384 205 1907 211 2855 
9283 -0.495316237300492 -0.222729407185215 0.71079998157614 0 0 0 0.38 139 2385 166 2972 191 2308 211 2856 
9284 -0.25916883872042673 -0.08365077049080887 0.7142327844798031 0 0 0 0.4 139 2386 144 2663 202 1805 211 2857 228 3813 57 2572 59 2158 150 1269 
9285 -0.4613488214973945 0.0327428173078832 1.0593711224698343 0 0 0 1.64 139 2387 211 2858 228 3814 
9286 0.05298498767947457 -0.03816949163976391 0.6447566993909738 0 0 0 0.58 139 2388 144 2664 166 2973 202 1806 205 1908 215 1328 218 3060 45 932 47 617 57 2573 59 2159 30 1272 225 540 
9287 0.33943481985773494 -0.03141915630672856 0.6803567106397422 0 0 0 0.41 139 2389 144 2665 228 3815 34 2248 37 2588 47 618 55 1966 57 2574 59 2160 86 2397 94 3754 116 4265 119 2173 125 4512 140 2812 143 1731 145 1844 149 2811 151 4051 177 1987 189 1778 191 2309 193 3892 212 2328 215 1329 218 3061 226 2248 233 2160 23 2083 30 1273 72 1886 99 1600 102 1541 131 1302 166 2974 173 2385 178 1121 180 2754 186 1543 7 2171 122 1421 18 1699 24 1161 31 1107 106 1234 68 505 154 3391 
9288 -0.40166843432045063 0.0298146274950196 0.6407869926494684 0 0 0 0.34 139 2390 202 1807 211 2859 37 2589 59 2161 167 1767 186 1544 
9289 0.4317872704159904 -0.028370613997681777 0.6578533811531196 0 0 0 0.59 94 3755 125 4513 139 2391 140 2813 144 2666 149 2812 151 4052 166 2975 177 1988 193 3893 202 1808 211 2860 212 2329 215 1330 216 2960 218 3062 228 3816 233 2161 34 2249 59 2162 55 1967 99 1601 102 1542 131 1303 137 1561 150 1270 178 1122 180 2755 24 1162 106 1235 45 933 
9290 -0.19343034056441438 0.027073592039045885 0.642950860929319 0 0 0 0.93 58 2728 116 4266 125 4514 139 2392 143 1732 144 2667 145 1845 151 4053 154 3392 166 2976 183 1911 210 1351 215 1331 218 3063 228 3817 59 2163 8 1539 203 823 
9291 0.3592649362527187 -0.0012701110352563555 0.6709739346692647 0 0 0 0.11 139 2393 149 2813 202 1809 
9292 0.5640491625985645 -0.04159402762632456 0.5083743500148259 0 0 0 0.48 139 2394 154 3393 212 2330 30 1274 99 1602 
9293 0.5830823406198272 0.0031454311887183064 0.6325462481356907 0 0 0 0.59 139 2395 191 2310 212 2331 178 1123 8 1540 31 1108 
9294 0.5825381656633567 -0.04111800611244558 0.35578290676918356 0 0 0 0.57 139 2396 143 1733 177 1989 202 1810 55 1968 57 2575 189 1779 99 1603 150 1271 225 541 24 1163 31 1109 106 1236 
9295 0.5785875308045836 0.13741833602152614 0.5085746500801006 0 0 0 0.65 137 1562 139 2397 154 3394 191 2311 202 1811 228 3818 121 191 178 1124 
9296 0.06280887654760926 -0.45840370046655693 0.8101114850476123 0 0 0 0.22 139 2398 161 2196 205 1909 211 2861 
9297 -0.03111288115187568 -0.36651912947519344 0.8330243482078402 0 0 0 0.48 139 2399 144 2668 154 3395 
9298 -0.455540223482621 -0.04903660901452741 1.0051423357060172 0 0 0 1.0 139 2400 211 2862 228 3819 37 2590 46 2971 186 1545 
9299 0.58845771065258 -0.12759597697775488 0.3708259775577861 0 0 0 0.48 139 2401 140 2814 202 1812 150 1272 78 55 
9300 0.5788762936966224 0.09732233100801051 0.5736501825501327 0 0 0 0.56 137 1563 139 2402 140 2815 143 1734 144 2669 177 1990 191 2312 193 3894 202 1813 211 2863 212 2332 228 3820 57 2576 59 2164 189 1780 23 2084 150 1273 180 2756 186 1546 171 1727 24 1164 31 1110 115 373 106 1237 68 506 
9301 0.37056539324329146 0.1467522224352156 0.6140541556035598 0 0 0 0.58 137 1564 139 2403 151 4054 216 2961 218 3064 34 2250 45 934 59 2165 23 2085 173 2386 180 2757 8 1541 24 1165 106 1238 149 2814 168 236 174 306 
9302 0.32315663521719096 0.15325867303011032 0.5793545043583306 0 0 0 0.57 139 2404 143 1735 166 2977 211 2864 37 2591 99 1604 102 1543 116 4267 186 1547 233 2162 31 1111 57 2577 226 2249 168 237 23 2086 125 4515 150 1274 177 1991 180 2758 193 3895 202 1814 228 3821 24 1166 
9303 -0.10196461039442814 0.15656079712829707 0.5674645075098249 0 0 0 0.81 125 4516 139 2405 143 1736 166 2978 191 2313 211 2865 212 2333 57 2578 189 1781 30 1275 45 935 99 1605 205 1910 
9304 -0.059689269701654134 0.21350703366062107 0.6180701472623192 0 0 0 0.55 139 2406 161 2197 205 1911 
9305 0.06824184672819883 -0.4675055304379482 0.8174865422906912 0 0 0 1.01 132 826 139 2407 161 2198 205 1912 211 2866 174 307 
9306 0.30341474785116057 -0.20177004866999743 0.8664361803666839 0 0 0 0.51 139 2408 161 2199 205 1913 37 2592 46 2972 
9307 -0.4852497239213607 -0.004212644380997815 0.8361390359453128 0 0 0 0.72 139 2409 211 2867 228 3822 34 2251 37 2593 57 2579 186 1548 
9308 0.5854112013286586 -0.12892913582355442 0.5048693596992506 0 0 0 0.93 139 2410 144 2670 145 1846 161 2200 212 2334 57 2580 59 2166 228 3823 55 1969 131 1304 150 1275 177 1992 189 1782 106 1239 115 374 216 2962 
9309 -0.09978032136262716 -0.02360004380039781 0.6685569233888647 0 0 0 0.43 122 1422 139 2411 145 1847 183 1912 211 2868 228 3824 233 2163 55 1970 119 2174 137 1565 215 1332 226 2250 30 1276 205 1914 94 3756 99 1606 149 2815 210 1352 18 1700 171 1728 180 2759 7 2172 154 3396 8 1542 37 2594 46 2973 57 2581 59 2167 86 2398 116 4268 140 2816 143 1737 144 2671 151 4055 177 1993 189 1783 191 2314 193 3896 202 1815 216 2963 218 3065 115 375 133 410 161 2201 174 308 203 824 212 2335 
9310 0.5838906135869142 -0.09958326609031455 0.36991119470953876 0 0 0 0.45 139 2412 202 1816 216 2964 150 1276 191 2315 8 1543 31 1112 24 1167 106 1240 177 1994 68 507 168 238 
9311 0.5807996715108786 0.03137618850350639 0.5780059533413904 0 0 0 0.51 139 2413 140 2817 191 2316 210 1353 216 2965 131 1305 173 2387 180 2760 8 1544 24 1168 115 376 
