# 3D point list with one line of data per point:
#   POINT3D_ID, X, Y, Z, R, G, B, ERROR, TRACK[] as (IMAGE_ID, POINT2D_IDX)
# Number of points: 442, mean track length: 10.71
15241 -0.2510067801082643 -0.04034178675535936 0.8972918680299756 0 0 0 0.26 9 2497 135 540 158 1205 
15242 -0.05452545055163085 -0.02892217433085176 0.8810590425457233 0 0 0 0.12 9 2498 120 897 162 1448 
15243 -0.1091470004871074 -0.02677397418533052 0.8848324529203545 0 0 0 0.14 9 2499 11 3954 16 1804 213 4139 
15244 0.01920350595683418 0.05781238474690235 0.8645033144506973 0 0 0 0.09 9 2500 135 541 200 1611 
15245 0.08631209062408632 0.05909469833219919 0.8487671244944448 0 0 0 0.34 2 3370 9 2501 124 1355 234 762 
15246 -0.07469862580358129 0.08014715117988613 0.8549699651327073 0 0 0 0.38 9 2502 124 1356 164 3147 
15247 0.3332621001824703 0.1117199795450211 0.8411195662801322 0 0 0 0.86 9 2503 27 2778 235 1740 
15248 0.08781855712787294 -0.25105835115190245 0.9135605466552366 0 0 0 0.36 9 2504 196 2126 227 1288 
15249 -0.06412314967280108 -0.17390224326625606 0.9023369948176727 0 0 0 0.26 9 2505 124 1357 231 556 39 336 
15250 0.10074028079245385 -0.059423577291751045 0.876962217541165 0 0 0 0.17 9 2506 176 2474 219 1355 
15251 -0.41332066850615656 -0.0738344331499223 0.9342599679822071 0 0 0 0.64 9 2507 159 1658 164 3148 220 1356 
15252 -0.017096934199480357 -0.050162564242159535 0.8820768500918158 0 0 0 0.24 9 2508 17 2982 158 1206 162 1449 
15253 -0.5264651999978757 -0.07112998050215368 0.9539571001236882 0 0 0 0.34 9 2509 148 3448 224 1254 
15254 -0.1295250169163825 -0.029959096632749965 0.8794917748974068 0 0 0 0.3 9 2510 164 3149 214 1407 
15255 -0.15134580749134546 0.007865898934195212 0.8672782890615963 0 0 0 0.77 9 2511 214 1408 223 1051 
15256 0.30617132077866877 0.022025256088690305 0.8540374777140637 0 0 0 0.17 9 2512 165 1641 197 1125 
15257 0.33327202563912556 0.10906914928666038 0.8396966416800334 0 0 0 0.23 9 2513 165 1642 220 1357 
15258 0.006608950303240659 -0.19384966265304304 0.8953722709294621 0 0 0 0.34 9 2514 146 3201 176 2475 
15259 0.16872915008988057 -0.10474252610103198 0.8792406622550626 0 0 0 0.11 9 2515 17 2983 213 4140 232 2625 
15260 -0.2647558690382044 -0.049520160938306614 0.9035047712901085 0 0 0 0.41 2 3371 9 2516 19 2066 157 2260 196 2127 217 1124 220 1358 224 1255 
15261 -0.06848636337724263 -0.1179288227236301 0.8905191423725055 0 0 0 0.24 9 2517 19 2067 214 1409 224 1256 
15262 -0.22124300855164 0.05372153169617458 0.8694282519161323 0 0 0 0.14 9 2518 162 1450 196 2128 
15263 0.15790440047371485 -0.1614220318747149 0.8984002271761026 0 0 0 0.02 9 2519 165 1643 235 1741 
15264 -0.06648351238908418 -0.1441524371095649 0.901426012411283 0 0 0 0.91 9 2520 200 1612 231 557 
15265 0.18542425958148043 -0.05809076849682284 0.8800389828891984 0 0 0 0.61 9 2521 176 2476 197 1126 
15266 -0.10202205709954323 -0.028744957397025424 0.8822998290509574 0 0 0 0.61 9 2522 159 1659 200 1613 217 1125 
15267 -0.34227490743863115 -0.016349832000973705 0.9099929479599121 0 0 0 0.69 9 2523 19 2068 200 1614 
15268 -0.18571152369052857 -0.03943640452701036 0.9027717546745773 0 0 0 1.07 9 2524 185 1024 214 1410 
15269 -0.23610414305141733 -0.20928617247647616 0.9266177481001883 0 0 0 0.49 127 1640 157 2261 213 4141 
15270 -0.08790172339999046 -0.21226761133508543 0.9104604832508618 0 0 0 0.16 2 3372 4 4042 11 3955 176 2477 213 4142 
15271 0.34091394021007587 -0.2223353004407151 0.9805715868027519 0 0 0 0.03 165 1644 184 957 235 1742 
15272 0.1364664580171372 -0.20872373461706165 0.8965934453675443 0 0 0 0.78 136 1577 157 2262 213 4143 
15273 -0.35667775767515353 -0.1934624118546439 0.9429836647951723 0 0 0 0.17 128 1655 157 2263 213 4144 
15274 -0.24379369645106705 -0.17834066188344924 0.92284346572746 0 0 0 0.16 136 1578 146 3202 176 2478 213 4145 
15275 0.3250174104910604 -0.19073278905555238 0.9272127567338264 0 0 0 0.32 11 3956 200 1615 213 4146 
15276 0.2391815458491842 -0.18600440814492214 0.8985896417801772 0 0 0 0.3 19 2069 27 2779 165 1645 184 958 185 1025 
15277 -0.02157150425066794 -0.17687641353595293 0.9006269088936226 0 0 0 0.09 11 3957 16 1805 213 4147 187 686 
15278 0.03782935216619899 -0.17712368440641652 0.8899982914796659 0 0 0 0.45 11 3958 159 1660 223 1052 
15279 0.12195970986674462 -0.17005379914645913 0.8944710564528279 0 0 0 0.19 11 3959 176 2479 200 1616 
15280 0.34411102908747565 -0.15312210936302303 0.8953127467316185 0 0 0 0.1 165 1646 184 959 235 1743 
15281 0.10282734384058559 -0.14032454523048446 0.8885389187393279 0 0 0 0.3 11 3960 157 2264 165 1647 235 1744 
15282 0.2908655263348228 -0.12946934245803804 0.8871887675709309 0 0 0 0.31 9 2525 11 3961 213 4148 
15283 -0.13043263077413156 -0.1166794302500456 0.9014808539738791 0 0 0 0.31 11 3962 157 2265 176 2480 
15284 0.26839666871441464 -0.12140337470067375 0.8869688512126702 0 0 0 0.62 11 3963 27 2780 165 1648 176 2481 
15285 -0.14785862965469418 -0.11355545395744604 0.8951765571016571 0 0 0 0.19 11 3964 176 2482 213 4149 
15286 0.0829481118683264 -0.11671911145590191 0.8821810969615062 0 0 0 0.15 11 3965 16 1806 127 1641 213 4150 
15287 -0.15930831039031013 -0.10515302049495445 0.8931079118923438 0 0 0 0.24 11 3966 136 1579 146 3203 
15288 0.20687626746037127 -0.10677806570647715 0.8826353923323421 0 0 0 0.23 11 3967 159 1661 164 3150 
15289 0.2718567269929472 -0.10666427218468989 0.8778633780090066 0 0 0 0.14 11 3968 164 3151 213 4151 
15290 0.16981258666360974 -0.10427259675778427 0.8845945515372153 0 0 0 0.22 11 3969 146 3204 157 2266 165 1649 235 1745 
15291 0.12375251919019821 -0.10210175981697656 0.8826485281906243 0 0 0 0.33 11 3970 136 1580 159 1662 213 4152 
15292 0.32187960443667146 -0.1026443387982358 0.877877741076145 0 0 0 0.2 164 3152 213 4153 235 1746 
15293 0.07116394849097843 -0.09712907441502501 0.8852107487216313 0 0 0 0.1 11 3971 176 2483 200 1617 
15294 -0.20132927741791357 -0.08632238557638938 0.8971596287183277 0 0 0 0.3 11 3972 146 3205 213 4154 
15295 -0.1555683743398238 -0.08404047781050905 0.8889073444190392 0 0 0 0.24 11 3973 176 2484 213 4155 
15296 0.13468157639631181 -0.07956260993352493 0.8870915621557001 0 0 0 0.45 11 3974 157 2267 221 1675 
15297 -0.015652565165066152 -0.07126425259726926 0.8845973343486131 0 0 0 0.31 11 3975 16 1807 213 4156 231 558 
15298 0.030504216061223118 -0.06989310536601952 0.8819439132462142 0 0 0 0.31 11 3976 176 2485 200 1618 187 687 
15299 0.048890873657038834 -0.06839769031145036 0.8870087877433938 0 0 0 0.08 11 3977 16 1808 213 4157 
15300 0.024374081175389913 -0.06414670923991718 0.8828193470059834 0 0 0 0.37 11 3978 16 1809 176 2486 
15301 -0.1090135630280546 -0.06116923693788266 0.8868290080170805 0 0 0 0.14 11 3979 16 1810 157 2268 176 2487 213 4158 214 1411 
15302 0.11274222369581056 -0.06255747589112788 0.8784479415995389 0 0 0 0.24 11 3980 175 649 200 1619 
15303 -0.14258158067270205 -0.05751166955421467 0.8843406729722256 0 0 0 0.13 11 3981 128 1656 159 1663 
15304 0.09354999978419531 -0.05784934710677176 0.8764383286106148 0 0 0 0.31 11 3982 176 2488 185 1026 213 4159 
15305 0.021383518689306692 -0.053380804128942354 0.8782573506569362 0 0 0 0.15 11 3983 124 1358 175 650 
15306 0.224732100760915 -0.04377512388386354 0.8762830617478169 0 0 0 0.17 11 3984 164 3153 184 960 
15307 -0.21640108083261902 -0.014731310085577905 0.8908320660950672 0 0 0 0.46 11 3985 146 3206 221 1676 
15308 -0.0938823214560018 -0.002067910546454032 0.8797387462383899 0 0 0 0.12 11 3986 16 1811 213 4160 39 337 146 3207 
15309 -0.16011216130424544 0.005647053891843519 0.8660849034759088 0 0 0 0.09 11 3987 136 1581 157 2269 
15310 0.14161091383191987 0.007197828518729535 0.8710035714721338 0 0 0 0.28 11 3988 146 3208 213 4161 
15311 -0.1677953161050441 0.012617988478340003 0.8670369391117873 0 0 0 0.48 11 3989 127 1642 213 4162 
15312 -0.15235142024366682 0.012133801562072244 0.8664439630590133 0 0 0 0.23 11 3990 146 3209 213 4163 
15313 -0.3687461707549749 0.024248824358691388 0.9053116747890859 0 0 0 0.08 128 1657 200 1620 213 4164 
15314 -0.1734046332271639 0.022475958568668592 0.8769699048185542 0 0 0 0.3 11 3991 16 1812 176 2489 
15315 -0.12619594278156535 0.022580851015268816 0.8636804685069995 0 0 0 0.12 11 3992 157 2270 213 4165 
15316 -0.031192343101410634 0.023275731229772115 0.8680183584761341 0 0 0 0.17 4 4043 11 3993 16 1813 146 3210 159 1664 176 2490 213 4166 
15317 -0.2632088399815433 0.024857647036364103 0.8770687388430835 0 0 0 0.15 11 3994 128 1658 213 4167 
15318 -0.20539146924253965 0.025106329738804833 0.8732359770224916 0 0 0 0.25 11 3995 16 1814 164 3154 176 2491 28 999 98 697 200 1621 
15319 0.1981445941678546 0.02215297985086814 0.8527006449077132 0 0 0 0.1 11 3996 184 961 213 4168 
15320 -0.25821152038706024 0.026487087967620573 0.877260157860916 0 0 0 0.1 11 3997 176 2492 213 4169 
15321 -0.1135198744751886 0.027734147578914625 0.860357838174334 0 0 0 0.24 11 3998 16 1815 213 4170 
15322 -0.2523545190336651 0.029779522025732943 0.8780440650747061 0 0 0 0.14 11 3999 176 2493 213 4171 
15323 0.028731442462588085 0.03736751791448129 0.8584877181590329 0 0 0 0.22 11 4000 176 2494 232 2626 
15324 -0.16870862966328337 0.039066443232721314 0.860282914446049 0 0 0 0.19 11 4001 146 3211 213 4172 
15325 0.046355877336715014 0.04035151753702282 0.8571634604285921 0 0 0 0.15 4 4044 11 4002 146 3212 213 4173 
15326 -0.21835842526762445 0.0435143880590516 0.8734609665228056 0 0 0 0.34 11 4003 128 1659 158 1207 
15327 -0.20333545803691389 0.05103778763431968 0.8698228378612262 0 0 0 0.24 11 4004 16 1816 176 2495 200 1622 213 4174 214 1412 38 1200 98 698 
15328 -0.17251148993669072 0.05508970194981172 0.8659974136859896 0 0 0 0.28 11 4005 16 1817 176 2496 
15329 -0.11893387172937402 0.05748224146259802 0.8608293104990512 0 0 0 0.32 4 4045 11 4006 16 1818 146 3213 176 2497 213 4175 38 1201 
15330 -0.3540778235055725 0.06194163316189608 0.8889122462037392 0 0 0 0.13 157 2271 176 2498 213 4176 
15331 -0.19549043926070342 0.05889482983310555 0.8624290208206243 0 0 0 0.31 11 4007 16 1819 213 4177 
15332 -0.19029883690206295 0.059507269710752736 0.8690122883698533 0 0 0 0.15 11 4008 176 2499 213 4178 
15333 -0.18720857872615987 0.059436696044214275 0.8687897885810258 0 0 0 0.19 11 4009 16 1820 176 2500 213 4179 
15334 0.01631669336089588 0.06005714469360867 0.8642737331618371 0 0 0 0.15 11 4010 16 1821 213 4180 
15335 0.2736873003509753 0.061313477657544226 0.8494201834414149 0 0 0 0.47 11 4011 27 2781 165 1650 
15336 0.024068758848148325 0.06398830772018517 0.8584652822822899 0 0 0 0.4 11 4012 213 4181 214 1413 
15337 0.2502036136429896 0.06455841242969888 0.849735713086068 0 0 0 0.14 11 4013 165 1651 235 1747 
15338 0.0049579514047638044 0.06790709079989865 0.8529328232302745 0 0 0 0.22 11 4014 16 1822 213 4182 
15339 0.21514437118216956 0.08620667167826378 0.8404991126728292 0 0 0 0.3 11 4015 136 1582 213 4183 
15340 0.16636368306310256 0.09248684091050864 0.8451716312045809 0 0 0 0.67 11 4016 213 4184 223 1053 
15341 0.4254006309762414 0.10050322994306896 0.8812870191559223 0 0 0 0.66 19 2070 164 3155 165 1652 184 962 235 1748 
15342 -0.2573465835095948 0.10157505601155671 0.86906946492082 0 0 0 0.46 11 4017 176 2501 213 4185 214 1414 
15343 0.11803074363597123 0.10361819313138175 0.8438853229526359 0 0 0 0.16 11 4018 165 1653 235 1749 
15344 0.4506999034143891 0.12202480055162132 0.8889761976546373 0 0 0 0.14 19 2071 184 963 235 1750 
15345 0.3913513535334177 0.11905912184527398 0.8601871656165923 0 0 0 0.18 2 3373 4 4046 184 964 
15346 -0.26277244147530704 0.11773514733214775 0.874643659386661 0 0 0 0.08 11 4019 176 2502 213 4186 
15347 -0.08512976161084158 0.11209329679872254 0.8065819567509905 0 0 0 0.2 11 4020 16 1823 213 4187 
15348 -0.010699313596614557 0.12115933354124177 0.8502674470463907 0 0 0 0.13 11 4021 124 1359 146 3214 
15349 0.14614291874634192 -0.21234454298744945 0.9009616922719057 0 0 0 0.27 4 4047 11 4022 127 1643 148 3449 157 2272 200 1623 213 4188 
15350 -0.22061125006987334 -0.18657846539039497 0.9210769549243821 0 0 0 0.66 127 1644 164 3156 176 2503 
15351 0.017276717077653065 -0.1808802244883094 0.8959784915906127 0 0 0 0.49 11 4023 27 2782 159 1665 
15352 -0.1673242729611199 -0.1708579033822026 0.9109945306695812 0 0 0 0.1 11 4024 176 2504 204 1642 
15353 -0.4249339383311511 -0.15600734457387844 0.9372184166802326 0 0 0 0.39 4 4048 152 1076 213 4189 
15354 -0.212012943786897 -0.15970234942804687 0.9146365409050337 0 0 0 0.4 136 1583 146 3215 158 1208 213 4190 
15355 -0.4188508813450551 -0.1559148048846215 0.9495760465438564 0 0 0 0.15 176 2505 204 1643 219 1356 
15356 -0.18236164799062443 -0.15484828471514653 0.904420038922706 0 0 0 0.41 11 4025 176 2506 204 1644 213 4191 
15357 0.009514275081790313 -0.14471114532827034 0.8949678501816544 0 0 0 0.24 11 4026 19 2072 221 1677 
15358 0.25551526960111864 -0.13606879044629377 0.8872875540686255 0 0 0 0.38 11 4027 148 3450 165 1654 
15359 -0.07075984222155311 -0.1254094211468537 0.8938815296075546 0 0 0 0.14 11 4028 176 2507 185 1027 213 4192 
15360 -0.09692624582648363 -0.11627575886210038 0.8988108050385819 0 0 0 0.09 11 4029 16 1824 213 4193 
15361 0.1445789890597011 -0.12051565285695374 0.8894379394369303 0 0 0 0.55 11 4030 17 2984 185 1028 
15362 -0.09211646870487135 -0.1110744336800059 0.8973601190399698 0 0 0 0.15 11 4031 176 2508 204 1645 
15363 -0.12787394289693227 -0.10940536023554395 0.8958647600940526 0 0 0 0.09 11 4032 17 2985 172 1488 
15364 -0.03673965951814934 -0.1073909654568492 0.8892582525451038 0 0 0 0.11 11 4033 27 2783 213 4194 
15365 0.055831810219658294 -0.10360732567694736 0.892102237986601 0 0 0 0.13 11 4034 16 1825 213 4195 17 2986 204 1646 
15366 0.05982207716629897 -0.08976819296305512 0.8931324515411089 0 0 0 0.07 11 4035 17 2987 213 4196 
15367 -0.06467143919073051 -0.06768313691795266 0.8913135428548754 0 0 0 0.2 11 4036 128 1660 176 2509 
15368 -0.0722771446472248 -0.06665425734857808 0.8863898510395645 0 0 0 0.23 11 4037 16 1826 213 4197 
15369 0.14018314307318247 -0.06779603677291166 0.8836926871789771 0 0 0 0.1 11 4038 172 1489 232 2627 
15370 0.2564290015889777 -0.06312441376114887 0.8773443358200733 0 0 0 0.23 11 4039 146 3216 213 4198 
15371 0.336403410930206 -0.062053132450105145 0.8747961652399794 0 0 0 0.14 2 3374 4 4049 165 1655 184 965 213 4199 235 1751 
15372 -0.34217593081137315 -0.04506489812241661 0.9136487758698076 0 0 0 0.11 17 2988 148 3451 213 4200 
15373 -0.0316989858966548 -0.0448712504451017 0.8948141528317839 0 0 0 0.12 11 4040 17 2989 219 1357 
15374 0.21403266725182163 -0.043635164775677526 0.8778819632309143 0 0 0 0.33 11 4041 146 3217 176 2510 
15375 -0.13147850027592198 -0.027082152622461594 0.8858705577370722 0 0 0 0.04 11 4042 146 3218 213 4201 
15376 -0.03877672666160394 -0.029115640834697656 0.8671680158093772 0 0 0 0.35 11 4043 219 1358 232 2628 
15377 -0.1117673705611471 -0.024292600116832958 0.88224327915981 0 0 0 0.18 11 4044 146 3219 213 4202 
15378 -0.13174251548807583 -0.00724119739077171 0.8830043666098669 0 0 0 0.07 11 4045 16 1827 213 4203 
15379 0.06904059561674884 -0.0017275017021473522 0.8626535989355207 0 0 0 0.18 11 4046 16 1828 213 4204 
15380 0.24346324830398838 0.00030488768393422576 0.8649374023868043 0 0 0 0.24 11 4047 17 2990 213 4205 
15381 -0.3755485152519635 0.010638703671701586 0.9119209444048615 0 0 0 0.16 17 2991 176 2511 213 4206 
15382 0.05539650798033792 0.01080862908957401 0.8761804632100394 0 0 0 0.18 11 4048 16 1829 197 1127 213 4207 
15383 -0.01770093516260822 0.012386903172773777 0.877594271261204 0 0 0 0.33 11 4049 16 1830 213 4208 
15384 -0.05210747684008156 0.017772287354647365 0.8643361192670438 0 0 0 0.37 11 4050 135 542 146 3220 
15385 -0.12339375459199178 0.020382605982681472 0.8627195902891404 0 0 0 0.56 11 4051 213 4209 214 1415 
15386 -0.003973671611956159 0.024520302015346378 0.8563650848161237 0 0 0 0.23 11 4052 148 3452 185 1029 
15387 0.09270226645692238 0.032534513483254174 0.8506214203154876 0 0 0 0.16 11 4053 176 2512 213 4210 
15388 -0.17274225639228177 0.03673444374727114 0.8780665613705496 0 0 0 0.26 11 4054 16 1831 128 1661 213 4211 
15389 -0.10119374969398408 0.03922356318038179 0.871510817412481 0 0 0 0.25 11 4055 16 1832 213 4212 
15390 0.09379476944718705 0.03828555303175742 0.8575549236494632 0 0 0 0.2 4 4050 11 4056 17 2992 146 3221 213 4213 
15391 -0.12883993805549712 0.0402005428086394 0.8627700178787877 0 0 0 0.16 11 4057 157 2273 232 2629 
15392 -0.1918122513886027 0.045870185060589805 0.8760642306577372 0 0 0 0.3 11 4058 17 2993 146 3222 176 2513 
15393 -0.3034077863402503 0.05347158979486108 0.8858532280471082 0 0 0 0.12 17 2994 27 2784 148 3453 
15394 0.12717410211081764 0.0559164068650399 0.8518082377441945 0 0 0 0.39 11 4059 158 1209 175 651 232 2630 
15395 0.26398478009417076 0.0678247908399209 0.8497673848467631 0 0 0 0.49 11 4060 164 3157 196 2129 235 1752 
15396 0.14483422046401462 0.0860290780535545 0.854450694927283 0 0 0 0.44 2 3375 4 4051 11 4061 164 3158 165 1656 213 4214 235 1753 
15397 -0.11562775199506121 0.09421374883203491 0.8545515747049829 0 0 0 0.26 11 4062 172 1490 219 1359 
15398 0.24079522659652564 0.11034005913361011 0.8394272096888459 0 0 0 0.24 4 4052 11 4063 165 1657 235 1754 
15399 -0.05573216319997663 0.12128535879274734 0.8491420575347723 0 0 0 0.44 11 4064 124 1360 146 3223 
15400 -0.07327914674357937 0.12203686554692435 0.8362824672489964 0 0 0 0.35 11 4065 146 3224 222 1405 
15401 0.061698184681679015 -0.23692338554485837 1.0546170092011133 0 0 0 0.76 11 4066 120 898 213 4215 
15402 -0.11867717530109315 -0.16584978777013812 0.8999124115190773 0 0 0 0.43 11 4067 158 1210 162 1451 
15403 -0.27213068850298533 -0.15003650326903928 0.9157936880525387 0 0 0 0.27 204 1647 213 4216 232 2631 
15404 0.11380870880246277 -0.15140363276304386 0.8942799432706505 0 0 0 0.29 11 4068 220 1359 221 1678 
15405 -0.022624509831086943 -0.11167863437746252 0.8941434504874418 0 0 0 0.17 11 4069 128 1662 172 1491 
15406 -0.1889601622381238 -0.10555823588385939 0.9068158023956115 0 0 0 0.19 11 4070 204 1648 219 1360 
15407 -0.10927652700180254 -0.10273463005297105 0.8947286344330942 0 0 0 0.12 11 4071 190 1421 232 2632 
15408 -0.011623319596722973 -0.09080722821225963 0.8925773780883544 0 0 0 0.4 11 4072 146 3225 157 2274 176 2514 232 2633 
15409 0.2324100297222364 -0.069133406646418 0.8808757737564886 0 0 0 0.14 11 4073 127 1645 222 1406 
15410 -0.338512598568658 -0.054906160906481184 0.9147073715840387 0 0 0 0.3 11 4074 162 1452 164 3159 
15411 -0.2343007729011623 -0.053367603182422466 0.902386439250395 0 0 0 0.2 11 4075 214 1416 232 2634 
15412 -0.17127701452283764 0.0320493049241053 0.8572777953322619 0 0 0 0.26 11 4076 15 1102 232 2635 
15413 -0.09310860869000542 0.03392751991288742 0.8638505576590383 0 0 0 0.14 11 4077 120 899 204 1649 
15414 -0.09946623503006564 0.0420055014211259 0.866645003391133 0 0 0 0.3 11 4078 213 4217 221 1679 232 2636 
15415 -0.2582573750150891 0.04441413092982583 0.8803799803759425 0 0 0 0.25 11 4079 17 2995 159 1666 164 3160 204 1650 232 2637 
15416 0.4543280158463216 0.08537376931684976 0.8967986309970908 0 0 0 0.05 120 900 165 1658 235 1755 
15417 0.027540716602378192 0.10554955465375387 0.8453258241945572 0 0 0 0.49 3 1645 4 4053 11 4080 27 2785 213 4218 223 1054 227 1289 
15418 0.4431869541446801 0.11632727936506226 0.8732421810787391 0 0 0 0.11 165 1659 184 966 235 1756 
15419 0.07895314609105464 -0.23826583115120584 0.918045696916306 0 0 0 0.19 11 4081 222 1407 232 2638 
15420 -0.06401054338335287 -0.19948041665614785 0.8947924945513832 0 0 0 0.09 4 4054 190 1422 213 4219 
15421 -0.15307114052550386 -0.17130868022621965 0.9079923899910818 0 0 0 0.12 158 1211 172 1492 213 4220 
15422 -0.12333947485080465 -0.10251080279963294 0.8988489798712915 0 0 0 0.36 11 4082 146 3226 176 2515 
15423 0.14666312288631148 -0.0739612225224112 0.8887901884658896 0 0 0 0.28 11 4083 152 1077 227 1290 
15424 0.30792663594269476 -0.023838067277867733 0.8798845586277173 0 0 0 0.22 11 4084 17 2996 120 901 
15425 0.44359197322311383 0.014798230318533692 0.9037738711588729 0 0 0 0.09 17 2997 184 967 232 2639 
15426 0.24671457091344468 0.053987147851354056 0.8511302296371102 0 0 0 0.27 11 4085 213 4221 223 1055 
15427 0.06500746072949033 0.05779966072821065 0.8520709861223509 0 0 0 0.67 11 4086 128 1663 190 1423 213 4222 232 2640 13 915 187 688 194 614 201 406 234 763 
15428 0.0038682783653197967 -0.22538691742644262 1.0391446802493847 0 0 0 0.6 120 902 190 1424 213 4223 
15429 0.013925709295779048 -0.22133654932522437 1.0778446860885174 0 0 0 0.43 120 903 190 1425 213 4224 
15430 0.06364361659160402 -0.20399731417998154 0.8990689327867492 0 0 0 0.14 11 4087 120 904 213 4225 
15431 0.018754398580649867 -0.10063863254512531 0.8953352145704995 0 0 0 0.03 11 4088 213 4226 232 2641 
15432 0.15469449163419358 -0.057332925965081175 0.8773470627140334 0 0 0 0.08 11 4089 120 905 128 1664 148 3454 
15433 0.016601458802888013 -0.02865713745474677 0.8780407143774487 0 0 0 0.12 11 4090 17 2998 146 3227 176 2516 
15434 -0.09455819601915648 0.03958794978354628 0.8647920630107543 0 0 0 0.28 11 4091 17 2999 213 4227 221 1680 
15435 -0.19747993365106567 0.09315102859799379 0.8609600783650281 0 0 0 0.36 11 4092 17 3000 128 1665 146 3228 
15436 0.122214264549998 0.10919123861685702 0.8432211833794024 0 0 0 0.29 11 4093 146 3229 172 1493 194 615 213 4228 
15437 -0.07701931621020024 0.12361265717246894 0.8151552411309202 0 0 0 0.31 11 4094 124 1361 190 1426 222 1408 
15438 -0.08469510557573806 0.1243858855912535 0.8032713209529847 0 0 0 0.26 11 4095 124 1362 190 1427 
15439 0.11263759102882265 0.04657474239210475 0.8558393153524524 0 0 0 0.49 11 4096 164 3161 214 1417 
15440 0.2799326371305508 0.07160210385027072 0.8470733019093988 0 0 0 0.66 3 1646 11 4097 17 3001 120 906 162 1453 164 3162 204 1651 
15441 0.1288802742858217 0.0964843268251344 0.8453739423758101 0 0 0 0.45 11 4098 120 907 194 616 
15442 -0.16939480519505543 -0.07485624470764664 0.8957578402656293 0 0 0 0.46 11 4099 27 2786 176 2517 
15443 -0.35758836086542795 0.08213797608157129 0.8833344765258355 0 0 0 0.61 157 2275 176 2518 204 1652 213 4229 227 1291 
15444 -0.3284401813030607 -0.09745336221887921 0.9299573703589249 0 0 0 0.56 2 3376 17 3002 213 4230 217 1126 219 1361 
15445 -0.00016799644737415146 -0.2222404758805169 1.0861372788573684 0 0 0 0.63 120 908 190 1428 213 4231 
15446 -0.08231705518178814 -0.043246241335753284 0.8780251139626316 0 0 0 0.33 11 4100 17 3003 213 4232 
15447 -0.47835380768488517 -0.2643994519555746 0.4928528693055072 0 0 0 0.26 12 1148 17 3004 232 2642 
15448 -0.4773777385978444 -0.20397287872076741 0.37437998581252485 0 0 0 0.16 12 1149 17 3005 232 2643 
15449 0.07728174496373795 -0.20836332505656208 0.9031987503051134 0 0 0 0.5 12 1150 15 1103 197 1128 204 1653 13 916 
15450 -0.05840475248921514 -0.1991825303849234 0.8779396771515626 0 0 0 0.41 12 1151 213 4233 232 2644 
15451 -0.4811618139381465 -0.17689620223898508 0.4433084162890547 0 0 0 0.17 12 1152 17 3006 232 2645 
15452 0.017545161909622634 -0.06992265086432364 0.8875233828066237 0 0 0 0.29 12 1153 221 1681 232 2646 
15453 -0.3692717133457164 -0.052332930745455794 0.9236140599464597 0 0 0 0.08 12 1154 19 2073 220 1360 224 1257 
15454 -0.4706755194094572 -0.1583987531667718 0.6531160456131495 0 0 0 0.12 12 1155 17 3007 232 2647 
15455 0.38619103093080176 -0.055402936097987854 0.8911194986706633 0 0 0 0.34 12 1156 127 1646 197 1129 
15456 -0.16888894790970022 -0.1833826255966399 0.9198856232313413 0 0 0 0.3 12 1157 204 1654 219 1362 
15457 -0.2966776407406958 -0.09178247027240011 0.9144056772959511 0 0 0 0.09 12 1158 198 713 220 1361 
15458 0.07165632100261554 -0.18733200282236234 0.9023098259581078 0 0 0 0.75 12 1159 208 314 227 1292 
15459 -0.09556967753346053 -0.20950216282482942 0.9111739147727195 0 0 0 0.21 15 1104 27 2787 147 1347 
15460 -0.11325050756013495 -0.1889610707529109 0.9107183415566894 0 0 0 0.07 15 1105 204 1655 222 1409 
15461 0.2873252777178862 -0.15896068965697566 0.89430749788327 0 0 0 0.1 15 1106 128 1666 232 2648 
15462 0.4792899300309556 -0.11286527904223824 0.6816162419293743 0 0 0 0.28 15 1107 172 1494 219 1363 
15463 0.3962918126581541 -0.10295008143945529 0.9110043755308631 0 0 0 0.14 15 1108 222 1410 232 2649 
15464 0.10716640841193077 -0.06460643738966305 0.877949374639382 0 0 0 0.23 15 1109 17 3008 128 1667 
15465 0.1808661506761052 -0.06366250004920954 0.8731342079151387 0 0 0 0.38 15 1110 164 3163 176 2519 204 1656 219 1364 
15466 0.25198862254148735 -0.06299649456083264 0.8750698991315318 0 0 0 0.2 17 3009 120 909 127 1647 152 1078 204 1657 
15467 0.0033839764457788387 0.008813141911994853 0.8658497390320898 0 0 0 0.33 11 4101 15 1111 152 1079 213 4234 232 2650 
15468 0.10257981943714962 0.01102188440411232 0.8711866641959305 0 0 0 0.02 15 1112 176 2520 204 1658 
15469 0.2972071305688301 -0.006693154107042156 0.5992311251148646 0 0 0 1.4 15 1113 222 1411 232 2651 
15470 0.21465313129118468 0.01713625073509536 0.8536566450860973 0 0 0 0.05 15 1114 128 1668 172 1495 
15471 -0.1649731993603936 0.028844943514140586 0.8626471023102185 0 0 0 0.28 15 1115 19 2074 162 1454 
15472 -0.012244629697957423 0.042257699621430674 0.8593071851651415 0 0 0 0.28 12 1160 15 1116 158 1212 219 1365 222 1412 232 2652 
15473 -0.1529907642452468 0.050587047401350456 0.8660032250481975 0 0 0 0.38 15 1117 221 1682 222 1413 
15474 -0.15277025347930873 0.06053605914812167 0.8599793281435101 0 0 0 0.25 15 1118 147 1348 219 1366 
15475 -0.013373345438447475 0.06268907573139791 0.8557833071908592 0 0 0 0.29 11 4102 15 1119 120 910 219 1367 
15476 0.0802899062363672 -0.2507848624049081 0.9139069963080765 0 0 0 0.17 2 3377 15 1120 158 1213 232 2653 
15477 0.09106728138384151 -0.23811892488771946 0.9109967734629536 0 0 0 0.27 3 1647 15 1121 120 911 152 1080 157 2276 
15478 0.32834822163180594 -0.19356926346902795 0.9290914140429217 0 0 0 0.26 15 1122 120 912 190 1429 204 1659 
15479 0.4896615415244468 -0.1130604510166723 0.6681307863696446 0 0 0 0.28 15 1123 172 1496 219 1368 
15480 0.47123011523283737 -0.08273185758545144 0.9335867269838294 0 0 0 0.29 15 1124 17 3010 190 1430 232 2654 
15481 0.4747668990512773 -0.0807958261543847 0.693311058307373 0 0 0 0.44 15 1125 172 1497 219 1369 
15482 -0.09066227598052774 -0.0578632145553628 0.8842058832569342 0 0 0 0.07 15 1126 128 1669 152 1081 
15483 0.24896146952104767 -0.06771621098837731 0.8776752425430447 0 0 0 0.5 11 4103 15 1127 165 1660 197 1130 213 4235 
15484 0.14498010161937633 -0.06057303979890063 0.8817859402543811 0 0 0 0.51 15 1128 158 1214 221 1683 
15485 0.4809226617183513 -0.031318058888460835 0.681469079176861 0 0 0 0.74 15 1129 172 1498 219 1370 
15486 0.47728512145442664 -0.027381165406327252 0.6831689159676394 0 0 0 0.59 15 1130 172 1499 219 1371 
15487 0.3077231699396585 0.024457103289830934 0.857526646589817 0 0 0 0.29 15 1131 17 3011 120 913 152 1082 
15488 -0.031118563957773165 -0.08465746422819209 0.8912104509149651 0 0 0 0.08 15 1132 128 1670 190 1431 
15489 0.4667272798120596 -0.08870617286225047 0.9297242139817506 0 0 0 0.19 15 1133 17 3012 232 2655 
15490 0.48202233799892613 -0.03552014799043442 0.6757772473340677 0 0 0 0.63 15 1134 172 1500 219 1372 
15491 0.16379110115262008 0.047495751009379326 0.8549198510842193 0 0 0 0.53 15 1135 146 3230 175 652 
15492 0.4366295157263766 0.04395468403256915 0.7239660067751268 0 0 0 0.82 15 1136 172 1501 181 510 
15493 0.09319391603929306 -0.22233360784511993 0.9037983594873895 0 0 0 0.26 15 1137 152 1083 222 1414 
15494 0.011598085585873717 -0.18563488975838824 0.8962279245961448 0 0 0 0.9 15 1138 162 1455 219 1373 220 1362 
15495 -0.362206700524585 -0.2148566096185876 0.9455777563890101 0 0 0 0.16 157 2277 200 1624 213 4236 
15496 0.13695747769200667 -0.18751335636337488 0.8984060871230838 0 0 0 0.46 148 3455 165 1661 176 2521 
15497 0.11303880570769555 -0.15905704581669391 0.8973975563856937 0 0 0 0.31 9 2526 165 1662 213 4237 
15498 0.12557752221022134 -0.1583275057597624 0.893124082471273 0 0 0 0.17 165 1663 213 4238 235 1757 
15499 0.06260605660048334 -0.15619150745143606 0.890458608244587 0 0 0 0.65 9 2527 176 2522 200 1625 213 4239 
15500 0.35237251031345074 -0.15164652100270412 0.8838746070051974 0 0 0 0.22 9 2528 165 1664 213 4240 
15501 -0.009887220946530443 -0.11802113930352301 0.8905530229313267 0 0 0 0.33 4 4055 16 1833 213 4241 
15502 0.20550267356889917 -0.11762987391255594 0.8840446531050089 0 0 0 0.3 2 3378 184 968 196 2130 
15503 0.3572720721961772 -0.11964082181665091 0.8844385376985465 0 0 0 0.22 2 3379 148 3456 213 4242 
15504 0.19748413454073918 -0.11537650949732564 0.883914884206056 0 0 0 0.35 148 3457 165 1665 184 969 
15505 -0.2027504552148725 -0.10796603574929996 0.9028239498231773 0 0 0 0.36 16 1834 176 2523 213 4243 
15506 -0.08012399208631132 -0.10618489970737205 0.8905903172749654 0 0 0 0.45 16 1835 200 1626 214 1418 231 559 
15507 -0.3800547799539946 -0.10167427675369703 0.9314336185187295 0 0 0 0.18 2 3380 164 3164 213 4244 
15508 -0.1381040794800371 -0.06644498616125905 0.8819380333785285 0 0 0 0.51 11 4104 16 1836 176 2524 213 4245 
15509 -0.39141679974085414 -0.06284428815255551 0.9226182367480261 0 0 0 0.34 157 2278 176 2525 213 4246 
15510 0.013387956930840385 -0.06516249538356898 0.8826785746546728 0 0 0 0.09 16 1837 176 2526 213 4247 
15511 -0.10495511415280871 -0.06119675714105761 0.886909214428451 0 0 0 0.14 16 1838 176 2527 213 4248 214 1419 
15512 -0.3105974040324473 -0.056216309205497694 0.9128282530316624 0 0 0 0.41 157 2279 176 2528 213 4249 
15513 -0.19280467960527256 -0.056936272926209466 0.8945992756126727 0 0 0 0.13 16 1839 176 2529 200 1627 
15514 -0.13535594522359032 -0.05736056249417118 0.8825188866255073 0 0 0 0.16 16 1840 157 2280 213 4250 
15515 -0.10711704110937918 -0.056127697129349334 0.8858179253066164 0 0 0 0.43 16 1841 176 2530 214 1420 13 917 124 1363 146 3231 187 689 
15516 -0.1743730736190854 -0.054826987440312606 0.8877782374695637 0 0 0 0.16 16 1842 213 4251 214 1421 
15517 0.10367276589911922 -0.05707934734348232 0.8759387952178442 0 0 0 0.05 165 1666 196 2131 235 1758 
15518 0.01315876370240409 -0.053916684947001844 0.880787714306045 0 0 0 0.05 16 1843 157 2281 213 4252 
15519 0.039837939547894656 -0.04123356417932254 0.8738481555669656 0 0 0 0.53 16 1844 197 1131 214 1422 223 1056 
15520 0.12500874803396708 -0.0009091576797611482 0.8662544354400341 0 0 0 0.24 4 4056 157 2282 213 4253 
15521 -0.21786507150764725 0.008951555018207925 0.8798377181686019 0 0 0 0.25 16 1845 157 2283 176 2531 213 4254 
15522 -0.038024594781637854 0.007995998368123067 0.8640681072496295 0 0 0 0.2 16 1846 157 2284 213 4255 
15523 0.1589697341637279 0.010883770475436599 0.8534439677095395 0 0 0 0.28 11 4105 231 560 235 1759 
15524 0.07942472678338308 0.014415874521348921 0.8564664403561394 0 0 0 0.14 16 1847 164 3165 213 4256 
15525 -0.10702419037083712 0.016488034815704305 0.8696186026889472 0 0 0 0.22 16 1848 157 2285 213 4257 28 1000 98 699 124 1364 187 690 
15526 -0.061995870572253794 0.01645662305485441 0.8708219029998632 0 0 0 0.18 16 1849 176 2532 213 4258 187 691 
15527 -0.14249415522098502 0.018417502057086702 0.8711837443191839 0 0 0 0.06 16 1850 213 4259 214 1423 
15528 0.2734669147851569 0.020350323182504345 0.8517965554449232 0 0 0 0.28 9 2529 176 2533 184 970 213 4260 
15529 0.27610153592560654 0.020310332790497036 0.8517892084690432 0 0 0 0.07 184 971 200 1628 213 4261 
15530 -0.14255502533427644 0.02448614078785876 0.8702580933693284 0 0 0 0.19 16 1851 176 2534 213 4262 214 1424 
15531 -0.028862953163112236 0.026796225972709663 0.8669918328778689 0 0 0 0.03 16 1852 213 4263 214 1425 
15532 -0.12301215888674111 0.029815339579039063 0.8594653194600452 0 0 0 0.08 16 1853 176 2535 214 1426 
15533 -0.14353150464424327 0.03205468514124147 0.8659617618509943 0 0 0 0.18 16 1854 213 4264 214 1427 
15534 0.03921393208987921 0.031101367711820687 0.8528004473412564 0 0 0 0.13 16 1855 176 2536 213 4265 
15535 -0.2972647435702038 0.03674850303041905 0.8869450581673651 0 0 0 0.2 4 4057 11 4106 157 2286 176 2537 213 4266 
15536 0.09164657126903342 0.035117250960644206 0.8560688240737659 0 0 0 0.19 16 1856 213 4267 214 1428 
15537 -0.2555458335950456 0.037797049582989024 0.8805636651225793 0 0 0 0.12 157 2287 176 2538 200 1629 
15538 0.30673347477503615 0.041962117604871306 0.8493507773948261 0 0 0 0.2 175 653 214 1429 231 561 
15539 -0.2054779326529504 0.05771363173215931 0.8756832732586133 0 0 0 0.35 16 1857 176 2539 213 4268 
15540 -0.14653081342629087 0.05961541672446067 0.8600716424048882 0 0 0 0.28 16 1858 176 2540 213 4269 
15541 0.023349302070626365 0.06163553802109429 0.8589272877820223 0 0 0 0.26 11 4107 16 1859 175 654 213 4270 28 1001 201 407 
15542 0.3086738372474938 0.06279371843106477 0.8499936017163294 0 0 0 0.53 165 1667 184 972 213 4271 
15543 -0.2586855581438118 0.06897093360855687 0.8713935406702498 0 0 0 0.23 11 4108 176 2541 213 4272 
15544 -0.09795905486417943 0.07017497915748025 0.8613329776813635 0 0 0 0.36 16 1860 213 4273 214 1430 
15545 -0.23716586297770123 0.07369473744200361 0.876461121037285 0 0 0 0.39 176 2542 213 4274 214 1431 
15546 -0.044555534610084956 0.07637423604921358 0.8534566622221583 0 0 0 0.19 16 1861 213 4275 214 1432 28 1002 187 692 201 408 146 3232 234 764 
15547 0.19564542499260965 0.09179152397993386 0.8456626180311747 0 0 0 0.48 164 3166 165 1668 213 4276 
15548 0.23227545195535307 0.09253761529978922 0.84401999266365 0 0 0 0.44 165 1669 184 973 213 4277 
15549 -0.20375543726382206 0.09458023398066108 0.8613442403581874 0 0 0 0.19 176 2543 213 4278 214 1433 
15550 0.046679357959970504 0.1282936790766524 0.8430756348170007 0 0 0 0.32 2 3381 194 617 200 1630 214 1434 13 918 124 1365 
15551 -0.1524506637665616 -0.19009555447694992 0.90888255546299 0 0 0 0.22 146 3233 148 3458 213 4279 
15552 0.23467599988234353 -0.16582876059601875 0.8952814258759965 0 0 0 0.29 4 4058 9 2530 27 2788 159 1667 213 4280 
15553 -0.07281468194239016 -0.11954626752870919 0.8930619765353742 0 0 0 0.1 16 1862 17 3013 213 4281 
15554 -0.1693011825592038 -0.11616882545337107 0.9013641404173723 0 0 0 0.11 16 1863 176 2544 213 4282 
15555 -0.09184271136395612 -0.11637622888385177 0.900739965290024 0 0 0 0.22 11 4109 16 1864 213 4283 
15556 -0.08703268611061252 -0.11134949518822301 0.8901626960258932 0 0 0 0.16 11 4110 16 1865 176 2545 204 1660 213 4284 
15557 -0.01163345660479592 -0.10687211636517634 0.8942398077986974 0 0 0 0.16 16 1866 164 3167 213 4285 
15558 -0.20551692209279093 -0.09964154010757947 0.9033531717653219 0 0 0 0.31 16 1867 157 2288 213 4286 
15559 -0.04745384924756502 -0.091119787992787 0.8878976431998448 0 0 0 0.35 11 4111 16 1868 146 3234 190 1432 213 4287 
15560 -0.05947048815423824 -0.08277808429061412 0.8903823854722474 0 0 0 0.09 16 1869 172 1502 213 4288 
15561 0.06872169701074102 -0.08391882655674279 0.8845169311529751 0 0 0 0.22 4 4059 11 4112 16 1870 213 4289 
15562 -0.05944210509666629 -0.0726959803698629 0.8902566145809234 0 0 0 0.08 16 1871 176 2546 213 4290 
15563 -0.07227781659768463 -0.07010941996463568 0.8885820006673318 0 0 0 0.14 16 1872 185 1030 213 4291 
15564 -0.0964275112980682 -0.06792066465714791 0.8878074153584326 0 0 0 0.09 16 1873 176 2547 213 4292 
15565 0.019691538062023027 -0.05730574837189954 0.8810713857091365 0 0 0 0.21 16 1874 176 2548 214 1435 
15566 -0.2968938671079074 -0.04971213971420829 0.9047790917004683 0 0 0 0.12 4 4060 164 3168 176 2549 
15567 -0.0012527780669506561 -0.04630425602790335 0.8766646488500675 0 0 0 0.22 16 1875 148 3459 214 1436 
15568 0.2487796656754368 -0.04883074416329919 0.8733130465685068 0 0 0 0.21 27 2789 176 2550 213 4293 
15569 0.2522569604238229 -0.048967048871736384 0.875573344479935 0 0 0 0.13 2 3382 11 4113 213 4294 
15570 0.26044850208410886 -0.043255710559217495 0.87705866829385 0 0 0 0.17 165 1670 213 4295 235 1760 
15571 -0.10916654809970605 -0.03309691709445046 0.8850143768566886 0 0 0 0.06 16 1876 213 4296 214 1437 
15572 0.06673348639582555 -0.019744340676868467 0.8791810033578367 0 0 0 0.07 16 1877 197 1132 213 4297 
15573 0.009899410439849031 -0.018364297493579318 0.8737036783967461 0 0 0 0.16 16 1878 197 1133 213 4298 
15574 0.010248540595130617 -0.013348118791843984 0.8749122448510068 0 0 0 0.17 16 1879 197 1134 213 4299 
15575 -0.17227495680736798 0.010135962808594093 0.8683305464491518 0 0 0 0.44 16 1880 157 2289 213 4300 148 3460 
15576 -0.2356367919174424 0.01121177183542993 0.880542734988211 0 0 0 0.23 16 1881 157 2290 213 4301 
15577 0.03333862808770179 0.010809675885853763 0.8612908801811847 0 0 0 0.21 16 1882 175 655 234 765 
15578 -0.22794633336258432 0.024043584922284797 0.8837213828093329 0 0 0 0.13 16 1883 176 2551 200 1631 213 4302 
15579 -0.2133404613352684 0.02483763716058381 0.8715597748630595 0 0 0 0.13 16 1884 176 2552 213 4303 
15580 -0.06827417727481334 0.03367997589801705 0.8647615260354747 0 0 0 0.48 2 3383 16 1885 19 2075 159 1668 214 1438 
15581 -0.053252640022622914 0.04113298732249862 0.8562240745160001 0 0 0 0.31 16 1886 27 2790 213 4304 
15582 0.07920770386747068 0.04581788094122359 0.8526961725583189 0 0 0 0.26 11 4114 175 656 213 4305 231 562 
15583 0.0345525925533379 0.05604078720323274 0.8530090828315566 0 0 0 0.43 16 1887 214 1439 223 1057 
15584 -0.25072604516197083 0.06334801758197964 0.8756752389919698 0 0 0 0.2 11 4115 157 2291 213 4306 
15585 0.33089026602524446 0.08302218704832824 0.8416713623557274 0 0 0 0.17 9 2531 165 1671 213 4307 
15586 0.10466045773676419 0.09023292251621937 0.8527126522371176 0 0 0 0.15 4 4061 213 4308 214 1440 
15587 0.0820843707554789 -0.2193825155493175 0.9086614729170206 0 0 0 0.6 162 1456 185 1031 197 1135 
15588 0.0324469418142463 -0.17122975363205942 0.8918854724487162 0 0 0 0.85 17 3014 159 1669 162 1457 
15589 0.029231804043922522 -0.09506127231103796 0.8917734946336627 0 0 0 0.34 4 4062 16 1888 197 1136 200 1632 204 1661 213 4309 222 1415 232 2656 
15590 -0.06596679390244391 -0.08905587850883598 0.8905406319367407 0 0 0 0.09 16 1889 17 3015 172 1503 
15591 -0.16802479855850863 -0.0862038207835583 0.9000445195962866 0 0 0 0.07 16 1890 172 1504 213 4310 
15592 -0.13296314323542222 -0.0863105329370753 0.8942161912286416 0 0 0 0.11 16 1891 17 3016 213 4311 
15593 -0.06211319076859245 -0.07971725092672316 0.892597762395087 0 0 0 0.14 16 1892 172 1505 213 4312 
15594 -0.06253195068826445 -0.07520855123935374 0.8898790069643837 0 0 0 0.39 16 1893 17 3017 213 4313 164 3169 
15595 -0.13876964438967326 -0.0715427468876956 0.8895602195360967 0 0 0 0.14 16 1894 17 3018 213 4314 
15596 -0.0624608951537055 -0.07093904195958659 0.8900224795021694 0 0 0 0.15 16 1895 17 3019 213 4315 
15597 -0.10714416493672407 -0.029926119658212322 0.883401905332017 0 0 0 0.06 16 1896 172 1506 213 4316 214 1441 
15598 -0.447139067319824 -0.018967566614832038 0.9252652682454999 0 0 0 0.53 2 3384 9 2532 17 3020 148 3461 176 2553 219 1374 
15599 -0.3322706170102753 -0.00866368625241386 0.909926621529657 0 0 0 0.16 148 3462 172 1507 213 4317 
15600 0.027423677422432353 0.0023393933185082458 0.8690147013667904 0 0 0 0.11 4 4063 16 1897 213 4318 
15601 0.06796681825151538 0.0033758767598665016 0.8672272778642423 0 0 0 0.21 11 4116 16 1898 120 914 213 4319 
15602 -0.03039686258765547 0.039725284662142625 0.8646779573510676 0 0 0 0.27 16 1899 172 1508 188 61 
15603 -0.24339951030370865 0.055835482104735136 0.8818138102258614 0 0 0 0.21 17 3021 204 1662 213 4320 
15604 -0.2919315215661303 -0.08227962924152908 0.9135200780039373 0 0 0 0.17 17 3022 172 1509 213 4321 
15605 -0.15226440106681646 -0.07602626545255688 0.8899564614797667 0 0 0 0.3 16 1900 17 3023 213 4322 
15606 0.07097364779842574 0.004435454703578457 0.8623214183600372 0 0 0 0.3 4 4064 15 1139 16 1901 147 1349 190 1433 197 1137 213 4323 222 1416 232 2657 
15607 -0.24173299211380755 0.046908857473582456 0.8878037831074606 0 0 0 0.28 17 3024 172 1510 176 2554 204 1663 213 4324 
15608 -0.2280990624800843 -0.17897788950970828 0.9258892429958194 0 0 0 0.34 4 4065 17 3025 27 2791 128 1671 146 3235 147 1350 164 3170 176 2555 213 4325 221 1684 
15609 -0.24729001841185977 -0.09976058372636071 0.9079136833832276 0 0 0 0.06 16 1902 17 3026 213 4326 
15610 0.018029465212410493 -0.10063199839102162 0.891739541001144 0 0 0 0.14 16 1903 17 3027 147 1351 176 2556 
15611 0.12715608834551162 0.09539791668353663 0.8426344974458478 0 0 0 0.36 17 3028 158 1215 213 4327 
15612 0.06534973016555633 -0.11092130387290512 0.8952786347124005 0 0 0 0.16 16 1904 213 4328 219 1375 
15613 -0.22269951439447785 -0.0905340181113447 0.9075294919084917 0 0 0 0.27 16 1905 172 1511 213 4329 
15614 0.06531567037403267 0.04150631345606136 0.8549981199443363 0 0 0 0.45 11 4117 16 1906 17 3029 120 915 146 3236 147 1352 204 1664 213 4330 
15615 -0.32249397504816885 -0.1096816399015422 0.9319934005818852 0 0 0 1.32 27 2792 220 1363 221 1685 
15616 -0.10192096787256347 -0.011359677661005412 0.8690850753069967 0 0 0 0.78 16 1907 213 4331 232 2658 
15617 0.2565978623994648 0.0013987580646747533 0.8654477814260119 0 0 0 0.4 2 3385 17 3030 164 3171 190 1434 213 4332 
15618 -0.16742419387983504 0.06455274725601862 0.7958594018376153 0 0 0 0.3 16 1908 213 4333 232 2659 
15619 -0.4885344835248358 -0.17841166944573994 0.4078058680513932 0 0 0 0.51 12 1161 17 3031 172 1512 232 2660 
15620 -0.10948775233407469 -0.22078992540326212 0.9240745009739827 0 0 0 0.09 17 3032 213 4334 232 2661 
15621 -0.010302591070519215 -0.21923586703724118 0.9070191277848887 0 0 0 0.09 17 3033 213 4335 232 2662 
15622 -0.01690223855536879 -0.2134064710448586 0.8976790192076713 0 0 0 0.18 17 3034 213 4336 232 2663 
15623 -0.4811757828187998 -0.1414482227596776 0.584459964467183 0 0 0 0.32 17 3035 157 2292 232 2664 
15624 0.13220126941032556 -0.17130950704873066 0.9056111675626217 0 0 0 0.45 17 3036 221 1686 232 2665 
15625 -0.22535601151547893 -0.16055331551865992 0.9211667410307399 0 0 0 0.15 17 3037 204 1665 213 4337 
15626 -0.4852575430628015 -0.11529910070310102 0.4017425362669336 0 0 0 0.18 17 3038 172 1513 232 2666 
15627 -0.24662982524582697 -0.13966055209229342 0.9128374352517175 0 0 0 0.25 17 3039 152 1084 158 1216 
15628 -0.4861253265576818 -0.11210568025711456 0.42489455851537067 0 0 0 0.12 17 3040 221 1687 232 2667 
15629 -0.3364231089141217 -0.12365612614139569 0.9249188782307578 0 0 0 0.23 17 3041 176 2557 204 1666 
15630 -0.2678679786173486 -0.11528073108060485 0.9207910587430292 0 0 0 0.28 17 3042 176 2558 219 1376 
15631 -0.09457658295585515 -0.10272408909047225 0.898578384204084 0 0 0 0.05 16 1909 17 3043 213 4338 
15632 -0.10021230370358225 -0.0920867826959966 0.8957022760193555 0 0 0 0.09 16 1910 17 3044 146 3237 213 4339 
15633 -0.24102352090770532 -0.08795153588173706 0.9118160402718323 0 0 0 0.23 17 3045 27 2793 146 3238 213 4340 
15634 0.12746746400456777 -0.09292992435468049 0.8777162329043244 0 0 0 0.16 17 3046 147 1353 222 1417 
15635 0.3448100550197875 -0.09010413822994957 0.8822427250311939 0 0 0 0.13 17 3047 152 1085 220 1364 
15636 0.4772872840627866 -0.0935781141200408 0.6882480174184151 0 0 0 0.43 17 3048 163 563 227 1293 
15637 -0.22587561964903896 -0.07714142386545676 0.9070721753962906 0 0 0 0.08 16 1911 17 3049 213 4341 
15638 -0.18175622169318362 -0.07196195459151696 0.8974464246067007 0 0 0 0.26 16 1912 17 3050 213 4342 
15639 0.04628115871398647 -0.07308971175150608 0.8754310423044239 0 0 0 0.26 17 3051 146 3239 232 2668 
15640 -0.2832030228239209 -0.05607071104404218 0.9050224728050537 0 0 0 0.6 4 4066 17 3052 124 1366 157 2293 172 1514 213 4343 232 2669 
15641 0.2945574810944349 -0.048803000018890846 0.8741322899589459 0 0 0 0.29 17 3053 176 2559 200 1633 204 1667 213 4344 232 2670 
15642 -0.48310813465811564 -0.04529861019731237 0.38313027922904735 0 0 0 0.45 17 3054 172 1515 232 2671 
15643 -0.01363573041587144 -0.014015138193981917 0.8735000843522011 0 0 0 0.09 17 3055 128 1672 213 4345 
15644 0.09036274429192967 -0.010582435768826226 0.8754805332175011 0 0 0 0.3 17 3056 146 3240 147 1354 176 2560 232 2672 
15645 -0.47273851224051405 -0.001953556803892973 0.7390158582280603 0 0 0 0.39 17 3057 219 1377 232 2673 
15646 0.0018463800627565967 0.002095726989073227 0.864253914170646 0 0 0 0.25 11 4118 17 3058 120 916 221 1688 232 2674 
15647 -0.18777132682063594 0.010834430482851442 0.879152919549022 0 0 0 0.11 17 3059 146 3241 213 4346 
15648 -0.299215580137003 0.019173031772368444 0.8869059372766839 0 0 0 0.28 17 3060 172 1516 213 4347 
15649 0.17519343477060484 0.017408077379153137 0.8599599324360622 0 0 0 0.12 17 3061 128 1673 146 3242 
15650 0.46964376374693234 0.04948164842324703 0.912948802292629 0 0 0 0.49 17 3062 172 1517 184 974 221 1689 
15651 0.15468040403095606 0.052475169677089976 0.8530027801601172 0 0 0 0.42 17 3063 146 3243 172 1518 221 1690 234 766 
15652 -0.2839959030316989 0.08702352684998609 0.8569489904133745 0 0 0 0.49 17 3064 176 2561 213 4348 
15653 -0.16746723962133764 -0.23874443948344018 1.010204047319873 0 0 0 0.3 17 3065 128 1674 190 1435 
15654 -0.48633909686688315 -0.16534525118883736 0.4086124335414974 0 0 0 0.41 17 3066 221 1691 232 2675 
15655 -0.24104615107976002 -0.21365888265724078 0.9232577492071847 0 0 0 0.34 17 3067 127 1648 220 1365 
15656 0.08029285009546423 -0.2260167891279442 0.9414127951039978 0 0 0 0.52 17 3068 152 1086 190 1436 
15657 -0.48614949047623734 -0.11004676504808357 0.40744632830547 0 0 0 0.17 17 3069 221 1692 232 2676 
15658 -0.26060027739605857 -0.1148763128653635 0.9142961994195855 0 0 0 0.33 17 3070 159 1670 176 2562 232 2677 
15659 0.3453603106919325 -0.08482890387930185 0.8825121397353262 0 0 0 0.21 17 3071 128 1675 152 1087 
15660 0.45564669252522966 -0.06553278962680928 0.7620304181590204 0 0 0 0.42 17 3072 120 917 152 1088 
15661 0.30495467824340133 -0.05227839675572638 0.8742838775723281 0 0 0 0.22 15 1140 17 3073 152 1089 204 1668 232 2678 234 767 
15662 0.2105650042227566 -0.03946349421443496 0.8743112944990719 0 0 0 0.29 17 3074 128 1676 213 4349 
15663 0.4669983309800775 -0.024206125833500205 0.7274261797592764 0 0 0 0.22 17 3075 120 918 152 1090 
15664 -0.08817209768357329 -0.0033919534622294553 0.8707867054986647 0 0 0 0.36 17 3076 27 2794 221 1693 222 1418 
15665 0.44989536003095104 -0.013530226086271564 0.7647978221916516 0 0 0 0.27 17 3077 120 919 152 1091 163 564 
15666 0.22610324890206104 -0.002076442763957944 0.8666847299193936 0 0 0 0.34 11 4119 17 3078 128 1677 213 4350 
15667 0.47164024949971706 -0.002555208636835845 0.6863216031189605 0 0 0 0.2 17 3079 120 920 152 1092 163 565 
15668 0.2850956127504003 0.014549250848798097 0.8558024295369824 0 0 0 0.46 4 4067 17 3080 147 1355 162 1458 164 3172 214 1442 235 1761 
15669 0.22440961857975586 0.018118641134507868 0.8658216052600729 0 0 0 0.18 17 3081 172 1519 222 1419 
15670 0.4580563228440649 0.010969739348302254 0.7383368123142854 0 0 0 0.28 17 3082 120 921 152 1093 
15671 0.1833827741496235 0.04342489669760792 0.8627980600137802 0 0 0 0.19 17 3083 162 1459 164 3173 
15672 0.46437715791172735 0.03257089904043117 0.713307377758535 0 0 0 0.24 17 3084 162 1460 163 566 
15673 0.046735919322207886 0.05145427516221065 0.8526147146734885 0 0 0 0.13 17 3085 120 922 232 2679 
15674 -0.18075409986462238 0.05668679400143255 0.8763464380872577 0 0 0 0.23 2 3386 16 1913 17 3086 146 3244 213 4351 38 1202 
15675 0.47386528112437076 0.06973891520267085 0.9085325124651117 0 0 0 0.37 17 3087 147 1356 152 1094 222 1420 
15676 0.16207433993565035 0.09959927224090494 0.8390134571472829 0 0 0 0.47 17 3088 146 3245 213 4352 
15677 0.028422474136985388 0.12863855722728398 0.8306738902936308 0 0 0 0.46 17 3089 27 2795 147 1357 222 1421 
15678 -0.4790709167104284 -0.14593908278386222 0.5932895954517071 0 0 0 0.13 17 3090 157 2294 232 2680 
15679 -0.38302520029277426 -0.15577131753360202 0.9454579334847968 0 0 0 0.05 17 3091 152 1095 172 1520 
15680 0.4732715393342744 -0.05458599971291494 0.6965381816897921 0 0 0 0.31 17 3092 120 923 163 567 
15681 -0.10123180854163223 -0.029695882929274855 0.8850032780397622 0 0 0 0.11 17 3093 176 2563 219 1378 
15682 -0.02394444006230408 -0.007925469463334892 0.8772572250338165 0 0 0 0.05 17 3094 176 2564 213 4353 
