# 3D point list with one line of data per point:
#   POINT3D_ID, X, Y, Z, R, G, B, ERROR, TRACK[] as (IMAGE_ID, POINT2D_IDX)
# Number of points: 290, mean track length: 9.7
67 -0.48951511677868 -0.319046898357905 0.927130603995344 0 0 0 0.37 7 9 24 1 55 34 72 10 102 13 116 15 122 0 140 10 144 17 149 10 151 16 173 10 180 5 205 12 211 5 215 12 218 22 226 12 
68 -0.6059008820161456 -0.24483910269757814 0.7280015064306432 0 0 0 0.28 86 9 116 16 151 17 154 11 
69 -0.5386247453955891 -0.2945960246232513 0.882158047454246 0 0 0 0.38 18 4 23 13 31 0 59 11 72 11 94 10 116 17 143 15 144 18 151 18 166 15 177 30 212 8 218 23 
70 -0.4827131499226067 -0.32462526431863925 0.9709931020783056 0 0 0 0.52 23 14 31 1 34 11 37 8 86 10 94 11 106 11 122 1 140 11 149 11 150 2 151 19 154 12 161 6 180 6 193 30 216 17 218 24 228 0 
71 -0.5104968373404619 -0.2835632272882852 0.8646775297661944 0 0 0 0.21 55 35 102 14 140 12 177 31 218 25 
72 -0.5086855180685298 -0.3031810896691952 0.9225297073335113 0 0 0 0.38 34 12 149 12 151 20 216 18 
73 -0.5010340066233778 -0.2890152288632849 0.9082987910644783 0 0 0 0.47 7 10 34 13 37 9 46 7 57 4 86 11 94 12 116 18 132 7 140 13 149 13 151 21 177 32 183 9 193 31 218 26 226 13 
74 -0.5452382667594078 -0.27898943222799005 0.8813871286972622 0 0 0 0.48 7 11 18 5 31 2 37 10 47 10 57 5 59 12 86 12 90 0 94 13 102 15 106 12 116 19 119 7 125 10 140 14 145 5 149 14 154 13 166 16 193 32 211 6 215 13 216 19 218 27 228 1 
75 -0.5392341088728654 -0.27789898386044565 0.8838106540439887 0 0 0 0.41 46 8 72 12 102 16 140 15 177 33 178 0 180 7 218 28 228 2 
76 -0.5101769136014569 -0.2723114387044331 0.8667540471867552 0 0 0 0.31 23 15 37 11 94 14 102 17 106 13 125 11 150 3 151 22 154 14 173 11 177 34 193 33 218 29 
77 -0.48414729734647893 -0.3019569992962475 0.965022273167263 0 0 0 0.51 24 2 55 36 102 18 106 14 143 16 150 4 180 8 215 14 228 3 
78 -0.49852269959059414 -0.2720231186577493 0.8745467628656195 0 0 0 0.24 23 16 31 3 55 37 106 15 116 20 140 16 144 19 145 6 149 15 151 23 154 15 173 12 180 9 193 34 216 20 218 30 
79 -0.4999244752014906 -0.27247593293524863 0.8768170601736783 0 0 0 0.13 140 17 177 35 193 35 
80 -0.4837838468818117 -0.3002273700017566 0.9721465303573046 0 0 0 0.26 31 4 37 12 55 38 72 13 86 13 94 15 102 19 106 16 116 21 119 8 125 12 132 8 140 18 144 20 145 7 150 5 151 24 154 16 161 7 166 17 173 13 177 36 178 1 180 10 191 3 193 36 210 2 211 7 212 9 215 15 216 21 218 31 228 4 
81 -0.49688210150101997 -0.2792707958040749 0.921358054165645 0 0 0 0.54 30 3 31 5 59 13 116 22 149 16 202 7 210 3 
82 -0.4898970740101772 -0.2766766548389876 0.9252692763706966 0 0 0 0.3 72 14 102 20 143 17 149 17 180 11 226 14 
83 -0.48844855875840404 -0.2889057012053883 0.9636953820331541 0 0 0 0.26 31 6 55 39 57 6 59 14 72 15 86 14 90 1 94 16 125 13 145 8 149 18 151 25 191 4 193 37 212 10 218 32 226 15 228 5 
84 -0.4823822731296601 -0.28916447273352847 0.9685176921873703 0 0 0 0.34 7 12 23 17 30 4 31 7 34 14 37 13 46 9 55 40 59 15 72 16 86 15 90 2 106 17 116 23 119 9 122 2 125 14 132 9 137 5 139 10 140 19 144 21 145 9 149 19 150 6 151 26 154 17 161 8 166 18 171 3 173 14 177 37 178 2 180 12 183 10 191 5 193 38 202 8 205 13 210 4 211 8 212 11 215 16 216 22 218 33 226 16 228 6 
85 -0.4875626252051004 -0.28169719939160864 0.9621168912631054 0 0 0 0.32 7 13 31 8 116 24 119 10 125 15 137 6 139 11 140 20 149 20 151 27 161 9 205 14 216 23 
86 -0.5871702939307746 -0.255486850951359 0.887421566011322 0 0 0 0.49 94 17 119 11 137 7 144 22 150 7 166 19 173 15 
87 -0.4741337012412261 -0.2839681729372736 0.9881422877237394 0 0 0 0.28 7 14 31 9 37 14 55 41 94 18 102 21 106 18 116 25 125 16 132 10 144 23 145 10 154 18 166 20 171 4 173 16 183 11 189 7 205 15 218 34 
88 -0.4882300930208427 -0.2771020064023738 0.9625859891269652 0 0 0 0.34 30 5 31 10 34 15 55 42 59 16 72 17 94 19 102 22 106 19 116 26 119 12 125 17 131 4 137 8 140 21 145 11 149 21 150 8 151 28 154 19 166 21 177 38 180 13 202 9 205 16 210 5 212 12 218 35 226 17 
89 -0.4969222677861105 -0.24850269440824632 0.8706908123507335 0 0 0 0.3 7 15 31 11 116 27 145 12 149 22 177 39 216 24 
90 -0.49586156687940014 -0.25754913473294727 0.909611472318669 0 0 0 0.32 55 43 57 7 140 22 144 24 145 13 149 23 151 29 154 20 183 12 193 39 226 18 228 7 
91 -0.5719859853805783 -0.18763674081871068 0.678903523437502 0 0 0 0.32 116 28 183 13 211 9 228 8 
92 -0.5795743792812486 -0.24624081340724044 0.8872602991218175 0 0 0 0.45 8 5 18 6 23 18 86 16 102 23 131 5 173 17 177 40 180 14 218 36 
93 -0.49805360717950703 -0.24300599470587061 0.8869568421394654 0 0 0 0.29 30 6 183 14 205 17 226 19 
94 -0.4982527236434602 -0.23762488350412278 0.8717825083115154 0 0 0 0.51 7 16 46 10 86 17 140 23 151 30 
95 -0.574326191649599 -0.2389351137261181 0.883626840459757 0 0 0 0.27 18 7 86 18 180 15 
96 -0.48706749700799035 -0.2601350073599745 0.9581291896478261 0 0 0 0.32 7 17 31 12 151 31 161 10 202 10 205 18 210 6 215 17 
97 -0.4968770835795091 -0.2411678011424772 0.9071106891327438 0 0 0 0.28 23 19 31 13 55 44 72 18 106 20 140 24 145 14 149 24 154 21 161 11 166 22 173 18 177 41 183 15 193 40 202 11 205 19 210 7 211 10 212 13 216 25 233 0 
98 -0.496895548363607 -0.24109430126024942 0.9071822254852734 0 0 0 0.3 8 6 23 20 30 7 31 14 34 16 57 8 59 17 72 19 94 20 106 21 116 29 131 6 140 25 143 18 145 15 149 25 151 32 154 22 161 12 166 23 173 19 183 16 193 41 202 12 205 20 215 18 216 26 228 9 233 1 
99 -0.49108078780558356 -0.25545089618480404 0.9568422005676315 0 0 0 0.25 34 17 57 9 140 26 144 25 145 16 154 23 202 13 215 19 216 27 
100 -0.5623803069661761 -0.18913340485425448 0.7201999818951933 0 0 0 0.15 7 18 58 1 140 27 216 28 
101 -0.481126420858758 -0.2590516502961504 0.9733969143602015 0 0 0 0.5 55 45 59 18 72 20 149 26 177 42 180 16 202 14 218 37 
102 -0.4989297087012671 -0.2318789725087926 0.8869433429357596 0 0 0 0.37 34 18 45 0 46 11 94 21 140 28 149 27 151 33 161 13 183 17 193 42 228 10 
103 -0.558250067867745 -0.18704511109633032 0.7350529194510743 0 0 0 0.19 55 46 116 30 154 24 
104 -0.49304375671533857 -0.2366852416778078 0.920194864746195 0 0 0 0.42 72 21 140 29 150 9 151 34 161 14 205 21 210 8 215 20 226 20 228 11 233 2 
105 -0.5299441523485139 -0.28605251783973146 1.1088455387261125 0 0 0 0.82 34 19 94 22 116 31 144 26 
106 -0.4977957350311281 -0.2243656491660127 0.8848299116377443 0 0 0 0.1 23 21 55 47 72 22 
107 -0.498803906512683 -0.22473705763596316 0.8866021401589218 0 0 0 0.24 7 19 23 22 30 8 34 20 55 48 72 23 150 10 161 15 177 43 180 17 205 22 210 9 218 38 228 12 
108 -0.48589502490504966 -0.23671818993419041 0.9435412841361339 0 0 0 0.18 55 49 94 23 151 35 193 43 228 13 
109 -0.5706134873165319 -0.16119834484151038 0.6686136575057935 0 0 0 0.23 58 2 116 32 226 21 
110 -0.5102929606077525 -0.32506226533830734 1.3030841578842163 0 0 0 0.59 102 24 119 13 140 30 150 11 177 44 191 6 193 44 218 39 
111 -0.5707495368525373 -0.16213060838166593 0.6782921296871227 0 0 0 0.43 23 23 34 21 55 50 72 24 86 19 119 14 139 12 150 12 151 36 154 25 161 16 180 18 183 18 205 23 216 29 228 14 233 3 
112 -0.5587222024113673 -0.17589583001483747 0.7308689836519258 0 0 0 0.43 55 51 140 31 228 15 
113 -0.5387659926231757 -0.3268414873724957 1.3187625140611725 0 0 0 0.33 140 32 177 45 218 40 
114 -0.5614819762063531 -0.21288705415095235 0.8790039298378788 0 0 0 0.49 8 7 34 22 47 11 131 7 137 9 140 33 161 17 183 19 202 15 205 24 
115 -0.4842559319120767 -0.2336931080917424 0.9601747158768887 0 0 0 0.21 55 52 144 27 145 17 151 37 177 46 183 20 210 10 215 21 
116 -0.4842505924057958 -0.23373690888282345 0.9602669759248471 0 0 0 0.24 55 53 116 33 145 18 151 38 177 47 183 21 210 11 215 22 
117 -0.499787430038455 -0.21638007684396676 0.8995209276812343 0 0 0 0.34 7 20 30 9 34 23 37 15 46 12 57 10 59 19 94 24 139 13 140 34 144 28 145 19 149 28 150 13 161 18 177 48 183 22 191 7 193 45 212 14 228 16 233 4 
118 -0.4794394452549816 -0.2352514378044774 0.974278826186966 0 0 0 0.59 23 24 34 24 72 25 106 22 131 8 140 35 151 39 166 24 173 20 193 46 225 6 
119 -0.5699254318159825 -0.16107453236091737 0.6898490766510182 0 0 0 0.4 55 54 58 3 116 34 151 40 177 49 183 23 218 41 228 17 
120 -0.5395249427641943 -0.29243986912123415 1.2061154955916928 0 0 0 0.63 119 15 166 25 233 5 
121 -0.5672174782066846 -0.16053891374128232 0.6902032804394707 0 0 0 0.41 58 4 94 25 116 35 140 36 145 20 149 29 151 41 154 26 161 19 171 5 177 50 183 24 193 47 205 25 218 42 226 22 228 18 233 6 
122 -0.55523622721491 -0.17312151143438437 0.7392885664510583 0 0 0 0.3 139 14 216 30 233 7 
123 -0.5003294586773769 -0.21680769410736372 0.9126150593911873 0 0 0 0.2 23 25 31 15 34 25 55 55 72 26 106 23 116 36 119 16 140 37 143 19 145 21 149 30 150 14 151 42 154 27 173 21 177 51 183 25 193 48 205 26 210 12 216 31 218 43 226 23 228 19 
124 -0.5465395777925328 -0.1867048769308168 0.7974974725055092 0 0 0 0.21 30 10 58 5 86 20 116 37 154 28 177 52 216 32 228 20 
125 -0.57155302150297 -0.15531050582560788 0.6814756411504915 0 0 0 0.21 34 26 145 22 183 26 
126 -0.5004503943254756 -0.2255802634099039 0.9059940633208924 0 0 0 0.2 8 8 23 26 31 16 72 27 106 24 131 9 140 38 145 23 173 22 177 53 178 3 180 19 202 16 210 13 215 23 218 44 
127 -0.5001176425183876 -0.21021768195794535 0.9127773039790219 0 0 0 0.34 23 27 31 17 55 56 72 28 102 25 106 25 131 10 151 43 154 29 166 26 173 23 177 54 180 20 183 27 193 49 202 17 218 45 226 24 228 21 
128 -0.5481909393951022 -0.18406634872773528 0.8108591485040907 0 0 0 0.55 57 11 154 30 228 22 
129 -0.542800372327195 -0.19937497266173826 0.8736896123691731 0 0 0 0.27 7 21 23 28 31 18 55 57 86 21 102 26 106 26 116 38 125 18 137 10 140 39 151 44 173 24 177 55 183 28 216 33 218 46 228 23 
130 -0.5041068373070468 -0.20647018816111873 0.9054499833489134 0 0 0 0.52 55 58 125 19 151 45 161 20 183 29 193 50 226 25 233 8 
131 -0.48617209199220157 -0.21548633355823754 0.9569693208701349 0 0 0 0.48 7 22 23 29 30 11 34 27 59 20 72 29 99 0 102 27 106 27 119 17 122 3 131 11 137 11 150 15 151 46 173 25 177 56 212 15 215 24 216 34 233 9 
132 -0.5339917933470409 -0.1945949695730635 0.8703806490822659 0 0 0 0.21 31 19 55 59 139 15 212 16 218 47 
133 -0.5564526478427938 -0.15712953850295597 0.7254126035437182 0 0 0 0.32 94 26 177 57 193 51 226 26 
134 -0.5551370929935591 -0.15508722817977208 0.719545313502882 0 0 0 0.47 55 60 58 6 144 29 149 31 151 47 154 31 166 27 193 52 216 35 218 48 226 27 228 24 
135 -0.542208106365314 -0.1800745664522102 0.828060232889799 0 0 0 0.19 7 23 30 12 31 20 
136 -0.5590370674750148 -0.16089421928504144 0.7510434129375705 0 0 0 0.13 55 61 154 32 183 30 226 28 
137 -0.5658334904723143 -0.13619733805785433 0.6553891426114213 0 0 0 0.25 161 21 205 27 218 49 226 29 
138 -0.5446674007277107 -0.16812330675215276 0.8043981640001822 0 0 0 0.37 57 12 58 7 94 27 99 1 116 39 125 20 149 32 154 33 177 58 216 36 228 25 233 10 
139 -0.5100120359565737 -0.18088756642873338 0.8578332049187081 0 0 0 0.25 7 24 8 9 18 8 23 30 31 21 34 28 55 62 86 22 94 28 99 2 102 28 116 40 125 21 149 33 151 48 166 28 171 6 205 28 228 26 
140 -0.49843778360111635 -0.18004319253474385 0.8648109366199874 0 0 0 0.42 116 41 122 4 131 12 139 16 183 31 233 11 
141 -0.4982758494286961 -0.18017337055602323 0.8649551223976739 0 0 0 0.3 23 31 31 22 34 29 55 63 57 13 106 28 116 42 122 5 140 40 145 24 149 34 151 49 173 26 177 59 205 29 218 50 
142 -0.555988726731896 -0.15732614889513483 0.767539845406786 0 0 0 0.32 116 43 125 22 218 51 226 30 
143 -0.4998237379216764 -0.17787505590971717 0.8609742233896847 0 0 0 0.26 7 25 8 10 23 32 31 23 34 30 55 64 57 14 99 3 102 29 106 29 116 44 122 6 125 23 131 13 139 17 140 41 144 30 145 25 149 35 151 50 154 34 173 27 177 60 180 21 183 32 193 53 211 11 212 17 215 25 216 37 218 52 233 12 
144 -0.5687051387843047 -0.13933844616325824 0.6999057984423648 0 0 0 0.38 116 45 132 11 140 42 149 36 151 51 183 33 193 54 210 14 233 13 
145 -0.5689138845931749 -0.1400622726588919 0.7002572668733547 0 0 0 0.22 7 26 37 16 58 8 132 12 205 30 228 27 
146 -0.5274094505719344 -0.17532694537466723 0.8624434641117718 0 0 0 0.26 30 13 161 22 215 26 
147 -0.5291511034155604 -0.17512319761533582 0.8641757381369418 0 0 0 0.39 7 27 8 11 23 33 31 24 34 31 47 12 55 65 57 15 59 21 99 4 102 30 106 30 115 1 116 46 131 14 140 43 144 31 151 52 154 35 166 29 173 28 177 61 180 22 202 18 205 31 212 18 218 53 225 7 228 28 
148 -0.4981427107149368 -0.1744377817708662 0.8642311315936293 0 0 0 0.26 7 28 18 9 23 34 31 25 34 32 45 1 55 66 86 23 94 29 106 31 116 47 139 18 140 44 144 32 145 26 149 37 154 36 166 30 173 29 177 62 180 23 183 34 193 55 211 12 216 38 233 14 
149 -0.49746342888650025 -0.1742390702382219 0.8629185531021296 0 0 0 0.2 86 24 140 45 154 37 177 63 183 35 193 56 211 13 218 54 233 15 
150 -0.4498504147016214 -0.2573585771108149 1.253384576390107 0 0 0 0.09 140 46 177 64 193 57 
151 -0.5686661198577515 -0.12724260940667959 0.6562836825868447 0 0 0 0.1 58 9 140 47 193 58 205 32 
152 -0.4758966181511627 -0.25788478097270967 1.2885831157661323 0 0 0 0.14 140 48 177 65 193 59 218 55 
153 -0.5262016353256548 -0.16888821374039792 0.865013801311557 0 0 0 0.32 31 26 55 67 59 22 86 25 94 30 102 31 106 32 116 48 125 24 132 13 139 19 144 33 151 53 154 38 177 66 211 14 212 19 228 29 
154 -0.5503754193085114 -0.15052913436935186 0.7786119384605942 0 0 0 0.42 37 17 46 13 58 10 86 26 94 31 99 5 116 49 131 15 132 14 139 20 140 49 143 20 149 38 151 54 161 23 183 36 193 60 205 33 210 15 216 39 218 56 226 31 228 30 233 16 
155 -0.49735238923559216 -0.17708347654245124 0.9123951339306967 0 0 0 0.21 99 6 102 32 228 31 
156 -0.5452306153971832 -0.15495181267923924 0.8086903401901089 0 0 0 0.21 139 21 143 21 166 31 210 16 
157 -0.502320111715933 -0.16194397260458795 0.8529202169008062 0 0 0 0.46 31 27 102 33 106 33 173 30 215 27 
158 -0.4963834531728556 -0.17005126876143867 0.9106816421522925 0 0 0 0.5 23 35 31 28 57 16 86 27 106 34 149 39 154 39 226 32 
159 -0.4999131703327223 -0.16143026381711836 0.8943914814882098 0 0 0 0.43 8 12 30 14 106 35 116 50 140 50 151 55 183 37 191 8 193 61 228 32 233 17 
160 -0.5304025587967222 -0.15442050669625937 0.8626822355824271 0 0 0 0.07 140 51 149 40 177 67 
161 -0.44723341265588806 -0.22267959317889682 1.2534587573996276 0 0 0 0.1 102 34 177 68 218 57 
162 -0.46594146174555984 -0.22491706215620236 1.2753401366385864 0 0 0 0.15 193 62 202 19 218 58 
163 -0.502217997115617 -0.14774433274157006 0.855654932180817 0 0 0 0.28 18 10 23 36 31 29 55 68 57 17 59 23 94 32 99 7 106 36 116 51 139 22 140 52 149 41 151 56 173 31 177 69 180 24 193 63 211 15 216 40 218 59 
164 -0.5344462550423215 -0.14355994135028788 0.8493119465957051 0 0 0 0.44 23 37 94 33 139 23 149 42 210 17 212 20 215 28 
165 -0.4904348840611385 -0.15346714368730222 0.9143788853972614 0 0 0 0.37 7 29 18 11 23 38 30 15 31 30 72 30 94 34 102 35 106 37 116 52 125 25 144 34 145 27 149 43 154 40 173 32 177 70 193 64 202 20 210 18 212 21 215 29 218 60 226 33 228 33 
166 -0.5607335404977414 -0.12135510266334433 0.7369301744526425 0 0 0 0.42 37 18 125 26 211 16 
167 -0.5370893706219203 -0.13629839546783032 0.8298742614142461 0 0 0 0.14 55 69 102 36 119 18 
168 -0.5243978308333085 -0.13872694295255938 0.8600655742395479 0 0 0 0.5 23 39 31 31 34 33 99 8 102 37 106 38 140 53 145 28 151 57 154 41 171 7 173 33 177 71 178 4 215 30 218 61 
169 -0.5189075528141212 -0.13955310243444818 0.8581516339415165 0 0 0 0.39 34 34 47 13 116 53 145 29 151 58 154 42 183 38 216 41 228 34 
170 -0.5121661436244763 -0.13822581776109985 0.8476663220870896 0 0 0 0.25 145 30 151 59 216 42 
171 -0.4878135301791361 -0.14884553189890326 0.9132263029565143 0 0 0 0.24 23 40 30 16 31 32 45 2 57 18 116 54 140 54 144 35 145 31 149 44 154 43 161 24 173 34 177 72 178 5 193 65 205 34 216 43 218 62 226 34 228 35 
172 -0.5386914326087622 -0.130664028151566 0.8350225775427329 0 0 0 0.66 31 33 143 22 149 45 205 35 215 31 216 44 233 18 
173 -0.5185826570763804 -0.13392116173585697 0.8565029278205809 0 0 0 0.36 34 35 55 70 59 24 125 27 139 24 140 55 149 46 151 60 154 44 183 39 218 63 228 36 
174 -0.5560437741746395 -0.11927780259866456 0.7698228957512271 0 0 0 0.36 7 30 55 71 57 19 58 11 145 32 149 47 151 61 154 45 183 40 205 36 211 17 216 45 
175 -0.5673114783710006 -0.11489531715517759 0.7487989248619994 0 0 0 0.29 37 19 183 41 216 46 
176 -0.48360490211193247 -0.14554296836091618 0.950057108529693 0 0 0 0.54 23 41 55 72 57 20 59 25 106 39 119 19 132 15 144 36 149 48 151 62 173 35 205 37 215 32 218 64 225 8 
177 -0.5676846314767945 -0.0999696960263518 0.6852123818509009 0 0 0 0.61 30 17 58 12 94 35 119 20 132 16 149 49 183 42 210 19 211 18 218 65 226 35 233 19 
178 -0.5694069912557583 -0.10196619237082216 0.6939986395520533 0 0 0 0.54 137 12 150 16 161 25 177 73 
179 -0.4957704645958254 -0.1281429224552332 0.8598144771198535 0 0 0 0.55 30 18 55 73 86 28 106 40 119 21 193 66 218 66 
180 -0.48818606588746133 -0.14014098342213704 0.938074706477546 0 0 0 0.24 8 13 30 19 55 74 106 41 143 23 145 33 149 50 151 63 154 46 177 74 178 6 193 67 205 38 216 47 226 36 
181 -0.48796346422841924 -0.13659724425521125 0.929312169287366 0 0 0 0.44 23 42 31 34 72 31 106 42 116 55 140 56 143 24 149 51 154 47 166 32 177 75 193 68 215 33 218 67 226 37 
182 -0.5697739468570832 -0.09690051513615536 0.6880907046296042 0 0 0 0.26 154 48 183 43 205 39 211 19 216 48 
183 -0.5000127114040467 -0.12760300675238517 0.897493832445872 0 0 0 0.39 23 43 55 75 106 43 140 57 144 37 145 34 161 26 183 44 205 40 215 34 216 49 226 38 233 20 
184 -0.5377259306792141 -0.1192096575085319 0.8446686949131411 0 0 0 0.56 30 20 47 14 55 76 72 32 125 28 137 13 173 36 189 8 202 21 215 35 226 39 
185 -0.49903025885149876 -0.1254417522179054 0.8882511411862085 0 0 0 0.36 30 21 31 35 34 36 57 21 72 33 94 36 106 44 119 22 137 14 140 58 144 38 145 35 149 52 151 64 154 49 161 27 177 76 180 25 183 45 193 69 205 41 216 50 218 68 226 40 233 21 
186 -0.5530432987704206 -0.10827220879986388 0.7837667836396257 0 0 0 0.69 94 37 132 17 143 25 171 8 193 70 210 20 211 20 228 37 
187 -0.560884552318773 -0.10341567297466746 0.7690399133788625 0 0 0 0.35 30 22 57 22 137 15 216 51 
188 -0.5605117197973336 -0.08854120478497438 0.669508290091422 0 0 0 0.35 166 33 193 71 226 41 
189 -0.5424704674863723 -0.11309316164979999 0.8391856827075179 0 0 0 0.15 34 37 46 14 94 38 116 56 125 29 144 39 149 53 151 65 193 72 216 52 
190 -0.4700699170676907 -0.13297968190834247 0.9795047041216026 0 0 0 1.06 23 44 34 38 55 77 57 23 106 45 116 57 143 26 144 40 145 36 151 66 161 28 166 34 173 37 177 77 178 7 180 26 193 73 205 42 215 36 216 53 218 69 225 9 226 42 
191 -0.5518657300233483 -0.09717162732209964 0.7536082570121265 0 0 0 0.34 30 23 55 78 140 59 183 46 215 37 
192 -0.5368862911871993 -0.1068277214654574 0.8259068992699312 0 0 0 0.39 8 14 31 36 34 39 55 79 72 34 99 9 102 38 116 58 119 23 125 30 139 25 143 27 144 41 149 54 154 50 161 29 166 35 173 38 183 47 205 43 210 21 216 54 226 43 228 38 233 22 
193 -0.5558554000757415 -0.0913797210340631 0.72086775446762 0 0 0 0.27 55 80 86 29 94 39 125 31 151 67 173 39 177 78 183 48 211 21 216 55 226 44 228 39 
194 -0.5005276354937357 -0.10946884651443145 0.8505181654407 0 0 0 0.25 7 31 8 15 23 45 30 24 31 37 45 3 46 15 55 81 57 24 86 30 90 3 94 40 106 46 116 59 122 7 125 32 139 26 140 60 144 42 145 37 149 55 151 68 154 51 161 30 166 36 173 40 177 79 180 27 183 49 186 0 193 74 205 44 210 22 211 22 212 22 215 38 216 56 218 70 228 40 233 23 
195 -0.5000205637162859 -0.11368845065203154 0.9020594773038706 0 0 0 0.2 7 32 8 16 23 46 30 25 31 38 34 40 55 82 57 25 72 35 102 39 106 47 116 60 139 27 140 61 144 43 149 56 151 69 154 52 161 31 166 37 173 41 177 80 193 75 205 45 211 23 215 39 216 57 218 71 226 45 233 24 
196 -0.5001716627541485 -0.1136110386891043 0.9023285706664118 0 0 0 0.26 7 33 8 17 23 47 31 39 34 41 37 20 57 26 59 26 72 36 94 41 106 48 116 61 119 24 122 8 131 16 140 62 143 28 144 44 149 57 151 70 166 38 173 42 177 81 193 76 215 40 216 58 218 72 225 10 226 46 228 41 233 25 
197 -0.4788893353676148 -0.11248530047423376 0.9138848071564992 0 0 0 0.48 31 40 72 37 178 8 215 41 
198 -0.48254943665314654 -0.11472545014227628 0.9389549380490211 0 0 0 0.4 119 25 161 32 215 42 226 47 
199 -0.484211707804978 -0.13496234027119827 1.0932230678096955 0 0 0 0.27 7 34 55 83 57 27 119 26 183 50 205 46 215 43 
200 -0.4565195584623735 -0.15354274770877172 1.2394156005620218 0 0 0 0.44 23 48 46 16 55 84 57 28 59 27 86 31 106 49 125 33 137 16 140 63 144 45 150 17 154 53 177 82 191 9 193 77 202 22 215 44 216 59 218 73 228 42 233 26 
201 -0.49705699955382626 -0.10360917837057207 0.8535459319872681 0 0 0 0.3 7 35 8 18 18 12 23 49 30 26 31 41 45 4 46 17 55 85 57 29 86 32 94 42 99 10 102 40 106 50 116 62 125 34 140 64 144 46 149 58 151 71 154 54 161 33 166 39 173 43 177 83 180 28 183 51 193 78 205 47 216 60 218 74 228 43 233 27 
202 -0.4828565823241121 -0.1105866679918625 0.9135837031223406 0 0 0 0.19 7 36 8 19 23 50 31 42 34 42 37 21 55 86 57 30 59 28 72 38 86 33 102 41 106 51 116 63 125 35 140 65 143 29 144 47 145 38 149 59 150 18 151 72 154 55 161 34 166 40 173 44 177 84 183 52 193 79 205 48 212 23 215 45 216 61 218 75 226 48 228 44 233 28 
203 -0.478699174275424 -0.11731488766251591 0.9584424570686422 0 0 0 0.69 7 37 23 51 34 43 57 31 125 36 145 39 216 62 233 29 
204 -0.47833814977170863 -0.11702699963109495 0.9577921315067891 0 0 0 0.55 7 38 23 52 30 27 125 37 145 40 216 63 233 30 
205 -0.5534799391361368 -0.09010149882527273 0.7544155503895701 0 0 0 0.2 7 39 23 53 30 28 37 22 46 18 55 87 58 13 72 39 86 34 90 4 94 43 99 11 116 64 125 38 139 28 140 66 145 41 149 60 151 73 154 56 161 35 177 85 180 29 183 53 193 80 210 23 216 64 226 49 228 45 233 31 
206 -0.5540700472289501 -0.09013490672168466 0.7552223222624994 0 0 0 0.19 55 88 90 5 149 61 180 30 205 49 228 46 
207 -0.49666571631831863 -0.12757532601944704 1.0490458072600528 0 0 0 0.35 55 89 137 17 145 42 215 46 226 50 233 32 
208 -0.49308202942359586 -0.12683285996848076 1.0418253196035934 0 0 0 0.18 55 90 131 17 140 67 145 43 161 36 193 81 215 47 226 51 
209 -0.44085472660164454 -0.1523450697768964 1.2400316111364191 0 0 0 0.56 7 40 18 13 24 3 31 43 86 35 99 12 102 42 122 9 140 68 149 62 173 45 
210 -0.449723630475737 -0.15214226335209532 1.2454904101168933 0 0 0 0.23 7 41 24 4 30 29 31 44 34 44 37 23 46 19 55 91 57 32 59 29 86 36 90 6 94 44 99 13 102 43 106 52 116 65 119 27 122 10 125 39 131 18 137 18 139 29 140 69 144 48 149 63 150 19 151 74 154 57 166 41 173 46 177 86 178 9 180 31 186 1 191 10 193 82 202 23 211 24 212 24 215 48 216 65 218 76 228 47 233 33 
211 -0.5571497597286054 -0.08625447502654125 0.7421977004093736 0 0 0 0.41 37 24 55 92 58 14 72 40 102 44 132 18 140 70 149 64 193 83 216 66 233 34 
212 -0.2953205445413308 -0.16313771466929206 1.3587286708133313 0 0 0 0.24 106 53 137 19 177 87 216 67 
213 -0.5631635456703118 -0.07821915828683826 0.6911341468567179 0 0 0 0.19 102 45 143 30 177 88 226 52 
214 -0.5618111355936162 -0.07782496455715168 0.6893984294739546 0 0 0 0.43 119 28 150 20 177 89 
215 0.12699205863902524 -0.16020589941361954 1.3285621229496958 0 0 0 0.19 23 54 55 93 106 54 177 90 
216 -0.5409501689527882 -0.09244182292478453 0.8208568727093758 0 0 0 0.36 18 14 31 45 57 33 72 41 94 45 99 14 102 46 116 66 125 40 140 71 151 75 173 47 177 91 193 84 210 24 211 25 216 68 218 77 228 48 
217 -0.4787819635967121 -0.1154313118319104 0.9993259081004485 0 0 0 0.28 59 30 143 31 145 44 193 85 215 49 
218 -0.5399624889718331 -0.09124444682046884 0.8249766418228409 0 0 0 0.27 30 30 31 46 90 7 116 67 140 72 151 76 161 37 205 50 210 25 233 35 
219 -0.4996450558839204 -0.09850837083448401 0.8867749218606347 0 0 0 0.14 116 68 177 92 218 78 
220 -0.48160592151706416 -0.10681666157368766 0.9529926041940113 0 0 0 0.19 7 42 8 20 18 15 23 55 24 5 30 31 31 47 34 45 37 25 45 5 46 20 55 94 59 31 72 42 86 37 90 8 94 46 102 47 106 55 116 69 119 29 122 11 125 41 139 30 140 73 143 32 150 21 151 77 154 58 161 38 166 42 173 48 177 93 180 32 189 9 191 11 193 86 205 51 210 26 211 26 212 25 215 50 216 69 218 79 225 11 226 53 228 49 233 36 
221 -0.4725894274466353 -0.10807681539240338 0.9791977883845414 0 0 0 0.45 34 46 55 95 59 32 94 47 116 70 140 74 143 33 154 59 166 43 212 26 215 51 218 80 226 54 
222 -0.4722951542008356 -0.1083918451251876 0.9783669069555021 0 0 0 0.48 34 47 59 33 116 71 140 75 143 34 151 78 212 27 215 52 226 55 
223 -0.47825517117611566 -0.12200147778611305 1.1049013430490682 0 0 0 0.27 23 56 55 96 72 43 106 56 145 45 151 79 161 39 173 49 183 54 205 52 226 56 
224 -0.4988382618185971 -0.09796191883008182 0.9053414001429392 0 0 0 0.47 30 32 31 48 55 97 57 34 90 9 99 15 106 57 140 76 143 35 173 50 177 94 205 53 210 27 216 70 218 81 233 37 
225 -0.4764062369773556 -0.12272695064409454 1.1216686967285039 0 0 0 0.28 23 57 55 98 72 44 106 58 119 30 137 20 145 46 149 65 154 60 161 40 173 51 177 95 183 55 215 53 226 57 
226 -0.4769817072429811 -0.12293781703672364 1.122773187679273 0 0 0 0.27 55 99 102 48 137 21 145 47 161 41 183 56 205 54 215 54 226 58 
227 -0.5394891961493706 -0.0877193724593696 0.8277445142087294 0 0 0 0.33 7 43 23 58 31 49 55 100 57 35 86 38 94 48 116 72 122 12 132 19 137 22 139 31 140 77 144 49 149 66 151 80 166 44 177 96 183 57 193 87 210 28 211 27 216 71 226 59 228 50 
228 -0.5398279784176757 -0.08268990289970779 0.7872024813245391 0 0 0 0.42 7 44 86 39 139 32 140 78 145 48 149 67 154 61 218 82 
229 -0.5107146738491536 -0.0888920123500144 0.8490029897967413 0 0 0 0.32 7 45 8 21 18 16 34 48 86 40 94 49 99 16 102 49 106 59 116 73 125 42 131 19 137 23 140 79 143 36 149 68 161 42 166 45 173 52 177 97 180 33 183 58 189 10 193 88 205 55 210 29 211 28 212 28 215 55 216 72 218 83 228 51 
230 -0.5027473066562284 -0.08947251456556456 0.8493314405169995 0 0 0 0.22 7 46 8 22 18 17 30 33 31 50 34 49 46 21 55 101 57 36 59 34 86 41 94 50 99 17 102 50 106 60 116 74 119 31 125 43 131 20 137 24 139 33 140 80 143 37 144 50 145 49 149 69 151 81 154 62 161 43 166 46 173 53 177 98 178 10 180 34 183 59 189 11 193 89 202 24 205 56 210 30 211 29 212 29 215 56 216 73 218 84 225 12 228 52 233 38 
231 -0.4975170838325205 -0.08932266545257055 0.8561552707770705 0 0 0 0.24 7 47 8 23 18 18 30 34 31 51 55 102 57 37 59 35 86 42 90 10 94 51 99 18 106 61 116 75 119 32 122 13 125 44 139 34 140 81 144 51 145 50 149 70 151 82 154 63 161 44 166 47 173 54 177 99 178 11 183 60 193 90 205 57 210 31 211 30 212 30 215 57 216 74 218 85 225 13 226 60 228 53 233 39 
232 -0.492389530303167 -0.10937332767344327 1.0436693790487301 0 0 0 0.28 7 48 37 26 46 22 55 103 57 38 59 36 86 43 116 76 119 33 125 45 137 25 140 82 144 52 145 51 150 22 151 83 166 48 183 61 189 12 191 12 193 91 202 25 212 31 216 75 228 54 233 40 
233 -0.5687809762779162 -0.0658274507417289 0.667660106035505 0 0 0 0.26 23 59 58 15 72 45 183 62 205 58 216 76 226 61 
234 -0.5129804192392169 -0.0854124889542331 0.8478588669141454 0 0 0 0.24 31 52 55 104 102 51 106 62 116 77 125 46 131 21 140 83 149 71 161 45 166 49 177 100 193 92 210 32 215 58 218 86 228 55 
235 -0.11431304497755798 -0.1369988970698957 1.3231619172019413 0 0 0 0.19 23 60 24 6 31 53 55 105 99 19 106 63 
236 -0.11418964725530291 -0.1369334616482494 1.3233667512766125 0 0 0 0.27 23 61 24 7 31 54 57 39 99 20 102 52 177 101 
237 -0.49296818193710235 -0.10423585396282117 1.0360663013687532 0 0 0 0.25 34 50 46 23 55 106 59 37 86 44 94 52 116 78 119 34 139 35 140 84 143 38 145 52 166 50 183 63 193 93 216 77 226 62 
238 -0.4890301827784978 -0.10616012870962661 1.0480550766824501 0 0 0 0.45 57 40 116 79 119 35 139 36 140 85 161 46 166 51 191 13 205 59 215 59 218 87 226 63 
239 -0.29305930123757773 -0.13794693972656608 1.359210469362928 0 0 0 0.41 55 107 140 86 143 39 177 102 205 60 
240 -0.5520694088283008 -0.07238427307953756 0.753828583559376 0 0 0 0.3 55 108 58 16 125 47 132 20 151 84 205 61 226 64 228 56 
241 -0.4605236266233151 -0.11743066272669223 1.1794697439022301 0 0 0 0.24 23 62 24 8 30 35 31 55 34 51 55 109 57 41 59 38 72 46 94 53 102 53 106 64 116 80 140 87 143 40 144 53 145 53 151 85 173 55 177 103 178 12 180 35 193 94 212 32 215 60 218 88 226 65 228 57 233 41 
242 -0.5102131070926553 -0.08187689991874403 0.8475989506275783 0 0 0 0.29 8 24 18 19 31 56 34 52 46 24 47 15 57 42 72 47 86 45 94 54 102 54 106 65 116 81 125 48 139 37 140 88 143 41 145 54 149 72 151 86 154 64 161 47 166 52 171 9 173 56 177 104 180 36 193 95 205 62 210 33 215 61 218 89 226 66 228 58 
243 0.10781777493903082 -0.13063781568418276 1.3062656210144101 0 0 0 0.27 23 63 106 66 177 105 
244 0.023576188055936136 -0.13225232600343656 1.3513447297950134 0 0 0 0.43 23 64 24 9 31 57 55 110 106 67 150 23 177 106 
245 0.023455169616883497 -0.1312293218265642 1.3438960534837225 0 0 0 0.69 23 65 24 10 106 68 177 107 
246 -0.4549331583329213 -0.11485845783912822 1.2123921951689947 0 0 0 0.27 18 20 24 11 55 111 72 48 102 55 106 69 173 57 178 13 210 34 215 62 216 78 218 90 226 67 
247 -0.45438787371276446 -0.11483210648479836 1.2109308459440247 0 0 0 0.24 55 112 72 49 102 56 106 70 131 22 137 26 154 65 173 58 178 14 215 63 226 68 
248 -0.524588467753487 -0.07660179113685378 0.8558770777302738 0 0 0 0.22 31 58 57 43 212 33 
249 -0.28661792215879983 -0.12506228531514582 1.3521584716643331 0 0 0 0.27 23 66 57 44 59 39 72 50 102 57 106 71 131 23 137 27 140 89 143 42 144 54 150 24 161 48 177 108 189 13 191 14 202 26 205 63 212 34 216 79 228 59 233 42 
250 -0.4525598940583383 -0.11072520962793066 1.2189780088160707 0 0 0 0.35 18 21 24 12 31 59 72 51 106 72 119 36 140 90 143 43 173 59 177 109 178 15 180 37 189 14 193 96 210 35 215 64 216 80 218 91 225 14 226 69 233 43 
251 -0.3043079036649304 -0.1211203336908733 1.359661143824803 0 0 0 0.28 8 25 23 67 24 13 31 60 55 113 57 45 59 40 102 58 106 73 131 24 137 28 140 91 143 44 144 55 150 25 171 10 177 110 178 16 180 38 189 15 202 27 210 36 212 35 216 81 225 15 228 60 233 44 
252 -0.4972996206533027 -0.08900924668971263 1.0260776963842295 0 0 0 0.31 34 53 94 55 116 82 193 97 216 82 226 70 
253 -0.5584176748945189 -0.05618547644892859 0.6893955665334917 0 0 0 0.27 55 114 58 17 228 61 
254 -0.47416281316234316 -0.09610374133605772 1.1324242778053617 0 0 0 0.48 59 41 72 52 106 74 119 37 144 56 145 55 173 60 183 64 
255 -0.45184074142088554 -0.10064615291585521 1.1858005494485766 0 0 0 0.13 116 83 177 111 215 65 218 92 
256 -0.04426078913768084 -0.11260821824127512 1.3210970119119043 0 0 0 0.31 24 14 57 46 177 112 
257 -0.020955687257891837 -0.1123669012023537 1.3129211466999486 0 0 0 0.09 24 15 102 59 140 92 177 113 
258 -0.5510848536408294 -0.06097298479280609 0.759678533830127 0 0 0 0.55 55 115 72 53 215 66 226 71 
259 -0.540211618334604 -0.062356335471239276 0.781307017769827 0 0 0 0.43 18 22 30 36 177 114 193 98 205 64 215 67 226 72 
260 -0.4932027580602371 -0.07320481167200686 0.9056751977831842 0 0 0 0.59 24 16 31 61 34 54 55 116 99 21 102 60 106 75 154 66 193 99 215 68 228 62 
261 -0.4922720888334103 -0.07329320070422461 0.9037948909689791 0 0 0 0.6 24 17 99 22 102 61 106 76 119 38 121 0 
262 -0.13924595168744547 -0.10902607732127302 1.3063514277806685 0 0 0 0.23 177 115 216 83 233 45 
263 -0.48410732393380296 -0.07583995180640819 0.9481506663373758 0 0 0 0.24 7 49 8 26 18 23 24 18 30 37 31 62 34 55 37 27 45 6 46 25 55 117 57 47 59 42 72 54 86 46 94 56 99 23 102 62 106 77 116 84 119 39 122 14 125 49 131 25 137 29 140 93 143 45 144 57 145 56 149 73 150 26 151 87 154 67 161 49 166 53 171 11 173 61 177 116 180 39 183 65 189 16 191 15 193 100 202 28 205 65 210 37 211 31 215 69 216 84 218 93 226 73 228 63 233 46 
264 -0.37116360523044567 -0.11268269251685323 1.3745650979447248 0 0 0 0.52 102 63 119 40 140 94 177 117 191 16 193 101 
265 -0.48895969401778383 -0.07022152975724709 0.9056457066996947 0 0 0 0.36 7 50 18 24 24 19 34 56 55 118 57 48 59 43 72 55 94 57 99 24 102 64 106 78 116 85 119 41 122 15 125 50 131 26 132 21 137 30 140 95 143 46 144 58 145 57 149 74 151 88 154 68 161 50 166 54 173 62 177 118 178 17 180 40 183 66 191 17 193 102 202 29 210 38 212 36 215 70 216 85 218 94 225 16 226 74 228 64 233 47 
266 -0.490455698925034 -0.07348912014091348 0.9379579988712163 0 0 0 0.36 37 28 59 44 116 86 125 51 139 38 140 96 151 89 161 51 193 103 211 32 216 86 228 65 233 48 
267 -0.03972136558154492 -0.10721754912905253 1.3153266233677166 0 0 0 0.23 23 68 24 20 55 119 99 25 102 65 177 119 
268 0.15314558211586474 -0.10663904018782164 1.323247983359827 0 0 0 0.74 23 69 24 21 31 63 57 49 106 79 
269 -0.4459122485835748 -0.09703567344404439 1.2275988645484481 0 0 0 0.39 7 51 34 57 37 29 59 45 94 58 122 16 140 97 191 18 193 104 215 71 225 17 
270 -0.44640565745704813 -0.09715994028107003 1.2289854606899655 0 0 0 0.39 7 52 34 58 37 30 45 7 59 46 94 59 122 17 139 39 140 98 166 55 191 19 193 105 215 72 225 18 
271 -0.3839971416954205 -0.11033669959925786 1.3789381408352845 0 0 0 0.25 55 120 72 56 102 66 143 47 177 120 226 75 
272 -0.3839490174632452 -0.11024612914196551 1.378544527698017 0 0 0 0.22 55 121 72 57 102 67 143 48 226 76 
273 -0.01838441654075706 -0.1055559559023785 1.3122493444239909 0 0 0 0.23 8 27 23 70 24 22 31 64 57 50 102 68 106 80 140 99 150 27 177 121 189 17 202 30 
274 -0.5418081941596804 -0.060643425964465494 0.8045864899900161 0 0 0 0.22 30 38 94 60 102 69 116 87 139 40 140 100 177 122 183 67 205 66 210 39 211 33 226 77 
275 -0.32822776882179916 -0.1084502045041416 1.3668154368722254 0 0 0 0.24 23 71 24 23 31 65 55 122 57 51 59 47 102 70 106 81 119 42 131 27 137 31 140 101 143 49 144 59 150 28 161 52 177 123 178 18 180 41 189 18 191 20 193 106 225 19 228 66 233 49 
276 -0.31650210130859996 -0.10845128754292438 1.3639271311781556 0 0 0 0.14 55 123 57 52 106 82 131 28 140 102 144 60 161 53 171 12 180 42 205 67 216 87 233 50 
277 -0.5675068570754411 -0.04868645951651807 0.6760541207997334 0 0 0 0.22 116 88 140 103 149 75 216 88 228 67 
278 -0.48001899153324745 -0.0754748514932575 0.9915441462628627 0 0 0 0.43 94 61 166 56 191 21 193 107 216 89 
279 -0.47555423043943024 -0.07508853914102935 0.9822561972769537 0 0 0 0.54 94 62 116 89 149 76 166 57 191 22 193 108 216 90 
280 -0.5546797723409109 -0.05306999350095648 0.7270119712249535 0 0 0 0.28 7 53 30 39 37 31 46 26 58 18 94 63 116 90 149 77 161 54 183 68 205 68 211 34 216 91 228 68 
281 -0.34567998201660916 -0.10272934168431071 1.373651733568318 0 0 0 0.37 55 124 177 124 193 109 
282 -0.42608006863184456 -0.09154257876332487 1.2439912576816607 0 0 0 0.11 151 90 180 43 210 40 
283 -0.4989156198016267 -0.059369215210994745 0.8652652228340536 0 0 0 0.27 46 27 106 83 151 91 173 63 
284 -0.5522744310157622 -0.04971674611832269 0.7425810096188469 0 0 0 0.26 7 54 37 32 58 19 72 58 86 47 140 104 149 78 154 69 161 55 177 125 183 69 193 110 205 69 210 41 216 92 226 78 228 69 233 51 
285 -0.5521991921146483 -0.04976745983793369 0.742499091145469 0 0 0 0.27 30 40 34 59 55 125 58 20 90 11 116 91 140 105 149 79 161 56 183 70 193 111 205 70 210 42 216 93 226 79 233 52 
286 -0.4690363752125233 -0.0792912571319294 1.1300437666869572 0 0 0 0.18 24 24 37 33 59 48 94 64 102 71 116 92 119 43 143 50 149 80 166 58 178 19 189 19 202 31 215 73 216 94 226 80 
287 -0.5041466175454858 -0.05666488468913279 0.8464828933875279 0 0 0 0.37 31 66 94 65 99 26 139 41 140 106 143 51 154 70 171 13 183 71 216 95 
288 -0.49767355226591514 -0.07108477949821085 1.034437281264378 0 0 0 0.43 37 34 55 126 86 48 94 66 116 93 125 52 139 42 140 107 145 58 
289 -0.4788248348406058 -0.06532361083832769 0.9594853181001592 0 0 0 0.39 7 55 18 25 24 25 31 67 34 60 55 127 57 53 59 49 72 59 90 12 94 67 99 27 102 72 106 84 116 94 122 18 125 53 132 22 139 43 140 108 143 52 144 61 149 81 150 29 151 92 154 71 161 57 166 59 173 64 177 126 180 44 193 112 202 32 211 35 212 37 215 74 216 96 218 95 226 81 228 70 
290 -0.47877334731583315 -0.06535716630510266 0.9595065344267893 0 0 0 0.41 7 56 18 26 24 26 30 41 31 68 34 61 37 35 46 28 57 54 59 50 72 60 86 49 90 13 94 68 99 28 102 73 106 85 116 95 122 19 125 54 132 23 139 44 140 109 143 53 144 62 149 82 150 30 151 93 154 72 166 60 173 65 177 127 180 45 183 72 189 20 191 23 193 113 202 33 210 43 211 36 212 38 215 75 216 97 218 96 226 82 228 71 233 53 
291 -0.49182327637045314 -0.07330580751892438 1.0661073118422801 0 0 0 0.6 34 62 94 69 189 21 191 24 202 34 210 44 211 37 
292 -0.47754611915358086 -0.07268992246859271 1.1011906966198657 0 0 0 0.22 7 57 24 27 30 42 31 69 46 29 55 128 59 51 72 61 99 29 102 74 106 86 116 96 119 44 131 29 137 32 140 110 143 54 144 63 145 59 149 83 150 31 154 73 173 66 177 128 178 20 193 114 202 35 205 71 210 45 212 39 215 76 216 98 233 54 
293 -0.4853363755395641 -0.06123800183750932 0.9399912857042982 0 0 0 0.34 31 70 34 63 37 36 46 30 57 55 72 62 86 50 90 14 94 70 102 75 106 87 122 20 125 55 132 24 137 33 139 45 140 111 143 55 145 60 149 84 151 94 154 74 173 67 177 129 180 46 183 73 189 22 193 115 202 36 205 72 212 40 215 77 218 97 226 83 228 72 233 55 
294 -0.42327832688616496 -0.08181078868139356 1.2476785196313485 0 0 0 0.28 31 71 34 64 55 129 57 56 59 52 72 63 94 71 106 88 119 45 122 21 140 112 143 56 144 64 151 95 166 61 173 68 177 130 193 116 202 37 212 41 215 78 218 98 228 73 233 56 
295 -0.42351273473903905 -0.08200169392365332 1.248732432701028 0 0 0 0.29 34 65 45 8 59 53 72 64 86 51 94 72 106 89 119 46 122 22 137 34 140 113 144 65 151 96 166 62 173 69 177 131 193 117 202 38 212 42 215 79 226 84 228 74 233 57 
296 -0.5011496022184379 -0.0650184142311464 1.033148862594859 0 0 0 0.29 34 66 57 57 86 52 116 97 125 56 140 114 145 61 149 85 193 118 
297 -0.5556129439354863 -0.04325951445569372 0.732343633473151 0 0 0 0.2 55 130 161 58 226 85 233 58 
298 -0.45518228690099777 -0.07582166897753352 1.1950508545955787 0 0 0 0.23 31 72 34 67 55 131 59 54 72 65 86 53 99 30 106 90 116 98 143 57 144 66 150 32 151 97 154 75 166 63 173 70 177 132 180 47 193 119 202 39 212 43 215 80 216 99 226 86 228 75 233 59 
299 -0.5543143533837654 -0.04273715153286978 0.7408130785940047 0 0 0 0.38 7 58 23 72 30 43 72 66 102 76 143 58 161 59 173 71 183 74 205 73 210 46 215 81 228 76 233 60 
300 -0.5408840258000324 -0.04592842032846006 0.7855520450082328 0 0 0 0.25 30 44 34 68 55 132 57 58 125 57 139 46 140 115 183 75 205 74 216 100 226 87 228 77 233 61 
301 -0.542168006096979 -0.04503324028212154 0.7814561672742996 0 0 0 0.24 8 28 23 73 34 69 55 133 86 54 125 58 131 30 139 47 143 59 144 67 145 62 151 98 154 76 161 60 183 76 216 101 218 99 226 88 
302 -0.5371158521538024 -0.04786253670109588 0.8197738613585381 0 0 0 0.35 31 73 55 134 72 67 137 35 143 60 161 61 177 133 183 77 210 47 215 82 226 89 
303 -0.5371514538966553 -0.04804111880769801 0.8195558384435677 0 0 0 0.4 23 74 30 45 31 74 34 70 37 37 46 31 72 68 94 73 99 31 116 99 140 116 173 72 177 134 183 78 193 120 205 75 210 48 216 102 218 100 226 90 233 62 
304 -0.44174517473178976 -0.0748246665978151 1.229262029414769 0 0 0 0.27 8 29 18 27 30 46 31 75 34 71 45 9 55 135 57 59 72 69 94 74 102 77 106 91 115 2 116 100 119 47 122 23 125 59 131 31 137 36 139 48 140 117 143 61 144 68 149 86 154 77 166 64 173 73 177 135 178 21 186 2 193 121 202 40 210 49 211 38 215 83 216 103 218 101 225 20 226 91 228 78 233 63 
305 -0.5489273283871128 -0.043258386574332355 0.7702017954894433 0 0 0 0.19 125 60 145 63 149 87 151 99 154 78 177 136 183 79 205 76 210 50 218 102 228 79 
306 -0.5509624767530156 -0.04094665441866809 0.7571647408393319 0 0 0 0.44 23 75 55 136 58 21 72 70 102 78 139 49 140 118 161 62 180 48 215 84 226 92 
307 -0.535919520998658 -0.04673932856633489 0.8392713508748131 0 0 0 0.25 31 76 143 62 166 65 
308 -0.5319514335423658 -0.04628530870285756 0.8327422818317495 0 0 0 0.56 31 77 55 137 72 71 94 75 132 25 139 50 140 119 143 63 149 88 151 100 161 63 166 66 173 74 177 137 193 122 210 51 211 39 216 104 
309 -0.4616364135713777 -0.06769266764847771 1.1690203304307363 0 0 0 0.31 57 60 86 55 102 79 125 61 144 69 166 67 218 103 228 80 
310 -0.4991126497723524 -0.046923597288234455 0.8692684725908439 0 0 0 0.21 37 38 55 138 57 61 94 76 143 64 144 70 151 101 183 80 205 77 215 85 218 104 
311 -0.4987514277245562 -0.04696515078444514 0.8686419433651337 0 0 0 0.14 7 59 8 30 55 139 57 62 72 72 94 77 102 80 106 92 125 62 144 71 145 64 151 102 173 75 183 81 191 25 205 78 211 40 218 105 226 93 228 81 
312 -0.4822831453886337 -0.054560776596661434 0.9947856961092202 0 0 0 0.32 37 39 46 32 55 140 119 48 137 37 183 82 216 105 
313 -0.4560463918362491 -0.06653838884654117 1.2069395327740766 0 0 0 0.11 24 28 72 73 102 81 173 76 
314 -0.5474168339481692 -0.03977937261856745 0.7720710573390517 0 0 0 0.28 45 10 55 141 72 74 102 82 145 65 161 64 173 77 183 83 226 94 233 64 
315 -0.531414727901348 -0.04350679441608589 0.8471093632020111 0 0 0 0.35 23 76 31 78 34 72 57 63 72 75 102 83 116 101 132 26 137 38 140 120 149 89 154 79 191 26 193 123 202 41 226 95 228 82 
316 -0.048493947214547826 -0.07110214949198977 1.2997023278407378 0 0 0 0.3 23 77 102 84 106 93 177 138 
317 -0.4654415844939243 -0.05873360213387772 1.1729653711837476 0 0 0 0.46 24 29 34 73 102 85 106 94 151 103 178 22 191 27 215 86 228 83 
318 -0.42876541325532186 -0.059697115906196266 1.2610390597219365 0 0 0 0.19 34 74 94 78 177 139 212 44 215 87 218 106 226 96 
319 -0.304772167379385 -0.06820085114606877 1.35459180865015 0 0 0 0.38 102 86 140 121 143 65 177 140 191 28 
320 -0.4944887401800316 -0.04790435996026569 1.028572768440901 0 0 0 0.22 55 142 116 102 119 49 125 63 140 122 143 66 144 72 145 66 151 104 161 65 183 84 191 29 205 79 215 88 216 106 226 97 228 84 233 65 
321 -0.5572557240156465 -0.031818247925562884 0.7293607773124547 0 0 0 0.34 55 143 57 64 139 51 216 107 
322 -0.3556906369793135 -0.06469417557232643 1.3576218483830793 0 0 0 0.15 102 87 106 95 177 141 
323 -0.4976189544769579 -0.045672634366062476 1.0229462352587786 0 0 0 0.3 57 65 125 64 144 73 145 67 191 30 216 108 228 85 
324 -0.4245396644096102 -0.06268824160709305 1.3838522222200966 0 0 0 0.24 55 144 102 88 106 96 140 123 173 78 177 142 193 124 215 89 
325 -0.41552608273827185 -0.06325449152098979 1.3902793790955923 0 0 0 0.73 102 89 106 97 140 124 151 105 173 79 177 143 193 125 218 107 
326 -0.48523962013895716 -0.039250359086004494 0.9373910523079195 0 0 0 0.24 30 47 55 145 57 66 72 76 106 98 177 144 218 108 
327 -0.4752572806925007 -0.04032995583085946 0.9601574414774697 0 0 0 0.35 30 48 55 146 102 90 137 39 215 90 216 109 
328 -0.4893621354297804 -0.04375971626873632 1.047375465872133 0 0 0 0.45 24 30 154 80 166 68 177 145 
329 -0.42691845891461805 -0.054607713665394374 1.254473414562851 0 0 0 0.24 31 79 215 91 226 98 
330 -0.5060663668028115 -0.03169843153507639 0.8415115676159028 0 0 0 0.23 7 60 18 28 24 31 30 49 94 79 99 32 102 91 116 103 119 50 122 24 125 65 139 52 140 125 143 67 149 90 151 106 166 69 171 14 180 49 193 126 202 42 210 52 211 41 216 110 226 99 228 86 233 66 
331 -0.5060875032534924 -0.03172661443889895 0.8415824985071242 0 0 0 0.25 7 61 8 31 18 29 23 78 24 32 30 50 31 80 34 75 55 147 59 55 72 77 94 80 99 33 102 92 106 99 116 104 119 51 122 25 125 66 131 32 139 53 140 126 143 68 144 74 145 68 149 91 151 107 161 66 166 70 171 15 173 80 177 146 180 50 183 85 193 127 202 43 205 80 210 53 211 42 212 45 215 92 216 111 218 109 225 21 226 100 228 87 233 67 
332 -0.2855095562254342 -0.05566877252669366 1.3398735070733852 0 0 0 0.3 24 33 59 56 72 78 106 100 131 33 140 127 143 69 144 75 145 69 150 33 161 67 178 23 180 51 205 81 216 112 228 88 233 68 
333 0.18969475757214618 -0.05442730217862564 1.3010720736893246 0 0 0 0.23 24 34 31 81 106 101 177 147 
334 0.20237730218449035 -0.05443083793370239 1.2951475596478919 0 0 0 0.19 24 35 106 102 177 148 
335 0.20173860004636504 -0.05427417300540723 1.2900746349468495 0 0 0 0.19 24 36 177 149 189 23 
336 -0.47986849884778005 -0.03623000514830384 0.9517225117904614 0 0 0 0.24 23 79 31 82 37 40 45 11 46 33 55 148 57 67 72 79 99 34 102 93 106 103 116 105 125 67 137 40 140 128 145 70 149 92 150 34 151 108 154 81 166 71 173 81 183 86 189 24 193 128 205 82 210 54 216 113 218 110 226 101 228 89 233 69 
337 -0.48233272778443353 -0.041397188383486785 1.0839462049531678 0 0 0 0.41 23 80 24 37 31 83 34 76 37 41 46 34 47 16 55 149 57 68 59 57 94 81 106 104 116 106 119 52 122 26 131 34 140 129 143 70 144 76 145 71 149 93 150 35 151 109 154 82 166 72 177 150 183 87 189 25 191 31 193 129 202 44 216 114 225 22 226 102 233 70 
338 -0.4819192620157593 -0.04112994507260237 1.0824949053471682 0 0 0 0.15 23 81 31 84 119 53 177 151 191 32 226 103 
339 -0.48093252529404673 -0.0417978626241535 1.092730950255277 0 0 0 0.22 31 85 34 77 57 69 106 105 116 107 119 54 131 35 143 71 145 72 173 82 178 24 202 45 212 46 
340 -0.49740649143934157 -0.030337459413849077 0.8632735267138755 0 0 0 0.36 8 32 23 82 31 86 57 70 72 80 86 56 106 106 116 108 119 55 125 68 131 36 139 54 143 72 144 77 149 94 151 110 161 68 173 83 183 88 189 26 191 33 193 130 210 55 211 43 215 93 216 115 218 111 226 104 228 90 233 71 
341 -0.49329671723545593 -0.03664059368253029 1.017359147981436 0 0 0 0.19 7 62 55 150 150 36 216 116 
342 -0.5397371567089592 -0.028038400616799887 0.8145002921074626 0 0 0 0.09 149 95 210 56 218 112 228 91 
343 -0.4784794845993484 -0.03292706004430031 0.9327972850303068 0 0 0 0.69 55 151 57 71 94 82 
344 -0.4901845050460005 -0.03607453212865727 1.0316612915635464 0 0 0 0.42 57 72 94 83 116 109 139 55 143 73 149 96 166 73 177 152 205 83 215 94 216 117 218 113 226 105 
345 -0.4470069572805502 -0.04554710019408712 1.2263226637246858 0 0 0 0.39 18 30 23 83 24 38 31 87 34 78 55 152 57 73 59 58 72 81 94 84 99 35 102 94 106 107 116 110 122 27 131 37 137 41 140 130 143 74 149 97 150 37 171 16 173 84 177 153 178 25 180 52 191 34 193 131 202 46 210 57 212 47 215 95 216 118 218 114 226 106 233 72 
346 -0.4471087929177397 -0.045808842627482776 1.226270073369932 0 0 0 0.35 23 84 34 79 55 153 59 59 72 82 94 85 131 38 137 42 140 131 143 75 150 38 151 111 177 154 180 53 193 132 215 96 233 73 
347 -0.47955067009300484 -0.032568856165265066 0.9514456148335427 0 0 0 0.42 7 63 18 31 23 85 24 39 34 80 37 42 55 154 99 36 106 108 116 111 119 56 139 56 140 132 143 76 144 78 145 73 149 98 151 112 161 69 166 74 173 85 180 54 183 89 193 133 210 58 211 44 215 97 226 107 228 92 233 74 
348 -0.4370008536705244 -0.037419952723974324 1.230740136085636 0 0 0 0.63 18 32 23 86 31 88 34 81 72 83 102 95 106 109 121 1 131 39 137 43 173 86 178 26 193 134 215 98 216 119 218 115 225 23 226 108 
349 -0.4303857756882188 -0.037947204696602004 1.236642768038737 0 0 0 0.37 8 33 18 33 23 87 31 89 34 82 45 12 55 155 57 74 72 84 94 86 99 37 102 96 106 110 116 112 122 28 125 69 131 40 139 57 140 133 143 77 144 79 149 99 151 113 154 83 166 75 171 17 173 87 177 155 178 27 180 55 193 135 210 59 211 45 212 48 215 99 216 120 218 116 225 24 226 109 228 93 
350 -0.2701646776984219 -0.04186860632062753 1.3370831380205772 0 0 0 0.4 8 34 24 40 30 51 57 75 59 60 99 38 106 111 115 3 119 57 131 41 137 44 139 58 140 134 144 80 145 74 150 39 154 84 161 70 171 18 177 156 180 56 189 27 191 35 202 47 205 84 212 49 216 121 228 94 
351 -0.4813386876013278 -0.03145649246164308 1.0848805122412455 0 0 0 0.27 119 58 125 70 145 75 202 48 215 100 228 95 233 75 
352 -0.4810401414311552 -0.03137263252027844 1.0838968130384496 0 0 0 0.27 23 88 24 41 31 90 72 85 102 97 106 112 125 71 145 76 149 100 154 85 173 88 177 157 178 28 210 60 215 101 218 117 
353 -0.5557099308056499 -0.019495296384774898 0.7607221667389094 0 0 0 0.28 30 52 34 83 55 156 58 22 99 39 116 113 119 59 125 72 139 59 140 135 151 114 161 71 183 90 193 136 205 85 210 61 212 50 216 122 218 118 228 96 
354 -0.5026691252990696 -0.01900528246723453 0.8521994903368162 0 0 0 0.28 7 64 8 35 18 34 23 89 30 53 31 91 34 84 45 13 55 157 59 61 72 86 99 40 102 98 106 113 116 114 119 60 122 29 125 73 131 42 132 27 137 45 139 60 140 136 143 78 145 77 149 101 151 115 166 76 171 19 173 89 177 158 180 57 183 91 193 137 202 49 210 62 211 46 215 102 216 123 218 119 226 110 228 97 
355 -0.5541285138208146 -0.013830470180961445 0.7476337398800202 0 0 0 0.35 30 54 116 115 161 72 183 92 193 138 210 63 211 47 228 98 
356 -0.5520463665434174 -0.013438523864865194 0.7498109924243345 0 0 0 0.27 34 85 177 159 228 99 
