# 3D point list with one line of data per point:
#   POINT3D_ID, X, Y, Z, R, G, B, ERROR, TRACK[] as (IMAGE_ID, POINT2D_IDX)
# Number of points: 435, mean track length: 6.04
653 0.29851708929001447 -0.16810313164506652 1.023201215414814 0 0 0 0.56 50 244 146 114 158 35 164 80 165 2 184 3 213 279 221 106 232 151 235 55 
654 -0.09790673098642415 -0.14320507241858652 1.054191597025021 0 0 0 0.14 50 245 157 121 213 280 
655 -0.03101907165147626 -0.1459724834155976 1.043444577162952 0 0 0 0.16 50 246 157 122 176 82 
656 0.11263229445249917 -0.15544216402795866 1.0339263805379426 0 0 0 0.28 50 247 146 115 158 36 164 81 176 83 196 77 213 281 214 117 234 19 
657 0.11270206457955728 -0.155433735502661 1.033942291871584 0 0 0 0.26 50 248 146 116 148 46 157 123 158 37 159 21 164 82 175 14 176 84 196 78 197 70 200 85 213 282 214 118 
658 -0.20781637218489243 -0.13852977678388773 1.0745628404974408 0 0 0 0.2 50 249 146 117 157 124 
659 0.11844020266706386 -0.1554080437383517 1.0334208702373682 0 0 0 0.27 50 250 146 118 157 125 158 38 164 83 175 15 185 20 194 35 196 79 197 71 200 86 213 283 214 119 234 20 
660 0.22274353066296823 -0.16298579878668842 1.0308246282282305 0 0 0 0.37 50 251 159 22 164 84 
661 -0.06731339563268943 -0.14371362783146432 1.048778118328798 0 0 0 0.06 50 252 146 119 213 284 
662 -0.214183489567962 -0.1379040186528118 1.0768076330099585 0 0 0 0.15 50 253 146 120 157 126 
663 -0.01665280615170467 -0.14583471405486859 1.0408313881803566 0 0 0 0.2 50 254 146 121 157 127 158 39 176 85 213 285 
664 0.10023170722861201 -0.15341616124288968 1.034460025418181 0 0 0 0.2 50 255 148 47 157 128 185 21 
665 0.1004487781818539 -0.15357135017921372 1.0351547340280396 0 0 0 0.08 50 256 157 129 185 22 
666 0.2960941067225469 -0.16725551984711287 1.027880713521662 0 0 0 0.71 50 257 148 48 162 5 184 4 196 80 197 72 
667 0.24458597493394676 -0.16302932959186361 1.0292372079669299 0 0 0 0.38 50 258 146 122 158 40 176 86 194 36 213 286 
668 -0.2362105365148596 -0.13612016638350866 1.0813719740627827 0 0 0 0.13 50 259 148 49 157 130 
669 -0.21243870891245312 -0.13669155816182915 1.0753533569089386 0 0 0 0.21 50 260 146 123 176 87 213 287 
670 0.13939305323831072 -0.1556803056190287 1.0344163323894748 0 0 0 0.37 50 261 157 131 162 6 182 13 
671 0.09147421364798101 -0.15188940066486342 1.0357645096543318 0 0 0 0.27 50 262 146 124 148 50 158 41 176 88 200 87 213 288 219 99 
672 0.11956240718579222 -0.15352550098473647 1.033608204045456 0 0 0 0.19 50 263 146 125 157 132 164 85 175 16 194 37 200 88 213 289 214 120 234 21 
673 0.11961889896140664 -0.1535930974378742 1.0337605071707343 0 0 0 0.22 50 264 146 126 157 133 175 17 176 89 200 89 213 290 214 121 
674 0.34056223164629024 -0.17381787762661477 1.0467445756082663 0 0 0 0.09 50 265 158 42 165 3 
675 -0.028335013557933164 -0.14402251694237983 1.0463741860731728 0 0 0 0.29 50 266 176 90 213 291 
676 0.12300810223524851 -0.15359391425297955 1.034444459584804 0 0 0 0.32 50 267 146 127 164 86 176 91 185 23 194 38 200 90 213 292 214 122 
677 0.12300737933217308 -0.15360553870149873 1.0342706244245856 0 0 0 0.19 50 268 146 128 176 92 194 39 213 293 214 123 234 22 
678 0.15784669606443044 -0.15607901384384754 1.033569669883855 0 0 0 0.42 43 424 50 269 157 134 182 14 197 73 204 113 213 294 214 124 219 100 222 123 234 23 
679 -0.21390451290019816 -0.1352462302631566 1.0746686192237318 0 0 0 0.34 50 270 157 135 176 93 
680 0.12588812941293345 -0.15361968822377586 1.0345127947177892 0 0 0 0.24 50 271 146 129 157 136 164 87 175 18 176 94 194 40 197 74 200 91 213 295 214 125 
681 -0.2168561610847715 -0.1359436673045037 1.0780321007835487 0 0 0 0.17 50 272 146 130 157 137 176 95 213 296 
682 -0.1507667676643512 -0.1384226884531685 1.066463127516418 0 0 0 0.14 50 273 146 131 213 297 
683 0.08299294320936072 -0.14980826856602344 1.0371063442399968 0 0 0 0.07 50 274 176 96 213 298 
684 -0.21242444043233907 -0.13469678711856653 1.0754428253601318 0 0 0 0.39 50 275 146 132 158 43 213 299 
685 -0.09408729476216143 -0.13932500369569373 1.054530875184796 0 0 0 0.2 50 276 146 133 157 138 213 300 
686 0.18350147623868784 -0.1561941016233615 1.031830254971812 0 0 0 0.2 50 277 146 134 148 51 157 139 164 88 176 97 182 15 184 5 194 41 196 81 197 75 200 92 213 301 214 126 220 39 
687 -0.0398732242442182 -0.14050616603009966 1.041911477313358 0 0 0 0.11 50 278 146 135 157 140 
688 0.1909240977196914 -0.15643221177127564 1.0318726926907278 0 0 0 0.39 43 425 50 279 146 136 148 52 157 141 158 44 164 89 176 98 184 6 185 24 196 82 197 76 200 93 213 302 222 124 227 77 234 24 
689 -0.2035519338071608 -0.13481963050920354 1.0765468969070793 0 0 0 0.3 50 280 146 137 157 142 
690 0.16485173556464908 -0.15387344133220981 1.0317294850933745 0 0 0 0.21 50 281 185 25 194 42 
691 0.16821662262884748 -0.15439971474438474 1.0334642401116902 0 0 0 0.31 50 282 158 45 182 16 234 25 
692 -0.1969419254765294 -0.13463929925780896 1.0758299022999123 0 0 0 0.13 50 283 157 143 176 99 
693 0.2821872009634479 -0.16217319887214254 1.0300060406370288 0 0 0 0.34 50 284 146 138 176 100 213 303 
694 -0.20499210709122864 -0.13351400002060776 1.0755789026919136 0 0 0 0.38 50 285 146 139 148 53 157 144 164 90 213 304 
695 -0.015671249157496858 -0.1402209692115525 1.039063706593893 0 0 0 0.14 50 286 146 140 157 145 
696 -0.06682466241063685 -0.13824916866015743 1.0506858761293094 0 0 0 0.18 50 287 157 146 164 91 213 305 214 127 
697 0.1962403523007467 -0.1550096818486897 1.0335010491725471 0 0 0 0.31 50 288 157 147 175 19 
698 0.09489820172717944 -0.14679189624028008 1.033301875670074 0 0 0 0.13 50 289 176 101 213 306 
699 0.12316087229662574 -0.14881555356271695 1.0342510866321968 0 0 0 0.21 50 290 146 141 213 307 
700 0.2434473142020071 -0.1572980136901676 1.0294790535570413 0 0 0 0.33 50 291 146 142 162 7 163 0 182 17 196 83 200 94 213 308 227 78 
701 0.036826159352880264 -0.14303712192476575 1.0383497687207721 0 0 0 0.28 50 292 146 143 175 20 
702 0.017031728013203934 -0.14175143768266824 1.0415453939156696 0 0 0 0.1 50 293 157 148 176 102 
703 -0.21178949420924714 -0.1306741238081558 1.0744826078259977 0 0 0 0.4 50 294 146 144 157 149 158 46 176 103 204 114 213 309 
704 -0.20992336360761144 -0.1310253180543355 1.0754413221847365 0 0 0 0.14 50 295 146 145 157 150 213 310 
705 0.0009419514948064251 -0.1406642156561043 1.0448581900967955 0 0 0 0.17 50 296 157 151 224 38 
706 0.28516751034176535 -0.15950984704972698 1.0292119867607927 0 0 0 0.46 50 297 148 54 164 92 165 4 220 40 
707 -0.222819599107758 -0.12967630524893295 1.075101899903682 0 0 0 0.1 50 298 146 146 157 152 
708 -0.015081973742445841 -0.1389833339087128 1.0420046121773014 0 0 0 0.17 50 299 158 47 200 95 
709 -0.1802184209932551 -0.13161195014451962 1.069758834663385 0 0 0 0.15 50 300 146 147 157 153 176 104 213 311 
710 0.06189803905009487 -0.1431194869016008 1.036007245971159 0 0 0 0.17 50 301 175 21 213 312 
711 0.23930856134019274 -0.15539002444435265 1.0298074481431425 0 0 0 0.34 50 302 146 148 164 93 196 84 213 313 
712 -0.12335040717298794 -0.13357737316957805 1.059514156273164 0 0 0 0.12 50 303 157 154 213 314 
713 -0.040504327373198055 -0.13658439654802812 1.0440108634904317 0 0 0 0.15 50 304 157 155 158 48 213 315 
714 -0.008264802421381631 -0.13810144097084123 1.038944549481381 0 0 0 0.16 50 305 157 156 231 14 
715 0.04142884259197218 -0.14184630944301188 1.039822536772669 0 0 0 0.2 50 306 157 157 213 316 
716 0.24079248928488328 -0.15501775989733718 1.0282907476662637 0 0 0 0.58 50 307 146 149 163 1 164 94 200 96 213 317 
717 0.24145222338790484 -0.15512176041775727 1.0287122032154727 0 0 0 0.19 50 308 146 150 196 85 
718 0.27961716816931476 -0.15753422524098692 1.028738865197938 0 0 0 0.35 50 309 158 49 165 5 194 43 196 86 197 77 221 107 235 56 
719 -0.12502694413122925 -0.13281754670057472 1.0595253147779522 0 0 0 0.17 50 310 146 151 157 158 158 50 213 318 
720 -0.06398532056374495 -0.13519981898695843 1.049810782983478 0 0 0 0.21 50 311 146 152 157 159 176 105 213 319 
721 -0.03923656557043866 -0.13549842452253105 1.042659441039799 0 0 0 0.17 50 312 146 153 157 160 200 97 213 320 224 39 
722 0.14072177106564587 -0.14724070595790456 1.0329993758106417 0 0 0 0.29 50 313 146 154 157 161 159 23 185 26 213 321 
723 0.26370098891074945 -0.1553694087122649 1.0275694492397578 0 0 0 0.41 50 314 146 155 164 95 200 98 
724 0.28916366118060743 -0.15749277122602542 1.0285457824900965 0 0 0 0.3 50 315 146 156 148 55 164 96 165 6 184 7 196 87 213 322 235 57 
725 -0.09613009879842396 -0.13335592463891993 1.0546838993930185 0 0 0 0.39 50 316 146 157 157 162 213 323 
726 0.19186993943620578 -0.15009342155980646 1.030777554718377 0 0 0 0.29 50 317 164 97 196 88 
727 0.14809914387991055 -0.14727262189295304 1.0334335425652321 0 0 0 0.25 50 318 157 163 159 24 
728 0.34470391782926146 -0.16529194328800242 1.0497560359407991 0 0 0 0.64 50 319 164 98 165 7 235 58 
729 -0.06818427138918898 -0.1341259632885508 1.050603564580245 0 0 0 0.22 50 320 146 158 157 164 164 99 213 324 214 128 
730 -0.03495061792266586 -0.13453163145391447 1.0423628014181918 0 0 0 0.22 50 321 164 100 200 99 
731 0.1711126692955803 -0.14770275659799104 1.030554232726905 0 0 0 0.26 50 322 146 159 157 165 164 101 176 106 213 325 
732 0.1883952764896596 -0.14916336126208418 1.0317846221048022 0 0 0 0.1 50 323 157 166 164 102 
733 0.281578519518608 -0.15556959249159935 1.0283969612981727 0 0 0 0.27 50 324 146 160 148 56 165 8 184 8 197 78 
734 -0.1485366593133639 -0.13046297284326153 1.066353187714805 0 0 0 0.16 50 325 148 57 158 51 164 103 176 107 
735 0.08656204224785093 -0.14193262435685935 1.035398379821837 0 0 0 0.11 50 326 146 161 176 108 
736 0.1734275773591995 -0.1471859965837562 1.0307184012940385 0 0 0 0.14 50 327 146 162 157 167 
737 0.29260257574204457 -0.15591756930633116 1.0283157619804186 0 0 0 0.31 50 328 146 163 164 104 
738 -0.09685614412037612 -0.13144808675038927 1.0550360714781553 0 0 0 0.19 50 329 146 164 157 168 164 105 200 100 213 326 
739 -0.24286034917834468 -0.12590309889221613 1.0825273128245079 0 0 0 0.28 50 330 164 106 176 109 
740 -0.03617964991082716 -0.13280521576420115 1.0407367993140155 0 0 0 0.43 50 331 157 169 213 327 231 15 
741 -0.011929408303096753 -0.13484696973308533 1.041372222675301 0 0 0 0.11 50 332 157 170 214 129 
742 0.12248548952835184 -0.14347798257097735 1.0360698302823392 0 0 0 0.34 50 333 157 171 176 110 197 79 
743 0.3507216911022049 -0.16272981792993219 1.054305972161388 0 0 0 0.23 50 334 182 18 184 9 
744 0.2623927208609423 -0.15048922274818038 1.0280552595037042 0 0 0 0.37 50 335 159 25 164 107 
745 -0.10053706777207032 -0.12759291813401505 1.0512520006941448 0 0 0 0.36 50 336 157 172 158 52 
746 0.11059003365045648 -0.14077340030851726 1.0383716051687104 0 0 0 0.15 50 337 157 173 200 101 
747 0.24932942333191957 -0.14916849023161668 1.0284278477419202 0 0 0 0.02 50 338 213 328 234 26 
748 0.034608855145090496 -0.13410924273662594 1.0382096593407197 0 0 0 0.29 50 339 146 165 157 174 175 22 200 102 213 329 
749 0.1687504718702651 -0.14284788701625029 1.0321233786516963 0 0 0 0.28 50 340 146 166 148 58 157 175 164 108 182 19 185 27 213 330 214 130 234 27 
750 -0.037392712209031544 -0.1295588047461189 1.0423649154641486 0 0 0 0.37 50 341 157 176 164 109 200 103 214 131 
751 0.06399269358833039 -0.13588115827076336 1.037005355463522 0 0 0 0.22 50 342 157 177 175 23 
752 0.19145153928339873 -0.14325018114351962 1.0309734356432563 0 0 0 0.13 50 343 157 178 213 331 
753 -0.22056375654307792 -0.12157863931725815 1.0763809980827155 0 0 0 0.18 50 344 146 167 157 179 176 111 213 332 
754 0.21769568496043065 -0.1448449766608952 1.0302820705643134 0 0 0 0.41 50 345 159 26 182 20 185 28 
755 -0.03924416677695135 -0.12813246009502668 1.0417015506623295 0 0 0 0.28 50 346 146 168 158 53 213 333 
756 -0.03605156862906487 -0.12802193453326832 1.0419481756545819 0 0 0 0.12 50 347 146 169 164 110 
757 0.08736286031532826 -0.13566252953790117 1.0364373759715102 0 0 0 0.47 50 348 146 170 157 180 164 111 200 104 213 334 
758 0.13838812254184335 -0.13935453885696936 1.0358703427423956 0 0 0 0.14 50 349 146 171 157 181 175 24 182 21 
759 0.16880565946521275 -0.14076454136127547 1.0328071600979736 0 0 0 0.22 50 350 159 27 200 105 
760 0.19481485305650442 -0.14123775601177738 1.0317129463793255 0 0 0 0.21 50 351 146 172 164 112 213 335 
761 0.24939566670625427 -0.1447211370860309 1.0281176764636981 0 0 0 0.29 50 352 164 113 232 152 
762 0.1835635165266637 -0.13969737833700072 1.0354508914390455 0 0 0 0.23 50 353 157 182 200 106 
763 -0.2182409834239772 -0.1177107158773907 1.0778643799771803 0 0 0 0.14 50 354 146 173 157 183 176 112 213 336 
764 -0.21819150840152385 -0.11771290656330838 1.0776892100769202 0 0 0 0.11 50 355 146 174 157 184 
765 0.060405031489159655 -0.12980999121077566 1.035484237742268 0 0 0 0.24 50 356 158 54 175 25 
766 0.08778660421277476 -0.13135811888559565 1.0370559968176831 0 0 0 0.39 50 357 146 175 157 185 175 26 
767 -0.02981914056195022 -0.12362116884187765 1.0417052596516725 0 0 0 0.05 50 358 157 186 158 55 
768 0.1666113445503943 -0.13559713333098977 1.0331475548215736 0 0 0 0.18 50 359 146 176 157 187 158 56 182 22 
769 0.26441480683102286 -0.14199702366117126 1.0304210920501606 0 0 0 0.15 50 360 146 177 213 337 
770 -0.20335760959684915 -0.11688323270028872 1.0753658191957256 0 0 0 0.23 50 361 146 178 157 188 213 338 
771 0.15474569902314378 -0.13488158711193474 1.037318593849902 0 0 0 0.17 50 362 157 189 182 23 
772 0.22240735157403307 -0.1383073350957506 1.0297067334687307 0 0 0 0.2 50 363 148 59 157 190 184 10 
773 0.24189081409708388 -0.13911001641323104 1.0299703776380744 0 0 0 0.19 50 364 146 179 213 339 
774 0.2473593844232903 -0.13860104411161422 1.02828885401837 0 0 0 0.23 50 365 164 114 176 113 
775 -0.18732571617145072 -0.11610830197109304 1.072917491924396 0 0 0 0.09 50 366 176 114 213 340 
776 0.06521624794674084 -0.12556401841984863 1.036554108534469 0 0 0 0.47 50 367 146 180 157 191 175 27 213 341 
777 -0.06699616780255409 -0.11845847894468774 1.050442129423753 0 0 0 0.48 50 368 157 192 200 107 213 342 
778 -0.20345177607006323 -0.11157968415623899 1.0757144030707484 0 0 0 0.32 50 369 146 181 164 115 176 115 213 343 
779 -0.17574232351840263 -0.11155092252480424 1.068502187719159 0 0 0 0.16 50 370 157 193 227 79 
780 0.06094520105945174 -0.12135906952400363 1.0367468877864559 0 0 0 0.42 50 371 146 182 157 194 175 28 200 108 
781 0.31234575842026974 -0.13766912964004502 1.0335551781588428 0 0 0 0.09 50 372 184 11 235 59 
782 -0.17319307132190118 -0.11017773623181693 1.0694882000083537 0 0 0 0.2 50 373 146 183 158 57 213 344 
783 -0.14167857793179064 -0.10980356250775752 1.0569726099967989 0 0 0 0.33 50 374 157 195 213 345 
784 -0.1447461990313302 -0.11025334182496528 1.064279822297225 0 0 0 0.09 50 375 146 184 157 196 213 346 
785 0.032015644714472775 -0.11834725685204434 1.0412991779384966 0 0 0 0.17 50 376 157 197 175 29 
786 0.3152563176365607 -0.13621364560251983 1.0337480774248091 0 0 0 0.33 50 377 164 116 165 9 235 60 
787 -0.17440870351623364 -0.10859174546291722 1.0687199925670592 0 0 0 0.27 50 378 146 185 213 347 
788 0.31028184513918744 -0.13602491753476806 1.0359367856033856 0 0 0 0.39 50 379 163 2 164 117 165 10 184 12 213 348 235 61 
789 -0.19289654653039284 -0.10758852188535258 1.0725234098566456 0 0 0 0.09 50 380 146 186 157 198 
790 -0.15927665919677123 -0.1086741026478633 1.0667784109607963 0 0 0 0.29 50 381 146 187 179 4 213 349 
791 -0.1472152257511215 -0.10895012271354271 1.0641288811419674 0 0 0 0.51 50 382 146 188 164 118 176 116 
792 0.06097918773517435 -0.11831445857473125 1.0362642077955764 0 0 0 0.32 50 383 146 189 157 199 164 119 175 30 200 109 
793 -0.18531702331936498 -0.10749936035199999 1.0721235139724976 0 0 0 0.23 50 384 157 200 213 350 
794 -0.13360062127246675 -0.10920857976711587 1.0615813721422676 0 0 0 0.15 50 385 146 190 157 201 176 117 213 351 
795 -0.14097090861481915 -0.10846638433044563 1.0629160097220984 0 0 0 0.19 50 386 146 191 157 202 158 58 
796 0.030630742718974913 -0.11653166256637265 1.0412887828130635 0 0 0 0.25 50 387 157 203 164 120 214 132 
797 0.06279608248974104 -0.11747694725725827 1.0364055732925348 0 0 0 0.31 50 388 175 31 214 133 
798 -0.025271749809715773 -0.11204171945940243 1.0410700994305668 0 0 0 0.3 50 389 148 60 157 204 
799 -0.13191200781852974 -0.10828292122335845 1.0618390842696865 0 0 0 0.17 50 390 146 192 176 118 213 352 
800 -0.045617887247594475 -0.11118529315414785 1.0460089328065783 0 0 0 0.18 50 391 146 193 157 205 159 28 164 121 176 119 179 5 185 29 200 110 213 353 214 134 224 40 231 16 
801 -0.18236098404859072 -0.1058449498806973 1.0703847731473712 0 0 0 0.16 50 392 157 206 213 354 
802 -0.1823609840486064 -0.10584494988074043 1.070384773147684 0 0 0 0.16 50 393 157 207 213 355 
803 -0.004077376669425708 -0.11269599069486463 1.0418118120741673 0 0 0 0.19 50 394 157 208 224 41 231 17 
804 0.0015554049909682816 -0.11316429851985683 1.043285139494582 0 0 0 0.03 50 395 157 209 231 18 
805 0.006403734040070681 -0.11301004781768288 1.0412433406013561 0 0 0 0.19 50 396 157 210 200 111 
806 0.006491309441890446 -0.11302842392160573 1.0409228331159748 0 0 0 0.21 50 397 157 211 175 32 
807 0.33104979656027184 -0.1348413117597873 1.0431676985943992 0 0 0 0.37 50 398 164 122 165 11 197 80 235 62 
808 -0.13210871041086608 -0.10630646957048517 1.061449304466805 0 0 0 0.11 50 399 146 194 213 356 
809 -0.04401677213582213 -0.10959329671792632 1.045161293114229 0 0 0 0.17 50 400 146 195 176 120 200 112 214 135 
810 -0.04404461643621921 -0.10952375388302847 1.0451461728788682 0 0 0 0.12 50 401 146 196 157 212 176 121 
811 0.057898231983611 -0.11572880639420324 1.039441231481886 0 0 0 0.27 50 402 147 0 157 213 172 1 175 33 213 357 219 101 
812 -0.18386883285598507 -0.10400920128115868 1.0685380200795924 0 0 0 0.23 50 403 146 197 157 214 158 59 213 358 
813 0.027299271358665337 -0.11267999622131857 1.0380089897006768 0 0 0 0.36 50 404 157 215 175 34 176 122 214 136 
814 -0.040203313748904845 -0.10925434286154254 1.0450611451199836 0 0 0 0.45 50 405 146 198 157 216 213 359 231 19 
815 0.07647780145508833 -0.11568941781868217 1.0365672493892728 0 0 0 0.18 50 406 157 217 176 123 
816 -0.15203391338600036 -0.10431868845660615 1.063334239869447 0 0 0 0.28 50 407 146 199 157 218 176 124 213 360 
817 -0.03900340471127442 -0.10852476157722847 1.0409789620646996 0 0 0 0.27 50 408 146 200 157 219 213 361 
818 0.11151213596166255 -0.11664967970636742 1.034619658669764 0 0 0 0.2 50 409 157 220 200 113 219 102 
819 0.04991711310545449 -0.11338725490516657 1.039293036009903 0 0 0 0.38 50 410 146 201 157 221 176 125 231 20 
820 0.0528492856521998 -0.11302775467987951 1.0373381601965301 0 0 0 0.18 50 411 146 202 176 126 213 362 
821 -0.06137352851417381 -0.10685909085851159 1.0491063457428007 0 0 0 0.43 50 412 157 222 164 123 200 114 213 363 
822 0.04626493039754937 -0.11183704291696514 1.0376653189260332 0 0 0 0.31 50 413 146 203 148 61 157 223 159 29 213 364 214 137 
823 0.087279582400483 -0.11437528142121788 1.034363343214706 0 0 0 0.36 50 414 146 204 164 124 175 35 213 365 234 28 
824 -0.17601663703104073 -0.10223695297278422 1.0699797928128054 0 0 0 0.52 50 415 148 62 164 125 213 366 
825 -0.0329186047454392 -0.10628028776840202 1.0403475619335216 0 0 0 0.15 50 416 164 126 213 367 
826 -0.18629844481660252 -0.10084117588698154 1.070055647692085 0 0 0 0.33 50 417 176 127 213 368 227 80 
827 -0.14362626460484865 -0.10248431823157605 1.0631613141768161 0 0 0 0.24 50 418 146 205 157 224 176 128 200 115 213 369 
828 -0.10713229122486671 -0.1040066128275168 1.0574306620052012 0 0 0 0.28 50 419 146 206 157 225 158 60 164 127 204 115 
829 0.3316839001706924 -0.13045049496648484 1.0426401466053887 0 0 0 0.56 50 420 163 3 164 128 220 41 235 63 
830 -0.04069673725602428 -0.1055170236693313 1.0413852218233781 0 0 0 0.14 50 421 157 226 213 370 
831 0.02036183923357526 -0.10932200070264204 1.0412459924269901 0 0 0 0.17 50 422 157 227 158 61 213 371 
832 0.02007618019107577 -0.10911761610103493 1.0395167266660377 0 0 0 0.21 50 423 146 207 175 36 176 129 213 372 224 42 
833 -0.19796048244747444 -0.09992850698860802 1.07431468784761 0 0 0 0.2 50 424 146 208 157 228 213 373 
834 -0.14752871577992188 -0.10185701859332578 1.0640002199346656 0 0 0 0.15 50 425 146 209 164 129 224 43 
835 0.030926964424092276 -0.10925630339113857 1.0384948618646985 0 0 0 0.14 50 426 146 210 157 229 175 37 200 116 213 374 
836 0.14929663949308034 -0.11613949913542075 1.0338066142975402 0 0 0 0.38 50 427 157 230 176 130 
837 -0.024009793713169466 -0.10589786049059836 1.040987756137349 0 0 0 0.19 50 428 148 63 157 231 
838 0.15682031228707288 -0.11718631794825585 1.0375292419931001 0 0 0 0.03 50 429 146 211 179 6 
839 -0.15349534868687115 -0.10085997502823973 1.064031852265244 0 0 0 0.09 50 430 146 212 157 232 213 375 
840 -0.12887390577954597 -0.10109791585303445 1.0584188555542444 0 0 0 0.51 50 431 146 213 157 233 158 62 213 376 
841 -0.016024883954656722 -0.10549358006599732 1.0397231564841651 0 0 0 0.31 43 426 50 432 148 64 158 63 164 130 176 131 200 117 214 138 219 103 
842 0.04540385350197899 -0.10918767300419635 1.0377129341062967 0 0 0 0.32 50 433 146 214 157 234 158 64 164 131 200 118 213 377 
843 -0.13658767365882618 -0.10091142868232274 1.062216637627666 0 0 0 0.13 50 434 146 215 157 235 213 378 
844 0.04872121749389796 -0.1089973365068919 1.037485736221266 0 0 0 0.25 50 435 146 216 148 65 157 236 158 65 159 30 175 38 176 132 185 30 200 119 204 116 213 379 214 139 231 21 
845 0.04878871005924226 -0.10898492589075648 1.0374993509534378 0 0 0 0.2 50 436 146 217 148 66 157 237 158 66 196 89 204 117 213 380 
846 0.19386678137209593 -0.11931972084612567 1.040039689175951 0 0 0 0.44 50 437 146 218 172 2 
847 0.33360766451124363 -0.1288624656159623 1.0450236508089548 0 0 0 0.33 50 438 164 132 165 12 220 42 235 64 
848 0.07325146929076937 -0.11012125324576719 1.0377818216643593 0 0 0 0.08 50 439 146 219 200 120 
849 -0.09687340629737841 -0.10162067906277283 1.053747341618426 0 0 0 0.11 50 440 146 220 157 238 213 381 
850 0.15543143708497859 -0.11464505693398508 1.0343764789469028 0 0 0 0.15 50 441 146 221 182 24 197 81 200 121 213 382 
851 0.1555252240293702 -0.11466098483461669 1.0347006193087676 0 0 0 0.14 50 442 182 25 197 82 213 383 
852 -0.20321498602331486 -0.09778436057813361 1.0739488718586725 0 0 0 0.17 50 443 157 239 164 133 
853 0.05813381771705222 -0.10833076789835747 1.0365347949554555 0 0 0 0.49 50 444 146 222 157 240 176 133 213 384 
854 -0.0534415463090587 -0.10254583034245726 1.0480879613030547 0 0 0 0.17 50 445 157 241 200 122 
855 -0.01410793353178516 -0.103631951343891 1.0393869278987746 0 0 0 0.24 50 446 157 242 200 123 
856 0.09783323056346867 -0.10977257606645158 1.0340482319237483 0 0 0 0.26 50 447 175 39 176 134 200 124 213 385 214 140 
857 -0.01684851745034277 -0.10324884913369142 1.0414314169871695 0 0 0 0.32 50 448 157 243 200 125 214 141 
858 0.1844829108814288 -0.11526314502551442 1.0344497026413864 0 0 0 0.12 50 449 146 223 200 126 
859 0.07318140357158377 -0.10768117007459488 1.0372219567800547 0 0 0 0.12 50 450 146 224 157 244 175 40 200 127 
860 -0.09214032250104243 -0.09969161161111449 1.054541462840736 0 0 0 0.18 50 451 146 225 176 135 179 7 213 386 227 81 
861 -0.011165573547323166 -0.10237327458096272 1.0399850265624753 0 0 0 0.19 50 452 148 67 157 245 175 41 213 387 214 142 
862 -0.01118888192837842 -0.102414705504286 1.040095534053432 0 0 0 0.15 50 453 159 31 176 136 
863 0.0813039435431566 -0.10747738848817254 1.0357706810157663 0 0 0 0.21 50 454 175 42 176 137 
864 -0.17562396029814836 -0.09643280305356801 1.06921856129006 0 0 0 0.19 50 455 157 246 164 134 
865 -0.16642756616712237 -0.09635183503471971 1.0698784526764897 0 0 0 0.19 50 456 164 135 200 128 213 388 
866 -0.21109347384446916 -0.09257031896757008 1.0690289463501375 0 0 0 0.13 50 457 157 247 158 67 
867 -0.03899955778817601 -0.09925078725843102 1.0399691933292525 0 0 0 0.29 50 458 146 226 157 248 213 389 
868 0.05497661535486282 -0.1049759945093069 1.0379681009104804 0 0 0 0.38 50 459 146 227 148 68 157 249 164 136 213 390 
869 0.13539609084842683 -0.10891493761332828 1.0322764983597623 0 0 0 0.18 50 460 146 228 234 29 
870 -0.1952540974935635 -0.09418715342517459 1.0748993610283857 0 0 0 0.68 50 461 146 229 157 250 176 138 
871 -0.174182105795254 -0.09479140447083761 1.0701354509972612 0 0 0 0.16 50 462 146 230 148 69 157 251 213 391 
872 -0.20660549523333474 -0.09237880488943104 1.0718521033716546 0 0 0 0.3 50 463 146 231 157 252 158 68 213 392 
873 -0.15034261599732693 -0.09392310466019911 1.06318763343084 0 0 0 0.22 50 464 146 232 157 253 
874 0.08302064996298042 -0.10471312575393787 1.0365612673948366 0 0 0 0.22 50 465 176 139 185 31 197 83 200 129 231 22 
875 0.09070800765129294 -0.10478441829820467 1.0341031790633903 0 0 0 0.14 50 466 146 233 148 70 157 254 164 137 175 43 196 90 213 393 214 143 223 10 234 30 
876 0.10859250474106644 -0.10631597574969802 1.035918104079117 0 0 0 0.34 50 467 146 234 158 69 200 130 
877 -0.003418067782761501 -0.09995049567061305 1.0442557692441299 0 0 0 0.12 50 468 157 255 176 140 231 23 
878 0.0450227227097637 -0.10227509094050995 1.0397890887586279 0 0 0 0.2 50 469 146 235 157 256 172 3 231 24 
879 0.0064671278507274456 -0.09992203354733883 1.0436433592870318 0 0 0 0.05 50 470 157 257 175 44 
880 0.05783714832152735 -0.10218866193937268 1.0375621770894914 0 0 0 0.15 50 471 146 236 157 258 164 138 
881 0.14756863535491468 -0.10724805081046272 1.0335197987137832 0 0 0 0.19 50 472 159 32 185 32 197 84 
882 0.2947094413446428 -0.11512783489488658 1.0271392018684853 0 0 0 0.19 50 473 165 13 213 394 235 65 
883 0.07075623152672599 -0.10230315006399521 1.0374014972783638 0 0 0 0.24 50 474 146 237 157 259 159 33 176 141 194 44 197 85 200 131 213 395 223 11 231 25 
884 -0.14693939992704308 -0.09233451924393643 1.0652250347118037 0 0 0 0.16 50 475 148 71 213 396 
885 0.0493761023876866 -0.10105206356615837 1.0408043342100837 0 0 0 0.13 50 476 157 260 175 45 200 132 231 26 
886 0.08411086059385381 -0.1024694455791731 1.0357822346017567 0 0 0 0.29 50 477 146 238 157 261 175 46 176 142 185 33 200 133 213 397 214 144 223 12 
887 0.18482954116482442 -0.10776022136056876 1.0307769173705528 0 0 0 0.33 50 478 148 72 182 26 
888 -0.03905273430031469 -0.09524172038427248 1.0394297657038052 0 0 0 0.06 50 479 157 262 213 398 
889 0.09778251952322754 -0.10320604059583914 1.0370703978630684 0 0 0 0.08 50 480 146 239 200 134 
890 0.17932617289490033 -0.10730893947533332 1.031552458857579 0 0 0 0.39 50 481 148 73 157 263 162 8 176 143 182 27 213 399 221 108 232 153 
891 0.11031932104355327 -0.10279280780643256 1.0344805634193863 0 0 0 0.23 50 482 148 74 157 264 164 139 200 135 
892 0.06254131643989205 -0.09989020746111839 1.0355171411397048 0 0 0 0.31 50 483 146 240 157 265 176 144 223 13 
893 0.07715291553673394 -0.10101879942438266 1.0375305533913064 0 0 0 0.19 50 484 157 266 200 136 
894 0.16276265793745479 -0.10589341323084857 1.034356726919848 0 0 0 0.17 50 485 176 145 200 137 
895 0.11192220802030009 -0.10250759583736793 1.0338739886521289 0 0 0 0.45 50 486 175 47 176 146 196 91 200 138 
896 0.01682316995914908 -0.0965743533525412 1.0380270397561426 0 0 0 0.13 50 487 146 241 157 267 213 400 232 154 
897 0.10574906904374191 -0.10137631576042591 1.0354760312828069 0 0 0 0.27 50 488 164 140 196 92 
898 0.18960717474339933 -0.10635134527696011 1.0317965750481541 0 0 0 0.19 50 489 146 242 157 268 164 141 182 28 184 13 213 401 214 145 
899 -0.24265700931634052 -0.0857008042771714 1.0778625146940364 0 0 0 0.33 50 490 164 142 176 147 
900 -0.21276929206930184 -0.08633173063264993 1.0728874351366362 0 0 0 0.44 50 491 146 243 148 75 157 269 158 70 162 9 213 402 224 44 
901 0.0893996400001389 -0.09985059790947619 1.0345416614493765 0 0 0 0.26 50 492 146 244 175 48 213 403 
902 0.1388902694430039 -0.10235662054429595 1.0334775180085736 0 0 0 0.33 50 493 146 245 164 143 175 49 213 404 234 31 
903 0.19510766025031798 -0.10479629750396662 1.0300833268514027 0 0 0 0.07 50 494 157 270 162 10 164 144 176 148 
904 0.19496139684281544 -0.10473146284113732 1.029729656601921 0 0 0 0.08 50 495 159 34 162 11 176 149 
905 0.24495746066053958 -0.10714490111108618 1.0270817343906344 0 0 0 0.14 50 496 146 246 213 405 
906 0.26516077894788165 -0.10858559659168059 1.0287960771622067 0 0 0 0.36 50 497 176 150 200 139 
907 0.16238479443185624 -0.10162099512655415 1.027246864705198 0 0 0 0.23 50 498 146 247 176 151 
908 0.08937969656219012 -0.09721008517834005 1.0341860321320715 0 0 0 0.26 50 499 146 248 148 76 164 145 200 140 213 406 214 146 223 14 
909 0.08935602115832089 -0.09720024694974766 1.033735386805741 0 0 0 0.23 50 500 164 146 214 147 
910 0.10910225704057805 -0.09850262044575148 1.036313920695248 0 0 0 0.49 50 501 157 271 164 147 
911 0.31237836108800676 -0.11064694688995275 1.0360496388377134 0 0 0 0.36 50 502 162 12 165 14 182 29 232 155 
912 0.06362983099016345 -0.09504850459448372 1.03505614472402 0 0 0 0.18 50 503 157 272 158 71 196 93 
913 -0.2108347456084118 -0.08241690352065166 1.0689303562010275 0 0 0 0.37 50 504 157 273 158 72 
914 0.20569833944777238 -0.10224703906799538 1.0324809575168912 0 0 0 0.36 50 505 146 249 176 152 197 86 
915 0.20958724281999971 -0.10248588075586224 1.033441139527117 0 0 0 0.21 50 506 157 274 175 50 176 153 200 141 
916 0.24018745130748528 -0.10384741156516024 1.0297479172326234 0 0 0 0.48 50 507 146 250 159 35 175 51 176 154 200 142 
917 -0.22006170630689673 -0.08133850893282117 1.074281330890562 0 0 0 0.31 50 508 146 251 157 275 
918 0.23579393963093273 -0.10283145053002567 1.031100756367332 0 0 0 0.16 50 509 165 15 213 407 235 66 
919 -0.2369528774935863 -0.08020539097511081 1.073472880254132 0 0 0 0.12 50 510 157 276 176 155 
920 -0.2371448427838495 -0.080409753633092 1.0749181476312148 0 0 0 0.17 50 511 148 77 157 277 176 156 
921 0.25433615057875325 -0.10271036933354284 1.0282074128895924 0 0 0 0.5 50 512 146 252 213 408 
922 0.2732806724335542 -0.10351858301338726 1.0271017915449046 0 0 0 0.45 50 513 176 157 184 14 234 32 
923 0.37808751779973426 -0.11246826594022234 1.0632075435697017 0 0 0 0.31 50 514 184 15 221 109 
924 0.19057632550935558 -0.09680136811042417 1.0316865949766247 0 0 0 0.15 50 515 146 253 157 278 182 30 213 409 
925 -0.2219707191545068 -0.07714127800463962 1.0716876110957472 0 0 0 0.2 50 516 157 279 213 410 
926 0.31319909615034136 -0.10344827460069388 1.0358180543682245 0 0 0 0.34 50 517 148 78 165 16 235 67 
927 -0.21986423621113607 -0.07549244579133331 1.0731564945847747 0 0 0 0.21 50 518 146 254 157 280 176 158 213 411 
928 0.3054862983311287 -0.10027012688064625 1.0316041215707548 0 0 0 0.23 50 519 158 73 204 118 213 412 222 125 
929 0.15855541787448987 -0.09215832680610984 1.0344862493715492 0 0 0 0.36 50 520 157 281 213 413 
930 -0.23614425266564185 -0.0741729444629585 1.078190270784889 0 0 0 0.43 50 521 148 79 164 148 
931 0.14996467243367848 -0.08999248856990641 1.0340643928151503 0 0 0 0.29 50 522 146 255 182 31 232 156 
932 0.33710920946039297 -0.09934649275368704 1.0469081034834942 0 0 0 0.26 50 523 165 17 172 4 204 119 
933 0.3010759606992395 -0.09436583906701534 1.0295387096350934 0 0 0 0.16 50 524 196 94 213 414 235 68 
934 0.31385915749417176 -0.0929741764406856 1.0339643960196934 0 0 0 0.11 50 525 165 18 184 16 
935 0.3198533367226993 -0.08897483171361857 1.0383372640966375 0 0 0 0.22 50 526 164 149 165 19 235 69 
936 0.04251603520072913 -0.07386134381722573 1.0357146276147233 0 0 0 0.33 50 527 157 282 213 415 
937 0.1585867184810466 -0.07873035539348142 1.0347955755977445 0 0 0 0.45 50 528 146 256 157 283 182 32 
938 0.36598164649281684 -0.09251327007472188 1.0579028396965426 0 0 0 0.46 50 529 162 13 165 20 184 17 197 87 235 70 
939 0.3153874814160423 -0.08652236268623567 1.0352934993933403 0 0 0 0.19 50 530 164 150 184 18 235 71 
940 0.34701194690042664 -0.0899229435410492 1.0493390296766474 0 0 0 0.06 50 531 165 21 235 72 
941 0.3580824156031586 -0.09050800310523431 1.054590233783291 0 0 0 0.32 50 532 162 14 165 22 182 33 197 88 222 126 235 73 
942 0.1485743515758858 -0.07471661732895872 1.0337734549774242 0 0 0 0.22 50 533 157 284 221 110 
943 0.33577609078292736 -0.08575375836113508 1.0435844601182174 0 0 0 0.45 50 534 163 4 164 151 196 95 
944 -0.0029802657375440273 -0.06730288510379585 1.0436276366280732 0 0 0 0.19 50 535 146 257 175 52 
945 0.3423285621861697 -0.08561701260930404 1.0476116136703137 0 0 0 0.19 50 536 147 1 162 15 165 23 204 120 232 157 235 74 
946 -0.12077790773359025 -0.06105471465376821 1.0562643931218336 0 0 0 0.29 50 537 146 258 157 285 176 159 
947 -0.09193527320517463 -0.061787403661841565 1.0503155256803915 0 0 0 0.27 50 538 146 259 157 286 158 74 176 160 213 416 
948 -0.01261854281835675 -0.06462766475326975 1.0366532255102603 0 0 0 0.38 50 539 158 75 159 36 176 161 200 143 214 148 
949 -0.016640880983527874 -0.06344578466840566 1.0383439682649447 0 0 0 0.12 50 540 176 162 231 27 
950 -0.12720087203972855 -0.057712629642120976 1.0520655454481902 0 0 0 0.08 50 541 146 260 213 417 
951 -0.14664699001839485 -0.0570481483274797 1.0625397853004017 0 0 0 0.06 50 542 146 261 213 418 
952 -0.06756877862785957 -0.058981329724456646 1.0444412011043238 0 0 0 0.07 50 543 146 262 213 419 
953 -0.15958799285688677 -0.05575630842897507 1.0621983552247478 0 0 0 0.15 50 544 146 263 158 76 176 163 213 420 
954 -0.04159570024165561 -0.059182995237384656 1.0411712739691026 0 0 0 0.12 50 545 146 264 157 287 213 421 
955 -0.20539724974611862 -0.05328244462064342 1.0677568826582753 0 0 0 0.18 50 546 164 152 213 422 
956 0.05795412159756341 -0.06401184986031103 1.0431321728728 0 0 0 0.19 50 547 176 164 213 423 
957 -0.095773382205862 -0.05640570448647879 1.0483610009345536 0 0 0 0.33 50 548 146 265 213 424 
958 -0.03783501482660345 -0.05828128114226195 1.0362328029612142 0 0 0 0.18 50 549 157 288 213 425 
959 -0.02281182885613235 -0.05912641426348613 1.0390924616568427 0 0 0 0.13 50 550 176 165 213 426 214 149 
960 -0.017855388284283864 -0.059374684797383205 1.0391959866970912 0 0 0 0.12 50 551 146 266 157 289 176 166 213 427 
961 -0.09198027278373112 -0.05618812919241613 1.050606949423703 0 0 0 0.23 50 552 157 290 176 167 213 428 
962 -0.15795031380529237 -0.053449974189742656 1.0595517783600452 0 0 0 0.34 50 553 146 267 157 291 213 429 
963 0.08841924560335127 -0.06269502291304573 1.0295878352786199 0 0 0 0.3 50 554 146 268 175 53 234 33 
964 -0.1286274164665827 -0.0538141290343366 1.0528261524382911 0 0 0 0.18 50 555 146 269 213 430 
965 0.07875290106535943 -0.06318148088867763 1.0388945402227254 0 0 0 0.25 50 556 146 270 172 5 221 111 
966 0.085294972833553 -0.06283033956392844 1.0365118582905668 0 0 0 0.16 50 557 146 271 176 168 200 144 
967 -0.1741613432676756 -0.052763177146700146 1.0675886328875628 0 0 0 0.11 50 558 157 292 213 431 
968 -0.06376638653316137 -0.055759745107969404 1.0415767334451236 0 0 0 0.21 50 559 146 272 176 169 213 432 231 28 
969 -0.06379267205114544 -0.05586421587673652 1.0427028291382785 0 0 0 0.08 50 560 146 273 185 34 200 145 213 433 
970 -0.016405075635047343 -0.05790421910279074 1.0388018892027047 0 0 0 0.11 50 561 146 274 157 293 175 54 176 170 213 434 
971 0.08974790495933807 -0.06146152154994356 1.0287931455630492 0 0 0 0.17 50 562 146 275 175 55 176 171 213 435 214 150 231 29 234 34 
972 -0.09210453993321586 -0.05419134397086798 1.0482598743547207 0 0 0 0.24 50 563 146 276 157 294 176 172 213 436 
973 -0.07102101541767192 -0.054783312544665695 1.0439998865476023 0 0 0 0.36 50 564 146 277 176 173 
974 -0.06681476687658237 -0.054881349509494595 1.0414025937310987 0 0 0 0.14 50 565 146 278 157 295 176 174 213 437 
975 -0.06679245273537907 -0.05481300932333898 1.0410201489249153 0 0 0 0.15 50 566 146 279 176 175 213 438 231 30 
976 -0.006179258156160104 -0.05727750054024067 1.0377598165728774 0 0 0 0.32 50 567 146 280 175 56 176 176 
977 0.11427283604842413 -0.0625180808946104 1.0275268136722042 0 0 0 0.4 50 568 146 281 164 153 175 57 214 151 
978 0.18895080828177324 -0.06613411749458106 1.0303577672415147 0 0 0 0.25 50 569 157 296 182 34 
979 0.199735094205686 -0.06568552237104733 1.0267438217272347 0 0 0 0.24 50 570 184 19 213 439 
980 -0.013365017993832946 -0.05642926305377909 1.036105205608732 0 0 0 0.31 50 571 157 297 176 177 213 440 231 31 
981 0.03333720869520824 -0.058710398152812995 1.0391202331960554 0 0 0 0.23 50 572 157 298 176 178 
982 -0.16733178559343262 -0.0510924776385315 1.064760060355725 0 0 0 0.2 50 573 148 80 157 299 164 154 176 179 213 441 219 104 
983 -0.1655597399126146 -0.05083267027666715 1.0640605721836915 0 0 0 0.22 50 574 146 282 157 300 158 77 176 180 200 146 213 442 
984 0.011270913109198935 -0.05667859938887148 1.0341805128706336 0 0 0 0.22 50 575 146 283 157 301 158 78 213 443 231 32 
985 0.011196893454645895 -0.05665905925174377 1.0340260039106615 0 0 0 0.24 50 576 146 284 176 181 213 444 224 45 
986 0.16742365671982007 -0.06384240214464892 1.027370990991179 0 0 0 0.15 50 577 146 285 213 445 
987 0.05332332106279186 -0.05877783062350361 1.0363371221934545 0 0 0 0.11 50 578 146 286 175 58 213 446 
988 0.10144411960702575 -0.06075850834553552 1.0331004554573573 0 0 0 0.1 50 579 200 147 213 447 
989 0.101427820996898 -0.0607414752741951 1.0329839072211273 0 0 0 0.09 50 580 146 287 200 148 213 448 
990 0.1275433897660749 -0.060955370989718274 1.032396475996622 0 0 0 0.08 50 581 197 89 213 449 
991 0.18899338783622824 -0.06345312252291513 1.0307430394473527 0 0 0 0.12 50 582 182 35 200 149 
992 0.15491089721755746 -0.0611766647722126 1.030068750593284 0 0 0 0.16 50 583 146 288 182 36 197 90 213 450 
993 0.11573536262350534 -0.05878722094348539 1.0264115009593993 0 0 0 0.23 50 584 146 289 164 155 175 59 176 182 200 150 213 451 214 152 
994 -0.01641498857085194 -0.053519038661693816 1.0389394133748922 0 0 0 0.1 50 585 146 290 176 183 
995 0.18105161354996832 -0.06149746787003249 1.0298441282407642 0 0 0 0.14 50 586 182 37 213 452 
996 -0.07093938434121765 -0.05092801341672418 1.0458485978080156 0 0 0 0.49 50 587 146 291 176 184 213 453 231 33 
997 0.011318365503714137 -0.05375858578986572 1.0335925035137783 0 0 0 0.21 50 588 146 292 157 302 175 60 213 454 
998 -0.040450955423136474 -0.051476600851642344 1.0365503106737803 0 0 0 0.27 50 589 157 303 176 185 213 455 231 34 
999 0.10805788405854527 -0.05743438024585803 1.0313236323653328 0 0 0 0.15 50 590 146 293 157 304 
1000 0.07065598845351974 -0.05561648061220692 1.0310441442873273 0 0 0 0.27 50 591 146 294 157 305 175 61 176 186 197 91 213 456 231 35 
1001 0.032734458263340635 -0.053952838156902376 1.0372612443791867 0 0 0 0.12 50 592 146 295 176 187 
1002 0.04735557799053552 -0.054191398890802774 1.035334983889661 0 0 0 0.08 50 593 146 296 175 62 
1003 -0.03859580949210649 -0.04993559373960066 1.033777176796551 0 0 0 0.26 50 594 146 297 164 156 200 151 204 121 213 457 214 153 
1004 0.14329246294375175 -0.05756226547679376 1.0239763958366948 0 0 0 0.17 50 595 175 63 200 152 213 458 
1005 0.21891922059390456 -0.06087433504812826 1.0240630919558624 0 0 0 0.18 50 596 146 298 175 64 176 188 182 38 200 153 
1006 -0.030734972318093096 -0.050228202360263194 1.0370850362799766 0 0 0 0.14 50 597 146 299 176 189 213 459 231 36 
1007 -0.015079099670617416 -0.050701847334979414 1.0358368415963883 0 0 0 0.27 50 598 146 300 157 306 175 65 176 190 213 460 231 37 
1008 -0.18487263246834237 -0.04500466747419122 1.0625005504404212 0 0 0 0.12 50 599 146 301 213 461 
1009 -0.07034805257369672 -0.04848601768028221 1.0414851738359625 0 0 0 0.08 50 600 158 79 213 462 
1010 -0.1721768608431643 -0.04530546724795852 1.064435538103919 0 0 0 0.15 50 601 146 302 158 80 176 191 213 463 
1011 -0.1564827067412145 -0.0455446100895915 1.0579179835945685 0 0 0 0.17 50 602 146 303 213 464 
1012 0.2172277236317184 -0.05998038555183761 1.0248669697387158 0 0 0 0.23 50 603 146 304 175 66 176 192 182 39 184 20 213 465 234 35 
1013 -0.16426666909936513 -0.04513732915550614 1.0616554482455531 0 0 0 0.1 50 604 146 305 157 307 213 466 
1014 0.05332733529216452 -0.05260944503285199 1.0357832194173653 0 0 0 0.32 50 605 146 306 148 81 159 37 175 67 
1015 0.05332256506539443 -0.05250509305778215 1.0357363425173454 0 0 0 0.14 50 606 146 307 148 82 157 308 175 68 213 467 
1016 0.012876396731760349 -0.05038638860880034 1.0326148390034966 0 0 0 0.3 50 607 146 308 157 309 164 157 175 69 213 468 214 154 
1017 0.2196541296688494 -0.0587885591905728 1.0222016644680045 0 0 0 0.02 50 608 146 309 213 469 
1018 0.24202548901950377 -0.05993353650365036 1.022714005403509 0 0 0 0.21 50 609 146 310 182 40 213 470 
1019 -0.17061079712424715 -0.04362231374196506 1.064663212504157 0 0 0 0.25 50 610 146 311 158 81 224 46 
1020 0.34234887017988025 -0.06520062818416564 1.0467141053135147 0 0 0 0.18 43 427 50 611 165 24 232 158 235 75 
1021 0.198819582670949 -0.05646891919763255 1.023778790870535 0 0 0 0.13 50 612 157 310 176 193 
1022 0.2697464542364863 -0.059313040353945155 1.0194448915849028 0 0 0 0.32 50 613 146 312 197 92 
1023 0.2699877252169182 -0.059405413336366515 1.0198471442384225 0 0 0 0.26 50 614 146 313 197 93 204 122 213 471 
1024 -0.21176171848133402 -0.04087565612295697 1.0678507992937591 0 0 0 0.3 50 615 146 314 157 311 158 82 213 472 
1025 -0.06556226848117652 -0.045385941190089686 1.0413768886963768 0 0 0 0.24 50 616 164 158 200 154 
1026 -0.20323512154539303 -0.041093118773816634 1.068052457245842 0 0 0 0.18 50 617 146 315 157 312 
1027 -0.18211280572798488 -0.04149560793064878 1.0632518561458597 0 0 0 0.15 50 618 146 316 157 313 200 155 
1028 -0.18214087784963823 -0.04151049363565548 1.0632568597961571 0 0 0 0.15 50 619 157 314 200 156 
1029 -0.0019834584062560787 -0.048040323909393515 1.0371720288392583 0 0 0 0.2 50 620 146 317 157 315 196 96 231 38 
1030 -0.19952753785196048 -0.04126484442927966 1.070336182801721 0 0 0 0.13 50 621 146 318 148 83 157 316 213 473 
1031 -0.19135263505741992 -0.0412776001369307 1.0678758064646698 0 0 0 0.12 50 622 146 319 157 317 213 474 
1032 0.16381485092904233 -0.054354086018735155 1.0289687612328478 0 0 0 0.25 50 623 157 318 185 35 213 475 214 155 
1033 -0.1637812611813756 -0.041894856548461576 1.0631751438849133 0 0 0 0.11 50 624 146 320 157 319 
1034 -0.15581551610614103 -0.042083974043013395 1.0588990943612098 0 0 0 0.11 50 625 146 321 157 320 200 157 213 476 
1035 -0.15578562965491494 -0.04204914377359839 1.0587681660349073 0 0 0 0.15 50 626 146 322 157 321 158 83 213 477 
1036 0.1413553324411823 -0.0529201192086043 1.0271789321571172 0 0 0 0.09 50 627 176 194 213 478 
1037 -0.09638248318800427 -0.043227317206700394 1.0484869366066067 0 0 0 0.17 50 628 157 322 231 39 
1038 -0.01400874402068853 -0.046096871518486175 1.0359110234018702 0 0 0 0.21 50 629 146 323 176 195 213 479 231 40 
1039 -0.014153018679648285 -0.04605918347909877 1.0356758689831664 0 0 0 0.14 50 630 157 323 176 196 
1040 0.06167425950637806 -0.04901956245037808 1.030130373645374 0 0 0 0.18 50 631 200 158 231 41 
1041 0.11084246748715022 -0.051280641296257846 1.0304732928373537 0 0 0 0.2 50 632 146 324 176 197 
1042 -0.09441926460093542 -0.04329528343920236 1.0489742535214048 0 0 0 0.23 50 633 146 325 157 324 158 84 231 42 
1043 -0.07984133904867123 -0.04336891527566933 1.0486805188759876 0 0 0 0.16 50 634 157 325 200 159 231 43 
1044 -0.06625273464481653 -0.04367905874968829 1.0426231298350634 0 0 0 0.11 50 635 157 326 200 160 213 480 
1045 -0.0642327838210635 -0.04382149322724357 1.0424374369205225 0 0 0 0.27 50 636 146 326 157 327 159 38 200 161 213 481 214 156 224 47 
1046 -0.061242969666947596 -0.04377674512551513 1.0433429043191529 0 0 0 0.22 50 637 146 327 157 328 
1047 0.00508924641091467 -0.04637583338671237 1.0366577346402714 0 0 0 0.39 50 638 157 329 175 70 231 44 
1048 -0.03780460415506752 -0.04382836266181787 1.0351118141862068 0 0 0 0.15 50 639 200 162 214 157 231 45 
1049 0.10178124287952768 -0.04938634465612917 1.0308517270214275 0 0 0 0.25 50 640 146 328 176 198 213 482 
1050 0.060535515567490525 -0.04730854090309459 1.0305504789411009 0 0 0 0.13 50 641 157 330 231 46 
1051 -0.008673441142095827 -0.04447244477613608 1.0350431857596354 0 0 0 0.21 50 642 146 329 148 84 176 199 185 36 196 97 213 483 214 158 
1052 -0.006428831355690637 -0.044250058267363696 1.034652678264334 0 0 0 0.25 50 643 146 330 157 331 176 200 185 37 
1053 0.0869015912991939 -0.04775568620464497 1.0290607365248596 0 0 0 0.13 50 644 213 484 214 159 
1054 0.0038285829232044617 -0.04449323891111216 1.0380359994680277 0 0 0 0.42 50 645 157 332 175 71 
1055 -0.1301920327989698 -0.03942741621693733 1.0539481009109801 0 0 0 0.15 50 646 146 331 157 333 176 201 
1056 -0.12110858697710908 -0.03953683782139699 1.0523821331845074 0 0 0 0.29 50 647 157 334 158 85 224 48 
1057 -0.0984842592316727 -0.04061288254009893 1.0487834359421726 0 0 0 0.15 50 648 157 335 214 160 
1058 0.016145269292057358 -0.04449403850153931 1.0342547200222332 0 0 0 0.24 50 649 157 336 175 72 
1059 0.1567666058657696 -0.05036082870538175 1.0310239282185432 0 0 0 0.21 50 650 157 337 231 47 
1060 0.15605439531885057 -0.050213865921120586 1.029348641027346 0 0 0 0.23 50 651 157 338 196 98 
1061 0.1615485107528625 -0.05034137437247466 1.029158081708955 0 0 0 0.06 50 652 146 332 175 73 
1062 0.16143112295369438 -0.0502869579355226 1.028972082239425 0 0 0 0.12 50 653 164 159 175 74 
1063 0.03850638944254414 -0.04510644174292949 1.0331161309285348 0 0 0 0.24 50 654 146 333 157 339 175 75 194 45 200 163 213 485 214 161 223 15 231 48 
1064 0.16655381553531856 -0.050284924202160936 1.0251047464040601 0 0 0 0.2 50 655 157 340 175 76 
1065 -0.20808547875648678 -0.036262865324607166 1.0659607933320867 0 0 0 0.1 50 656 157 341 213 486 
1066 0.04122104571135021 -0.044850053965722995 1.0323783832981277 0 0 0 0.24 50 657 146 334 148 85 157 342 158 86 175 77 200 164 213 487 
1067 0.39065406157712296 -0.06194044497963602 1.0673238145572288 0 0 0 0.33 182 41 184 21 197 94 
1068 -0.1579870399625799 -0.037757767093278216 1.0591519469552764 0 0 0 0.17 50 658 146 335 176 202 213 488 
1069 -0.0611609427351975 -0.040704030784021135 1.0420028672216373 0 0 0 0.19 50 659 146 336 176 203 
1070 0.1308861486448295 -0.04803924379740495 1.0289444226562054 0 0 0 0.17 50 660 157 343 175 78 196 99 
1071 0.1310472328273823 -0.048072934613814684 1.0292716868605918 0 0 0 0.17 50 661 157 344 175 79 
1072 0.056737717898543476 -0.04517275140157365 1.0352552369444448 0 0 0 0.16 50 662 146 337 175 80 
1073 0.06906412640472348 -0.045349293090275 1.030286238135803 0 0 0 0.24 50 663 146 338 157 345 176 204 
1074 0.1404052986704792 -0.0482894483216794 1.0263199999931272 0 0 0 0.25 50 664 157 346 175 81 196 100 200 165 213 489 
1075 0.08803219135065646 -0.04569013662559211 1.0297453015175928 0 0 0 0.09 50 665 157 347 175 82 214 162 223 16 
1076 0.2986548567308516 -0.054450962594280235 1.0245241075143163 0 0 0 0.23 50 666 165 25 213 490 235 76 
1077 -0.1554368689705024 -0.0369964739761185 1.0585079790090477 0 0 0 0.1 50 667 157 348 213 491 
1078 0.2883574407140164 -0.05353776610319298 1.0240125080287041 0 0 0 0.21 50 668 176 205 184 22 213 492 
1079 0.11266430733020823 -0.04567851474314309 1.028208948973678 0 0 0 0.29 50 669 164 160 200 166 
1080 0.1153902481509903 -0.045630760793812446 1.025645361625284 0 0 0 0.18 50 670 163 5 213 493 
1081 0.12248100525750845 -0.0459511837925759 1.028560667057739 0 0 0 0.2 50 671 158 87 197 95 200 167 231 49 
1082 0.21628912531810682 -0.04967933906745435 1.0246940798861686 0 0 0 0.13 50 672 175 83 182 42 
1083 0.1256369719337863 -0.045817405833437824 1.030095635483589 0 0 0 0.27 50 673 200 168 213 494 
1084 -0.18053900185223767 -0.0346609233614052 1.063900211499299 0 0 0 0.07 50 674 157 349 200 169 
1085 0.24348759849445825 -0.04994635903138494 1.0227374610659967 0 0 0 0.48 50 675 164 161 196 101 200 170 
1086 0.16157376554122832 -0.04679806790603181 1.0294972024702007 0 0 0 0.28 50 676 157 350 164 162 200 171 214 163 
1087 0.16542998140463294 -0.04677084605146187 1.027925282007113 0 0 0 0.27 50 677 157 351 182 43 200 172 
