# 3D point list with one line of data per point:
#   POINT3D_ID, X, Y, Z, R, G, B, ERROR, TRACK[] as (IMAGE_ID, POINT2D_IDX)
# Number of points: 314, mean track length: 7.09
0 -0.38567850892135375 -0.19376856251423938 0.9888365213679869 0 0 0 0.1 0 0 64 0 71 0 
1 -0.38693573691009153 -0.18980444239802902 0.9854191259906638 0 0 0 0.13 0 1 11 0 97 0 
2 -0.3077934985149558 -0.19265445917587665 1.0105496537292609 0 0 0 0.21 0 2 53 0 65 0 67 0 
3 -0.29972275939713316 -0.19124259788117115 1.0086658392635242 0 0 0 0.33 0 3 3 0 50 0 96 0 118 0 
4 -0.1969238663302072 -0.18476105182376276 1.0286692839160365 0 0 0 0.25 0 4 3 1 11 1 12 0 15 0 17 0 29 0 33 0 43 0 50 1 53 1 67 1 71 1 96 1 97 1 111 0 113 0 118 1 
5 -0.39933991816621367 -0.1647774974153105 0.9610692136745419 0 0 0 0.42 0 5 41 0 97 2 
6 -0.03993386577651603 -0.18136154580234276 1.0971875533217363 0 0 0 0.12 0 6 1 0 11 2 
7 0.053332903798296596 -0.1841149895165819 1.1341481466520251 0 0 0 0.19 0 7 15 1 96 2 
8 -0.42917278702327555 -0.14864573088328875 0.9723265954448865 0 0 0 0.43 0 8 3 2 17 1 29 1 32 0 33 1 43 1 44 0 60 0 71 2 77 0 96 3 110 0 111 1 113 1 118 2 127 0 
9 0.016199912336577138 -0.16460352370029036 1.1201913429616 0 0 0 0.29 0 9 11 3 38 0 50 2 67 2 77 1 112 0 118 3 
10 -0.3853914214745586 -0.13903708865723696 0.9791481411577018 0 0 0 0.28 0 10 3 3 17 2 50 3 118 4 127 1 
11 -0.16232140364987294 -0.144849927723772 1.0464015550933785 0 0 0 0.33 0 11 11 4 15 2 17 3 29 2 33 2 38 1 40 0 44 1 50 4 53 2 60 1 63 0 71 3 77 2 85 0 92 0 96 4 97 3 110 1 112 1 113 2 118 5 127 2 
12 0.05667694997241392 -0.14747818503036464 1.1333985455952782 0 0 0 0.23 0 12 11 5 15 3 17 4 29 3 33 3 67 3 118 6 127 3 
13 -0.06763909990337316 -0.13957486827920976 1.0803786501983745 0 0 0 0.33 0 13 1 1 11 6 15 4 17 5 29 4 38 2 44 2 50 5 71 4 77 3 85 1 96 5 97 4 111 2 113 3 118 7 
14 -0.07038980038519844 -0.13663727998072542 1.080137401346154 0 0 0 0.13 0 14 15 5 97 5 
15 -0.08955407023166542 -0.12451560618056248 1.0708638089799576 0 0 0 0.23 0 15 1 2 11 7 50 6 97 6 118 8 
16 0.0675085403237345 -0.13143666181130906 1.1369418525784307 0 0 0 0.26 0 16 12 1 33 4 40 1 44 3 50 7 73 0 
17 0.06757969275967321 -0.131490414237481 1.1372324789942787 0 0 0 0.3 0 17 33 5 40 2 44 4 50 8 73 1 127 4 
18 0.04242618584264124 -0.11968172857115575 1.125748695197325 0 0 0 0.16 0 18 44 5 96 6 
19 0.08046301740670977 -0.11793497780370243 1.1390439076216092 0 0 0 0.21 0 19 11 8 29 5 40 3 43 2 71 5 73 2 111 3 
20 0.11772037442635583 -0.030688580813732314 1.1534403516244236 0 0 0 0.54 0 20 17 6 77 4 118 9 
21 -0.0677233489378948 -0.018839129622254085 1.0635504419677224 0 0 0 0.14 0 21 3 4 50 9 53 3 
22 -0.00932596726542895 -0.01812158994073887 1.0904430329408408 0 0 0 0.38 0 22 1 3 11 9 17 7 33 6 41 1 50 10 71 6 73 3 111 4 112 2 118 10 
23 0.009604068171583975 -0.011442353446883248 1.1021376783102503 0 0 0 0.06 0 23 118 11 127 5 
24 -0.021114671507191252 -0.008145516220182066 1.0900370449023182 0 0 0 0.16 0 24 1 4 65 1 
25 -0.40099544704570367 -0.19221821233677466 0.9807528408155939 0 0 0 0.27 0 25 3 5 12 2 29 6 33 7 53 4 60 2 67 4 96 7 97 7 118 12 
26 -0.29671321119483485 -0.187877182099272 1.0087787761062603 0 0 0 0.32 0 26 1 5 3 6 11 10 17 8 32 1 33 8 38 3 44 6 50 11 60 3 77 5 81 0 88 0 96 8 97 8 111 5 127 6 
27 -0.40179004998094064 -0.18189417252208875 0.9851478924777982 0 0 0 0.3 0 27 1 6 3 7 17 9 33 9 43 3 50 12 53 5 64 1 65 2 77 6 92 1 97 9 111 6 113 4 127 7 
28 -0.31813256297817 -0.18429656111364823 1.0027108743567337 0 0 0 0.27 0 28 11 11 41 2 
29 -0.3848159767657292 -0.1826546446154672 0.9974830995837345 0 0 0 0.3 0 29 43 4 81 1 118 13 
30 -0.4044722324777886 -0.17772782718132324 0.9819228636205931 0 0 0 0.16 0 30 53 6 67 5 118 14 
31 0.013275783742223022 -0.18245946678942926 1.145413656996296 0 0 0 0.23 0 31 11 12 17 10 50 13 118 15 
32 -0.10650715262402907 -0.1650234019745516 1.0680713701131794 0 0 0 0.64 0 32 11 13 15 6 17 11 29 7 33 10 38 4 40 4 44 7 50 14 53 7 60 4 63 1 73 4 77 7 85 2 96 9 97 10 110 2 111 7 113 5 118 16 127 8 
33 0.0896769266510028 -0.17823778124534873 1.1743473661879658 0 0 0 0.36 0 33 50 15 118 17 
34 -0.007589539348099571 -0.16601115187575785 1.1050609137022165 0 0 0 0.15 0 34 1 7 81 2 
35 0.0756977806032102 -0.16860784010243093 1.1439234200076258 0 0 0 0.35 0 35 3 8 33 11 50 16 67 6 73 5 81 3 127 9 
36 -0.4468092825691624 -0.1287539814472321 0.9680687363089159 0 0 0 0.31 0 36 1 8 3 9 73 6 81 4 96 10 118 18 
37 -0.06884004150819319 -0.1309547234657129 1.0791293012081762 0 0 0 0.28 0 37 11 14 17 12 40 5 41 3 81 5 111 8 
38 -0.1384791249578467 -0.12692124144850672 1.0572965197600428 0 0 0 0.14 0 38 3 10 11 15 50 17 
39 -0.14370111162892965 -0.12366784878245252 1.0678466400166144 0 0 0 0.41 0 39 17 13 50 18 
40 -0.00896709898285072 -0.11386851608855555 1.1026996680674188 0 0 0 0.28 0 40 1 9 15 7 40 6 44 8 118 19 
41 0.009142370575251774 -0.10683558197678844 1.1201171845416624 0 0 0 0.2 0 41 44 9 96 11 
42 -0.1033624325951685 -0.022781925417235293 1.0567278652538872 0 0 0 0.26 0 42 11 16 15 8 64 2 
43 -0.1164349763000286 -0.015138041508060264 1.0534344813975818 0 0 0 0.25 0 43 1 10 11 17 15 9 17 14 29 8 33 12 38 5 44 10 50 19 77 8 85 3 110 3 113 6 118 20 
44 -0.11182259549496894 -0.015337332464348518 1.0550258712640521 0 0 0 0.3 0 44 1 11 11 18 15 10 17 15 29 9 50 20 110 4 113 7 118 21 
45 -0.10681486331642674 -0.01238189639213414 1.0531318006292496 0 0 0 0.42 0 45 3 11 40 7 43 5 53 8 63 2 85 4 96 12 97 11 111 9 112 3 113 8 127 10 
46 -0.3561267653573335 -0.17092416903929214 0.9908343973301106 0 0 0 0.38 0 46 1 12 3 12 41 4 50 21 60 5 65 3 96 13 111 10 127 11 
47 -0.34772492843650377 -0.17163168723604835 0.9991901964840091 0 0 0 0.49 0 47 1 13 11 19 63 3 67 7 77 9 81 6 
48 -0.18048853251620162 -0.17731679999212432 1.0398110300612748 0 0 0 0.37 0 48 1 14 3 13 11 20 15 11 17 16 29 10 33 13 38 6 43 6 44 11 50 22 53 9 63 4 71 7 77 10 81 7 85 5 88 1 92 2 97 12 111 11 112 4 113 9 118 22 
49 -0.22556045102489622 -0.15826493644226958 1.0255386219671219 0 0 0 0.86 0 49 1 15 3 14 11 21 29 11 33 14 44 12 67 8 71 8 88 2 96 14 97 13 111 12 112 5 
50 -0.1025610104745401 -0.1618628610907706 1.0702133246299128 0 0 0 0.47 0 50 3 15 11 22 17 17 29 12 32 2 33 15 38 7 40 8 44 13 50 23 53 10 73 7 77 11 81 8 85 6 88 3 96 15 97 14 110 5 111 13 112 6 113 10 118 23 
51 -0.13853873730280475 -0.15608354737492394 1.0575053224131008 0 0 0 0.5 0 51 1 16 29 13 33 16 38 8 40 9 44 14 50 24 73 8 77 12 81 9 88 4 111 14 113 11 
52 -0.20229791151945206 -0.15121152256206935 1.0318541656892706 0 0 0 0.45 0 52 1 17 15 12 29 14 32 3 33 17 38 9 43 7 44 15 50 25 63 5 71 9 85 7 92 3 112 7 113 12 118 24 127 12 
53 0.04011626237951048 -0.1565220489854256 1.130734359990758 0 0 0 0.22 0 53 15 13 50 26 81 10 85 8 
54 0.10361707825241127 -0.15458269463612612 1.1609680614512026 0 0 0 0.62 0 54 3 16 15 14 50 27 92 4 118 25 
55 -0.17384247331766947 -0.13319682833361954 1.0397600495928083 0 0 0 0.17 0 55 43 8 63 6 81 11 88 5 92 5 
56 -0.08202325904784954 -0.12968460397015405 1.0744974161503424 0 0 0 0.45 0 56 1 18 3 17 29 15 32 4 33 18 38 10 40 10 41 5 43 9 44 16 50 28 60 6 63 7 73 9 85 9 92 6 111 15 113 13 
57 -0.1585363612610848 -0.12436058152672581 1.0472853282398578 0 0 0 0.23 0 57 3 18 11 23 15 15 17 18 50 29 118 26 
58 -0.06639411244778162 -0.11560892769839913 1.0803289206948976 0 0 0 0.31 0 58 1 19 3 19 11 24 15 16 17 19 29 16 38 11 40 11 50 30 63 8 71 10 73 10 111 16 118 27 
59 -0.05450511039214177 -0.062295262769994364 1.0806828091969802 0 0 0 0.24 0 59 11 25 17 20 29 17 41 6 50 31 63 9 77 13 97 15 118 28 
60 -0.029168840673134695 -0.021100579452440593 1.0850766780360528 0 0 0 0.13 0 60 50 32 53 11 
61 -0.4601349688980772 -0.20450259613599908 1.008727321377095 0 0 0 0.17 0 61 17 21 118 29 
62 -0.3922044301064798 -0.19695285383337402 0.9903256507050766 0 0 0 0.17 0 62 1 20 81 12 88 6 
63 -0.31228377268120877 -0.19491245876616312 1.008579836890214 0 0 0 0.26 0 63 1 21 67 9 81 13 88 7 
64 -0.4244044408193663 -0.17293733887863824 0.9751459169738966 0 0 0 0.27 0 64 1 22 33 19 50 33 53 12 97 16 
65 -0.38096551732885253 -0.17235858511815969 0.9899580323193157 0 0 0 0.38 0 65 1 23 3 20 33 20 50 34 67 10 77 14 81 14 88 8 127 13 
66 -0.41257508570385387 -0.1666962196608089 0.9805611217714765 0 0 0 0.32 1 24 33 21 50 35 96 16 118 30 
67 -0.06017470633952628 -0.17266967195658084 1.0884138549338285 0 0 0 0.48 0 66 1 25 11 26 88 9 97 17 127 14 
68 -0.4354170338959788 -0.14174252071757412 0.9689472560215084 0 0 0 0.28 0 67 1 26 3 21 17 22 29 18 32 5 33 22 41 7 60 7 64 3 71 11 81 15 88 10 92 7 110 6 111 17 113 14 118 31 
69 -0.3376597177956231 -0.13938809669875432 0.993266180591822 0 0 0 0.25 0 68 1 27 11 27 17 23 33 23 40 12 41 8 44 17 50 36 53 13 65 4 67 11 77 15 111 18 118 32 127 15 
70 -0.4649759454845149 -0.1269188597646345 0.9623511480856081 0 0 0 0.2 0 69 1 28 12 3 17 24 50 37 60 8 67 12 92 8 118 33 
71 -0.46469966235059684 -0.12689787568875205 0.9620984448642231 0 0 0 0.24 0 70 1 29 3 22 12 4 17 25 29 19 41 9 43 10 50 38 53 14 60 9 64 4 67 13 81 16 92 9 96 17 111 19 118 34 
72 -0.07609364203827076 -0.14061766587581012 1.0787486868812377 0 0 0 0.26 0 71 1 30 3 23 11 28 15 17 17 26 29 20 38 12 43 11 44 18 50 39 53 15 60 10 63 10 65 5 71 12 73 11 77 16 81 17 85 10 88 11 96 18 111 20 112 8 118 35 127 16 
73 0.003825120173382711 -0.14097533212995703 1.1078657093548614 0 0 0 0.65 0 72 1 31 11 29 12 5 15 18 33 24 40 13 53 16 71 13 73 12 77 17 81 18 85 11 92 10 96 19 127 17 
74 -0.45843314730081375 -0.11992139282929014 0.9605708472322988 0 0 0 0.25 0 73 1 32 3 24 17 27 29 21 43 12 44 19 53 17 60 11 65 6 67 14 71 14 77 18 81 19 88 12 96 20 97 18 110 7 111 21 113 15 118 36 
75 -0.054132327205410245 -0.12907301836639049 1.0896613922829121 0 0 0 0.44 0 74 3 25 11 30 17 28 29 22 41 10 77 19 81 20 97 19 
76 -0.32878286886367314 -0.18680383520783805 0.991559013177521 0 0 0 1.03 0 75 11 31 33 25 81 21 118 37 
77 0.060137068903440456 -0.18205185461716877 1.1436514677348482 0 0 0 0.59 0 76 53 18 63 11 96 21 110 8 
78 -0.03741878962883006 -0.16013393229639789 1.0968888303244722 0 0 0 0.34 0 77 3 26 12 6 41 11 50 40 53 19 64 5 111 22 
79 0.04791812388233807 -0.1557889161362945 1.1313555438926601 0 0 0 0.42 0 78 11 32 15 19 33 26 38 13 40 14 50 41 71 15 77 20 81 22 112 9 127 18 
80 -0.06400519768389226 -0.1415703095572953 1.083221373788805 0 0 0 0.66 0 79 1 33 3 27 11 33 15 20 17 29 29 23 33 27 40 15 44 20 50 42 60 12 71 16 73 13 77 21 81 23 88 13 96 22 111 23 118 38 127 19 
81 -0.0637622362623418 -0.14083602961546887 1.0796986651961236 0 0 0 0.76 0 80 3 28 17 30 44 21 50 43 53 20 60 13 65 7 73 14 111 24 
82 -0.38824070331448035 -0.17184925345366645 0.9858137035622434 0 0 0 0.37 0 81 1 34 12 7 29 24 33 28 50 44 67 15 71 17 81 24 118 39 127 20 
83 -0.3878948455206048 -0.17193282842389138 0.9853843085503697 0 0 0 0.41 0 82 1 35 3 29 29 25 33 29 44 22 50 45 64 6 67 16 71 18 77 22 81 25 92 11 96 23 118 40 127 21 
84 -0.4264937245604136 -0.1565644946051159 0.9677909592642175 0 0 0 0.46 0 83 3 30 12 8 29 26 33 30 50 46 53 21 67 17 71 19 81 26 96 24 110 9 113 16 118 41 127 22 
85 -0.024701959347568022 -0.16124057650171006 1.1026851327606584 0 0 0 0.46 0 84 1 36 3 31 11 34 12 9 53 22 63 12 71 20 96 25 118 42 
86 -0.011457431007214622 -0.14177676648610607 1.1023485709090037 0 0 0 0.95 0 85 15 21 32 6 40 16 44 23 50 47 110 10 
87 0.04381591640948296 -0.14136733480594008 1.1268338967150897 0 0 0 0.5 0 86 12 10 33 31 53 23 67 18 81 27 85 12 127 23 
88 0.08934402573077455 -0.1270048661626867 1.1423190468437927 0 0 0 0.35 0 87 40 17 50 48 
89 -0.4040342996634173 -0.1998439952455547 0.9897996232626125 0 0 0 0.38 0 88 1 37 3 32 43 13 50 49 53 24 81 28 118 43 
90 -0.40133088306136333 -0.17472178881531647 0.980423805561255 0 0 0 0.29 0 89 1 38 43 14 50 50 81 29 88 14 
91 -0.402228249336422 -0.17472552880076397 0.9822085431226945 0 0 0 0.44 0 90 1 39 3 33 50 51 88 15 96 26 97 20 110 11 118 44 
92 -0.4346003307671569 -0.1449441059702451 0.9681484880285448 0 0 0 0.46 0 91 1 40 12 11 29 27 50 52 73 15 77 23 92 12 96 27 97 21 110 12 127 24 
93 -0.07964859901651543 -0.15625590298070632 1.074302789824408 0 0 0 0.37 0 92 3 34 15 22 32 7 38 14 44 24 50 53 63 13 77 24 85 13 92 13 118 45 127 25 
94 -0.03968597632595753 -0.1427298516026802 1.0951479246238158 0 0 0 0.46 0 93 3 35 32 8 44 25 50 54 60 14 73 16 
95 -0.03798895770412687 -0.12729148709778534 1.0906660811193531 0 0 0 0.55 0 94 29 28 63 14 65 8 71 21 97 22 118 46 
96 -0.025478837212676467 -0.11457817052845425 1.1031072117928975 0 0 0 0.99 0 95 12 12 43 15 50 55 64 7 
97 -0.12913864182944063 -0.10438941567706435 1.0578394531624338 0 0 0 0.71 0 96 32 9 50 56 64 8 
98 -0.06970323387718194 -0.10119567512382119 1.0804171505312008 0 0 0 0.48 0 97 32 10 50 57 111 25 
99 -0.08492342492093582 -0.09487449425553489 1.0732262066308464 0 0 0 0.44 0 98 1 41 50 58 77 25 
100 -0.08472627043826085 -0.09476688371467186 1.072689650706773 0 0 0 0.49 0 99 1 42 50 59 77 26 97 23 
101 0.0032571010760908898 -0.06432276027746554 1.1061848029551768 0 0 0 0.55 0 100 40 18 44 26 
102 0.0030442526029210598 -0.06451102350496496 1.1065764536802885 0 0 0 0.52 0 101 17 31 40 19 44 27 71 22 118 47 
103 0.0019344886082094549 -0.048313978867572646 1.1045166889274376 0 0 0 0.42 0 102 11 35 118 48 
104 0.0019344886082094549 -0.048313978867572646 1.1045166889274376 0 0 0 0.42 0 103 11 36 118 49 
105 0.03160019394670929 -0.025405971721903106 1.114592937345675 0 0 0 0.3 0 104 11 37 15 23 118 50 
106 -0.16726096515504027 -0.1712436044057425 1.0454250255963078 0 0 0 0.47 0 105 1 43 17 32 43 16 50 60 85 14 
107 -0.055464228094798895 -0.11720723548988056 1.0985859742735449 0 0 0 0.3 0 106 12 13 50 61 
108 -0.010256853115278767 -0.07533392575712353 1.101119212615851 0 0 0 0.43 0 107 1 44 15 24 40 20 73 17 92 14 
109 -0.07499836888937794 -0.17687857495044068 1.0839290364563114 0 0 0 1.15 0 108 3 36 53 25 64 9 65 9 73 18 81 30 92 15 96 28 
110 -0.10258862565858093 -0.14137348762905172 1.061456214528057 0 0 0 1.02 3 37 29 29 65 10 88 16 97 24 118 51 
111 -0.21864685359598982 -0.20812144724760798 1.0662841858071757 0 0 0 0.63 1 45 3 38 11 38 15 25 67 19 81 31 
112 -0.11451465899882858 -0.18206778398066428 1.060508390922423 0 0 0 0.28 1 46 3 39 11 39 15 26 17 33 29 30 32 11 33 32 38 15 40 21 50 62 53 26 60 15 63 15 71 23 77 27 96 29 118 52 127 26 
113 -0.15244920493181335 -0.1799084648400021 1.0512472697774917 0 0 0 0.47 1 47 11 40 15 27 17 34 29 31 33 33 77 28 112 10 118 53 
114 -0.18363921666314612 -0.17321717083995314 1.0454048896769434 0 0 0 0.17 1 48 15 28 96 30 
115 0.04519097308465561 -0.13209036303964553 1.1282612028064696 0 0 0 0.3 1 49 3 40 11 41 33 34 60 16 96 31 111 26 112 11 
116 -0.14341478736121213 -0.16224066089441722 1.0548622460849735 0 0 0 0.31 1 50 15 29 17 35 29 32 38 16 44 28 50 63 77 29 112 12 118 54 
117 -0.142325639506702 -0.1615682779223827 1.051859531337872 0 0 0 0.39 1 51 15 30 29 33 38 17 44 29 77 30 113 17 127 27 
118 0.018330965819102013 -0.13292521648876335 1.1167531339584011 0 0 0 0.25 1 52 29 34 50 64 67 20 110 13 111 27 112 13 127 28 
119 -0.0007964655997031331 -0.13361266406162073 1.1085147389307224 0 0 0 0.3 1 53 3 41 11 42 40 22 43 17 44 30 50 65 77 31 85 15 92 16 
120 -0.1410853990948528 -0.15123075313657608 1.053508868231112 0 0 0 0.23 1 54 15 31 29 35 44 31 50 66 73 19 77 32 111 28 112 14 118 55 
121 -0.4048661118671619 -0.18900908740919156 0.9826912789108702 0 0 0 0.17 1 55 17 36 60 17 67 21 
122 -0.4057975459667032 -0.16795106777094546 0.9898347430079485 0 0 0 0.4 1 56 11 43 43 18 81 32 
123 -0.09049098884397459 -0.08603964114629328 1.0612595763927468 0 0 0 0.37 1 57 3 42 11 44 118 56 
124 -0.06469461268110033 -0.19426317495841097 1.0929421515897926 0 0 0 0.68 1 58 15 32 41 12 
125 -0.24447865731018553 -0.20926401455488258 1.0247333238700957 0 0 0 0.23 1 59 12 14 43 19 53 27 81 33 96 32 
126 -0.07749055933673644 -0.1652817154913061 1.0792108905314608 0 0 0 0.47 1 60 3 43 11 45 15 33 38 18 44 32 50 67 77 33 81 34 96 33 118 57 
127 -0.2961559438679888 -0.187762806354761 1.0083268890943293 0 0 0 0.41 1 61 11 46 32 12 33 35 63 16 71 24 81 35 88 17 96 34 110 14 
128 -0.3023557089470858 -0.18795001397373748 1.007748688663434 0 0 0 0.3 1 62 3 44 11 47 29 36 41 13 50 68 53 28 65 11 67 22 96 35 97 25 111 29 113 18 
129 -0.3960060340524207 -0.19338801305467485 0.9865020204004746 0 0 0 0.32 1 63 3 45 12 15 33 36 41 14 43 20 44 33 60 18 64 10 71 25 77 34 81 36 88 18 92 17 96 36 
130 -0.4443179046872071 -0.19745615641852224 1.002693871163254 0 0 0 0.18 1 64 3 46 50 69 53 29 118 58 
131 -0.3224346660356783 -0.17004963194825204 0.9988052822532453 0 0 0 0.3 1 65 11 48 50 70 53 30 63 17 67 23 111 30 
132 -0.3519280776818786 -0.17043205877183426 0.9943953969116557 0 0 0 0.12 1 66 11 49 33 37 50 71 65 12 67 24 81 37 118 59 
133 -0.35197026653290536 -0.17045661590643083 0.9944256794486487 0 0 0 0.15 1 67 11 50 17 37 33 38 50 72 65 13 81 38 118 60 
134 -0.13882344040256858 -0.13139055466916047 1.051640001234543 0 0 0 0.2 1 68 44 34 50 73 81 39 
135 -0.417164996176363 -0.1323867968791586 0.9710520040119215 0 0 0 0.15 1 69 60 19 81 40 
136 -0.045500488921586334 -0.18613868571914458 1.0998462239353282 0 0 0 0.47 1 70 38 19 71 26 81 41 97 26 118 61 
137 0.01861752589650724 -0.15654151649511563 1.1195698079286323 0 0 0 0.23 1 71 3 47 11 51 15 34 44 35 50 74 71 27 81 42 85 16 
138 0.01864665903669477 -0.15644989749954716 1.1192964121478393 0 0 0 0.2 1 72 11 52 15 35 44 36 50 75 77 35 85 17 88 19 112 15 
139 -0.13971665644425524 -0.16933098827876708 1.0578150501279129 0 0 0 0.15 1 73 50 76 77 36 
140 -0.16645555936883172 -0.170365827155406 1.046093884424054 0 0 0 0.34 1 74 11 53 17 38 33 39 50 77 88 20 
141 -0.19515591726834114 -0.17327776920196977 1.03570838839849 0 0 0 0.37 1 75 15 36 29 37 50 78 77 37 88 21 97 27 111 31 112 16 127 29 
142 -0.13852882647805426 -0.1561413631387074 1.0567003476203964 0 0 0 0.36 1 76 15 37 29 38 33 40 38 20 50 79 77 38 113 19 127 30 
143 -0.21874184805579192 -0.15506772361038806 1.0255272826765958 0 0 0 0.31 1 77 3 48 11 54 29 39 33 41 38 21 44 37 50 80 63 18 71 28 77 39 85 18 88 22 96 37 111 32 113 20 118 62 127 31 
144 -0.09860126249102655 -0.12249136385639507 1.0689063137747081 0 0 0 0.39 1 78 3 49 11 55 15 38 38 22 50 81 
145 -0.44402653125423713 -0.17511680981302766 0.9875324308844305 0 0 0 0.6 1 79 11 56 53 31 96 38 
146 -0.4265389048189836 -0.16546887475251107 0.973352237549509 0 0 0 0.51 1 80 3 50 29 40 50 82 67 25 81 43 96 39 97 28 127 32 
147 -0.3634876794263121 -0.13963459874512874 0.9851571021697062 0 0 0 0.39 1 81 3 51 11 57 29 41 50 83 53 32 60 20 81 44 92 18 110 15 113 21 118 63 
148 -0.4596004702986662 -0.11841141450745238 0.942610854427275 0 0 0 0.21 1 82 53 33 97 29 
149 -0.038891533189241816 -0.014917277754121779 1.0785588066480607 0 0 0 0.34 1 83 53 34 65 14 96 40 
150 -0.21476894688300055 -0.16336336101546162 1.0274873458674814 0 0 0 0.28 1 84 11 58 17 39 29 42 38 23 67 26 71 29 97 30 111 33 112 17 113 22 118 64 127 33 
151 -0.038995492717846435 -0.00849935915342617 1.079563803321309 0 0 0 0.71 1 85 11 59 15 39 44 38 92 19 118 65 
152 -0.17609430611611662 -0.20102627982506668 1.0441791111827372 0 0 0 0.64 1 86 11 60 44 39 53 35 77 40 118 66 
153 0.022472354305279586 -0.14085947886010425 1.1166494644142646 0 0 0 0.68 1 87 11 61 12 16 15 40 32 13 33 42 40 23 44 40 50 84 53 36 67 27 71 30 73 20 77 41 81 45 85 19 92 20 96 41 112 18 118 67 127 34 
154 0.03518630238921166 -0.12852656190587622 1.1195653341253171 0 0 0 0.74 1 88 29 43 32 14 38 24 63 19 67 28 71 31 77 42 85 20 96 42 97 31 118 68 127 35 
155 -0.07022764347169734 -0.13049948129512143 1.0799639918435855 0 0 0 0.8 1 89 11 62 15 41 17 40 29 44 33 43 44 41 50 85 77 43 81 46 111 34 113 23 118 69 
156 -0.12620899838566516 -0.1656330255250573 1.0618903811959866 0 0 0 1.65 1 90 3 52 15 42 29 45 43 21 53 37 63 20 81 47 85 21 88 23 
157 -0.40977480045821824 -0.1400625507708228 0.9529649871548151 0 0 0 1.11 1 91 17 41 
158 -0.01907295517583599 -0.19076633869939424 1.1086953659039656 0 0 0 0.26 3 53 15 43 33 44 
159 -0.1914211459145592 -0.18695579622121747 1.0325973347418722 0 0 0 0.41 3 54 11 63 15 44 17 42 50 86 60 21 71 32 96 43 
160 -0.11065727464998595 -0.18066425166763594 1.0637137844200066 0 0 0 0.26 3 55 11 64 15 45 29 46 43 22 60 22 71 33 96 44 111 35 
161 -0.10219405755897343 -0.17693937411919922 1.0641222170832292 0 0 0 0.38 3 56 11 65 17 43 33 45 40 24 60 23 110 16 118 70 
162 -0.12315380522889141 -0.1763814877520444 1.0625905601058818 0 0 0 0.27 3 57 11 66 17 44 29 47 32 15 33 46 38 25 44 42 50 87 60 24 77 44 85 22 96 45 110 17 112 19 113 24 118 71 
163 -0.09857745386759047 -0.174948469281606 1.0666485519045352 0 0 0 0.29 3 58 11 67 40 25 60 25 71 34 96 46 
164 -0.21673432606326107 -0.17602877192951416 1.0206548179451844 0 0 0 0.27 3 59 17 45 29 48 60 26 71 35 96 47 111 36 112 20 118 72 
165 -0.4046989132514381 -0.18191213416777383 0.9820835207871205 0 0 0 0.28 3 60 33 47 41 15 60 27 
166 -0.10770831436048639 -0.16103880782360672 1.0672099331661395 0 0 0 0.19 3 61 29 49 32 16 43 23 96 48 97 32 113 25 
167 0.07354804480258348 -0.1549341931827239 1.13862578652754 0 0 0 0.26 3 62 33 48 73 21 111 37 
168 0.018669777544950795 -0.14751875648490909 1.114472519631158 0 0 0 0.21 3 63 11 68 50 88 96 49 118 73 
169 -0.03038564651129467 -0.14687128798858348 1.0927826892261412 0 0 0 0.42 3 64 32 17 60 28 64 11 111 38 
170 -0.022055523900555523 -0.1462537668017627 1.096504543353781 0 0 0 0.2 3 65 17 46 50 89 
171 0.01800086865236489 -0.14445336555843108 1.1119794011048996 0 0 0 0.32 3 66 11 69 50 90 96 50 
172 -0.07247973142520915 -0.14344266973042868 1.0789436119853353 0 0 0 0.34 3 67 33 49 40 26 50 91 96 51 
173 -0.03937718664873433 -0.13847228748973314 1.095100922741664 0 0 0 0.62 3 68 40 27 60 29 127 36 
174 -0.054078729188859344 -0.13559873099912428 1.084964481601996 0 0 0 0.61 3 69 11 70 15 46 17 47 33 50 40 28 50 92 73 22 77 45 96 52 97 33 113 26 
175 -0.12466646759345051 -0.13543054103376165 1.0599518678049098 0 0 0 0.37 3 70 12 17 15 47 29 50 33 51 40 29 44 43 113 27 
176 -0.35389997988359845 -0.14100722411489888 0.9891069322682076 0 0 0 0.06 3 71 67 29 111 39 
177 -0.3472456975681978 -0.14091831819903541 0.9924631847863901 0 0 0 0.28 3 72 41 16 60 30 67 30 111 40 
178 0.03804648426159191 -0.06450183760395399 1.1236410305623803 0 0 0 0.2 3 73 53 38 96 53 
179 -0.17235091656672205 -0.17989960930018434 1.046207083352065 0 0 0 0.55 3 74 11 71 29 51 43 24 77 46 92 21 97 34 113 28 
180 -0.4021837106956563 -0.1851633761624344 0.9827990748230041 0 0 0 0.09 3 75 17 48 50 93 111 41 
181 -0.03881439183516035 -0.16767683485304932 1.0960894089334405 0 0 0 0.2 3 76 112 21 118 74 
182 -0.17360689228805476 -0.16189979416530573 1.042596154098313 0 0 0 0.58 3 77 15 48 29 52 33 52 38 26 44 44 50 94 85 23 92 22 111 42 113 29 118 75 
183 -0.21062512216072232 -0.15864290708384002 1.0291315764896418 0 0 0 0.1 3 78 11 72 29 53 63 21 71 36 118 76 
184 -0.03699006951812464 -0.15238193951446213 1.0937467552859756 0 0 0 0.3 3 79 11 73 17 49 50 95 
185 0.06738783739607056 -0.14348956248682143 1.134331382037299 0 0 0 0.45 3 80 44 45 111 43 127 37 
186 -0.3632292119231517 -0.14682376503432898 0.9891195435616709 0 0 0 0.29 3 81 11 74 33 53 43 25 53 39 96 54 111 44 118 77 
187 0.0545166566334162 -0.13183219249804604 1.1321265093813795 0 0 0 0.27 3 82 15 49 33 54 40 30 43 26 44 46 50 96 60 31 67 31 71 37 77 47 92 23 96 55 127 38 
188 0.022109470363394054 -0.1302811208707778 1.122678528043973 0 0 0 0.42 3 83 11 75 53 40 67 32 97 35 
189 -0.0642115777669245 -0.12812951238186285 1.082385564643873 0 0 0 0.17 3 84 15 50 33 55 40 31 41 17 50 97 60 32 111 45 
190 -0.16349268527570357 -0.1285375833704671 1.0439118934367673 0 0 0 0.23 3 85 15 51 44 47 50 98 118 78 
191 -0.16732078399794725 -0.12779702571233847 1.0424382647675625 0 0 0 0.55 3 86 44 48 118 79 
192 0.12178087433853764 -0.07189536923629317 1.156805009252455 0 0 0 0.23 3 87 15 52 50 99 53 41 63 22 67 33 111 46 118 80 
193 0.12163371863981388 -0.06088895087288444 1.1535302775171465 0 0 0 0.15 3 88 15 53 17 50 32 18 50 100 53 42 
194 0.12131350372314077 -0.007609713709411974 1.1455054468698767 0 0 0 0.25 3 89 15 54 50 101 67 34 
195 0.0387407615516217 0.029605913936049923 1.108392710589648 0 0 0 0.35 3 90 11 76 15 55 17 51 33 56 43 27 50 102 53 43 63 23 71 38 73 23 77 48 96 56 111 47 118 81 127 39 
196 -0.3027773866935682 -0.18823321376398805 1.009124990665346 0 0 0 0.34 3 91 11 77 29 54 41 18 50 103 60 33 64 12 96 57 97 36 111 48 
197 -0.29805848389795236 -0.1831945672938374 1.005164001248113 0 0 0 0.04 3 92 81 48 111 49 
198 -0.12139827984555536 -0.17163312894117472 1.0648275621182466 0 0 0 0.23 3 93 15 56 32 19 33 57 38 27 44 49 63 24 77 49 85 24 111 50 113 30 
199 -0.41009089281248245 -0.17391127275455148 0.9816124618084537 0 0 0 0.59 3 94 33 58 41 19 65 15 73 24 81 49 96 58 
200 -0.4028704851972741 -0.17332050210071534 0.9842769898914917 0 0 0 0.21 3 95 53 44 71 39 118 82 
201 -0.1466726263057517 -0.1319324848861554 1.051320680941989 0 0 0 0.31 3 96 11 78 12 18 17 52 43 28 44 50 50 104 92 24 110 18 111 51 118 83 
202 -0.10830015982000528 -0.1253170081436803 1.067289813307886 0 0 0 0.23 3 97 41 20 112 22 118 84 
203 0.07535221173301654 -0.013460159594869427 1.1252374859389163 0 0 0 0.42 3 98 33 59 44 51 50 105 
204 -0.10217219942806995 -0.18019971602235602 1.032125363208516 0 0 0 0.87 3 99 11 79 15 57 43 29 65 16 
205 -0.060499141404448425 -0.15969310072017565 1.0861967406539144 0 0 0 0.49 3 100 17 53 33 60 38 28 41 21 60 34 63 25 64 13 65 17 71 40 73 25 77 50 88 24 96 59 111 52 112 23 127 40 
206 -0.03258091607593157 -0.1521922194613886 1.100750731714862 0 0 0 0.08 3 101 53 45 73 26 
207 0.11681390718552234 -0.1399632646033326 1.1554521200833054 0 0 0 0.52 3 102 11 80 17 54 81 50 
208 -0.12996411170944352 -0.12461925318618756 1.0655505918131523 0 0 0 0.48 3 103 11 81 17 55 50 106 118 85 
209 0.06099775089461231 0.03671229906364149 1.1167432004968525 0 0 0 0.4 3 104 50 107 53 46 81 51 
210 -0.34022994820123403 -0.16476327949694408 0.999365266089951 0 0 0 0.3 3 105 63 26 96 60 
211 -0.09454159663210589 -0.13942539296706927 1.0728720731347263 0 0 0 0.63 3 106 12 19 44 52 50 108 81 52 127 41 
212 -0.025548306667767452 -0.18487732373852445 1.108607319812177 0 0 0 0.48 3 107 15 58 53 47 63 27 96 61 110 19 
213 -0.025257257399142245 -0.185588795269444 1.1064874645383995 0 0 0 0.33 3 108 60 35 64 14 81 53 
214 -0.3865340115140079 -0.15810653746299735 0.9851652137172682 0 0 0 0.63 3 109 17 56 33 61 50 109 67 35 77 51 81 54 88 25 96 62 
215 0.04604142582232054 0.014554903557850577 1.1126869256124738 0 0 0 0.3 3 110 11 82 17 57 40 32 44 53 50 110 65 18 73 27 81 55 118 86 
216 0.046098220563352214 0.014568389454930003 1.113046361036008 0 0 0 0.24 3 111 11 83 15 59 17 58 33 62 40 33 44 54 50 111 65 19 81 56 118 87 
217 0.06027124374061018 0.014460650436413054 1.1189180966296326 0 0 0 0.33 3 112 50 112 81 57 118 88 
218 -0.4010031928776953 -0.20480510605116023 0.984161641089444 0 0 0 0.52 17 59 33 63 50 113 118 89 
219 -0.12389850553358249 -0.18912885756880277 1.0639128123557062 0 0 0 0.26 11 84 15 60 29 55 63 28 71 41 96 63 
220 -0.0912683320105912 -0.1602354502413429 1.0719512869664947 0 0 0 0.63 11 85 29 56 40 34 77 52 
221 -0.23741277505773534 -0.1950632369479688 1.024417304680314 0 0 0 0.31 11 86 67 36 71 42 77 53 96 64 
222 -0.15169661993534364 -0.1747182209224118 1.0530531136045733 0 0 0 0.37 11 87 15 61 17 60 29 57 33 64 38 29 50 114 71 43 73 28 77 54 112 24 113 31 127 42 
223 0.01851364953852009 -0.16747435614533973 1.121160864360973 0 0 0 0.22 11 88 43 30 67 37 127 43 
224 -0.09678883791940153 -0.16359860675293006 1.071155732569102 0 0 0 0.43 11 89 29 58 77 55 96 65 
225 -0.4471382758432217 -0.16346547614383403 0.9572207427600938 0 0 0 0.17 11 90 53 48 97 37 
226 0.02665312101099741 -0.14752869520146578 1.1206645311240218 0 0 0 0.16 11 91 33 65 50 115 
227 -0.16911289764645945 -0.14466817500562845 1.043177156418211 0 0 0 0.25 11 92 63 29 112 25 
228 -0.08908992074447648 -0.14117072791769608 1.0741754558758965 0 0 0 0.36 11 93 15 62 33 66 38 30 50 116 118 90 
229 -0.32317688201044503 -0.14070751526593847 0.9980508920461675 0 0 0 0.24 11 94 29 59 33 67 50 117 
230 -0.1065735461312836 -0.0168396934150903 1.0551516664517433 0 0 0 0.33 11 95 15 63 50 118 97 38 112 26 113 32 
231 -0.1943948170397747 -0.189594893825732 1.033918615303142 0 0 0 0.35 11 96 15 64 96 66 
232 -0.2926529096784399 -0.19171218716799374 1.0123397220602037 0 0 0 0.52 11 97 33 68 71 44 88 26 97 39 113 33 118 91 127 44 
233 -0.22563771985623376 -0.17059015922392343 1.0170111497628138 0 0 0 0.24 11 98 29 60 71 45 96 67 118 92 
234 -0.1585345597026805 -0.15208713323497985 1.0461690182359504 0 0 0 0.32 11 99 17 61 71 46 112 27 
235 -0.39803415094636074 -0.14775036761151453 0.9799553695608286 0 0 0 0.23 32 20 50 119 71 47 92 25 96 68 110 20 111 53 113 34 118 93 
236 0.004504701794959846 -0.13350655130724848 1.1110325528313671 0 0 0 0.36 11 100 15 65 17 62 29 61 32 21 33 69 38 31 40 35 60 36 110 21 
237 0.11810753244521094 -0.12889116801344042 1.1625832065839328 0 0 0 0.31 11 101 53 49 71 48 77 56 
238 -0.03250404650579607 -0.0780524875794011 1.0928552080421736 0 0 0 0.06 11 102 33 70 50 120 
239 -0.03882125530104938 -0.02070533188267387 1.0799451505578512 0 0 0 0.2 11 103 53 50 96 69 127 45 
240 -0.3882578070218253 -0.1865838411434374 0.9947122570595623 0 0 0 0.18 17 63 43 31 81 58 
241 -0.12130293590842024 -0.21351873579873087 1.0627848342424118 0 0 0 0.3 12 20 15 66 53 51 71 49 96 70 110 22 
242 0.10337233986383142 -0.1538644918855025 1.1555039319547724 0 0 0 0.21 15 67 50 121 118 94 
243 0.04329502863955006 0.03846402232431582 1.1079845873767096 0 0 0 0.99 11 104 17 64 50 122 65 20 77 57 97 40 118 95 
244 -0.08744173657677945 -0.12494216138841277 1.0811759751035945 0 0 0 0.34 11 105 15 68 17 65 50 123 
245 -0.037590536638356604 -0.008237719894098166 1.0741073813315398 0 0 0 0.35 11 106 17 66 44 55 53 52 92 26 111 54 118 96 
246 -0.36271955402486944 -0.1551720327011963 0.98390132125636 0 0 0 0.47 44 56 50 124 71 50 81 59 88 27 96 71 
247 -0.06967370568252823 -0.1307972302443777 1.0762070503278136 0 0 0 0.43 11 107 17 67 29 62 118 97 
248 -0.009625414789186586 -0.12632631127714802 1.1011276602881899 0 0 0 0.67 11 108 12 21 17 68 44 57 53 53 71 51 
249 -0.084342924571006 -0.06866589492075807 1.0706063634486889 0 0 0 0.39 11 109 12 22 15 69 17 69 33 71 38 32 77 58 113 35 118 98 127 46 
250 -0.0842205602088457 -0.06874105092876343 1.07027541950149 0 0 0 0.48 11 110 12 23 15 70 17 70 32 22 33 72 38 33 50 125 65 21 77 59 97 41 127 47 
251 0.0791195378038541 -0.1304428615413924 1.1409459447958235 0 0 0 0.24 12 24 15 71 40 36 44 58 50 126 118 99 
252 0.12169995351519862 -0.06682875038838329 1.155864083107449 0 0 0 0.31 15 72 29 63 50 127 53 54 111 55 118 100 
253 -0.017584890036803767 -0.0006325655470419706 1.0894355237251618 0 0 0 0.46 12 25 33 73 73 29 92 27 110 23 127 48 
254 -0.0022674866174090037 -0.1493424633810106 1.1086962889130274 0 0 0 0.27 12 26 50 128 53 55 
255 0.021093578864682824 -0.005773313681635609 1.0951827562157022 0 0 0 0.3 43 32 65 22 71 52 
256 -0.0685448286702733 -0.07921611417567687 1.0761071958586648 0 0 0 0.46 12 27 77 60 97 42 
257 0.06152720597738465 -0.17339836311695034 1.1370816752629662 0 0 0 0.14 15 73 50 129 53 56 
258 -0.20562643845224168 -0.15386317852489415 1.028985632508142 0 0 0 0.32 15 74 29 64 96 72 118 101 127 49 
259 -0.20673651480447214 -0.15447263803983677 1.0319626208958277 0 0 0 0.1 15 75 29 65 118 102 
260 -0.06304853775397078 -0.13336658404939714 1.0824669996476342 0 0 0 0.23 15 76 113 36 118 103 
261 -0.09446295750153104 -0.15811183323060646 1.0747271106319176 0 0 0 0.37 15 77 40 37 63 30 77 61 97 43 
262 -0.06302156246639075 -0.13665599873183293 1.0855286716707317 0 0 0 0.25 15 78 17 71 50 130 97 44 118 104 
263 -0.07288108448045515 -0.12857102426000858 1.078833194137881 0 0 0 0.13 15 79 40 38 71 53 
264 -0.09800392783241525 -0.12728770247702287 1.065881211635219 0 0 0 0.11 15 80 73 30 111 56 
265 0.11105921159056505 -0.12898643491077244 1.1545919713717305 0 0 0 0.51 15 81 32 23 44 59 50 131 53 57 73 31 77 62 118 105 
266 0.037936150122589926 -0.07515839583366841 1.1231476610778004 0 0 0 0.23 15 82 50 132 53 58 77 63 96 73 
267 -0.07865675108215672 -0.12419962607572707 1.0780241579181131 0 0 0 0.32 15 83 44 60 50 133 
268 0.08932243195757106 -0.126951939363255 1.1415859113497586 0 0 0 0.81 15 84 40 39 50 134 71 54 
269 0.03355735342114476 0.011972027633305588 1.0935902058240101 0 0 0 0.44 15 85 17 72 65 23 
270 0.03220371489234297 0.012497878859632605 1.1104370354525908 0 0 0 0.53 15 86 17 73 44 61 65 24 
271 -0.41075403893614193 -0.14279457581682878 0.9754468057476843 0 0 0 0.07 17 74 60 37 92 28 
272 -0.4229618584645669 -0.14830778549933737 0.972658326476854 0 0 0 0.22 17 75 29 66 33 74 43 33 44 62 53 59 60 38 71 55 92 29 96 74 110 24 113 37 
273 0.10720960192857781 -0.13320704181309367 1.1549208809112048 0 0 0 0.45 17 76 32 24 44 63 50 135 73 32 77 64 85 25 97 45 118 106 
274 -0.08418841029831031 -0.07864604511427262 1.0677629180447408 0 0 0 0.24 17 77 41 22 50 136 118 107 
275 -0.01819731832305811 -0.00504826907283229 1.0889347261400943 0 0 0 0.32 17 78 40 40 43 34 53 60 73 33 92 30 96 75 
276 -0.04573088270121353 -0.15829096842405266 1.0845045584734472 0 0 0 0.31 17 79 97 46 118 108 
277 -0.05385230896823719 0.026389297033496812 1.0697044989621194 0 0 0 0.45 17 80 44 64 50 137 96 76 111 57 
278 -0.03933465162631622 0.009568441916759948 1.078330434215505 0 0 0 0.16 17 81 40 41 44 65 50 138 81 60 118 109 
279 -0.024313802437468786 0.010170346141397906 1.0824316493560386 0 0 0 0.42 17 82 60 39 111 58 
280 -0.054223061623139265 0.01024098249837721 1.072651762385669 0 0 0 0.14 17 83 50 139 81 61 
281 -0.43952738528069796 -0.14533731726255078 0.9673196663011864 0 0 0 0.27 29 67 41 23 44 66 67 38 77 65 85 26 96 77 111 59 127 50 
282 -0.11892234173069874 -0.18415076441766576 1.0604847039942535 0 0 0 0.7 60 40 71 56 77 66 96 78 118 110 
283 -0.21399102424377917 -0.1595167264848347 1.02787116117479 0 0 0 0.41 29 68 44 67 50 140 64 15 77 67 85 27 112 28 
284 -0.08311427677119836 -0.15264630835151563 1.0761103542733883 0 0 0 0.34 33 75 44 68 50 141 53 61 77 68 
285 -0.07671450411764778 -0.14762755503804342 1.076749618346955 0 0 0 0.67 29 69 38 34 40 42 44 69 53 62 96 79 118 111 
286 -0.3789946845242126 -0.14646316227767095 0.9771973971203525 0 0 0 0.66 33 76 96 80 111 60 127 51 
287 -0.13958684291976312 -0.16936750180214077 1.0577052746467246 0 0 0 0.22 50 142 65 25 127 52 
288 -0.4166438696272952 -0.19443403622916192 0.9775915791479997 0 0 0 0.21 29 70 110 25 113 38 
289 -0.025313563944492017 -0.12765482361689612 1.09730100821159 0 0 0 0.44 29 71 33 77 50 143 97 47 118 112 
290 -0.040442979522728156 -0.14270387164569676 1.095759949134547 0 0 0 0.77 29 72 32 25 33 78 38 35 50 144 71 57 97 48 118 113 127 53 
291 -0.03932244431246817 -0.12777086856040523 1.0935466469120312 0 0 0 0.51 29 73 53 63 63 31 71 58 
292 0.10072733640666676 -0.14070512350262626 1.1408990589025505 0 0 0 0.21 32 26 44 70 50 145 
293 0.08744431080855455 -0.12975766682345072 1.1443975504772543 0 0 0 0.44 32 27 40 43 44 71 50 146 92 31 
294 0.08857102586345476 -0.13373137389022619 1.1451152401643359 0 0 0 0.32 32 28 33 79 40 44 44 72 50 147 
295 -0.4158878123661575 -0.15764607321367036 0.9761325869881904 0 0 0 0.42 50 148 53 64 67 39 127 54 
296 0.03479491359797899 -0.12851368027424873 1.1199560160939876 0 0 0 0.66 32 29 67 40 73 34 77 69 85 28 88 28 127 55 
297 0.002594275853604239 -0.09110561913284139 1.1163698155763917 0 0 0 0.59 32 30 50 149 65 26 
298 0.07305892637016825 -0.1737455234280387 1.1422955901254663 0 0 0 0.42 33 80 50 150 97 49 
299 -0.3875640905379791 -0.1432248138409131 0.9835450675901963 0 0 0 0.59 33 81 53 65 67 41 88 29 96 81 127 56 
300 -0.04747785131345698 -0.13588527734692304 1.0914270711127374 0 0 0 0.13 40 45 50 151 60 41 
301 -0.43940079415680994 -0.14516139163462172 0.9670081637032193 0 0 0 0.15 41 24 44 73 77 70 111 61 
302 -0.11931384875188578 -0.12572784387768327 1.0595732775600133 0 0 0 0.21 41 25 97 50 118 114 
303 0.05796390800512437 -0.17124227342527257 1.1349274374978433 0 0 0 0.35 43 35 50 152 53 66 92 32 96 82 127 57 
304 0.050361683566029485 -0.16609755873983595 1.1421902260118533 0 0 0 0.23 43 36 81 62 111 62 
305 -0.053192404289228695 0.04006143384457146 1.0639804986960049 0 0 0 0.35 43 37 53 67 65 27 
306 -0.46441002518159163 -0.13526491181463438 0.962058954472624 0 0 0 0.25 43 38 60 42 73 35 88 30 92 33 97 51 
307 0.07590836775652259 -0.16207686672528496 1.141191888866659 0 0 0 0.14 44 74 50 153 73 36 81 63 
308 0.00013200894719060056 -0.0200978098073394 1.0923999456003846 0 0 0 0.61 44 75 53 68 118 115 
309 -0.3871078463803122 -0.16459818556888195 0.9826979043647212 0 0 0 0.18 50 154 67 42 96 83 97 52 
310 -0.16623110066979283 -0.15745231487654238 1.044306140196007 0 0 0 0.62 50 155 53 69 111 63 113 39 
311 -0.35119558924675276 -0.18090876856606736 0.9946465440257852 0 0 0 0.09 63 32 65 28 111 64 
312 0.031613236401932795 -0.15696289707039526 1.1278131056775318 0 0 0 0.3 63 33 85 29 92 34 96 84 
313 -0.3401366675574026 -0.1491270998774229 0.98949733934113 0 0 0 0.41 77 71 96 85 97 53 
