# 3D point list with one line of data per point:
#   POINT3D_ID, X, Y, Z, R, G, B, ERROR, TRACK[] as (IMAGE_ID, POINT2D_IDX)
# Number of points: 339, mean track length: 8.49
876 0.11147510169546444 0.003623072714446811 1.1245544562232621 0 0 0 0.5 0 870 19 30 43 75 61 360 73 75 147 155 162 44 
877 0.42660667265620933 0.0034150665126790212 0.7479308154782657 0 0 0 0.1 0 871 120 56 147 156 
878 0.005780376384453641 0.00574522558552699 1.0832468364194825 0 0 0 0.39 0 872 12 28 15 126 44 112 50 315 53 185 61 361 77 122 81 49 89 103 92 75 97 102 118 275 128 147 135 19 146 146 172 179 
879 0.20109596109329902 0.00519927219791887 1.223996681603674 0 0 0 0.62 0 873 50 316 61 362 69 169 128 148 
880 -0.39656081538108473 0.008169466352540955 0.94465205636819 0 0 0 0.55 0 874 27 41 111 99 129 38 162 45 179 35 
881 -0.3891093335079639 0.008168993233607863 0.9415273582804765 0 0 0 0.28 0 875 41 37 61 363 64 25 96 88 179 36 
882 0.188087858283531 0.01564306952788819 1.1970876661704337 0 0 0 0.25 0 876 50 317 53 186 61 364 69 170 
883 0.38583836757531154 0.012815699237581935 0.8550110926070085 0 0 0 0.36 0 877 69 171 120 57 
884 0.38583836757531154 0.012815699237581935 0.8550110926070085 0 0 0 0.36 0 878 69 172 120 58 
885 -0.39097843942603244 0.018246599697406808 0.943107061226014 0 0 0 0.41 0 879 4 176 17 262 25 69 26 49 50 318 65 14 71 98 92 76 96 89 103 52 118 276 128 149 146 147 157 178 158 144 176 144 
886 -0.3249640470919269 0.02057189868570818 0.9564885670053545 0 0 0 0.39 0 880 53 187 92 77 172 180 176 145 
887 0.40861276378960065 0.017706873024081214 0.7742501367810378 0 0 0 0.09 0 881 69 173 120 59 
888 0.39797641268171324 0.02939530802278461 0.8026445298500641 0 0 0 0.39 0 882 69 174 120 60 
889 0.10559453439518206 0.04352946210324808 1.1158028144398042 0 0 0 0.38 0 883 2 158 11 208 36 27 44 113 50 319 53 188 54 46 61 365 73 76 77 123 97 103 103 53 111 100 114 29 118 277 129 39 
890 -0.4169183113422933 -0.21001045745215377 0.7999709151308098 0 0 0 0.18 0 884 53 189 157 179 
891 0.3474090350834404 -0.21291497692147648 0.9622007682928883 0 0 0 0.24 0 885 64 26 69 175 81 50 89 104 
892 0.3507747236593618 -0.20740994951955524 0.9559078413383856 0 0 0 0.3 0 886 67 43 69 176 81 51 89 105 111 101 129 40 
893 0.3507747236593618 -0.20740994951955524 0.9559078413383856 0 0 0 0.3 0 887 67 44 69 177 81 52 89 106 111 102 129 41 
894 -0.2374196846304584 -0.21448770228562336 1.0096240425359346 0 0 0 0.58 0 888 17 263 50 320 61 366 63 26 89 107 118 278 126 23 138 26 
895 -0.18968874752042478 -0.2124440134044332 1.02421238057518 0 0 0 0.41 0 889 14 73 15 127 38 55 54 47 61 367 67 45 89 108 128 150 152 215 
896 0.3863529599285563 -0.1925930606730818 0.9165074857551304 0 0 0 0.54 0 890 64 27 69 178 
897 -0.4459015406430284 -0.19780273159264583 0.9787748450975094 0 0 0 0.75 0 891 2 159 12 29 17 264 50 321 96 90 114 30 118 279 152 216 
898 -0.12322493692134126 -0.21033674000757302 1.0497898689805696 0 0 0 0.49 0 892 69 179 97 104 118 280 
899 -0.3853515885024825 -0.19180657193717363 0.9710942496582092 0 0 0 0.43 0 893 2 160 25 70 81 53 152 217 
900 0.35952824592392424 -0.1949087422745237 0.974769626928949 0 0 0 0.38 0 894 14 74 64 28 69 180 138 27 
901 -0.30775402979715133 -0.19004368618683773 0.990180180702937 0 0 0 0.53 0 895 3 171 4 177 11 209 50 322 61 368 67 46 81 54 88 9 114 31 152 218 
902 -0.2843203235575538 -0.18947927516633783 0.9969219909717107 0 0 0 0.56 0 896 4 178 11 210 25 71 27 42 38 56 50 323 60 39 97 105 114 32 118 281 
903 -0.3817267461836987 -0.13163314242604895 0.7039528263826192 0 0 0 0.2 0 897 61 369 157 180 
904 0.5060251238169322 -0.16362014164303493 0.858564915460038 0 0 0 0.18 0 898 64 29 138 28 
905 -0.27005349970724213 -0.18455508778149493 1.0114059378477376 0 0 0 0.54 0 899 50 324 61 370 
906 -0.027332590180545978 -0.1949206758355765 1.0860807407671647 0 0 0 0.48 0 900 2 161 15 128 69 181 
907 -0.4544404513460042 -0.16983743081956026 0.9573431100465407 0 0 0 0.54 0 901 17 265 53 190 128 151 
908 -0.018285011467990935 -0.19264221524179087 1.0858579474762309 0 0 0 0.09 0 902 61 371 73 77 
909 -0.41782806350667984 -0.16894628937282932 0.9591074297644455 0 0 0 0.32 0 903 50 325 61 372 64 30 65 15 96 91 
910 -0.2508186945029767 -0.1762578299695468 1.0065167222118596 0 0 0 0.59 0 904 3 172 4 179 11 211 50 326 53 191 61 373 67 47 81 55 89 109 96 92 118 282 128 152 147 157 
911 -0.37455079389770946 -0.16823071036225995 0.9714874001581394 0 0 0 0.37 0 905 3 173 4 180 11 212 27 43 50 327 61 374 67 48 77 124 81 56 88 10 96 93 114 33 118 283 127 23 128 153 148 51 152 219 164 94 179 37 
912 -0.32978146214705273 -0.16687084067409677 0.9801338264240771 0 0 0 0.24 0 906 65 16 158 145 
913 -0.31816121610328024 -0.1663545395251502 0.982263809939751 0 0 0 0.32 0 907 53 192 60 40 96 94 103 54 111 103 158 146 176 146 
914 -0.2300286558157545 -0.1697230841629264 1.0043611150786562 0 0 0 0.66 0 908 11 213 61 375 118 284 147 158 
915 -0.4045497241278544 -0.1623060083812262 0.9610842739213115 0 0 0 0.35 0 909 2 162 17 266 33 57 73 78 
916 -0.4043907852852867 -0.16232702612234226 0.9609110640457674 0 0 0 0.33 0 910 17 267 33 58 50 328 73 79 97 106 152 220 
917 -0.46807861042332544 -0.15886405096822975 0.9481584834552561 0 0 0 0.5 0 911 3 174 4 181 53 193 61 376 67 49 81 57 128 154 138 29 172 181 176 147 
918 -0.18604184478744473 -0.17070764037032987 1.0191256801257886 0 0 0 0.46 0 912 2 163 4 182 11 214 15 129 16 80 17 268 26 50 27 44 29 84 33 59 50 329 54 48 61 377 77 125 81 58 88 11 96 95 113 48 118 285 146 148 147 159 148 52 152 221 164 95 
919 -0.2720256682056359 -0.16529779734451772 0.9973217439488705 0 0 0 0.39 0 913 2 164 3 175 17 269 50 330 53 194 61 378 65 17 96 96 97 107 103 55 158 147 176 148 
920 -0.2607849568716763 -0.16452859680308682 0.9989918326369754 0 0 0 0.54 0 914 2 165 3 176 11 215 16 81 50 331 53 195 61 379 81 59 89 110 96 97 103 56 146 149 162 46 172 182 
921 -0.2844271626148297 -0.15977128971328453 0.9903481979135456 0 0 0 0.22 0 915 17 270 61 380 162 47 
922 -0.32886723540332446 -0.08524580169894093 0.5490979075966752 0 0 0 0.68 0 916 53 196 61 381 
923 -0.2637269617636015 -0.1574120699712914 0.9949027745585495 0 0 0 0.23 0 917 2 166 3 177 4 183 11 216 26 51 27 45 29 85 33 60 38 57 50 332 61 382 65 18 67 50 81 60 96 98 97 108 118 286 127 24 128 155 147 160 158 148 172 183 176 149 
924 -0.25526221980196534 -0.15772810720616523 0.9984487420529914 0 0 0 0.37 0 918 3 178 4 184 11 217 16 82 25 72 27 46 29 86 50 333 53 197 61 383 63 27 65 19 67 51 71 99 96 99 97 109 118 287 126 24 128 156 147 161 148 53 157 181 172 184 176 150 
925 -0.062489438424462466 -0.1684127047283685 1.0712427773936144 0 0 0 0.56 0 919 11 218 15 130 26 52 50 334 61 384 69 182 89 111 118 288 128 157 129 42 152 222 158 149 176 151 
926 -0.04816651200729237 -0.16695513829091488 1.0785780444420707 0 0 0 0.55 0 920 11 219 50 335 61 385 81 61 128 158 152 223 
927 -0.4678733134937125 -0.1417571022633974 0.9437502412430996 0 0 0 0.49 0 921 4 185 12 30 17 271 19 31 29 87 50 336 53 198 64 31 67 52 81 62 96 100 111 104 118 289 157 182 176 152 179 38 
928 -0.4559555831833901 -0.14166711678454955 0.9533987595844025 0 0 0 0.58 0 922 17 272 50 337 81 63 96 101 118 290 172 185 
929 0.03402138817963227 -0.16462686844362043 1.1125815238511974 0 0 0 0.34 0 923 40 33 147 162 176 153 
930 -0.3263051133961153 -0.07728796499025048 0.5437310454120211 0 0 0 0.3 0 924 53 199 61 386 118 291 
931 -0.4275368689344548 -0.1382954423502935 0.9505302504422176 0 0 0 0.38 0 925 2 167 3 179 4 186 9 27 17 273 26 53 32 53 33 61 41 38 50 338 61 387 71 100 81 64 111 105 113 49 114 34 118 292 146 150 164 96 172 186 179 39 
932 -0.05421311380002694 -0.1561892862842016 1.0736170439873198 0 0 0 0.88 0 926 2 168 9 28 12 31 14 75 32 54 36 28 44 114 69 183 73 80 111 106 129 43 146 151 
933 -0.4723608414979609 -0.1345468174881901 0.941399709655167 0 0 0 0.33 0 927 4 187 17 274 53 200 61 388 65 20 67 53 81 65 157 183 176 154 
934 -0.3320136418979373 -0.1358644704013664 0.974348929365947 0 0 0 0.29 0 928 2 169 9 29 11 220 12 32 17 275 19 32 25 73 26 54 27 47 32 55 33 62 38 58 41 39 44 115 50 339 53 201 61 389 65 21 67 54 77 126 92 78 96 102 110 23 111 107 118 293 127 25 128 159 138 30 146 152 148 54 157 184 158 150 162 48 164 97 176 155 
935 0.3791235710166905 -0.12598592786615406 0.8943904459638281 0 0 0 0.51 0 929 69 184 89 112 
936 0.3906233655651434 -0.11680290050763328 0.8519400308637869 0 0 0 0.58 0 930 69 185 89 113 
937 -0.362193934109852 -0.13091294505947382 0.97031178741852 0 0 0 0.21 0 931 50 340 61 390 172 187 
938 -0.2523752473975272 -0.13334479351071737 0.9923709864671483 0 0 0 0.44 0 932 2 170 3 180 4 188 9 30 16 83 17 276 25 74 26 55 27 48 32 56 38 59 50 341 61 391 63 28 71 101 77 127 81 66 88 12 89 114 92 79 96 103 111 108 118 294 128 160 129 44 146 153 147 163 157 185 158 151 164 98 
939 -0.2236776897976695 -0.1335767289262769 1.0000984078730153 0 0 0 0.62 0 933 4 189 11 221 12 33 16 84 19 33 25 75 26 56 27 49 29 88 36 29 38 60 53 202 65 22 67 55 96 104 97 110 118 295 126 25 146 154 147 164 152 224 158 152 172 188 176 156 
940 0.1066719534022725 -0.15322397948613437 1.1460293454602752 0 0 0 0.79 0 934 2 171 11 222 15 131 50 342 61 392 69 186 73 81 77 128 81 67 97 111 118 296 128 161 147 165 152 225 158 153 164 99 
941 -0.4748402312090534 -0.12417783519548159 0.9404382871786598 0 0 0 0.17 0 935 53 203 61 393 
942 -0.4754445039957121 -0.12423960577702016 0.9414181401727953 0 0 0 0.24 0 936 61 394 157 186 
943 -0.45611110304890584 -0.12378314721829378 0.9442802737313353 0 0 0 0.29 0 937 2 172 4 190 17 277 25 76 29 89 50 343 60 41 61 395 67 56 71 102 92 80 110 24 118 297 128 162 146 155 157 187 162 49 
944 -0.4560124432886525 -0.12379155563430554 0.9440798333950429 0 0 0 0.27 0 938 3 181 4 191 12 34 17 278 29 90 41 40 43 76 50 344 53 204 60 42 61 396 64 32 67 57 71 103 81 68 88 13 92 81 96 105 111 109 118 298 128 163 157 188 172 189 179 40 
945 -0.07758551847578198 -0.1374471812202715 1.059674745232673 0 0 0 0.34 0 939 2 173 3 182 4 192 11 223 14 76 15 132 16 85 17 279 25 77 29 91 38 61 43 77 44 116 50 345 53 205 54 49 60 43 61 397 63 29 65 23 69 187 71 104 73 82 77 129 81 69 85 24 88 14 89 115 92 82 96 106 97 112 113 50 118 299 127 26 128 164 135 20 146 156 147 166 152 226 157 189 158 154 159 32 164 100 172 190 176 157 179 41 
946 0.00041432701525855856 -0.1379196327120877 1.0895143771485858 0 0 0 0.41 0 940 3 183 53 206 69 188 73 83 81 70 89 116 92 83 129 45 148 55 152 227 164 101 
947 0.39129111632098945 -0.10745990506606966 0.851017878763465 0 0 0 0.36 0 941 14 77 64 33 138 31 
948 -0.4494430736098213 -0.1168104237562543 0.9418771224889032 0 0 0 0.35 0 942 2 174 3 184 4 193 9 31 11 224 12 35 17 280 19 34 25 78 26 57 29 92 43 78 44 117 50 346 53 207 60 44 61 398 65 24 67 58 71 105 73 84 77 130 81 71 88 15 92 84 96 107 97 113 103 57 110 25 111 110 113 51 118 300 126 26 128 165 138 32 146 157 148 56 157 190 158 155 159 33 162 50 164 102 172 191 176 158 179 42 
949 -0.055152365287063014 -0.12552446528166677 1.066686707073915 0 0 0 0.65 0 943 2 175 3 185 11 225 17 281 19 35 53 208 54 50 63 30 69 189 81 72 96 108 97 114 110 26 118 301 129 46 147 167 148 57 159 34 162 51 172 192 
950 0.004745330610501053 -0.1238608021827787 1.0933118000771314 0 0 0 0.52 0 944 15 133 29 93 38 62 92 85 138 33 146 158 172 193 176 159 
951 -0.06001661438177797 -0.11772244383455181 1.0620874601636117 0 0 0 0.1 0 945 40 34 54 51 
952 -0.050498507281667895 -0.11859243581186736 1.070353938881067 0 0 0 0.26 0 946 4 194 26 58 77 131 128 166 147 168 
953 -0.2668227339863513 -0.10428641577110326 0.9876644567383788 0 0 0 0.39 0 947 3 186 61 399 147 169 
954 0.0062390223590263715 -0.11601886055135259 1.0918462942744667 0 0 0 0.6 0 948 9 32 19 36 40 35 96 109 118 302 146 159 157 191 164 103 
955 0.11174961160286943 -0.11928489287255063 1.1360378206875081 0 0 0 0.35 0 949 3 187 4 195 11 226 15 134 17 282 19 37 29 94 32 57 44 118 50 347 54 52 61 400 63 31 67 59 71 106 81 73 92 86 111 111 118 303 129 47 146 160 147 170 152 228 172 194 176 160 
956 -0.38678956660856256 -0.0979324452816214 0.9581672550858932 0 0 0 0.37 0 950 11 227 27 50 41 41 50 348 53 209 61 401 81 74 96 110 97 115 118 304 128 167 157 192 164 104 172 195 
957 0.411438576393545 -0.07791743165203906 0.7718124493087326 0 0 0 0.36 0 951 14 78 64 34 69 190 
958 0.4144560050737498 -0.07424139027993594 0.7508656768736657 0 0 0 0.25 0 952 69 191 89 117 120 61 
959 0.4137327790974048 -0.07429897284778972 0.7664918568354914 0 0 0 0.51 0 953 69 192 138 34 
960 0.4136469546009568 -0.0744447583714428 0.7663884744931079 0 0 0 0.51 0 954 64 35 69 193 138 35 
961 -0.2686150636146793 -0.09271708248474089 0.9910140750342753 0 0 0 0.59 0 955 3 188 61 402 65 25 103 58 110 27 111 112 113 52 118 305 148 58 172 196 
962 -0.22184208073908213 -0.09131751712260551 1.00302495801777 0 0 0 0.26 0 956 9 33 113 53 
963 0.1763466412250328 -0.10932065403374816 1.1917986563604375 0 0 0 0.44 0 957 50 349 69 194 
964 0.40284281108728665 -0.06994569117013201 0.8073057096615025 0 0 0 0.26 0 958 69 195 89 118 120 62 
965 0.4034251150047026 -0.07005125298305091 0.8090270596350077 0 0 0 0.19 0 959 89 119 120 63 
966 -0.4441520733694167 -0.07979615414472477 0.939605768639349 0 0 0 0.29 0 960 4 196 25 79 61 403 158 156 
967 -0.33705463954954207 -0.07672973304099019 0.9693845630843284 0 0 0 0.18 0 961 11 228 26 59 44 119 129 48 172 197 
968 -0.32180142704840003 -0.0763454369778139 0.973468625096558 0 0 0 0.3 0 962 4 197 17 283 63 32 96 111 146 161 172 198 176 161 
969 -0.32172400279575863 -0.07645235317039936 0.9734767752602863 0 0 0 0.27 0 963 3 189 4 198 129 49 164 105 176 162 
970 0.40859831616175896 -0.05799690752666657 0.7834191474524127 0 0 0 0.18 0 964 14 79 69 196 
971 0.36108505517772566 -0.06586899581475827 0.9170044849859376 0 0 0 0.32 0 965 67 60 120 64 
972 0.4036244833460447 -0.056170317132439265 0.7945800968846103 0 0 0 0.14 0 966 69 197 120 65 
973 -0.46364357185127 -0.05815711295186002 0.9336119855421985 0 0 0 0.4 0 967 2 176 4 199 17 284 29 95 44 120 50 350 53 210 61 404 71 107 73 85 77 132 96 112 118 306 164 106 176 163 
974 0.1540938838504272 -0.0717640499351794 1.1722006933034932 0 0 0 0.48 0 968 3 190 4 200 14 80 15 135 17 285 32 58 36 30 44 121 50 351 53 211 54 53 61 405 69 198 71 108 77 133 89 120 92 87 97 116 118 307 128 168 158 157 162 52 172 199 
975 0.15408933600025657 -0.07168644319394166 1.1718900412688202 0 0 0 0.5 0 969 3 191 4 201 14 81 15 136 17 286 32 59 36 31 44 122 53 212 54 54 61 406 71 109 77 134 97 117 118 308 128 169 158 158 
976 0.1726276894633331 -0.06980789330978135 1.1949651919701803 0 0 0 0.33 0 970 14 82 50 352 61 407 69 199 97 118 120 66 128 170 172 200 
977 -0.08873125223120594 -0.052091637536528214 1.0536874555949332 0 0 0 0.15 0 971 97 119 128 171 
978 -0.4688892550397077 -0.04452089499424448 0.9318112025592421 0 0 0 0.44 0 972 4 202 50 353 61 408 129 50 
979 0.12121091431438162 -0.055444020654731675 1.1360475473614524 0 0 0 0.38 0 973 2 177 3 192 4 203 11 229 14 83 15 137 17 287 19 38 29 96 32 60 36 32 43 79 44 123 50 354 53 213 54 55 61 409 65 26 67 61 69 200 71 110 73 86 77 135 85 25 89 121 92 88 103 59 111 113 118 309 128 172 129 51 147 171 152 229 158 159 
980 0.14439610164744168 -0.055599212801929004 1.1625635166019805 0 0 0 0.38 0 974 4 204 11 230 15 138 17 288 32 61 36 33 50 355 53 214 61 410 65 27 67 62 77 136 89 122 97 120 103 60 118 310 128 173 129 52 147 172 158 160 172 201 
981 0.1617120697052383 -0.054329226924875844 1.177599340388042 0 0 0 0.36 0 975 44 124 50 356 53 215 61 411 69 201 97 121 172 202 
982 0.16236134591343426 -0.054770367027799895 1.1821523757207228 0 0 0 0.39 0 976 11 231 14 84 32 62 50 357 53 216 61 412 65 28 69 202 89 123 97 122 103 61 172 203 
983 0.1806741712195305 -0.052029572801142954 1.201043228437133 0 0 0 0.38 0 977 15 139 17 289 32 63 50 358 53 217 61 413 89 124 92 89 97 123 118 311 120 67 128 174 129 53 172 204 
984 -0.43714834315888074 -0.03241986162072386 0.9364547399152016 0 0 0 0.19 0 978 61 414 65 29 73 87 129 54 
985 -0.306147911236379 -0.034029411595168674 0.9825457624849645 0 0 0 0.2 0 979 11 232 176 164 
986 0.43049680632979975 -0.02320001500588935 0.7469873502428543 0 0 0 0.21 0 980 120 68 147 173 
987 0.4392279215853746 -0.022960620241535067 0.7505706558159267 0 0 0 0.23 0 981 81 75 120 69 
988 0.4089093226917491 -0.019404148075635456 0.7752525111437676 0 0 0 0.22 0 982 64 36 120 70 138 36 147 174 
989 -0.06627125884848813 -0.02498785758896431 1.0487227285663487 0 0 0 0.42 0 983 2 178 17 290 73 88 128 175 146 162 152 230 176 165 
990 -0.4409575717187659 -0.021363857778281106 0.9299804092238181 0 0 0 0.27 0 984 4 205 111 114 148 59 
991 0.4303157131368179 -0.016551837868308043 0.7475556236596324 0 0 0 0.43 0 985 14 85 120 71 147 175 
992 0.20963362476101088 -0.024356654773918015 1.2295940308916775 0 0 0 0.39 0 986 61 415 69 203 128 176 
993 -0.4275715052775692 -0.015563800314938992 0.9344035905243097 0 0 0 0.22 0 987 17 291 172 205 
994 0.4039500413921458 -0.012767771187444425 0.7903926075039306 0 0 0 0.34 0 988 14 86 69 204 
995 0.4043788726260105 -0.012959581106625838 0.7914153578497826 0 0 0 0.27 0 989 64 37 69 205 89 125 138 37 
996 -0.17589123474849738 -0.016629514427329652 1.011111956795984 0 0 0 0.44 0 990 3 193 4 206 9 34 11 233 14 87 15 140 16 86 27 51 29 97 38 63 50 359 61 416 77 137 81 76 113 54 146 163 147 176 152 231 157 193 
997 0.4059574585974183 -0.01180962448270089 0.7835973567990262 0 0 0 0.27 0 991 69 206 138 38 
998 0.40579867977430606 -0.011947051750893093 0.7833561263385992 0 0 0 0.31 0 992 69 207 120 72 138 39 
999 -0.39728909758662506 -0.014059487577982076 0.9458174498527995 0 0 0 0.25 0 993 50 360 61 417 81 77 129 55 162 53 
1000 0.40199526990916495 -0.01183069312063525 0.7973583891511634 0 0 0 0.38 0 994 69 208 120 73 
1001 -0.4309395559879834 -0.00908645841407272 0.933686703705771 0 0 0 0.31 0 995 11 234 50 361 53 218 
1002 -0.1728280974365258 -0.007722500816365677 1.009518608201534 0 0 0 0.39 0 996 4 207 11 235 15 141 17 292 29 98 43 80 53 219 69 209 77 138 81 78 85 26 97 124 103 62 118 312 126 27 147 177 148 60 152 232 172 206 
1003 -0.04215622960456759 -0.008109401949750942 1.0620033733891339 0 0 0 0.45 0 997 4 208 65 30 96 113 118 313 
1004 -0.4523715690992455 -0.005695018516452182 0.9257013131465973 0 0 0 0.39 0 998 17 293 65 31 67 63 
1005 -0.38163942484730773 -0.004023578007490635 0.9474379765823496 0 0 0 0.21 0 999 61 418 126 28 
1006 0.01761592921614101 -0.00537955618266684 1.081862458414251 0 0 0 0.23 0 1000 92 90 96 114 157 194 
1007 0.40375163389797103 -0.002680268134575601 0.7893227607002256 0 0 0 0.34 0 1001 69 210 138 40 
1008 -0.3484535359375932 -0.0023795734287324947 0.9541394172939592 0 0 0 0.29 0 1002 4 209 11 236 17 294 50 362 96 115 118 314 157 195 176 166 
1009 -0.46376151878964383 -0.0007099181391309403 0.9274745832245458 0 0 0 0.45 0 1003 2 179 4 210 44 125 50 363 53 220 81 79 129 56 
1010 0.0009318228566374089 -0.0006487278871816722 1.0806412047245872 0 0 0 0.27 0 1004 53 221 92 91 
1011 0.07401116186949383 0.0011434558926211034 1.008141396821513 0 0 0 0.54 0 1005 43 81 61 419 
1012 -0.401036621440758 0.002667178483126513 0.9443168434201067 0 0 0 0.44 0 1006 4 211 103 63 146 164 179 43 
1013 -0.4486287154081446 0.005666540257870187 0.9251943124168834 0 0 0 0.23 0 1007 2 180 4 212 71 111 
1014 0.13523459512272795 0.009586663967520477 1.1397859869814841 0 0 0 0.33 0 1008 3 194 4 213 11 237 14 88 17 295 32 64 44 126 50 364 53 222 54 56 61 420 65 32 69 211 77 139 89 126 103 64 111 115 118 315 120 74 128 177 147 178 
1015 -0.32564442220873 0.010771748899961547 0.961681402055738 0 0 0 0.46 0 1009 11 238 17 296 25 80 43 82 50 365 61 421 81 80 96 116 97 125 118 316 129 57 146 165 157 196 158 161 162 54 176 167 
1016 0.1534184221687715 0.011645047144853614 1.1618102051737977 0 0 0 0.31 0 1010 11 239 17 297 50 366 53 223 118 317 120 75 164 107 
1017 0.11936536080235483 0.013264340739099564 1.1281682335234082 0 0 0 0.38 0 1011 11 240 40 36 53 224 54 57 65 33 71 112 73 89 77 140 
1018 0.15372839685927153 0.01961188186163358 1.162576099070359 0 0 0 0.32 0 1012 17 298 69 212 118 318 
1019 -0.31483422401790206 0.019537072154025493 0.9608202481391401 0 0 0 0.38 0 1013 2 181 3 195 11 241 19 39 26 60 33 63 44 127 81 81 88 16 126 29 129 58 162 55 
1020 -0.3404951495374425 0.020260780562316807 0.9435563156734884 0 0 0 0.47 0 1014 11 242 17 299 
1021 0.3862067739020906 0.017549473298707294 0.8496045626431722 0 0 0 0.21 0 1015 64 38 69 213 120 76 138 41 
1022 -0.28578450759325663 0.027528734234365696 0.9682484263991544 0 0 0 0.35 0 1016 44 128 50 367 157 197 
1023 0.13423550744892296 0.05100967409001803 1.1390929970037338 0 0 0 0.52 0 1017 53 225 61 422 
1024 0.15268805476086908 0.05410905115142911 1.1657835445732556 0 0 0 0.38 0 1018 17 300 53 226 
1025 -0.24150730728965028 -0.2232119378208502 1.006206295123067 0 0 0 0.21 0 1019 41 42 89 127 
1026 -0.24205563959279353 -0.22361189032960818 1.0085383155034278 0 0 0 0.31 0 1020 3 196 33 64 41 43 61 423 64 39 67 64 111 116 127 27 129 59 152 233 179 44 
1027 -0.34879810232643493 -0.13196781150054587 0.617269187619715 0 0 0 0.36 0 1021 61 424 128 178 
1028 -0.1853966455664669 -0.22118125048987589 1.0261936054419938 0 0 0 0.52 0 1022 11 243 17 301 53 227 63 33 97 126 118 319 152 234 158 162 
1029 -0.1857450305944277 -0.22142858592642395 1.027420641511485 0 0 0 0.57 0 1023 11 244 53 228 97 127 152 235 172 207 
1030 -0.24698628634782124 -0.21476616895777756 1.0033556615568304 0 0 0 0.91 0 1024 41 44 61 425 64 40 89 128 138 42 148 61 152 236 
1031 -0.12782601162611107 -0.2191298507506125 1.0484822439260741 0 0 0 0.38 0 1025 3 197 11 245 14 89 15 142 17 302 53 229 61 426 65 34 69 214 118 320 
1032 -0.12773596663924078 -0.2187970737972653 1.0466744123950247 0 0 0 0.44 0 1026 11 246 14 90 53 230 61 427 69 215 172 208 
1033 -0.06959216887420049 -0.21721338514872313 1.0732477354083334 0 0 0 0.45 0 1027 14 91 17 303 50 368 53 231 61 428 69 216 97 128 118 321 152 237 157 198 158 163 
1034 -0.06957450169916188 -0.2172298046867097 1.0730848128300936 0 0 0 0.44 0 1028 11 247 14 92 15 143 17 304 41 45 50 369 53 232 61 429 64 41 69 217 97 129 103 65 118 322 128 179 129 60 138 43 152 238 157 199 158 164 172 209 
1035 -0.18660271401307224 -0.20819128037580725 1.0314300892201371 0 0 0 0.43 0 1029 14 93 40 37 97 130 103 66 118 323 172 210 
1036 0.3476783948843124 -0.1947331353032841 0.9684449819480975 0 0 0 0.14 0 1030 64 42 69 218 138 44 
1037 -0.3805336823459875 -0.13807630080470307 0.7080404920882869 0 0 0 0.31 0 1031 61 430 172 211 
1038 -0.38101955077147687 -0.1352030359951184 0.6965224329014006 0 0 0 0.41 0 1032 17 305 53 233 61 431 157 200 172 212 
1039 -0.29858096840668297 -0.19172613036302152 0.9900229708761725 0 0 0 0.36 0 1033 2 182 17 306 27 52 50 370 53 234 63 34 65 35 71 113 89 129 92 92 97 131 118 324 176 168 
1040 0.4126555468222869 -0.15892180979293394 0.8175335381796572 0 0 0 0.3 0 1034 64 43 69 219 89 130 138 45 
1041 -0.25508855180645246 -0.19134793192482122 1.0161872639984348 0 0 0 0.67 0 1035 2 183 11 248 50 371 147 179 
1042 -0.3312543733312059 -0.18551383501460086 0.9939415571553675 0 0 0 0.8 0 1036 11 249 50 372 61 432 81 82 118 325 152 239 
1043 -0.2854562844188243 -0.17552508749021312 0.9911074246425388 0 0 0 0.29 0 1037 2 184 3 198 11 250 26 61 27 53 38 64 63 35 81 83 159 35 
1044 -0.2861678723514704 -0.17597762306549547 0.992846828931004 0 0 0 0.37 0 1038 3 199 64 44 81 84 127 28 138 46 
1045 0.4033008418741365 -0.14364031023807652 0.8093807454555672 0 0 0 0.44 0 1039 69 220 147 180 
1046 -0.472094770861103 -0.16639668603937327 0.9467762328271646 0 0 0 0.4 0 1040 2 185 29 99 50 373 53 235 61 433 65 36 71 114 111 117 114 35 118 326 157 201 158 165 176 169 179 45 
1047 -0.47270988417088544 -0.1665530484395441 0.9476990641805583 0 0 0 0.33 0 1041 2 186 50 374 65 37 71 115 73 90 114 36 118 327 128 180 172 213 179 46 
1048 -0.3066837944180709 -0.1605633488171651 0.9864914672501103 0 0 0 0.19 0 1042 3 200 60 45 
1049 -0.30654723697141756 -0.16055230372824564 0.9863546331859301 0 0 0 0.27 0 1043 2 187 3 201 27 54 50 375 60 46 148 62 
1050 -0.46750421520986213 -0.15449800045874365 0.9624194068794315 0 0 0 0.76 0 1044 12 36 50 376 61 434 157 202 158 166 172 214 176 170 
1051 -0.46348709921219244 -0.15311124172525076 0.9549487167965891 0 0 0 1.09 0 1045 50 377 146 166 158 167 172 215 176 171 
1052 -0.2126137039429953 -0.15955761089716097 1.0091233439165244 0 0 0 0.38 0 1046 2 188 11 251 16 87 17 307 26 62 27 55 29 100 33 65 38 65 40 38 44 129 50 378 61 435 67 65 71 116 77 141 89 131 96 117 97 132 113 55 118 328 127 29 128 181 129 61 135 21 147 181 152 240 157 203 176 172 
1053 0.0557242925981987 -0.17718056366639115 1.1189371807001331 0 0 0 0.27 0 1047 11 252 25 81 54 58 61 436 63 36 71 117 73 91 118 329 147 182 152 241 
1054 0.394616260053288 -0.13128792187812338 0.8281208462893934 0 0 0 0.24 0 1048 69 221 89 132 
1055 0.3868391068211194 -0.1301426737488846 0.8657827347565976 0 0 0 0.14 0 1049 14 94 69 222 138 47 
1056 -0.039855520835047724 -0.15601666856547444 1.0781405770569776 0 0 0 0.42 0 1050 2 189 3 202 4 214 11 253 12 37 25 82 32 65 33 66 50 379 53 236 61 437 65 38 69 223 71 118 73 92 89 133 96 118 103 67 126 30 127 30 129 62 146 167 147 183 148 63 152 242 
1057 -0.016324703066661533 -0.1547405879947505 1.0862678711108886 0 0 0 0.35 0 1051 53 237 73 93 
1058 -0.34197532889062127 -0.1348670218859334 0.9721686109656543 0 0 0 0.23 0 1052 19 40 61 438 81 85 88 17 97 133 111 118 
1059 0.04375543908802099 -0.15243327367336545 1.1106360213875162 0 0 0 0.24 0 1053 2 190 4 215 11 254 15 144 50 380 71 119 73 94 81 86 89 134 127 31 129 63 147 184 148 64 152 243 
1060 0.04369206478534664 -0.15251651058286989 1.1106270752109972 0 0 0 0.38 0 1054 50 381 54 59 61 439 63 37 67 66 73 95 81 87 89 135 96 119 129 64 146 168 147 185 148 65 152 244 159 36 176 173 
1061 -0.0651884801638027 -0.1383042759539452 1.062535317397296 0 0 0 0.63 0 1055 2 191 3 203 4 216 9 35 11 255 15 145 16 88 17 308 25 83 26 63 29 101 32 66 33 67 38 66 44 130 50 382 54 60 60 47 61 440 63 38 71 120 73 96 77 142 81 88 85 27 89 136 96 120 118 330 127 32 128 182 129 65 146 169 147 186 152 245 157 204 159 37 164 108 176 174 
1062 -0.06545346692257534 -0.13796749964384242 1.0616878643969656 0 0 0 0.59 0 1056 3 204 9 36 17 309 44 131 50 383 53 238 61 441 69 224 73 97 129 66 152 246 176 175 
1063 -0.18162634581757284 -0.1292058650611969 1.0176773801996792 0 0 0 0.4 0 1057 17 310 19 41 44 132 50 384 69 225 111 119 147 187 152 247 162 56 
1064 0.13033938925503782 -0.14598972588920917 1.1416273010420481 0 0 0 0.55 0 1058 2 192 3 205 11 256 14 95 15 146 17 311 29 102 50 385 53 239 61 442 69 226 71 121 77 143 97 134 111 120 114 37 118 331 128 183 129 67 147 188 158 168 164 109 172 216 
1065 0.0713620206514856 -0.1380602402435933 1.1113521090482217 0 0 0 0.1 0 1059 50 386 73 98 
1066 -0.41997879575784147 -0.11626602732504851 0.9528170047104829 0 0 0 0.28 0 1060 17 312 29 103 61 443 
1067 -0.46869448453652784 -0.11083093586542642 0.9412911340567446 0 0 0 0.44 0 1061 3 206 53 240 61 444 118 332 157 205 158 169 
1068 0.41075402253216625 -0.08177962446051106 0.7824204002400686 0 0 0 0.46 0 1062 14 96 64 45 
1069 0.4107540225321853 -0.08177962446051987 0.7824204002401091 0 0 0 0.46 0 1063 14 97 64 46 
1070 0.1595632722300571 -0.11913291412974358 1.1798919001905648 0 0 0 0.4 0 1064 61 445 69 227 158 170 
1071 0.16118688941249423 -0.11962994631616393 1.187263339410923 0 0 0 0.54 0 1065 4 217 11 257 15 147 29 104 32 67 50 387 54 61 61 446 69 228 89 137 97 135 118 333 128 184 147 189 
1072 -0.4243042277261356 -0.08757265852214337 0.948565757985788 0 0 0 0.66 0 1066 61 447 92 93 97 136 158 171 
1073 0.40559651692172627 -0.06388347684329707 0.8021514725811797 0 0 0 0.4 0 1067 89 138 120 77 
1074 0.4043060368371144 -0.06399461153788608 0.7995341439505947 0 0 0 0.24 0 1068 64 47 69 229 89 139 138 48 
1075 0.39882259321656033 -0.06269554492685012 0.811020050596511 0 0 0 0.32 0 1069 64 48 69 230 120 78 138 49 
1076 0.41256969322870657 -0.05860242605664399 0.7593077084369724 0 0 0 0.33 0 1070 64 49 69 231 138 50 
1077 0.15033425642832826 -0.0896468353872387 1.1691772681131265 0 0 0 0.56 0 1071 4 218 11 258 17 313 32 68 36 34 44 133 50 388 53 241 61 448 67 67 69 232 89 140 92 94 97 137 118 334 128 185 147 190 
1078 -0.44967028821778615 -0.06435393632585377 0.9371928982409071 0 0 0 0.29 0 1072 2 193 3 207 17 314 25 84 26 64 29 105 32 69 40 39 43 83 44 134 50 389 53 242 60 48 61 449 65 39 67 68 71 122 77 144 81 89 88 18 96 121 103 68 113 56 118 335 126 31 128 186 129 68 146 170 148 66 157 206 158 172 162 57 164 110 172 217 176 176 
1079 0.39891609954834945 -0.0530940844947678 0.8110643779035561 0 0 0 0.37 0 1073 69 233 89 141 120 79 
1080 -0.38677917848674653 -0.060232897468486965 0.9532054264024087 0 0 0 0.25 0 1074 17 315 118 336 
1081 0.1639568597805876 -0.07610257569375578 1.1796604350035362 0 0 0 0.44 0 1075 4 219 32 70 36 35 43 84 50 390 53 243 61 450 89 142 92 95 118 337 
1082 0.1638934191330966 -0.0759875236661414 1.1797910962852407 0 0 0 0.45 0 1076 4 220 11 259 17 316 32 71 36 36 43 85 44 135 50 391 53 244 61 451 69 234 77 145 89 143 92 96 118 338 128 187 147 191 
1083 0.1953346872914334 -0.06910977263127735 1.2190420071368229 0 0 0 0.73 0 1077 50 392 61 452 69 235 118 339 120 80 128 188 158 173 
1084 0.2082691840153924 -0.06095775015089898 1.2252445673968555 0 0 0 0.23 0 1078 50 393 61 453 69 236 
1085 0.1501526531134332 -0.05099671723939786 1.1541681030687208 0 0 0 0.91 0 1079 44 136 69 237 
1086 0.1501526531134332 -0.05099671723939786 1.1541681030687208 0 0 0 0.91 0 1080 44 137 69 238 
1087 0.3673875465912532 -0.03706873526091019 0.912455620100425 0 0 0 0.5 0 1081 69 239 120 81 138 51 
1088 0.1694922903603621 -0.04829721584834209 1.1824683099153974 0 0 0 0.43 0 1082 44 138 50 394 69 240 
1089 0.12074302816226823 -0.04462630331819042 1.1343536953604405 0 0 0 0.42 0 1083 3 208 4 221 11 260 14 98 15 148 17 317 29 106 32 72 36 37 43 86 44 139 50 395 53 245 61 454 67 69 69 241 73 99 89 144 92 97 103 69 118 340 128 189 129 69 147 192 152 248 158 174 
1090 0.1349566964871904 -0.035402871391741274 1.1577038215300126 0 0 0 0.55 0 1084 44 140 50 396 61 455 129 70 
1091 0.41250947327534176 -0.02171370957709188 0.7483388859858252 0 0 0 0.29 0 1085 69 242 120 82 
1092 0.15342047781632456 -0.03351548670760244 1.1695169235012859 0 0 0 0.57 0 1086 32 73 44 141 50 397 61 456 92 98 120 83 158 175 
1093 0.17149237340772336 -0.03238402191832844 1.1895069833647618 0 0 0 0.5 0 1087 44 142 50 398 61 457 92 99 120 84 
1094 0.19099646926920485 -0.02938865377939191 1.211275687461475 0 0 0 0.22 0 1088 92 100 158 176 
1095 0.41294015945495305 -0.016177514393505444 0.7559159941050198 0 0 0 0.22 0 1089 64 50 69 243 138 52 
1096 0.41360979776701495 -0.016361997700754746 0.7569479403453986 0 0 0 0.29 0 1090 69 244 89 145 138 53 
1097 0.13469496815724455 -0.017914647820961558 1.1509782743021506 0 0 0 0.64 0 1091 44 143 50 399 61 458 69 245 92 101 128 190 
1098 -0.33032579808922113 -0.012679566423153512 0.9623996995204362 0 0 0 0.62 0 1092 50 400 129 71 146 171 157 207 176 177 
1099 -0.18185840753913118 -0.013711623009665925 1.0010578912942611 0 0 0 0.16 0 1093 4 222 61 459 146 172 152 249 
1100 -0.2899375101263332 -0.012613042645412388 0.9700583321228522 0 0 0 0.83 0 1094 2 194 4 223 11 261 17 318 27 56 50 401 61 460 96 122 111 121 118 341 172 218 176 178 
1101 0.18955319488050132 -0.012371767757921048 1.2046872135309619 0 0 0 0.76 0 1095 17 319 44 144 50 402 53 246 61 461 69 246 118 342 128 191 
1102 0.2021252346013436 -0.006857188005787891 1.2258333325412332 0 0 0 0.2 0 1096 50 403 61 462 
1103 0.3874723781511239 0.017182004176593248 0.8358454526962794 0 0 0 0.3 0 1097 69 247 120 85 
1104 0.4340745137517073 0.02570064988132941 0.7433916947044467 0 0 0 0.11 0 1098 69 248 81 90 
1105 0.40152980333560995 0.037916366975266555 0.7899107546547676 0 0 0 0.47 0 1099 69 249 120 86 
1106 -0.28451497487759614 -0.2144907630363765 0.9876019759102145 0 0 0 0.71 0 1100 3 209 17 320 53 247 64 51 81 91 89 146 
1107 -0.34244641389472014 -0.12559898243396378 0.5964354669637967 0 0 0 0.37 0 1101 53 248 61 463 
1108 -0.07933357280004075 -0.21323522042143553 1.079955511763428 0 0 0 0.42 0 1102 50 404 157 208 172 219 
1109 -0.20498206605247332 -0.20456435872458897 1.0462510741066477 0 0 0 1.1 0 1103 54 62 67 70 157 209 172 220 
1110 -0.17587411436723158 -0.19745839584194774 1.0290715759795876 0 0 0 1.37 0 1104 15 149 17 321 44 145 50 405 77 146 118 343 152 250 159 38 162 58 176 179 
1111 0.40092592105912367 -0.15109555077985137 0.8107210224211697 0 0 0 0.52 0 1105 69 250 81 92 89 147 
1112 0.4680060185036256 -0.15185936475296408 0.8382626830052261 0 0 0 0.57 0 1106 64 52 69 251 89 148 138 54 
1113 -0.4103958454269684 -0.16906588112499316 0.9639482137609694 0 0 0 0.29 0 1107 50 406 61 464 152 251 
1114 -0.4110787827299106 -0.16959377221465835 0.9654163433537825 0 0 0 0.31 0 1108 41 46 61 465 64 53 152 252 179 47 
1115 -0.1933491936422363 -0.1761741898096569 1.0116917396364296 0 0 0 0.21 0 1109 17 322 61 466 129 72 152 253 
1116 -0.1933491936422363 -0.1761741898096569 1.0116917396364296 0 0 0 0.21 0 1110 17 323 61 467 129 73 152 254 
1117 -0.3814630634586922 -0.1676650626306961 0.9673353052396824 0 0 0 0.31 0 1111 2 195 4 224 11 262 12 38 32 74 33 68 50 407 61 468 81 93 118 344 152 255 
1118 -0.3812258015037785 -0.16790777709190435 0.966950831269948 0 0 0 0.34 0 1112 2 196 3 210 4 225 41 47 44 146 50 408 61 469 64 54 67 71 77 147 81 94 92 102 138 55 152 256 176 180 179 48 
1119 -0.280694881243591 -0.16543549961729215 0.9929175931981288 0 0 0 0.3 0 1113 4 226 17 324 25 85 27 57 50 409 65 40 89 149 97 138 118 345 147 193 158 177 164 111 176 181 
1120 -0.28061591816771847 -0.16555427589818397 0.9929569907102986 0 0 0 0.32 0 1114 2 197 3 211 17 325 25 86 27 58 50 410 53 249 61 470 65 41 81 95 88 19 96 123 97 139 103 70 147 194 164 112 
1121 -0.027705729702830882 -0.18009124862445697 1.0855695691005027 0 0 0 0.36 0 1115 4 227 11 263 12 39 15 150 54 63 71 123 73 100 89 150 147 195 152 257 
1122 -0.027496383597125498 -0.18006844094807462 1.0855729780393684 0 0 0 0.26 0 1116 25 87 61 471 147 196 
1123 -0.4661086387973603 -0.16006206444024665 0.977342093394636 0 0 0 0.36 0 1117 61 472 118 346 
1124 -0.4192233493355262 -0.1527493209816084 0.9503559735926206 0 0 0 0.45 0 1118 3 212 4 228 11 264 12 40 17 326 29 107 50 411 53 250 67 72 71 124 77 148 96 124 110 28 118 347 127 33 152 258 176 182 
1125 -0.23347494141126077 -0.15556563341524574 0.9989397095498 0 0 0 0.43 0 1119 16 89 17 327 50 412 60 49 61 473 89 151 129 74 158 178 
1126 -0.261173983091366 -0.1479993189604112 0.990026271975794 0 0 0 0.53 0 1120 2 198 3 213 4 229 11 265 16 90 17 328 25 88 26 65 27 59 33 69 38 67 50 413 53 251 61 474 65 42 67 73 71 125 77 149 89 152 96 125 118 348 127 34 128 192 146 173 147 197 148 67 157 210 164 113 176 183 
1127 -0.2613102454361006 -0.14778486842309185 0.9904977347045995 0 0 0 0.47 0 1121 2 199 16 91 17 329 33 70 43 87 50 414 61 475 65 43 77 150 81 96 88 20 92 103 111 122 146 174 158 179 162 59 164 114 176 184 
1128 -0.0699590062637968 -0.15908358394748315 1.0636319556616292 0 0 0 0.76 0 1122 16 92 44 147 50 415 53 252 73 101 81 97 92 104 97 140 129 75 152 259 
1129 -0.24479414911446568 -0.1463241893625014 0.9958327747198292 0 0 0 0.67 0 1123 2 200 3 214 4 230 11 266 17 330 25 89 26 66 29 108 33 71 44 148 50 416 53 253 61 476 63 39 65 44 67 74 71 126 81 98 85 28 88 21 96 126 103 71 113 57 126 32 129 76 146 175 147 198 148 68 158 180 159 39 162 60 164 115 176 185 
1130 -0.0271592587265708 -0.15765083597552979 1.083501798450778 0 0 0 0.6 0 1124 4 231 11 267 12 41 53 254 54 64 71 127 97 141 118 349 147 199 
1131 -0.027557998199088746 -0.15775167432018924 1.0828374449149685 0 0 0 0.39 0 1125 2 201 3 215 11 268 15 151 53 255 54 65 61 477 63 40 69 252 71 128 73 102 89 153 96 127 118 350 127 35 129 77 147 200 148 69 152 260 
1132 -0.2954258095382418 -0.1376534275020806 0.9834116424716685 0 0 0 0.61 0 1126 3 216 16 93 32 75 50 417 61 478 92 105 
1133 0.0955034486497713 -0.16047453666323955 1.1396005387506905 0 0 0 0.81 0 1127 44 149 69 253 
1134 0.05595255306695306 -0.15461158885772783 1.1158012735505678 0 0 0 0.39 0 1128 2 202 4 232 15 152 50 418 69 254 73 103 89 154 97 142 118 351 147 201 152 261 
1135 -0.46700697931170637 -0.1297211462404272 0.9442941031565179 0 0 0 0.36 0 1129 3 217 4 233 17 331 53 256 61 479 64 55 65 45 67 75 81 99 96 128 111 123 118 352 138 56 
1136 -0.46723933939950446 -0.12980282674109458 0.944708421104908 0 0 0 0.38 0 1130 3 218 4 234 17 332 53 257 61 480 64 56 81 100 96 129 111 124 118 353 
1137 0.0680445966341182 -0.15029447152843098 1.1257004225020126 0 0 0 0.79 0 1131 97 143 128 193 152 262 
1138 -0.016117150564377673 -0.13938540664075277 1.0855464687838663 0 0 0 0.88 0 1132 2 203 3 219 15 153 40 40 61 481 69 255 73 104 89 155 110 29 129 78 147 202 158 181 164 116 
1139 0.03920983176187362 -0.1386358294667849 1.108758202654132 0 0 0 0.75 0 1133 2 204 12 42 33 72 53 258 61 482 69 256 81 101 85 29 89 156 127 36 146 176 159 40 164 117 
1140 0.08985568338111877 -0.13763409175044827 1.1304221499308025 0 0 0 0.9 0 1134 32 76 44 150 50 419 146 177 176 186 
1141 0.0891721712019508 -0.1361943076466837 1.1234734770294523 0 0 0 0.52 0 1135 44 151 50 420 69 257 73 105 129 79 152 263 
1142 -0.052216074715747796 -0.12748852307384312 1.0666292091337306 0 0 0 0.68 0 1136 3 220 11 269 15 154 16 94 25 90 29 109 38 68 43 88 53 259 65 46 73 106 89 157 92 106 96 130 118 354 146 178 148 70 157 211 159 41 164 118 176 187 
1143 0.1240384232465209 -0.13467635377170228 1.134869964006663 0 0 0 0.65 0 1137 3 221 4 235 11 270 14 99 15 155 17 333 29 110 53 260 114 38 129 80 147 203 
1144 0.0827757227771974 -0.1245869550834912 1.1216353415896114 0 0 0 0.69 0 1138 4 236 17 334 29 111 73 107 77 151 118 355 129 81 147 204 176 188 
1145 0.08361961465864741 -0.12463835453136861 1.123018212111173 0 0 0 0.47 0 1139 40 41 69 258 73 108 129 82 158 182 176 189 
1146 0.08410549149236313 -0.11104533307164421 1.1223929873760423 0 0 0 0.84 0 1140 44 152 176 190 
1147 0.4053417979579039 -0.07714221605146591 0.7868202933807817 0 0 0 0.64 0 1141 69 259 120 87 
1148 0.11058275194596232 -0.10823647438398233 1.1400602441884689 0 0 0 0.78 0 1142 32 77 36 38 44 153 50 421 176 191 
1149 -0.35469577309928096 -0.08479329871043109 0.952843719480522 0 0 0 0.91 0 1143 61 483 162 61 176 192 
1150 0.16694864664988793 -0.10544088310944252 1.1894379765887027 0 0 0 0.52 0 1144 4 237 15 156 44 154 50 422 61 484 67 76 69 260 77 152 118 356 147 205 172 221 
1151 0.09626199624480278 -0.09411670789222092 1.1289977711404895 0 0 0 0.5 0 1145 2 205 3 222 11 271 17 335 32 78 33 73 36 39 43 89 50 423 61 485 65 47 67 77 69 261 89 158 111 125 114 39 129 83 146 179 147 206 152 264 158 183 172 222 
1152 0.09617502315018882 -0.09406990682621898 1.1291736724590238 0 0 0 0.5 0 1146 2 206 3 223 11 272 17 336 33 74 50 424 61 486 65 48 67 78 69 262 73 109 89 159 111 126 114 40 129 84 146 180 147 207 152 265 158 184 164 119 172 223 
1153 0.1342237064467832 -0.08754110790608574 1.1675947524899442 0 0 0 1.66 0 1147 32 79 92 107 
1154 0.1808173107779478 -0.08913287063986382 1.2026093841228898 0 0 0 0.31 0 1148 50 425 61 487 69 263 128 194 158 185 
1155 0.1089832616115077 -0.08375496713570746 1.1329053605729291 0 0 0 0.3 0 1149 3 224 15 157 17 337 29 112 44 155 50 426 53 261 54 66 61 488 69 264 77 153 89 160 97 144 111 127 118 357 128 195 129 85 147 208 152 266 158 186 
1156 0.14430316076377178 -0.07729010835812752 1.1627423298021362 0 0 0 0.69 0 1150 32 80 36 40 44 156 50 427 53 262 61 489 89 161 97 145 158 187 
1157 -0.056535716818900954 -0.06652679528049388 1.0622456761922368 0 0 0 0.31 0 1151 16 95 61 490 111 128 118 358 152 267 
1158 0.14079629401970492 -0.06952812838002884 1.155646275310191 0 0 0 0.46 0 1152 69 265 128 196 
1159 0.18351550355697357 -0.06043928843374071 1.2070220268469678 0 0 0 0.39 0 1153 50 428 53 263 61 491 69 266 128 197 172 224 
1160 0.1829456326010204 -0.060258792906518 1.2035948233737581 0 0 0 0.44 0 1154 14 100 32 81 50 429 61 492 69 267 97 146 118 359 120 88 128 198 172 225 
1161 0.10901757109310867 -0.05277906604582715 1.1279320040875256 0 0 0 0.59 0 1155 32 82 50 430 53 264 65 49 69 268 118 360 127 37 128 199 152 268 158 188 
1162 0.10920366733629829 -0.05261250485645411 1.1273019006976692 0 0 0 0.59 0 1156 32 83 65 50 89 162 118 361 127 38 152 269 158 189 
1163 0.4084911023287712 -0.026998436689963788 0.7737975378397184 0 0 0 0.4 0 1157 69 269 120 89 
1164 -0.26656787522935244 -0.022061341088303134 0.9867636433035971 0 0 0 0.41 0 1158 97 147 172 226 
1165 -0.2499486354322352 -0.020995605943861014 0.9804945789878794 0 0 0 0.46 0 1159 29 113 71 129 97 148 148 71 157 212 172 227 176 193 
1166 0.10918930532759248 -0.024333635141140633 1.1281471849330869 0 0 0 0.34 0 1160 2 207 15 158 17 338 77 154 118 362 147 209 
1167 -0.3669447759170058 0.012095587026247107 0.9442445893367649 0 0 0 0.34 0 1161 53 265 96 131 172 228 
1168 0.10952190571844898 0.012305442567074422 1.123457591219242 0 0 0 0.67 0 1162 61 493 77 155 176 194 
1169 0.09638467324028167 0.016236448994516883 1.116534205804013 0 0 0 0.43 0 1163 3 225 43 90 53 266 148 72 162 62 
1170 0.0961852823599715 0.016196816583568484 1.115710333140101 0 0 0 0.35 0 1164 2 208 11 273 44 157 61 494 65 51 71 130 73 110 118 363 129 86 
1171 0.40344038826748796 0.015503227564135484 0.7807370775322219 0 0 0 0.21 0 1165 69 270 120 90 
1172 0.4229084140621969 0.027788188573087142 0.7417950768170548 0 0 0 0.45 0 1166 69 271 120 91 
1173 -0.398640021855985 -0.2071519559341681 0.957641708710765 0 0 0 1.75 0 1167 11 274 64 57 138 57 
1174 -0.39512482877516836 -0.19411058285248836 0.9676405362197702 0 0 0 0.52 0 1168 3 226 11 275 12 43 50 431 61 495 67 79 118 364 152 270 
1175 -0.09894778138835257 -0.21868317663757428 1.1163740000517866 0 0 0 0.88 0 1169 14 101 15 159 50 432 64 58 69 272 138 58 157 213 172 229 
1176 -0.294924869462063 -0.1925411972637448 0.9911057617206128 0 0 0 0.57 0 1170 3 227 4 238 41 48 53 267 60 50 61 496 64 59 96 132 148 73 179 49 
1177 -0.2951370046407655 -0.19285555470111387 0.991809997823226 0 0 0 0.41 0 1171 3 228 41 49 53 268 60 51 61 497 64 60 81 102 96 133 179 50 
1178 -0.05797357144490357 -0.2047537405667619 1.0697252954943821 0 0 0 0.96 0 1172 3 229 14 102 15 160 17 339 53 269 64 61 73 111 81 103 118 365 138 59 157 214 
1179 -0.39388288433559937 -0.17007361562566295 0.9612138367100094 0 0 0 0.29 0 1173 4 239 50 433 81 104 152 271 
1180 -0.3948227148028133 -0.17038939221734534 0.9630190518157198 0 0 0 0.43 0 1174 2 209 3 230 4 240 50 434 73 112 88 22 96 134 97 149 110 30 118 366 127 39 152 272 
1181 -0.1470581342635446 -0.18398804313898104 1.032379148351888 0 0 0 0.62 0 1175 17 340 53 270 81 105 172 230 
1182 -0.2943577836475616 -0.16827209633430362 0.9868810562482258 0 0 0 0.44 0 1176 2 210 27 60 67 80 81 106 89 163 96 135 162 63 
1183 -0.29520972019543457 -0.1687216653892509 0.9888871025083468 0 0 0 0.45 0 1177 2 211 17 341 25 91 26 67 27 61 33 75 60 52 65 52 71 131 77 156 118 367 127 40 164 120 
1184 -0.3046457768648688 -0.16259441763896462 0.9681565356480737 0 0 0 0.18 0 1178 61 498 158 190 
1185 -0.2141289815636114 -0.16755593115587752 1.002933533324576 0 0 0 0.46 0 1179 38 69 61 499 67 81 71 132 129 87 147 210 152 273 
1186 -0.24045383236769285 -0.169133127706444 1.0034022628847163 0 0 0 0.36 0 1180 96 136 129 88 
1187 -0.13870332900955404 -0.16716528257296026 1.0374201163801222 0 0 0 0.99 0 1181 11 276 16 96 50 435 146 181 176 195 
1188 -0.35768664438735387 -0.15180922162753263 0.9677634663031948 0 0 0 0.63 0 1182 11 277 61 500 81 107 88 23 
1189 -0.4264233314935151 -0.1412271455403315 0.9496250003398988 0 0 0 0.47 0 1183 4 241 11 278 12 44 17 342 29 114 32 84 50 436 53 271 61 501 67 82 73 113 81 108 92 108 96 137 97 150 118 368 127 41 128 200 146 182 158 191 176 196 
1190 -0.08093205349259096 -0.15258675168606675 1.0563560002892785 0 0 0 0.63 0 1184 2 212 3 231 4 242 9 37 11 279 15 161 17 343 25 92 29 115 32 85 33 76 38 70 43 91 44 158 50 437 53 272 60 53 63 41 73 114 77 157 81 109 85 30 89 164 92 109 96 138 97 151 110 31 111 129 118 369 126 33 127 42 129 89 147 211 148 74 152 274 157 215 164 121 
1191 -0.09568258810393916 -0.1483926352756325 1.054273408989904 0 0 0 0.7 0 1185 2 213 4 243 15 162 25 93 26 68 33 77 40 42 50 438 73 115 77 158 85 31 92 110 111 130 127 43 146 183 148 75 157 216 159 42 164 122 
1192 -0.17048470027078708 -0.14007867315303754 1.0192857532646267 0 0 0 0.75 0 1186 3 232 17 344 25 94 26 69 27 62 29 116 38 71 61 502 63 42 85 32 89 165 92 111 113 58 118 370 126 34 129 90 147 212 148 76 152 275 159 43 162 64 172 231 
1193 -0.23705463908240174 -0.13675882748394863 0.9993130949737056 0 0 0 0.53 0 1187 4 244 11 280 17 345 26 70 27 63 29 117 33 78 38 72 43 92 53 273 61 503 63 43 65 53 67 83 71 133 81 110 89 166 96 139 97 152 111 131 118 371 128 201 146 184 147 213 148 77 157 217 158 192 164 123 172 232 176 197 
1194 -0.04200096493729457 -0.13950077851682055 1.0753607626517305 0 0 0 0.86 0 1188 3 233 9 38 32 86 36 41 44 159 50 439 60 54 61 504 73 116 92 112 129 91 147 214 152 276 162 65 
1195 0.39195176262945164 -0.10830391765152658 0.8454555257886301 0 0 0 0.41 0 1189 64 62 69 273 
1196 0.01959023897943636 -0.13858764162771992 1.0985173392980407 0 0 0 0.65 0 1190 17 346 69 274 73 117 
1197 -0.17089519230999434 -0.12167682686380406 1.0184708491333632 0 0 0 0.76 0 1191 9 39 152 277 157 218 162 66 
1198 -0.44173871060263753 -0.11135458359710473 0.9459987132316987 0 0 0 0.37 0 1192 2 214 3 234 4 245 11 281 12 45 17 347 25 95 26 71 29 118 41 50 43 93 50 440 53 274 60 55 61 505 64 63 65 54 67 84 71 134 73 118 77 159 81 111 88 24 96 140 110 32 111 132 113 59 118 372 127 44 128 202 138 60 148 78 157 219 164 124 172 233 179 51 
1199 -0.04037856592978704 -0.12440561245970123 1.0714564889537208 0 0 0 0.6 0 1193 16 97 26 72 29 119 38 73 54 67 63 44 65 55 71 135 126 35 152 278 159 44 162 67 176 198 
1200 -0.040753882690234014 -0.12445020653516348 1.0712905745167962 0 0 0 0.49 0 1194 4 246 26 73 126 36 147 215 148 79 152 279 
1201 -0.012412278608228947 -0.12326814385465198 1.0823252537305534 0 0 0 0.48 0 1195 15 163 17 348 44 160 60 56 92 113 118 373 147 216 152 280 158 193 
1202 -0.012475018270241917 -0.1230593667453246 1.0826284127954366 0 0 0 0.55 0 1196 38 74 50 441 60 57 65 56 69 275 73 119 92 114 118 374 146 185 
1203 -0.27702750631590867 -0.10826297482305768 0.9900968685268338 0 0 0 0.34 0 1197 157 220 158 194 
1204 -0.2766084097346713 -0.10807301620799419 0.9884824313491342 0 0 0 0.21 0 1198 2 215 33 79 127 45 157 221 158 195 
1205 0.01633456245360073 -0.12297906883092087 1.0955364561551226 0 0 0 0.55 0 1199 2 216 15 164 19 42 65 57 69 276 89 167 92 115 96 141 97 153 111 133 118 375 128 203 146 186 
1206 0.01641927472144259 -0.12287757864018202 1.094386538190085 0 0 0 0.47 0 1200 9 40 15 165 19 43 25 96 53 275 65 58 71 136 96 142 111 134 118 376 128 204 
1207 -0.027947337552920556 -0.1121373895702486 1.0808144542241938 0 0 0 0.71 0 1201 50 442 61 506 65 59 147 217 152 281 
1208 -0.027947337552920556 -0.1121373895702486 1.0808144542241938 0 0 0 0.71 0 1202 50 443 61 507 65 60 147 218 152 282 
1209 0.1358859366438857 -0.12455810312603496 1.163207596571209 0 0 0 0.55 0 1203 3 235 4 247 11 282 15 166 17 349 50 444 53 276 61 508 65 61 67 85 69 277 114 41 118 377 128 205 129 92 147 219 158 196 
1210 0.0012618897862882422 -0.11182807663939465 1.0902674242423873 0 0 0 0.31 0 1204 61 509 147 220 152 283 
1211 0.0011853686174038663 -0.11221733268622953 1.0962730090625783 0 0 0 0.5 0 1205 32 87 61 510 147 221 152 284 
1212 -0.15776707526967707 -0.10385943746012635 1.0259968069645484 0 0 0 0.53 0 1206 2 217 3 236 32 88 33 80 43 94 44 161 50 445 65 62 69 278 111 135 129 93 146 187 152 285 157 222 176 199 
1213 -0.12883894497279508 -0.10116759779009396 1.0363245545327044 0 0 0 0.94 0 1207 19 44 25 97 32 89 50 446 65 63 128 206 129 94 146 188 157 223 176 200 
1214 -0.1287847575740349 -0.10128955395784273 1.0361467919385376 0 0 0 0.89 0 1208 19 45 25 98 32 90 50 447 65 64 128 207 129 95 152 286 157 224 176 201 
