# 3D point list with one line of data per point:
#   POINT3D_ID, X, Y, Z, R, G, B, ERROR, TRACK[] as (IMAGE_ID, POINT2D_IDX)
# Number of points: 383, mean track length: 10.06
6184 -0.6776103470721428 0.3350417718361148 0.9282252879926339 0 0 0 0.21 58 1382 125 2188 167 1992 
6185 -0.7511217360203745 0.33752298413032017 0.9275456480757217 0 0 0 0.34 58 1383 125 2189 167 1993 
6186 -0.29795724930103323 0.27345967490179085 0.7333396362925896 0 0 0 0.22 58 1384 116 2155 167 1994 
6187 -0.6962603113632804 0.3411848576664811 0.928404911588107 0 0 0 0.18 58 1385 125 2190 167 1995 170 39 
6188 -0.693012296255576 0.33816459429110085 0.9210772714308545 0 0 0 0.37 58 1386 125 2191 167 1996 
6189 -0.759012775994509 0.33970799544370067 0.9293046465045225 0 0 0 0.22 58 1387 125 2192 167 1997 
6190 -0.7259080388481581 0.3427609551552065 0.9286533916857261 0 0 0 0.27 58 1388 125 2193 167 1998 
6191 -0.7980422151301962 0.34237114811351665 0.9332772226549225 0 0 0 0.21 58 1389 82 46 167 1999 
6192 -0.6484775030127963 0.33853076468501403 0.9112022472439956 0 0 0 0.25 58 1390 125 2194 167 2000 
6193 -0.6397271590779553 0.3351710293302357 0.8994707176753428 0 0 0 0.25 58 1391 74 70 167 2001 
6194 -0.5426115502933223 0.32157872162285434 0.8493415257919259 0 0 0 0.32 58 1392 119 799 167 2002 228 2042 
6195 -0.6205348776607795 0.3365362899581034 0.8917102100168531 0 0 0 0.18 58 1393 74 71 125 2195 167 2003 191 875 
6196 -0.6347484944907266 0.3399788802675427 0.8960640159782922 0 0 0 0.1 58 1394 125 2196 167 2004 
6197 -0.5574958738810788 0.33174069301751374 0.8553999378064612 0 0 0 0.24 58 1395 167 2005 218 1692 228 2043 
6198 -0.5763529457167229 0.3337271737776764 0.8621315546574989 0 0 0 0.78 58 1396 102 903 119 800 125 2197 139 895 167 2006 218 1693 228 2044 8 1090 24 870 191 876 
6199 -0.6957147980148569 0.3554509087906425 0.9215538669615563 0 0 0 0.24 58 1397 125 2198 167 2007 
6200 -0.7273326041120296 0.3555881570298847 0.9251301567238217 0 0 0 0.21 58 1398 125 2199 167 2008 
6201 -0.6407825180382296 0.349825619686043 0.8973090480589329 0 0 0 0.29 58 1399 167 2009 191 877 
6202 -0.6241779853637451 0.3470804279742022 0.8881445974838881 0 0 0 0.27 58 1400 74 72 167 2010 191 878 
6203 -0.651626090542574 0.35212469612931613 0.9022468723483605 0 0 0 0.15 58 1401 167 2011 170 40 
6204 -0.6951796286788652 0.35953100762491824 0.9205842940522024 0 0 0 0.14 58 1402 125 2200 167 2012 
6205 -0.6949883278268287 0.36586920000057505 0.918358369642024 0 0 0 0.13 58 1403 125 2201 167 2013 
6206 -0.058898038160371466 -0.14057169088644134 0.9372988091888206 0 0 0 0.25 58 1404 86 1508 94 2157 116 2156 154 1663 161 1061 167 2014 212 1151 
6207 -0.28586380147205903 0.03371003374992352 0.9727954681284788 0 0 0 0.43 58 1405 125 2202 167 2015 178 685 211 1469 
6208 -0.7154793740631386 0.14315949571731185 1.01918265973618 0 0 0 0.39 58 1406 86 1509 167 2016 
6209 -0.6290771711504595 0.12435275909614696 0.9982986859238907 0 0 0 0.39 58 1407 86 1510 167 2017 
6210 -0.3462649867619738 0.07036756278673499 0.9640719783960141 0 0 0 0.37 58 1408 94 2158 116 2157 167 2018 193 2112 
6211 -0.7458401402081111 0.17003178183087989 1.0061623030400342 0 0 0 0.2 58 1409 125 2203 167 2019 
6212 -0.7673753726004516 0.17348046202430403 1.0017519703722897 0 0 0 0.21 58 1410 86 1511 167 2020 
6213 -0.6691752790933 0.16194596228569255 1.008033290166309 0 0 0 0.31 58 1411 86 1512 125 2204 167 2021 
6214 -0.6684934681405618 0.1610474935058626 1.001750565852065 0 0 0 0.23 58 1412 86 1513 167 2022 191 879 
6215 -0.605883717024423 0.1483203813665032 0.982537029225095 0 0 0 0.38 58 1413 59 1239 86 1514 167 2023 
6216 -0.7486661560031886 0.17614207292174552 1.0036117723386229 0 0 0 0.13 58 1414 125 2205 167 2024 
6217 -0.6742346986675964 0.1670402476332902 1.0047294292690938 0 0 0 0.46 58 1415 86 1515 125 2206 167 2025 
6218 -0.6727644213856093 0.16520614915318954 0.9955207766203913 0 0 0 0.17 58 1416 86 1516 167 2026 191 880 
6219 -0.7095785168823214 0.1744472232852552 1.0036516140551954 0 0 0 0.12 58 1417 86 1517 167 2027 
6220 -0.7010201201572911 0.17505719063703065 0.9994073621407387 0 0 0 0.25 58 1418 86 1518 167 2028 
6221 -0.6262756690507209 0.15940147308986774 0.9755114433398345 0 0 0 0.26 58 1419 86 1519 167 2029 8 1091 
6222 -0.6394276815542562 0.16611276818379492 0.9811270291981051 0 0 0 0.23 58 1420 86 1520 167 2030 
6223 -0.6757801449896259 0.19015968453200385 0.9970314828867557 0 0 0 0.4 58 1421 125 2207 167 2031 
6224 -0.3167750173408728 0.12257770934315991 0.8563601156915946 0 0 0 0.4 58 1422 86 1521 94 2159 116 2158 151 2094 167 2032 193 2113 212 1152 228 2045 8 1092 59 1240 90 535 140 1461 57 1293 115 240 154 1664 
6225 -0.7092008542064656 0.20304898852797168 0.9808027167617095 0 0 0 0.17 58 1423 86 1522 167 2033 
6226 -0.22383979826704026 0.10393924510926703 0.8057544810398909 0 0 0 0.28 58 1424 86 1523 116 2159 151 2095 167 2034 183 901 193 2114 211 1470 212 1153 218 1694 228 2046 8 1093 59 1241 177 1141 57 1294 144 1321 145 863 174 265 
6227 -0.8991372282578414 0.2299090707941851 0.9937652659389196 0 0 0 0.38 58 1425 74 73 82 47 167 2035 
6228 -0.9229807279744099 0.2369677043321891 0.995898317781933 0 0 0 0.47 58 1426 153 633 167 2036 
6229 -0.8652250514004474 0.24503429607384725 0.98486186758623 0 0 0 0.17 58 1427 82 48 167 2037 170 41 
6230 -0.5487914851543765 0.2054137918875199 0.9205985655576073 0 0 0 0.28 58 1428 167 2038 202 960 211 1471 
6231 -0.8213424350446532 0.2457796452374436 0.9812112822750593 0 0 0 0.2 58 1429 74 74 167 2039 
6232 -0.652504717693069 0.23282778367082896 0.9661042885368127 0 0 0 0.51 58 1430 86 1524 167 2040 170 42 191 881 125 2208 
6233 -0.6734978474062523 0.23633708665600722 0.9709647081303855 0 0 0 0.2 58 1431 167 2041 191 882 
6234 -0.6030884561403406 0.22876355374754964 0.9344441660785011 0 0 0 0.18 58 1432 86 1525 139 896 167 2042 191 883 
6235 -0.5637403664641738 0.22219167504160825 0.9147453081378344 0 0 0 0.45 58 1433 59 1242 86 1526 125 2209 167 2043 202 961 228 2047 8 1094 24 871 178 686 191 884 218 1695 
6236 -0.6876468452211543 0.24888094718604714 0.9706277087278953 0 0 0 0.4 58 1434 74 75 125 2210 167 2044 191 885 
6237 -0.6842039179693802 0.24908713161087295 0.9693424851786954 0 0 0 0.22 58 1435 125 2211 167 2045 191 886 
6238 -0.6925829384170088 0.25100010975985587 0.9670779090674435 0 0 0 0.39 58 1436 86 1527 167 2046 191 887 
6239 -0.5424638202616707 0.22470872632409641 0.9036195795685071 0 0 0 0.48 58 1437 59 1243 119 801 125 2212 167 2047 191 888 202 962 211 1472 86 1528 8 1095 24 872 139 897 189 780 218 1696 48 174 51 396 143 820 151 2096 153 634 166 1697 180 1822 193 2115 212 1154 
6240 -0.6641431517918619 0.2486796204185563 0.9560834574436688 0 0 0 0.22 58 1438 86 1529 125 2213 167 2048 191 889 
6241 -0.6279696266644066 0.24416032229644732 0.9377147681743876 0 0 0 0.33 58 1439 86 1530 125 2214 167 2049 
6242 -0.5633126218223424 0.2318683360711094 0.910505455927969 0 0 0 0.35 58 1440 59 1244 86 1531 125 2215 151 2097 167 2050 178 687 191 890 193 2116 212 1155 228 2048 8 1096 24 873 202 963 
6243 -0.5846436769151552 0.23725315009590797 0.9179326397436127 0 0 0 0.42 58 1441 59 1245 86 1532 102 904 125 2216 139 898 167 2051 178 688 8 1097 
6244 -0.7601591833799796 0.26544147805946305 0.9657896817988618 0 0 0 0.17 58 1442 125 2217 167 2052 
6245 -0.6618923265954678 0.26011714955045023 0.9610693167170514 0 0 0 0.34 58 1443 125 2218 167 2053 191 891 51 397 
6246 -0.6575081426272051 0.25813986253388804 0.9539300545442865 0 0 0 0.27 58 1444 125 2219 167 2054 
6247 -0.6535540623339775 0.2593505608425708 0.948350445619633 0 0 0 0.21 58 1445 86 1533 125 2220 167 2055 
6248 -0.6916718046984845 0.26767753191813903 0.9615777054853586 0 0 0 0.34 58 1446 86 1534 167 2056 191 892 
6249 -0.5886939093015946 0.2488856326735402 0.9175958736094227 0 0 0 0.13 58 1447 69 17 86 1535 167 2057 191 893 
6250 -0.698946980633755 0.2712233259833812 0.9607352696649205 0 0 0 0.22 58 1448 125 2221 167 2058 
6251 -0.6391408209302961 0.2628262439954365 0.9420570943698137 0 0 0 0.4 58 1449 86 1536 125 2222 167 2059 
6252 -0.7584051830497932 0.2757630662939593 0.9633063190514639 0 0 0 0.31 58 1450 125 2223 167 2060 
6253 -0.5891525666538472 0.25411625114547065 0.9146178809736994 0 0 0 0.25 58 1451 125 2224 139 899 167 2061 191 894 228 2049 
6254 -0.7351785743949637 0.27664966076545566 0.9628393542899008 0 0 0 0.27 58 1452 125 2225 167 2062 
6255 -0.7002159971835145 0.27421514320446133 0.9600788167391244 0 0 0 0.17 58 1453 69 18 125 2226 167 2063 
6256 -0.695530676122326 0.2742164939097456 0.9605899848382565 0 0 0 0.12 58 1454 82 49 125 2227 167 2064 
6257 -0.724317861468804 0.27668440581806636 0.9620073324024867 0 0 0 0.23 58 1455 125 2228 167 2065 
6258 -0.6246800977550235 0.2637368448557878 0.933504465940983 0 0 0 0.3 58 1456 86 1537 125 2229 167 2066 191 895 
6259 -0.6930402489593037 0.2776831508832043 0.9610569740367639 0 0 0 0.15 58 1457 125 2230 167 2067 
6260 -0.7231664711974368 0.28411685463102404 0.9560869573951475 0 0 0 0.16 58 1458 125 2231 167 2068 
6261 -0.7938051177998694 0.28812095773453067 0.9589101236403936 0 0 0 0.36 58 1459 82 50 167 2069 
6262 -0.8301288948142175 0.29064207052180624 0.9600810687524369 0 0 0 0.28 58 1460 74 76 82 51 167 2070 170 43 
6263 -0.915559502910462 0.2980002185109542 0.964849031110667 0 0 0 0.31 58 1461 82 52 167 2071 
6264 -0.5668485017854764 0.28411014133802764 0.8888957311765507 0 0 0 0.3 58 1462 59 1246 74 77 125 2232 167 2072 228 2050 
6265 -0.6079145324415177 0.29962513438069716 0.9033515870823726 0 0 0 0.28 58 1463 82 53 125 2233 139 900 167 2073 178 689 191 896 228 2051 
6266 -0.6018349354488798 0.2987431719609686 0.90035272583953 0 0 0 0.14 58 1464 74 78 125 2234 167 2074 178 690 191 897 228 2052 
6267 -0.661726881752268 0.3101004693516793 0.929599348791098 0 0 0 0.37 58 1465 167 2075 191 898 
6268 -0.6525450103129045 0.3136602674998493 0.9271721566910458 0 0 0 0.09 58 1466 125 2235 167 2076 191 899 
6269 -0.6253916723672842 0.30894575130984786 0.9100258492091392 0 0 0 0.29 58 1467 167 2077 191 900 
6270 -0.5954107351867032 0.3050332786962272 0.8913080767283023 0 0 0 0.21 58 1468 59 1247 125 2236 167 2078 191 901 228 2053 8 1098 139 901 
6271 -0.648549101636392 0.3179475119426939 0.9246632590596455 0 0 0 0.28 58 1469 125 2237 167 2079 191 902 
6272 -0.24984823267461 0.2577333149538659 0.7529284981974724 0 0 0 0.22 58 1470 72 1136 119 802 167 2080 178 691 189 781 191 903 193 2117 
6273 -0.5920398608110995 0.3141781122003349 0.8862540739933656 0 0 0 0.14 58 1471 59 1248 125 2238 139 902 167 2081 191 904 228 2054 
6274 -0.6729755682643688 0.32978109146408646 0.9282915331731861 0 0 0 0.28 58 1472 125 2239 167 2082 
6275 -0.6522164831339655 0.32747240456445925 0.9215349387391972 0 0 0 0.1 58 1473 125 2240 167 2083 
6276 -0.6501292252910525 0.32683293673235475 0.9175517778254165 0 0 0 0.24 58 1474 125 2241 167 2084 191 905 
6277 -0.4241965731094242 0.2906043567199319 0.8059351143402956 0 0 0 0.22 58 1475 154 1665 167 2085 180 1823 
6278 -0.39766003776741476 0.284690095825014 0.7893480441197118 0 0 0 0.27 58 1476 151 2098 154 1666 167 2086 211 1473 228 2055 
6279 -0.7569778823825324 0.33188777602210984 0.9280079469100462 0 0 0 0.33 58 1477 125 2242 167 2087 
6280 -0.6206788662213425 0.32315381985598823 0.8944296565096118 0 0 0 0.25 58 1478 125 2243 167 2088 178 692 191 906 
6281 -0.5637216119287093 0.31679687686731584 0.8669534047548629 0 0 0 0.62 58 1479 59 1249 125 2244 167 2089 191 907 228 2056 8 1099 24 874 139 903 
6282 -0.5652587125027801 0.3184153814724195 0.8703004006165386 0 0 0 0.51 58 1480 59 1250 119 803 125 2245 167 2090 191 908 218 1697 228 2057 8 1100 24 875 74 79 139 904 
6283 -0.5933013810805919 0.3241565986211432 0.8811871419556834 0 0 0 0.17 58 1481 59 1251 125 2246 139 905 167 2091 191 909 228 2058 
6284 -0.678250104066069 0.34022974437813897 0.9247976695746952 0 0 0 0.19 58 1482 125 2247 167 2092 
6285 -0.671892651486231 0.3400277579428919 0.9233743099384938 0 0 0 0.58 58 1483 74 80 125 2248 167 2093 170 44 
6286 -0.6658051217014161 0.3387305037759431 0.9201050063021944 0 0 0 0.27 58 1484 167 2094 170 45 69 19 
6287 -0.6518666886716292 0.33593706511337407 0.9117671123633109 0 0 0 0.08 58 1485 125 2249 167 2095 
6288 -0.8709840224629443 0.34178223744473213 0.9399334260830304 0 0 0 0.41 58 1486 82 54 167 2096 
6289 -0.6356273733887997 0.33423429081246914 0.8973537303788698 0 0 0 0.37 58 1487 167 2097 170 46 
6290 -0.9042718729707476 0.3429956342148437 0.941043082267817 0 0 0 0.76 58 1488 82 55 167 2098 
6291 -0.618464258991045 0.33423839850473763 0.8931378868051898 0 0 0 0.35 58 1489 69 20 74 81 125 2250 167 2099 
6292 -0.7446814376024434 0.3448287734887348 0.9296897467565655 0 0 0 0.26 58 1490 125 2251 167 2100 
6293 -0.5909987749078125 0.3307406711270825 0.8776833474463088 0 0 0 0.22 58 1491 74 82 82 56 139 906 167 2101 182 21 228 2059 
6294 -0.87479092553577 0.34744775809435163 0.9380389893032216 0 0 0 0.4 58 1492 74 83 167 2102 
6295 -0.6754220892167896 0.3496058800166153 0.9194712427464476 0 0 0 0.13 58 1493 125 2252 167 2103 
6296 -0.6551518535526282 0.3457187561227469 0.9072750410246959 0 0 0 0.29 58 1494 125 2253 167 2104 191 910 
6297 -0.4145887884334238 -0.0029701358530896914 0.9645052631487445 0 0 0 0.89 58 1495 59 1252 167 2105 191 911 226 1145 24 876 133 238 161 1062 183 902 216 1545 
6298 -0.7298827273173774 0.14466373841917446 1.0287894600067082 0 0 0 0.17 58 1496 86 1538 167 2106 
6299 -0.5874154460926048 0.13977780011677113 0.9791205277681322 0 0 0 0.41 58 1497 59 1253 86 1539 167 2107 178 693 
6300 -0.5879052111739248 0.1475445679774956 0.9759244295645988 0 0 0 0.54 58 1498 86 1540 102 905 119 804 125 2254 167 2108 133 239 
6301 -0.7724118650748277 0.18337095282170698 1.004362569419022 0 0 0 0.19 58 1499 125 2255 167 2109 
6302 -0.6787425917418982 0.1689684999365331 1.0068293822481311 0 0 0 0.7 58 1500 86 1541 167 2110 
6303 -0.6165493547404122 0.15840350882555412 0.9705572458305215 0 0 0 0.35 58 1501 59 1254 86 1542 167 2111 178 694 8 1101 
6304 -0.3198699941018221 0.09985480753964837 0.8961539465813431 0 0 0 0.43 58 1502 59 1255 125 2256 144 1322 166 1698 167 2112 202 964 218 1698 
6305 -0.9070713135531461 0.20961294914338166 1.007736009242982 0 0 0 0.43 58 1503 153 635 167 2113 
6306 -0.7464199315519356 0.18905995931246405 1.0004308736585772 0 0 0 0.35 58 1504 125 2257 153 636 167 2114 
6307 -0.6569769642881053 0.18143468022804737 0.989364373437371 0 0 0 0.5 58 1505 82 57 86 1543 125 2258 167 2115 74 84 191 912 
6308 -0.6294598114551423 0.17550967456738933 0.9733666099049365 0 0 0 0.55 58 1506 86 1544 139 907 167 2116 178 695 191 913 8 1102 
6309 -0.6006060725127097 0.17059623282234385 0.9598866587491773 0 0 0 0.55 58 1507 69 21 74 85 86 1545 167 2117 170 47 191 914 8 1103 139 908 228 2060 102 906 
6310 -0.7586973200193459 0.2033207647156811 0.9858600432937354 0 0 0 0.44 58 1508 125 2259 167 2118 
6311 -0.8329549649791935 0.2176567710055372 0.9968962674795111 0 0 0 0.78 58 1509 82 58 167 2119 
6312 -0.820034389173603 0.21795121769903533 0.9958138113833949 0 0 0 0.29 58 1510 82 59 167 2120 
6313 -0.691329198786662 0.2044012961926631 0.983426318860131 0 0 0 0.52 58 1511 86 1546 167 2121 191 915 125 2260 
6314 -0.7560694781266009 0.2145490185801574 0.9809263382078464 0 0 0 0.05 58 1512 125 2261 167 2122 
6315 -0.7090443508942202 0.21128328686255307 0.9764947678313587 0 0 0 0.21 58 1513 86 1547 125 2262 167 2123 
6316 -0.7452451570263127 0.22192685950806643 0.9801950137174583 0 0 0 0.33 58 1514 82 60 86 1548 125 2263 167 2124 
6317 -0.7348734532103274 0.2228227697475891 0.9822182616737583 0 0 0 0.43 58 1515 69 22 86 1549 125 2264 167 2125 
6318 -0.7216538678151597 0.22252471433963492 0.9784202505174376 0 0 0 0.44 58 1516 82 61 86 1550 125 2265 167 2126 
6319 -0.6882539238935226 0.22292494089060713 0.974799000143305 0 0 0 0.16 58 1517 86 1551 125 2266 167 2127 191 916 
6320 -0.7518675858030351 0.23353792666655704 0.9782428318765196 0 0 0 0.34 58 1518 125 2267 167 2128 
6321 -0.618919344222666 0.22532813088783346 0.9465589978158805 0 0 0 0.45 58 1519 74 86 86 1552 125 2268 167 2129 191 917 8 1104 
6322 -0.6174325150681539 0.22851492032203433 0.9416875374885837 0 0 0 0.36 58 1520 125 2269 139 909 167 2130 178 696 
6323 -0.554406022998196 0.2220862119976333 0.9147421155898162 0 0 0 0.21 58 1521 125 2270 167 2131 
6324 -0.6590660440908217 0.24671283588697662 0.9619410393341951 0 0 0 0.34 58 1522 86 1553 125 2271 167 2132 
6325 -0.31241639285589756 0.18723421185823497 0.8316102342346294 0 0 0 0.22 58 1523 125 2272 131 694 166 1699 167 2133 189 782 218 1699 
6326 -0.2822496603166015 0.18870858967112603 0.8071628618843288 0 0 0 0.29 131 695 153 637 167 2134 212 1156 218 1700 8 1105 203 943 
6327 -0.6455340085171629 0.253617670340061 0.9420297584923888 0 0 0 0.19 58 1524 86 1554 167 2135 191 918 
6328 -0.6848868139651337 0.27905455469379437 0.9572675394954684 0 0 0 0.22 58 1525 125 2273 167 2136 
6329 -0.6536956683051012 0.29493560784848355 0.9174862554299889 0 0 0 0.07 58 1526 125 2274 167 2137 
6330 -0.6430515249693952 0.2940542775657716 0.914982558057557 0 0 0 0.3 58 1527 125 2275 167 2138 191 919 
6331 -0.5783057925844606 0.28937945350804095 0.8914451773623377 0 0 0 0.39 58 1528 59 1256 69 23 82 62 102 907 167 2139 178 697 182 22 228 2061 8 1106 
6332 -0.5590474915924559 0.2852854330601527 0.882189095428364 0 0 0 0.74 58 1529 59 1257 100 11 125 2276 139 910 167 2140 178 698 202 965 228 2062 8 1107 24 877 51 398 119 805 154 1667 191 920 
6333 -0.5842180442818662 0.29628484881986905 0.8923477695263037 0 0 0 0.37 58 1530 59 1258 69 24 74 87 119 806 125 2277 139 911 167 2141 178 699 228 2063 8 1108 102 908 
6334 -0.5640838217700509 0.29675990567263183 0.8779322268457955 0 0 0 0.47 58 1531 59 1259 167 2142 24 878 139 912 180 1824 191 921 125 2278 178 700 228 2064 
6335 -0.3653008979158337 0.28023995451252753 0.8151040987488968 0 0 0 0.5 58 1532 137 451 144 1323 167 2143 189 783 218 1701 228 2065 23 1297 24 879 178 701 180 1825 216 1546 
6336 -0.6715630921834481 0.3259188672410195 0.9319857894319507 0 0 0 0.24 58 1533 125 2279 167 2144 
6337 -0.6165688787226782 0.3139098652231503 0.8999204530019753 0 0 0 0.13 58 1534 167 2145 178 702 
6338 -0.2964618447748132 0.26629200646688195 0.7483645105120197 0 0 0 0.32 58 1535 116 2160 125 2280 131 696 144 1324 167 2146 218 1702 8 1109 
6339 -0.2489257587800857 0.25516857449476277 0.717396331882484 0 0 0 0.33 58 1536 59 1260 116 2161 125 2281 131 697 166 1700 167 2147 177 1142 193 2118 8 1110 23 1298 102 909 115 241 
6340 -0.3623840696614382 0.2761868457579372 0.7757334019487001 0 0 0 0.24 58 1537 59 1261 102 910 143 821 167 2148 193 2119 202 966 218 1703 8 1111 23 1299 115 242 226 1146 
6341 -0.7478905987666324 0.33259761614559324 0.9277468527192172 0 0 0 0.25 58 1538 69 25 74 88 125 2282 167 2149 170 48 
6342 -0.6580021768465495 0.3286139918825237 0.9089594984415789 0 0 0 0.39 58 1539 125 2283 167 2150 191 922 
6343 -0.5961700640552665 0.3292480049856779 0.8798354545073147 0 0 0 0.57 58 1540 59 1262 69 26 74 89 125 2284 167 2151 191 923 228 2066 8 1112 
6344 -0.6009498792732975 0.33045378196925207 0.8814829199191504 0 0 0 0.11 58 1541 59 1263 167 2152 228 2067 
6345 -0.6046174334546258 0.33179983662359264 0.8844508749476074 0 0 0 0.62 58 1542 59 1264 167 2153 228 2068 191 924 
6346 -0.8928821654262264 0.3471988991945932 0.9386777937719583 0 0 0 0.61 58 1543 74 90 167 2154 
6347 -0.6199836191805214 0.33836325519134663 0.8887807804322507 0 0 0 0.14 58 1544 167 2155 191 925 
6348 -0.5968291214438521 0.33796919961603383 0.8734992147402181 0 0 0 0.17 58 1545 59 1265 167 2156 8 1113 228 2069 
6349 -0.7183375024496149 0.35243514799682607 0.9191327905311228 0 0 0 0.24 58 1546 125 2285 167 2157 
6350 -0.72103037787055 0.11875868967375494 1.0364806681381207 0 0 0 0.83 58 1547 86 1555 125 2286 153 638 167 2158 
6351 -0.7266442621458924 0.13604601730881402 1.0283316589708538 0 0 0 0.35 58 1548 86 1556 167 2159 
6352 -0.16037868806979397 0.01589478199413443 0.9015353846200533 0 0 0 0.12 58 1549 94 2160 167 2160 
6353 -0.6296042607966825 0.12791126720066048 0.9989622839453423 0 0 0 0.23 58 1550 86 1557 167 2161 
6354 -0.6437660663765709 0.13993402747058303 1.0086895391867032 0 0 0 0.73 58 1551 125 2287 167 2162 86 1558 
6355 -0.7395399724513931 0.16905152706337703 1.0032072428114285 0 0 0 0.26 58 1552 86 1559 125 2288 167 2163 
6356 -0.6433937503795197 0.15396165719813215 0.9909696486643383 0 0 0 0.64 58 1553 86 1560 167 2164 191 926 
6357 -0.6175079222653671 0.14858056218219362 0.9793327908486407 0 0 0 0.37 58 1554 59 1266 86 1561 167 2165 8 1114 178 703 
6358 -0.7442588520281253 0.18099451274673864 1.0005615727796988 0 0 0 0.34 58 1555 86 1562 125 2289 167 2166 
6359 -0.6728828585482427 0.17398366061736656 1.0011302866691976 0 0 0 0.14 58 1556 86 1563 167 2167 
6360 -0.6381060323965718 0.17190039360613074 0.9770388298324578 0 0 0 0.17 58 1557 86 1564 167 2168 
6361 -0.6424699972350341 0.17656580520054596 0.974698775741064 0 0 0 0.24 58 1558 86 1565 125 2290 167 2169 
6362 -0.6226925604211285 0.17367258417227124 0.9684716389627333 0 0 0 0.46 58 1559 86 1566 125 2291 167 2170 178 704 191 927 8 1115 
6363 -0.6704507134061243 0.18788164018772927 0.9884948990720765 0 0 0 0.26 58 1560 86 1567 167 2171 
6364 -0.6047442646163688 0.18627391162816448 0.9556345883355093 0 0 0 0.82 58 1561 125 2292 139 913 167 2172 178 705 8 1116 102 911 
6365 -0.6750385023835812 0.21182556502977473 0.9819477005732423 0 0 0 0.29 58 1562 125 2293 167 2173 
6366 -0.6110207490907635 0.1990681420747816 0.9536368863936044 0 0 0 0.21 58 1563 167 2174 191 928 
6367 -0.3649073982539298 0.17060398477273567 0.8692076330740393 0 0 0 0.29 58 1564 86 1568 116 2162 154 1668 166 1701 167 2175 180 1826 191 929 202 967 211 1474 212 1157 125 2294 171 1406 8 1117 23 1300 24 880 51 399 55 880 57 1295 59 1267 72 1137 102 912 115 243 119 807 133 240 137 452 143 822 144 1325 145 864 151 2099 153 639 173 1296 178 706 183 903 193 2120 218 1704 226 1147 168 163 
6368 -0.30623441453673356 0.15887845306458853 0.8386609142529269 0 0 0 0.23 58 1565 86 1569 119 808 125 2295 167 2176 191 930 202 968 23 1301 72 1138 102 913 168 164 178 707 
6369 -0.8719912025984679 0.24981408518136958 0.9839965412511099 0 0 0 0.39 58 1566 74 91 82 63 167 2177 182 23 
6370 -0.6937401863932702 0.23377346779511013 0.9787416957323393 0 0 0 0.25 58 1567 86 1570 125 2296 167 2178 
6371 -0.2692125534645928 0.15598819890039775 0.808275077743664 0 0 0 0.13 58 1568 59 1268 94 2161 116 2163 131 698 167 2179 178 708 212 1158 226 1148 8 1118 34 1260 140 1462 218 1705 
6372 -0.6435637614947113 0.22984176724295116 0.9577014814598539 0 0 0 0.16 58 1569 86 1571 167 2180 
6373 -0.6331975090454671 0.24196647952731148 0.9392649805857262 0 0 0 0.41 58 1570 86 1572 125 2297 167 2181 191 931 
6374 -0.8737975402166933 0.26907367104540997 0.9758424120242808 0 0 0 0.37 58 1571 69 27 167 2182 
6375 -0.672620752594796 0.252349596057784 0.963318519936961 0 0 0 0.48 58 1572 125 2298 167 2183 
6376 -0.5757930599821192 0.23552924883915838 0.9166010203177299 0 0 0 0.71 58 1573 59 1269 74 92 119 809 125 2299 167 2184 178 709 8 1119 51 400 86 1573 
6377 -0.6391127475989392 0.2580142534474423 0.9425394412833907 0 0 0 0.25 58 1574 125 2300 167 2185 
6378 -0.5561426860085364 0.2493761443517344 0.8982910714496756 0 0 0 0.48 58 1575 59 1270 86 1574 119 810 125 2301 139 914 167 2186 178 710 191 932 202 969 228 2070 8 1120 24 881 133 241 102 914 
6379 -0.5949133033430971 0.2630444112419423 0.919582713929737 0 0 0 0.06 58 1576 167 2187 178 711 
6380 -0.7921590494061979 0.28359346939987456 0.9584302983364974 0 0 0 0.25 58 1577 82 64 167 2188 170 49 
6381 -0.5794021717692731 0.28131980732258 0.894223824968183 0 0 0 0.48 58 1578 125 2302 167 2189 8 1121 59 1271 102 915 119 811 178 712 
6382 -0.5696096127641409 0.28060840221124794 0.8858093216079905 0 0 0 0.52 58 1579 139 915 167 2190 228 2071 8 1122 24 882 
6383 -0.5576959049676201 0.2798594888072486 0.8828282941715677 0 0 0 0.63 58 1580 139 916 167 2191 228 2072 8 1123 24 883 102 916 119 812 133 242 202 970 218 1706 
6384 -0.5451167247713015 0.2831077117046223 0.8761531376380184 0 0 0 0.36 58 1581 59 1272 154 1669 167 2192 202 971 218 1707 228 2073 
6385 -0.5540958231439893 0.29045706598154003 0.8749862417791265 0 0 0 0.51 58 1582 59 1273 102 917 125 2303 154 1670 167 2193 178 713 202 972 218 1708 228 2074 212 1159 8 1124 133 243 51 401 119 813 153 640 180 1827 
6386 -0.5702353005278278 0.3005830238152347 0.8765384985901554 0 0 0 0.41 58 1583 125 2304 167 2194 228 2075 8 1125 24 884 59 1274 102 918 139 917 191 933 
6387 -0.3527843038200283 0.2781060051039638 0.8008864430890676 0 0 0 0.28 58 1584 59 1275 116 2164 125 2305 131 699 144 1326 151 2100 167 2195 191 934 193 2121 202 973 211 1475 212 1160 218 1709 228 2076 
6388 -0.5957496467254204 0.31074310001813776 0.8920640073056547 0 0 0 0.38 58 1585 69 28 167 2196 191 935 
6389 -0.6532597605393122 0.32200840513379436 0.9216017064519566 0 0 0 0.29 58 1586 69 29 74 93 167 2197 
6390 -0.6808100664315342 0.3263805109326947 0.9309857953327494 0 0 0 0.24 58 1587 125 2306 167 2198 
6391 -0.5862297241006728 0.31324359200457075 0.8830933959817237 0 0 0 0.34 58 1588 59 1276 125 2307 167 2199 191 936 228 2077 8 1126 133 244 139 918 
6392 -0.5947108093931427 0.3346619798397439 0.8781198343870067 0 0 0 0.15 58 1589 59 1277 125 2308 167 2200 191 937 8 1127 
6393 -0.8682008271007047 0.3613815641695219 0.9303098491096362 0 0 0 0.39 58 1590 167 2201 170 50 
6394 -0.361471866036621 0.08341660888803422 1.0494598162087543 0 0 0 1.2 58 1591 59 1278 154 1671 167 2202 178 714 180 1828 202 974 8 1128 48 175 153 641 166 1702 
6395 -0.19176443958892092 0.03059471522603344 0.9030888946044179 0 0 0 0.4 58 1592 59 1279 116 2165 151 2101 167 2203 193 2122 125 2309 8 1129 140 1463 145 865 153 642 173 1297 
6396 -0.6080193262784294 0.13403058287024436 0.9982163694528088 0 0 0 0.51 58 1593 59 1280 86 1575 125 2310 167 2204 178 715 191 938 8 1130 
6397 -0.6263150262475133 0.15270537487266655 0.9858014401737455 0 0 0 0.38 58 1594 86 1576 167 2205 178 716 
6398 -0.15400973234399262 0.062004178878576684 0.8167563402394011 0 0 0 0.22 58 1595 86 1577 116 2166 144 1327 151 2102 167 2206 193 2123 
6399 -0.9037455979870666 0.21257168899807685 1.0070440312769804 0 0 0 0.46 58 1596 153 643 167 2207 
6400 -0.6070834201122659 0.1670613259610612 0.9660438759579975 0 0 0 0.46 58 1597 125 2311 167 2208 170 51 
6401 -0.6478590822795964 0.1793864963642423 0.983801382255927 0 0 0 0.42 58 1598 69 30 86 1578 125 2312 167 2209 191 939 
6402 -0.7736357408208288 0.20611203322823196 0.9864484475434382 0 0 0 0.37 58 1599 125 2313 167 2210 
6403 -0.6977405322707623 0.194901943333168 0.9754406498034637 0 0 0 0.37 58 1600 86 1579 167 2211 
6404 -0.659341260449984 0.19645442994589943 0.9823655021060803 0 0 0 0.27 58 1601 86 1580 167 2212 191 940 
6405 -0.6367648331589583 0.1897403330121415 0.9666175657950451 0 0 0 0.39 58 1602 86 1581 125 2314 139 919 167 2213 191 941 
6406 -0.6509993645986575 0.19523475580694494 0.9767369944634238 0 0 0 0.19 58 1603 167 2214 191 942 
6407 -0.6409476571514481 0.20182019775380697 0.9688727867717521 0 0 0 0.67 58 1604 86 1582 167 2215 
6408 -0.866148404019343 0.24220150992850306 0.9867677821026556 0 0 0 0.29 58 1605 82 65 167 2216 182 24 74 94 
6409 -0.6557916344363611 0.24662772372068653 0.9461709270429955 0 0 0 0.23 58 1606 86 1583 125 2315 167 2217 
6410 -0.589227212443462 0.2385691129778557 0.922542095370376 0 0 0 0.44 58 1607 86 1584 167 2218 191 943 228 2078 
6411 -0.5688541733996942 0.2335101385691499 0.912248212807065 0 0 0 0.56 58 1608 59 1281 86 1585 119 814 125 2316 167 2219 218 1710 228 2079 8 1131 24 885 102 919 133 245 139 920 178 717 
6412 -0.6117854174280561 0.24191447163004018 0.9265260890330317 0 0 0 0.61 58 1609 86 1586 125 2317 139 921 153 644 167 2220 178 718 191 944 8 1132 
6413 -0.5842096707187123 0.2424683656287734 0.9191236511632025 0 0 0 0.49 58 1610 59 1282 74 95 82 66 86 1587 100 12 119 815 125 2318 139 922 167 2221 191 945 228 2080 8 1133 102 920 
6414 -0.6072899092452038 0.2526181061595445 0.9269341557935966 0 0 0 0.66 58 1611 69 31 74 96 86 1588 167 2222 170 52 178 719 191 946 8 1134 59 1283 125 2319 139 923 
6415 -0.8679907927766061 0.2841187037017235 0.9662762470162859 0 0 0 0.23 58 1612 74 97 82 67 167 2223 170 53 
6416 -0.5453023574718762 0.2472317826876463 0.8908459218746909 0 0 0 0.48 58 1613 59 1284 86 1589 125 2320 154 1672 167 2224 178 720 202 975 228 2081 8 1135 24 886 133 246 139 924 191 947 102 921 119 816 211 1476 
6417 -0.564939422483539 0.25165553636218063 0.9013766836916342 0 0 0 0.66 58 1614 59 1285 86 1590 119 817 125 2321 139 925 167 2225 178 721 191 948 218 1711 228 2082 8 1136 24 887 102 922 133 247 
6418 -0.6092741611010845 0.2647758434249535 0.9200646556833739 0 0 0 0.45 58 1615 86 1591 167 2226 178 722 8 1137 59 1286 139 926 
6419 -0.9081745663372082 0.2974046609359993 0.9635718842746841 0 0 0 0.34 58 1616 82 68 167 2227 170 54 
6420 -0.8804536030376054 0.303662665470749 0.9605856760816432 0 0 0 0.37 58 1617 69 32 74 98 82 69 167 2228 182 25 
6421 -0.6547702529814063 0.29188606134103773 0.9406752559161783 0 0 0 0.37 58 1618 125 2322 167 2229 191 949 
6422 -0.561695946022868 0.28596350243899 0.8835583848243952 0 0 0 0.79 58 1619 74 99 82 70 167 2230 182 26 191 950 24 888 
6423 -0.6233309937627919 0.29508803295005664 0.9041472414965445 0 0 0 0.31 58 1620 167 2231 178 723 
6424 -0.5463361662692541 0.2880288561737907 0.8732292167456597 0 0 0 0.51 58 1621 69 33 82 71 151 2103 167 2232 218 1712 59 1287 74 100 125 2323 154 1673 178 724 202 976 211 1477 228 2083 8 1138 24 889 139 927 133 248 191 951 
6425 -0.5715662577845553 0.29497972963885516 0.885644849621332 0 0 0 0.46 58 1622 59 1288 69 34 82 72 100 13 102 923 119 818 167 2233 182 27 
6426 -0.6578590955615645 0.3142542702478592 0.9281314665447344 0 0 0 0.6 58 1623 125 2324 167 2234 170 55 
6427 -0.6088595520317954 0.30541624849881155 0.9034182942040416 0 0 0 0.14 58 1624 167 2235 178 725 
6428 -0.6472882546029896 0.3347296588412878 0.9082912741423534 0 0 0 0.32 58 1625 74 101 125 2325 167 2236 170 56 191 952 
6429 -0.640106281185922 0.3331933508921617 0.902670907410754 0 0 0 0.14 58 1626 125 2326 167 2237 191 953 
6430 -0.6312861200121779 0.33248232468271965 0.8993060112173953 0 0 0 0.18 58 1627 125 2327 167 2238 191 954 
6431 -0.8207418966826813 0.35411432246785973 0.9304413991502588 0 0 0 0.44 58 1628 69 35 167 2239 182 28 
6432 -0.6309258936162349 0.14286246795897692 1.0025126723895967 0 0 0 0.34 58 1629 86 1592 167 2240 
6433 -0.7495587316781551 0.177408094707501 1.0063406004784932 0 0 0 0.18 58 1630 125 2328 167 2241 
6434 -0.6190592273712423 0.1586002011480069 0.9644856002053456 0 0 0 0.55 58 1631 59 1289 86 1593 125 2329 167 2242 8 1139 
6435 -0.35611453377506846 0.11608095230316637 0.881654932469608 0 0 0 0.86 58 1632 116 2167 167 2243 218 1713 8 1140 102 924 115 244 119 819 153 645 
6436 -0.736882152772727 0.21614300358257252 0.9839502835140929 0 0 0 0.45 58 1633 125 2330 167 2244 
6437 -0.694642318205015 0.21071635655374976 0.9820355627789394 0 0 0 0.3 58 1634 125 2331 167 2245 
6438 -0.7680190565733379 0.232329554987032 0.9827087118964606 0 0 0 0.24 58 1635 167 2246 170 57 
6439 -0.927380003970732 0.26709072293792196 0.9810386324223466 0 0 0 0.34 58 1636 167 2247 170 58 
6440 -0.8789253784361976 0.2675486839002343 0.9766488639508808 0 0 0 0.4 58 1637 69 36 167 2248 
6441 -0.39815891615964727 0.20063009424996323 0.8575969244780487 0 0 0 0.52 58 1638 167 2249 191 955 8 1141 116 2168 125 2332 143 823 144 1328 211 1478 218 1714 226 1149 228 2084 
6442 -0.5433726367145638 0.225796977059977 0.8951433580574543 0 0 0 0.39 58 1639 167 2250 211 1479 8 1142 
6443 -0.6690560281749428 0.26327968426200565 0.9533418152372252 0 0 0 0.21 58 1640 86 1594 125 2333 167 2251 191 956 
6444 -0.5909491987604362 0.2498749839619628 0.9187357525225177 0 0 0 0.54 58 1641 59 1290 69 37 86 1595 167 2252 228 2085 8 1143 102 925 178 726 
6445 -0.578162321140028 0.24681770238417666 0.9121131257462223 0 0 0 0.45 58 1642 59 1291 74 102 82 73 86 1596 119 820 125 2334 139 928 167 2253 178 727 191 957 228 2086 8 1144 102 926 133 249 
6446 -0.5610996181285455 0.2433414889988429 0.9028650138487337 0 0 0 0.32 58 1643 59 1292 69 38 74 103 82 74 86 1597 102 927 125 2335 139 929 167 2254 178 728 191 958 218 1715 228 2087 8 1145 24 890 
6447 -0.5780428457238644 0.29435861589274964 0.8900215250210073 0 0 0 0.33 58 1644 59 1293 69 39 74 104 82 75 100 14 119 821 125 2336 139 930 167 2255 178 729 182 29 228 2088 8 1146 133 250 191 959 
6448 -0.5863946256618688 0.3218401492212258 0.8772009690503103 0 0 0 0.6 58 1645 59 1294 74 105 82 76 125 2337 167 2256 228 2089 8 1147 133 251 139 931 191 960 
6449 -0.5441461514377172 0.3127875822754332 0.8542139095053717 0 0 0 0.63 58 1646 59 1295 125 2338 139 932 167 2257 228 2090 8 1148 24 891 48 176 51 402 119 822 151 2104 202 977 211 1480 
6450 -0.5731761668979183 0.3320680493693507 0.8651195946928207 0 0 0 0.61 58 1647 59 1296 82 77 119 823 125 2339 139 933 167 2258 191 961 8 1149 48 177 51 403 
6451 -0.8907360006440229 0.350410509122388 0.9382022193863578 0 0 0 0.68 58 1648 69 40 167 2259 
6452 -0.6421641229802509 0.15266086444517182 1.004148626627457 0 0 0 0.17 58 1649 86 1598 167 2260 
6453 -0.6285840549623134 0.1639099485729143 0.9813575916400569 0 0 0 0.69 58 1650 86 1599 167 2261 82 78 125 2340 139 934 191 962 8 1150 
6454 -0.6384202983594403 0.1703773297424471 0.9851417802867098 0 0 0 0.57 58 1651 74 106 82 79 86 1600 125 2341 139 935 167 2262 191 963 
6455 -0.6249595965523116 0.1660700359196586 0.9686184612012471 0 0 0 0.78 58 1652 86 1601 125 2342 167 2263 178 730 8 1151 
6456 -0.8598331841742909 0.2213582173028744 0.9972034678802445 0 0 0 0.56 58 1653 167 2264 182 30 
6457 -0.7656069958735237 0.20784852768347906 0.9830308014886507 0 0 0 0.14 58 1654 125 2343 167 2265 
6458 -0.8599377515817118 0.23581633412854244 0.9899457241970626 0 0 0 0.18 58 1655 100 15 167 2266 
6459 -0.7337962114872104 0.22504544340704416 0.9809416246061561 0 0 0 0.41 58 1656 69 41 74 107 82 80 100 16 125 2344 167 2267 170 59 182 31 
6460 -0.9116064221281489 0.24565172131297142 0.9891175606521192 0 0 0 0.4 58 1657 74 108 167 2268 170 60 
6461 -0.8029770447364747 0.2486123756175564 0.9766422399111389 0 0 0 0.25 58 1658 74 109 82 81 167 2269 
6462 -0.6733594895669036 0.24759687832829733 0.9610185468179273 0 0 0 0.48 58 1659 125 2345 167 2270 191 964 
6463 -0.6111612106435097 0.23835575846313606 0.9360655685082356 0 0 0 0.88 58 1660 74 110 86 1602 125 2346 139 936 167 2271 170 61 191 965 8 1152 178 731 
6464 -0.5706920761905637 0.24630949991560896 0.9051261454489428 0 0 0 0.66 58 1661 59 1297 74 111 82 82 86 1603 119 824 139 937 167 2272 191 966 228 2091 8 1153 24 892 
6465 -0.7887410117271246 0.32336164025804576 0.9400130189452466 0 0 0 0.54 58 1662 82 83 167 2273 
6466 -0.7961197309587188 0.33578802988192274 0.9347877352294901 0 0 0 0.51 58 1663 69 42 82 84 167 2274 170 62 
6467 -0.5740315702956436 0.31882269823129605 0.8716874803430409 0 0 0 0.72 58 1664 59 1298 74 112 82 85 119 825 125 2347 167 2275 191 967 8 1154 51 404 228 2092 102 928 
6468 -0.5596887605661471 0.31363828388707005 0.8584725133827201 0 0 0 0.49 58 1665 59 1299 119 826 125 2348 167 2276 218 1716 228 2093 8 1155 24 893 
6469 -0.8514824962820776 0.34501529909531314 0.9365914843890978 0 0 0 0.3 58 1666 100 17 167 2277 
6470 -0.2755489842021944 0.07600811022492708 0.9084187574266223 0 0 0 0.43 58 1667 125 2349 151 2105 167 2278 
6471 -0.284829556517039 0.09025452237124955 0.8689966281247885 0 0 0 0.65 58 1668 59 1300 131 700 144 1329 151 2106 167 2279 57 1296 86 1604 133 252 193 2124 
6472 -0.7000985019595023 0.18640656772252664 0.9966977334061903 0 0 0 0.58 58 1669 86 1605 125 2350 167 2280 
6473 -0.6814535237982589 0.21489236090841746 0.9805408113053149 0 0 0 0.41 58 1670 86 1606 167 2281 
6474 -0.9037827576515234 0.25821319327934134 0.982244930835144 0 0 0 0.35 58 1671 69 43 74 113 82 86 100 18 167 2282 182 32 
6475 -0.6565492214174263 0.24423018845545827 0.9520566083778221 0 0 0 0.75 58 1672 86 1607 125 2351 167 2283 191 968 
6476 -0.8174697475275028 0.2919131417327482 0.9587021553927507 0 0 0 0.42 58 1673 82 87 167 2284 
6477 -0.637796271942068 0.29112897093977314 0.9129481539437975 0 0 0 0.49 58 1674 125 2352 167 2285 
6478 -0.5737332122040006 0.2836059144879576 0.8910243131870793 0 0 0 0.93 58 1675 59 1301 100 19 167 2286 228 2094 24 894 125 2353 191 969 
6479 -0.7516829094643526 0.32838867532422183 0.9261007287763704 0 0 0 0.13 58 1676 125 2354 167 2287 
6480 -0.6696346478141468 0.1683730725095593 0.9973990614091003 0 0 0 0.69 58 1677 125 2355 167 2288 
6481 -0.7232219713328935 0.20671939654968785 0.9903465935475348 0 0 0 0.74 58 1678 74 114 86 1608 167 2289 182 33 
6482 -0.7637602822630489 0.2587583244326877 0.972404489257041 0 0 0 0.41 58 1679 69 44 167 2290 182 34 
6483 -0.8692893056315921 0.2754346616600416 0.9711078898100822 0 0 0 0.39 58 1680 74 115 167 2291 
6484 -0.6044956644248034 0.29063940084048107 0.907395715587834 0 0 0 0.85 58 1681 74 116 82 88 167 2292 191 970 125 2356 
6485 -0.5898499478990377 0.30602363080180817 0.8906253385431726 0 0 0 0.4 58 1682 59 1302 125 2357 167 2293 228 2095 
6486 -0.7196598101556905 0.3317619462383817 0.92881875659884 0 0 0 0.43 58 1683 125 2358 167 2294 
6487 -0.65931571287607 0.34160630018323707 0.9256780707198757 0 0 0 0.86 58 1684 125 2359 167 2295 
6488 -0.7357602857964171 0.3426234664588958 0.9288053563288159 0 0 0 0.47 58 1685 69 45 167 2296 125 2360 
6489 -0.8332165517608954 0.34788677876466867 0.9339007282716711 0 0 0 0.32 58 1686 69 46 167 2297 170 63 
6490 -0.6793815954162803 0.24993764473431315 0.9682242686969352 0 0 0 0.41 58 1687 69 47 86 1609 100 20 125 2361 167 2298 182 35 
6491 -0.89260073348818 0.29396186644068917 0.9658131978396365 0 0 0 0.24 58 1688 100 21 167 2299 182 36 
6492 -0.6827397516747007 0.2864324602362815 0.9508599213780543 0 0 0 0.33 58 1689 82 89 167 2300 
6493 -0.6027435479944389 0.3116060098941267 0.899983969520627 0 0 0 0.67 58 1690 125 2362 167 2301 
6494 -0.5848268138251113 0.289373420268866 0.9072410393884113 0 0 0 0.71 125 2363 139 938 167 2302 
6495 -0.6489999936495466 0.336276743413947 0.9160500692187734 0 0 0 0.32 58 1691 125 2364 167 2303 
6496 -0.4300607483256341 0.01998486213150049 0.9970559405100264 0 0 0 0.4 59 1303 167 2304 218 1717 
6497 -0.4008710168572126 0.025899952590353777 1.0154494523492934 0 0 0 0.12 59 1304 167 2305 193 2125 
6498 -0.4393242554491134 0.03559751907109906 0.9809501468255204 0 0 0 0.19 59 1305 86 1610 167 2306 
6499 -0.40866420265954834 0.04546690831793017 1.00280422326311 0 0 0 0.24 59 1306 86 1611 125 2365 131 701 166 1703 167 2307 189 784 191 971 193 2126 218 1718 
6500 -0.39619285566807216 0.04962082811615314 1.0106429318652694 0 0 0 0.05 59 1307 167 2308 202 978 
6501 -0.11403527372907014 -0.09135204840249073 0.8586835773217385 0 0 0 0.27 59 1308 86 1612 167 2309 202 979 212 1161 
6502 -0.37401927818273767 0.06573742518450156 1.0520209363150617 0 0 0 0.5 59 1309 167 2310 189 785 202 980 
6503 -0.3588801377460914 0.04047825302962573 0.9866684692108739 0 0 0 0.34 59 1310 86 1613 166 1704 167 2311 
6504 -0.4438167968561533 0.06720844794067174 0.9570498070808549 0 0 0 0.23 59 1311 86 1614 151 2107 167 2312 
6505 -0.4454954970565815 0.0907289690075099 0.9567772416366253 0 0 0 0.44 59 1312 86 1615 125 2366 139 939 166 1705 167 2313 189 786 212 1162 8 1156 131 702 
6506 -0.589109436198037 0.13508618590863752 0.9703878136575134 0 0 0 0.11 59 1313 86 1616 167 2314 
6507 -0.3607096778078597 0.10414282751178969 1.0513209655813132 0 0 0 0.04 59 1314 151 2108 167 2315 
6508 -0.4483646582788095 0.09701231668969505 0.9391064918659945 0 0 0 0.4 59 1315 86 1617 125 2367 166 1706 167 2316 180 1829 186 605 202 981 211 1481 
6509 -0.1645998937769025 0.02062916076846273 0.8951511783961615 0 0 0 0.16 59 1316 131 703 167 2317 211 1482 
6510 -0.3969683793428137 0.11884932445064672 0.9822285278820323 0 0 0 0.3 59 1317 86 1618 166 1707 167 2318 178 732 8 1157 48 178 143 824 151 2109 191 972 
6511 -0.2750536457924208 0.06706638262553244 0.9212606571067836 0 0 0 0.39 59 1318 167 2319 180 1830 218 1719 
6512 -0.37424087790516664 0.13601607464530158 1.0123936864726424 0 0 0 0.65 59 1319 86 1619 125 2368 167 2320 202 982 24 895 153 646 
6513 -0.2072256382233644 0.056157172315176404 0.8832318657398466 0 0 0 0.43 59 1320 119 827 167 2321 183 904 
6514 -0.45404621814258256 0.13051152734251362 0.9339536377664162 0 0 0 0.35 59 1321 86 1620 143 825 166 1708 167 2322 178 733 202 983 8 1158 
6515 -0.44922153265426323 0.1358186832202478 0.9437995016617794 0 0 0 0.18 59 1322 86 1621 166 1709 167 2323 212 1163 
6516 -0.4418734126039972 0.12081049774785148 0.9008509072621044 0 0 0 0.42 59 1323 86 1622 102 929 166 1710 167 2324 180 1831 186 606 202 984 212 1164 218 1720 8 1159 24 896 131 704 193 2127 
6517 -0.4413575939759804 0.1475099260791464 0.9459870168700681 0 0 0 0.23 59 1324 86 1623 143 826 166 1711 167 2325 202 985 212 1165 218 1721 8 1160 
6518 -0.6016820336776021 0.1910028847823504 0.9548579288456578 0 0 0 0.43 59 1325 86 1624 102 930 167 2326 191 973 8 1161 
6519 -0.3955025420711889 0.13004176756342173 0.9002803887260147 0 0 0 0.19 59 1326 86 1625 167 2327 8 1162 151 2110 193 2128 
6520 -0.5937827905647955 0.18903249344994613 0.9461367096964816 0 0 0 0.31 59 1327 125 2369 167 2328 8 1163 58 1692 
6521 -0.3625973165448406 0.1234755077641087 0.8825132634115764 0 0 0 0.43 59 1328 119 828 154 1674 167 2329 183 905 193 2129 211 1483 8 1164 23 1302 37 1450 173 1298 
6522 -0.41808963425303314 0.14138145531298785 0.8936679846732083 0 0 0 0.34 59 1329 72 1139 94 2162 116 2169 151 2111 167 2330 8 1165 173 1299 
6523 -0.6123873668960467 0.2008215790115902 0.9507239414491518 0 0 0 0.22 59 1330 86 1626 125 2370 139 940 167 2331 8 1166 
6524 -0.4578527272290124 0.16012469302051058 0.9119325788317194 0 0 0 0.32 59 1331 86 1627 166 1712 167 2332 8 1167 34 1261 125 2371 173 1300 186 607 189 787 218 1722 228 2096 
6525 -0.1637295493322062 0.07484869275380528 0.8047767431156807 0 0 0 0.46 59 1332 86 1628 116 2170 131 705 167 2333 177 1143 193 2130 
6526 -0.4008941407487051 0.15420634246573744 0.8883959538823406 0 0 0 0.24 59 1333 145 866 167 2334 228 2097 
6527 -0.4235064721996873 0.16156751388645285 0.8878957511146021 0 0 0 0.41 59 1334 143 827 166 1713 167 2335 202 986 
6528 -0.5535607546351037 0.1990888693026511 0.9183428506680488 0 0 0 0.49 59 1335 86 1629 125 2372 154 1675 167 2336 228 2098 8 1168 24 897 58 1693 
6529 -0.5615532107538537 0.20841348243267155 0.9178858346023779 0 0 0 0.29 59 1336 125 2373 167 2337 24 898 
6530 -0.4600952946969296 0.19068559100134422 0.9040573779643225 0 0 0 0.42 59 1337 86 1630 167 2338 178 734 
6531 -0.26587003693454125 0.13842599121240787 0.8174724742049857 0 0 0 0.43 59 1338 116 2171 125 2374 153 647 167 2339 202 987 
6532 -0.24486498045662577 0.13601077519124308 0.7973848702340729 0 0 0 0.25 59 1339 151 2112 154 1676 167 2340 202 988 226 1150 233 1553 
6533 -0.4325617058334405 0.20943182672710028 0.8633074332064472 0 0 0 0.54 59 1340 102 931 119 829 125 2375 143 828 167 2341 189 788 193 2131 24 899 34 1262 58 1694 86 1631 116 2172 133 253 139 941 144 1330 151 2113 161 1063 178 735 211 1484 228 2099 55 881 94 2163 137 453 154 1677 216 1547 
6534 -0.3998150277446231 0.209450550862802 0.8718819459867547 0 0 0 0.33 59 1341 86 1632 102 932 131 706 154 1678 167 2342 189 789 193 2132 202 989 218 1723 226 1151 8 1169 153 648 180 1832 143 829 166 1714 
6535 -0.32756513503141166 0.1863758248445364 0.8317808112887561 0 0 0 0.19 59 1342 167 2343 202 990 212 1166 
6536 -0.22567744140270263 0.17429174394515495 0.7804970850844255 0 0 0 0.2 59 1343 94 2164 125 2376 167 2344 212 1167 
6537 -0.26192014182653356 0.19215214915330392 0.7811747878814207 0 0 0 0.19 59 1344 167 2345 191 974 
6538 -0.17317937810464307 0.18708854601208058 0.7316997717591902 0 0 0 0.2 59 1345 125 2377 132 406 145 867 167 2346 
6539 -0.45840791919941676 0.3001187889428737 0.8989828608078438 0 0 0 0.77 59 1346 167 2347 202 991 
6540 -0.552934612291013 0.29956807424067494 0.8783589482272437 0 0 0 0.11 59 1347 154 1679 167 2348 
6541 -0.5507793178206776 0.29610280802669553 0.8695830791839215 0 0 0 0.42 59 1348 154 1680 167 2349 191 975 202 992 8 1170 24 900 51 405 125 2378 139 942 
6542 -0.5637016382410325 0.30395326730216454 0.8782432716504037 0 0 0 0.18 59 1349 125 2379 167 2350 191 976 
6543 -0.2986483335881087 0.2558729108801962 0.7742022994426547 0 0 0 0.4 59 1350 116 2173 125 2380 143 830 151 2114 153 649 167 2351 173 1301 180 1833 193 2133 
6544 -0.3223544613930761 0.2741855530569346 0.7878061722722499 0 0 0 0.32 59 1351 125 2381 151 2115 167 2352 178 736 191 977 193 2134 202 993 212 1168 218 1724 23 1303 24 901 102 933 143 831 180 1834 
6545 -0.3544001985409876 0.2811953067897159 0.7966993487361308 0 0 0 0.43 59 1352 125 2382 166 1715 167 2353 202 994 212 1169 143 832 144 1331 151 2116 189 790 191 978 193 2135 218 1725 8 1171 34 1263 51 406 
6546 -0.3395231161260567 0.27153730522995123 0.7720055666832255 0 0 0 0.13 59 1353 166 1716 167 2354 212 1170 218 1726 
6547 -0.26520369720234227 0.25557902445598524 0.7212209676850558 0 0 0 0.33 59 1354 119 830 166 1717 167 2355 191 979 8 1172 131 707 177 1144 
6548 -0.24158047182328596 0.2527038436573417 0.7123920728826098 0 0 0 0.25 59 1355 143 833 166 1718 167 2356 173 1302 177 1145 202 995 212 1171 218 1727 
6549 -0.23067876046361857 0.2509131390887855 0.7076126090100815 0 0 0 0.16 59 1356 167 2357 177 1146 212 1172 218 1728 8 1173 23 1304 102 934 
6550 -0.5745473328104377 0.32922397805653614 0.8681636086728647 0 0 0 0.32 59 1357 167 2358 191 980 228 2100 
6551 -0.5585072305720404 0.3237075832454186 0.8545666538221988 0 0 0 0.61 59 1358 125 2383 167 2359 191 981 228 2101 24 902 58 1695 
6552 -0.46689476627124277 0.32303003596512336 0.834146786133958 0 0 0 0.31 59 1359 125 2384 151 2117 167 2360 180 1835 191 982 24 903 
6553 -0.5556067799999029 0.33157671991656007 0.8492978706022831 0 0 0 0.67 59 1360 125 2385 167 2361 8 1174 24 904 139 943 202 996 
6554 -0.2167999573333979 0.2923836959759209 0.6830557937155879 0 0 0 0.39 59 1361 116 2174 167 2362 119 831 143 834 144 1332 151 2118 191 983 228 2102 
6555 -0.4079636886111393 -0.010144005493920371 0.9766972223197486 0 0 0 0.61 59 1362 119 832 167 2363 186 608 202 997 212 1173 
6556 -0.4320615984632034 0.04042850883547334 0.9766765186733372 0 0 0 0.26 59 1363 86 1633 125 2386 151 2119 167 2364 
6557 -0.3968859849038818 0.05746320235119873 1.010048979910559 0 0 0 0.35 59 1364 86 1634 153 650 166 1719 167 2365 202 998 212 1174 125 2387 191 984 8 1175 
6558 -0.44672684909551474 0.06315199498418739 0.9661172259442237 0 0 0 0.34 59 1365 86 1635 125 2388 166 1720 167 2366 178 737 193 2136 202 999 212 1175 218 1729 8 1176 24 905 180 1836 
6559 -0.353440471448641 0.05308638082742958 0.9700191165680326 0 0 0 0.56 59 1366 86 1636 131 708 166 1721 167 2367 212 1176 218 1730 
6560 -0.41056097382949863 0.10489317300576988 0.9746849458403808 0 0 0 0.51 59 1367 86 1637 143 835 167 2368 178 738 202 1000 
6561 -0.1406553138930356 0.15910304584018636 1.2674427723252042 0 0 0 0.67 59 1368 86 1638 167 2369 178 739 180 1837 193 2137 212 1177 218 1731 
6562 -0.4571924293158246 0.130469614182796 0.915034752266876 0 0 0 0.28 59 1369 86 1639 125 2389 144 1333 151 2120 154 1681 166 1722 167 2370 212 1178 228 2103 8 1177 24 906 145 868 216 1548 
6563 -0.33687900169093954 0.10708406386363904 0.8950029610748532 0 0 0 0.47 59 1370 86 1640 131 709 144 1334 151 2121 167 2371 193 2138 202 1001 8 1178 
6564 -0.33191464794604697 0.10432637366874173 0.8931689088447242 0 0 0 1.27 59 1371 86 1641 131 710 167 2372 202 1002 218 1732 8 1179 58 1696 151 2122 193 2139 115 245 
6565 -0.37502724456863645 0.16998869520052562 1.020227263482483 0 0 0 0.64 59 1372 86 1642 125 2390 151 2123 166 1723 167 2373 202 1003 212 1179 
6566 -0.3665631773309959 0.18416076454087213 1.040714149799748 0 0 0 0.75 59 1373 86 1643 125 2391 166 1724 167 2374 202 1004 8 1180 46 1600 51 407 57 1297 58 1697 139 944 151 2124 186 609 189 791 191 985 211 1485 228 2104 
