# 3D point list with one line of data per point:
#   POINT3D_ID, X, Y, Z, R, G, B, ERROR, TRACK[] as (IMAGE_ID, POINT2D_IDX)
# Number of points: 431, mean track length: 4.8
99 -0.3656557218714823 -0.08794232623544049 0.9698543378299923 0 0 0 0.32 0 99 204 45 221 29 232 53 
100 -0.3331711791266121 -0.08847059556703786 0.9804516935482387 0 0 0 0.19 0 100 190 37 204 46 213 47 220 20 224 13 232 54 
101 0.11081962507139374 -0.09981780865777909 1.1493924612144721 0 0 0 0.14 0 101 213 48 221 30 
102 -0.32572094653879724 -0.08475168864420136 0.9797186801342127 0 0 0 0.17 0 102 190 38 204 47 213 49 219 25 227 40 232 55 
103 -0.38222526005463436 -0.08294445302906309 0.9709351800097571 0 0 0 0.2 0 103 204 48 227 41 
104 0.17829567611247482 -0.10042427941388585 1.2123430253547087 0 0 0 0.28 0 104 217 27 221 31 227 42 232 56 
105 -0.1966787990886476 -0.08267785632084697 1.0206157331417134 0 0 0 0.36 0 105 214 2 217 28 221 32 
106 -0.37940695475834374 -0.07899945932564247 0.9678511618457496 0 0 0 0.27 0 106 196 10 213 50 221 33 224 14 232 57 
107 -0.26326099254344 -0.08093528914482086 0.9999130156642629 0 0 0 0.45 0 107 213 51 214 3 231 1 232 58 
108 -0.3820600413416864 -0.07797091276141159 0.9664694862221151 0 0 0 0.21 0 108 190 39 196 11 227 43 232 59 
109 0.03175964830982153 -0.08692192077758097 1.1168931618035172 0 0 0 0.17 0 109 190 40 213 52 234 5 
110 -0.37133799268145357 -0.07592750155615832 0.9710384542610455 0 0 0 0.16 0 110 219 26 232 60 
111 0.1589577257652343 -0.09175970697522029 1.1903441144709144 0 0 0 0.32 0 111 190 41 217 29 221 34 222 13 227 44 232 61 
112 0.11079719327051354 -0.08667906941991405 1.1491157186549796 0 0 0 0.11 0 112 213 53 222 14 
113 0.1542407850740805 -0.0895582981831774 1.189115733351248 0 0 0 0.11 0 113 222 15 232 62 
114 -0.2443965778311802 -0.07509752020212995 1.0036484308443243 0 0 0 0.39 0 114 190 42 204 49 213 54 231 2 
115 -0.03791107276678671 -0.07953617968877204 1.083358023226626 0 0 0 0.17 0 115 204 50 219 27 
116 0.134499428937941 -0.0847368798913424 1.1630032469002967 0 0 0 0.34 0 116 190 43 204 51 217 30 221 35 222 16 232 63 
117 -0.4543269303470119 -0.06853883583631308 0.943859975067695 0 0 0 0.16 0 117 213 55 217 31 232 64 
118 -0.04076171611409439 -0.07691309987851584 1.0833230672951455 0 0 0 0.24 0 118 190 44 232 65 
119 -0.011568502432498568 -0.07735987178812963 1.0932237948425412 0 0 0 0.28 0 119 204 52 213 56 219 28 222 17 232 66 
120 0.11076773328105001 -0.07679880669361375 1.14785213554282 0 0 0 0.36 0 120 196 12 198 0 199 2 221 36 222 18 227 45 232 67 
121 -0.4620715496166574 -0.06102859914804266 0.9409797931196959 0 0 0 0.26 0 121 213 57 220 21 221 37 232 68 
122 -0.0016847258831518288 -0.06958871042019144 1.099884999059534 0 0 0 0.18 0 122 204 53 219 29 222 19 
123 0.07761789374615626 -0.07130114408770583 1.1310619855198212 0 0 0 0.17 0 123 217 32 232 69 
124 -0.45961447779415365 -0.05813373751448972 0.9424815058875272 0 0 0 0.33 0 124 220 22 221 38 232 70 
125 0.08762217191164996 -0.06969315732030151 1.1363285594266146 0 0 0 0.33 0 125 213 58 234 6 
126 -0.044331741322067554 -0.06547782060108633 1.079035092224016 0 0 0 0.53 0 126 190 45 213 59 217 33 223 6 232 71 
127 -0.01621850313532519 -0.0640179491271783 1.0935281327352162 0 0 0 0.37 0 127 190 46 213 60 232 72 
128 0.12112572421265397 -0.0669420053287428 1.149652637728388 0 0 0 0.26 0 128 190 47 204 54 213 61 221 39 222 20 232 73 
129 0.05644215225094526 -0.06187734050409459 1.122865425648667 0 0 0 0.19 0 129 204 55 232 74 
130 -0.04084844478803614 -0.05628552875030173 1.079046889710652 0 0 0 0.19 0 130 190 48 213 62 217 34 232 75 
131 0.0434027869308345 -0.05658725666754228 1.11544337740693 0 0 0 0.32 0 131 222 21 227 46 
132 -0.18595652995577233 -0.04704350713664379 0.9574627060712881 0 0 0 1.83 0 132 217 35 219 30 
133 -0.22826791676287567 -0.04824832047109196 1.0121941076617669 0 0 0 0.16 0 133 219 31 231 3 
134 0.13417571852198934 -0.05241731209456465 1.1622472730921471 0 0 0 0.22 0 134 190 49 204 56 217 36 222 22 232 76 
135 0.1954910591228906 -0.055436178294989286 1.2336465113093336 0 0 0 0.43 0 135 190 50 232 77 
136 0.1370624846298796 -0.048633186732252524 1.170400914773987 0 0 0 0.14 0 136 204 57 222 23 
137 0.12158832573814889 -0.0441243792595637 1.1532198230235957 0 0 0 0.25 0 137 204 58 213 63 222 24 232 78 
138 0.17734640499635207 -0.043232060178085556 1.2070616449522713 0 0 0 0.7 0 138 190 51 217 37 221 40 
139 0.1511692321015207 -0.04124630722798091 1.181162990684412 0 0 0 0.22 0 139 190 52 204 59 217 38 
140 -0.390304680784717 -0.032313504239977406 0.9538055255160379 0 0 0 0.57 0 140 204 60 213 64 221 41 227 47 232 79 
141 -0.3272337523549772 -0.032420061693884526 0.9701568132674682 0 0 0 0.4 0 141 204 61 213 65 
142 0.1914302280883784 -0.04108947136985361 1.2209208830959024 0 0 0 0.16 0 142 190 53 227 48 
143 -0.35672276099588357 -0.031134347125823265 0.960752693931521 0 0 0 0.29 0 143 190 54 204 62 213 66 221 42 227 49 232 80 
144 -0.38172370175743353 -0.028277066140913774 0.9494053903360179 0 0 0 0.28 0 144 213 67 221 43 232 81 
145 0.0007719823018890907 -0.031574301389759696 1.098767017468674 0 0 0 0.66 0 145 217 39 221 44 
146 -0.22803473861233273 -0.02731524326820328 1.0039714412207772 0 0 0 0.13 0 146 213 68 219 32 
147 -0.2156343052564355 -0.027013443325923047 1.0062380104028308 0 0 0 0.12 0 147 213 69 231 4 
148 -0.455121457786887 -0.024814314932980787 0.9309923217438386 0 0 0 0.08 0 148 213 70 232 82 
149 -0.3041885022013586 -0.025574983198106256 0.980215580692553 0 0 0 0.07 0 149 190 55 213 71 
150 -0.19694179503671125 -0.02616040169348486 1.0147495774012365 0 0 0 0.16 0 150 221 45 232 83 
151 -0.1918071985905255 -0.024269921932260543 1.011862167437863 0 0 0 0.15 0 151 190 56 213 72 232 84 
152 -0.1354192856966478 -0.023794333692567626 1.0356122019763512 0 0 0 0.17 0 152 190 57 204 63 232 85 
153 -0.13578221337850982 -0.02395866456934831 1.0376324819987581 0 0 0 0.29 0 153 190 58 204 64 213 73 219 33 221 46 232 86 
154 0.12665065906790182 -0.026724578233551767 1.1528449631782918 0 0 0 0.17 0 154 204 65 222 25 232 87 
155 -0.38004221607232336 -0.020547567799588887 0.9554377495482954 0 0 0 0.29 0 155 213 74 219 34 232 88 
156 -0.07589465583679911 -0.018226392977480365 1.0582335003759862 0 0 0 0.1 0 156 204 66 232 89 
157 0.12662703245607426 -0.01905040355823175 1.1509985612171363 0 0 0 0.1 0 157 190 59 204 67 232 90 
158 -0.018314574908351235 -0.01731501774933024 1.0826192272346684 0 0 0 0.27 0 158 190 60 213 75 217 40 220 23 222 26 227 50 232 91 
159 0.00030176616155969853 -0.017473319386838736 1.1026411872863493 0 0 0 0.37 0 159 190 61 232 92 
160 -0.24600157699420533 -0.014333321082270572 0.9850435031135868 0 0 0 0.09 0 160 204 68 227 51 
161 -0.35240773679042886 -0.012860515072960956 0.9613461576222336 0 0 0 0.17 0 161 190 62 204 69 213 76 219 35 232 93 
162 0.1226752499290952 -0.014552484239039017 1.149363744995014 0 0 0 0.35 0 162 213 77 232 94 
163 -0.4498171528400336 -0.010599271492914768 0.9355871459591585 0 0 0 0.27 0 163 213 78 232 95 
164 -0.29163190728619787 -0.010574447008989355 0.9785971196796938 0 0 0 0.26 0 164 190 63 204 70 213 79 219 36 227 52 232 96 
165 0.1884281107658944 -0.012542465331034145 1.2199052829536847 0 0 0 0.21 0 165 222 27 232 97 
166 -0.45748124950457875 -0.009745804030230893 0.9341233262417195 0 0 0 0.6 0 166 190 64 217 41 221 47 224 15 227 53 232 98 
167 -0.44436995012219427 -0.008805252206847455 0.9377728383386499 0 0 0 0.2 0 167 190 65 204 71 213 80 232 99 
168 0.055721984135981395 -0.009059162520042924 1.1160412647165543 0 0 0 0.21 0 168 196 13 213 81 222 28 
169 0.08360667034867927 -0.007914370308292064 1.1285567704156951 0 0 0 0.27 0 169 222 29 232 100 234 7 
170 -0.11681057321113733 -0.006885944066773671 1.0430342395046417 0 0 0 0.2 0 170 204 72 219 37 231 5 
171 0.11064670336285094 -0.007148407902378773 1.1444977381656396 0 0 0 0.5 0 171 204 73 221 48 
172 0.12271404136918466 -0.006496777124583279 1.1504785769462609 0 0 0 0.36 0 172 190 66 232 101 
173 -0.4509880496637843 0.0012999849784460739 0.9269995229796454 0 0 0 0.38 0 173 213 82 219 38 227 54 232 102 
174 -0.011221025408617294 0.005712810252169676 1.0807112939874715 0 0 0 0.2 0 174 222 30 234 8 
175 -0.42788380034036266 0.0057149915490254406 0.9401762638003054 0 0 0 0.24 0 175 204 74 219 39 
176 0.024473042051006595 0.009820132372465738 1.370707009137291 0 0 0 0.53 0 176 214 4 232 103 
177 0.09639843189148593 0.008252793670053422 1.1256176715812902 0 0 0 0.49 0 177 204 75 222 31 227 55 234 9 
178 -0.4251287961481626 0.008162046525243258 0.9403784817649897 0 0 0 0.85 0 178 217 42 220 24 221 49 
179 -0.450544319656109 0.007808117947804607 0.9249115829100719 0 0 0 0.35 0 179 213 83 232 104 
180 0.11933961432587165 0.01589652720660654 1.1408478994513835 0 0 0 0.97 0 180 190 67 198 1 213 84 217 43 221 50 222 32 223 7 
181 -0.35967663284235907 0.017776490487211444 0.9416964236234646 0 0 0 0.2 0 181 219 40 227 56 
182 0.11946350084655667 0.02168617100909888 1.1366972889597036 0 0 0 0.64 0 182 190 68 198 2 217 44 
183 -0.42222517747811283 0.020316157124978786 0.9392860621329411 0 0 0 0.36 0 183 204 76 219 41 227 57 232 105 
184 0.10972585502667631 0.024660598883372853 1.137239021980233 0 0 0 0.42 0 184 222 33 227 58 
185 0.0959342380665226 0.031552792902947 1.125552941417103 0 0 0 0.21 0 185 190 69 213 85 220 25 222 34 
186 -0.28765248784003716 0.02757013025747838 0.973188573744701 0 0 0 0.29 0 186 219 42 232 106 
187 -0.3692206750505199 0.02822117992486354 0.9547769337469771 0 0 0 0.22 0 187 227 59 232 107 
188 0.10933966022984876 0.04442221337224349 1.1326121307738888 0 0 0 0.26 0 188 213 86 222 35 
189 0.11919948791740095 0.04705460252396773 1.134211355988492 0 0 0 0.67 0 189 198 3 213 87 217 45 
190 -0.42044758116197684 -0.23506370390318773 0.789726678922816 0 0 0 0.68 0 190 227 60 232 108 
191 -0.1050876265714238 -0.22365719820089774 1.1172143023341288 0 0 0 0.35 0 191 204 77 227 61 232 109 
192 -0.07575734998772937 -0.21394115853115944 1.0828578773223885 0 0 0 0.21 0 192 204 78 227 62 232 110 
193 -0.07575734998772937 -0.21394115853115944 1.0828578773223885 0 0 0 0.21 0 193 204 79 227 63 232 111 
194 -0.4502431679223386 -0.19454734351696096 0.9838483476603874 0 0 0 0.24 0 194 213 88 232 112 
195 -0.38302182970108645 -0.1930907774076756 0.9764439114392857 0 0 0 0.66 0 195 213 89 217 46 224 16 
196 -0.4030949335942727 -0.18928441055612288 0.9684548822331942 0 0 0 0.57 0 196 213 90 217 47 219 43 221 51 227 64 232 113 
197 -0.07255922234054706 -0.20963337162214482 1.0831585829233592 0 0 0 0.54 0 197 213 91 219 44 221 52 232 114 
198 -0.40094852778958556 -0.18614455412921993 0.9704101563400664 0 0 0 0.29 0 198 217 48 219 45 227 65 232 115 
199 -0.4858736570442106 -0.1788180018358218 0.9542580026414772 0 0 0 0.37 0 199 190 70 217 49 227 66 
200 -0.3053501833546782 -0.18506184253232869 0.995212705835193 0 0 0 0.53 0 200 213 92 217 50 
201 -0.3004022244501827 -0.18505490028629956 0.9975452554602113 0 0 0 0.51 0 201 190 71 213 93 217 51 221 53 227 67 232 116 
202 -0.4034073861845204 -0.17902259039323012 0.9717024006487985 0 0 0 0.48 0 202 204 80 217 52 227 68 232 117 
203 -0.3211102626854079 -0.1814788369788262 0.9905137364023086 0 0 0 0.32 0 203 190 72 213 94 217 53 
204 -0.40547817040701944 -0.17453974364202318 0.9670431013519101 0 0 0 0.43 0 204 219 46 227 69 
205 -0.4852745132327937 -0.17043379808740636 0.952691255985284 0 0 0 0.43 0 205 221 54 227 70 232 118 
206 -0.4030137666323589 -0.17038492646286318 0.968455527360454 0 0 0 0.26 0 206 213 95 217 54 232 119 
207 -0.4046115646520324 -0.170813639070293 0.9717515521915401 0 0 0 0.13 0 207 213 96 232 120 
208 -0.11746748683410187 -0.1825551416754092 1.0539871804913952 0 0 0 0.8 0 208 198 4 199 3 204 81 217 55 227 71 
209 -0.47938955454987947 -0.16494569473881052 0.9533302132625738 0 0 0 0.28 0 209 190 73 217 56 221 55 227 72 232 121 
210 -0.06916720497233944 -0.1830032380245353 1.0780166349319733 0 0 0 0.68 0 210 190 74 221 56 222 36 
211 -0.013995927616803086 -0.1805999536568255 1.1046574244142524 0 0 0 0.74 0 211 190 75 221 57 
212 -0.010220038031767464 -0.1736204939472632 1.0898729946620294 0 0 0 0.3 0 212 204 82 221 58 
213 -0.11361265333624952 -0.16271763289189226 1.0596785721956656 0 0 0 0.53 0 213 204 83 213 97 217 57 219 47 220 26 221 59 222 37 223 8 227 73 232 122 
214 -0.45355660930838965 -0.1468485448677425 0.9523135593587186 0 0 0 0.44 0 214 190 76 204 84 224 17 227 74 
215 -0.19298880143558722 -0.15495817770556547 1.0246731360310006 0 0 0 0.19 0 215 213 98 232 123 
216 -0.23750692898500217 -0.15011485740303634 1.0092951412332984 0 0 0 0.44 0 216 190 77 196 14 198 5 204 85 213 99 219 48 222 38 223 9 224 18 232 124 
217 -0.015808041065559157 -0.16346287273054355 1.0961490111529772 0 0 0 0.25 0 217 213 100 232 125 
218 0.035492148694796354 -0.16679205973034042 1.1215302661062065 0 0 0 0.24 0 218 190 78 204 86 213 101 232 126 
219 0.06607500545155023 -0.16513195564395142 1.1309619754122011 0 0 0 0.06 0 219 222 39 232 127 
220 -0.21087699029293952 -0.14695125322725744 1.0166720722144955 0 0 0 0.34 0 220 198 6 213 102 220 27 222 40 224 19 232 128 
221 -0.45578607881533917 -0.1349736093328748 0.9487795741702072 0 0 0 0.29 0 221 204 87 213 103 227 75 232 129 
222 0.11458014359836974 -0.16084901308755595 1.1604714441668844 0 0 0 0.49 0 222 190 79 213 104 217 58 234 10 
223 -0.4570060961520135 -0.1304734202246479 0.9489183768062058 0 0 0 0.2 0 223 213 105 227 76 232 130 
224 -0.44630273719164265 -0.12653299497144432 0.952515722057706 0 0 0 0.19 0 224 221 60 227 77 
225 0.05639245323594364 -0.14512203419631425 1.1278225814198097 0 0 0 0.68 0 225 190 80 204 88 227 78 
226 -0.22832406144406014 -0.1281441475986316 1.0103824846271323 0 0 0 0.35 0 226 214 5 221 61 
227 -0.07593242280454678 -0.12801979050941653 1.0607813197322113 0 0 0 0.21 0 227 219 49 227 79 
228 -0.15557029198926375 -0.12511694781348995 1.0376687523281298 0 0 0 0.1 0 228 204 89 217 59 232 131 
229 -0.15547527247438125 -0.12505292906922458 1.0376296222364076 0 0 0 0.18 0 229 204 90 217 60 219 50 232 132 
230 -0.14006887880516147 -0.12572493361056933 1.0449863317694537 0 0 0 0.2 0 230 190 81 213 106 221 62 232 133 
231 -0.12236965794884276 -0.1239553242369874 1.0575950855008491 0 0 0 0.24 0 231 221 63 232 134 
232 -0.11497827551928542 -0.1234960299065777 1.055972063438296 0 0 0 0.13 0 232 190 82 213 107 221 64 232 135 
233 0.16274015931811292 -0.14089771369318177 1.1974500991625252 0 0 0 0.17 0 233 190 83 221 65 232 136 
234 -0.1366200470758403 -0.12216790314435715 1.0505631051656 0 0 0 0.35 0 234 213 108 221 66 232 137 
235 -0.08550758683422613 -0.12221222198209786 1.0671507708053751 0 0 0 0.23 0 235 213 109 217 61 219 51 
236 -0.0713329416191004 -0.12175915251516455 1.070781289677079 0 0 0 0.17 0 236 213 110 217 62 
237 -0.04195956159568284 -0.12098878348207127 1.083502566278578 0 0 0 0.37 0 237 199 4 204 91 217 63 219 52 220 28 221 67 
238 -0.1318045475201854 -0.10822905591259033 1.0449092640199285 0 0 0 0.31 0 238 213 111 221 68 231 6 232 138 
239 -0.017960733816373052 -0.11221673803242954 1.0972868926987367 0 0 0 0.5 0 239 190 84 199 5 213 112 222 41 
240 -0.4430655616187718 -0.09736213838556353 0.9515612642520637 0 0 0 0.22 0 240 190 85 204 92 213 113 232 139 
241 -0.4371993233071624 -0.0976506604181548 0.9547791395788153 0 0 0 0.28 0 241 213 114 217 64 232 140 
242 0.11890103508914793 -0.11676923855393798 1.1565095877545404 0 0 0 0.66 0 242 190 86 198 7 204 93 213 115 217 65 221 69 222 42 232 141 
243 0.12394844958438472 -0.11507646748438305 1.1526719558817289 0 0 0 0.33 0 243 213 116 227 80 232 142 
244 0.11076221306609267 -0.11173846327139349 1.1477985051874258 0 0 0 0.22 0 244 190 87 217 66 232 143 
245 -0.4435353498178341 -0.08066572061180527 0.9507644897979795 0 0 0 0.34 0 245 221 70 224 20 232 144 
246 -0.3224979771121481 -0.08254384178554768 0.9813168414638271 0 0 0 0.14 0 246 220 29 232 145 
247 -0.3411545189857017 -0.0819934510286174 0.9776692736405745 0 0 0 0.48 0 247 204 94 217 67 219 53 221 71 232 146 
248 -0.2554329763057343 -0.08336287528804305 1.0011217588190475 0 0 0 0.26 0 248 190 88 213 117 219 54 231 7 232 147 
249 -0.4462071294256923 -0.07762794894013486 0.9473686519662645 0 0 0 0.23 0 249 204 95 217 68 227 81 
250 -0.33433427768033125 -0.08125793169747299 0.9770894223174859 0 0 0 0.47 0 250 190 89 213 118 217 69 219 55 232 148 
251 0.1491416920187771 -0.09746866602568463 1.1805310123114734 0 0 0 0.29 0 251 227 82 232 149 
252 0.16280277040979363 -0.08916901620450722 1.194553614999948 0 0 0 0.09 0 252 190 90 232 150 
253 0.16284694854674736 -0.08889408537666688 1.1923573919551655 0 0 0 0.32 0 253 190 91 217 70 221 72 222 43 232 151 
254 -0.38318954757994766 -0.06931305447036618 0.9665474663033812 0 0 0 0.41 0 254 190 92 232 152 
255 -0.1963759406268668 -0.07117675204614872 1.0207339439277652 0 0 0 0.33 0 255 213 119 221 73 222 44 
256 -0.14037363196428235 -0.06795406787288763 1.0421120068280296 0 0 0 0.24 0 256 190 93 213 120 219 56 221 74 222 45 232 153 
257 -0.13608759118705582 -0.06727060330374969 1.0426610808186527 0 0 0 0.63 0 257 190 94 204 96 213 121 214 6 219 57 222 46 223 10 232 154 
258 -0.13579053685245332 -0.06683796045211587 1.0409288309958662 0 0 0 0.16 0 258 204 97 213 122 222 47 232 155 
259 -0.04042400764576012 -0.06538210630477431 1.0827030036084808 0 0 0 0.24 0 259 198 8 199 6 213 123 217 71 222 48 
260 -0.027740145952202724 -0.06489205568148033 1.088820398997658 0 0 0 0.32 0 260 198 9 199 7 213 124 221 75 222 49 227 83 232 156 234 11 
261 -0.03121924101155262 -0.06036322005929376 1.0950186490418474 0 0 0 0.28 0 261 219 58 227 84 232 157 
262 0.12821720143637044 -0.06438587028478185 1.1569023749321736 0 0 0 0.28 0 262 190 95 204 98 213 125 222 50 232 158 
263 0.12353518973945386 -0.06011999922930786 1.154597156112234 0 0 0 0.12 0 263 198 10 204 99 
264 -0.462041239030121 -0.04745691311279979 0.9397857361841007 0 0 0 0.36 0 264 190 96 196 15 213 126 217 72 220 30 224 21 227 85 232 159 
265 -0.04375552312720714 -0.0533064138454607 1.077255565281921 0 0 0 0.36 0 265 217 73 221 76 222 51 232 160 
266 -0.35630317239499426 -0.04688908147586158 0.965028766447008 0 0 0 0.17 0 266 190 97 213 127 
267 -0.45898128921558423 -0.04567124895786732 0.9412744027581984 0 0 0 0.4 0 267 213 128 220 31 224 22 
268 0.18397016681211412 -0.058300370765230564 1.2187730364898501 0 0 0 0.34 0 268 190 98 227 86 
269 0.18397016681211412 -0.058300370765230564 1.2187730364898501 0 0 0 0.34 0 269 190 99 227 87 
270 -0.041122883257864305 -0.05023034857717079 1.0818684649453503 0 0 0 0.26 0 270 198 11 199 8 234 12 
271 0.0007862371609240836 -0.048171275997520135 1.1006067469052603 0 0 0 0.44 0 271 198 12 199 9 221 77 234 13 
272 -0.044666538357611044 -0.04487449782791917 1.0767823278195536 0 0 0 0.21 0 272 204 100 222 52 227 88 
273 0.129883888559816 -0.04501618238750716 1.159452170847095 0 0 0 0.07 0 273 190 100 227 89 
274 0.1928370147422895 -0.04602956381819468 1.222515491980121 0 0 0 0.27 0 274 227 90 232 161 
275 -0.4551468643267482 -0.03386975748723414 0.9380572929731351 0 0 0 0.64 0 275 213 129 217 74 221 78 232 162 
276 -0.4219318156452845 -0.03159819642832987 0.9445216918933453 0 0 0 0.28 0 276 217 75 227 91 
277 -0.38026242347941847 -0.031473531507241026 0.9563858654107793 0 0 0 0.3 0 277 190 101 204 101 213 130 232 163 
278 0.1855997601762618 -0.0381298582864969 1.2177440451847965 0 0 0 0.44 0 278 221 79 222 53 232 164 
279 -0.2850526604993958 -0.02855216168510396 0.9824103461420822 0 0 0 0.24 0 279 190 102 204 102 213 131 227 92 
280 -0.2467379665591638 -0.027484133020029222 0.9896426408091176 0 0 0 0.27 0 280 190 103 213 132 222 54 232 165 
281 -0.24235216005859544 -0.02641605422304556 0.9920408018167274 0 0 0 0.36 0 281 213 133 221 80 232 166 
282 -0.07124833450395208 -0.02616418224653766 1.061656978715761 0 0 0 0.29 0 282 204 103 213 134 219 59 221 81 232 167 
283 0.18904725782840548 -0.03046519689750883 1.2208199466008836 0 0 0 0.39 0 283 221 82 232 168 
284 -0.41289919312778234 -0.021790406478270893 0.9487323784735111 0 0 0 0.32 0 284 217 76 220 32 
285 -0.1691071000890158 -0.023160434471945393 1.0220970338969892 0 0 0 0.1 0 285 190 104 204 104 219 60 
286 0.1094343741813629 -0.025369416351149924 1.1387853539065957 0 0 0 0.51 0 286 213 135 217 77 221 83 
287 -0.11047607758427043 -0.022075389835887308 1.0467732723991834 0 0 0 0.13 0 287 204 105 213 136 232 169 
288 -0.08145376557111333 -0.020309009934286453 1.0582459043723467 0 0 0 0.03 0 288 204 106 213 137 
289 -0.028785856687114985 -0.01954428039977817 1.0874656283144435 0 0 0 0.13 0 289 213 138 232 170 
290 -0.07140600595327917 -0.018706525812516105 1.0611768683834242 0 0 0 0.43 0 290 213 139 219 61 221 84 222 55 
291 -0.459208487837593 -0.015044615053647369 0.9367804501713743 0 0 0 0.39 0 291 190 105 213 140 217 78 219 62 232 171 
292 0.004833325712969678 -0.016331242242125447 1.095336475787365 0 0 0 0.34 0 292 190 106 213 141 
293 -0.12317994199580318 -0.015000790464055846 1.0426370657034025 0 0 0 0.58 0 293 190 107 204 107 213 142 214 7 217 79 219 63 220 33 221 85 222 56 232 172 234 14 
294 -0.12363325477737207 -0.014701539204054082 1.0451750132106623 0 0 0 0.47 0 294 204 108 217 80 219 64 221 86 
295 -0.11824080479545396 -0.015054907466840543 1.0424186902197923 0 0 0 0.98 0 295 190 108 204 109 213 143 214 8 217 81 221 87 223 11 234 15 
296 -0.11423120876571793 -0.011914761355741342 1.044371490326614 0 0 0 0.4 0 296 204 110 219 65 222 57 227 93 231 8 
297 -0.41914741878009104 -0.009716280915393482 0.9439420003745006 0 0 0 0.42 0 297 190 109 204 111 232 173 
298 -0.4769059428575714 -0.006758206618561867 0.9337660117229843 0 0 0 0.78 0 298 220 34 221 88 232 174 
299 -0.43008615841011394 -0.00733844749354435 0.9601984986931208 0 0 0 0.49 0 299 190 110 204 112 
300 -0.2909079102727545 -0.006402206193395266 0.9750528568039003 0 0 0 0.23 0 300 221 89 232 175 
301 -0.4616286046304488 -0.005043960980231772 0.9224988035001596 0 0 0 0.38 0 301 190 111 219 66 227 94 
302 -0.4252332135774189 0.002295768847842985 0.940354433735697 0 0 0 0.26 0 302 190 112 221 90 
303 -0.4418578189960061 0.007025103244045759 0.9427775208712295 0 0 0 0.61 0 303 190 113 204 113 217 82 227 95 232 176 
304 -0.3756836077921654 0.008687172731520927 0.95919132660126 0 0 0 0.43 0 304 204 114 217 83 232 177 
305 -0.3664999134029248 0.009423166868112658 0.9607924106034167 0 0 0 0.52 0 305 190 114 217 84 
306 -0.3325465786967865 0.009088632893581675 0.9545599997637936 0 0 0 0.14 0 306 213 144 232 178 
307 -0.46333561538855644 0.010768996522689138 0.9355990575243732 0 0 0 0.56 0 307 213 145 217 85 
308 0.1270338817787216 0.016242774868539755 1.1485193662308888 0 0 0 0.43 0 308 198 13 222 58 
309 -0.2911903154201045 0.019288170820206348 0.9760327222693947 0 0 0 0.53 0 309 204 115 221 91 
310 -0.3808212443061363 0.020666983567720714 0.9574820588645869 0 0 0 0.56 0 310 204 116 217 86 219 67 232 179 
311 -0.24894255247872998 -0.20630173737983132 1.012660801433954 0 0 0 0.23 0 311 190 115 198 14 213 146 232 180 
312 -0.39719149782106233 -0.1899755527683055 0.9722964857873772 0 0 0 0.4 0 312 217 87 221 92 227 96 
313 -0.08000908342186736 -0.20900964797877697 1.0768081255224144 0 0 0 0.23 0 313 190 116 227 97 
314 -0.35017124243346387 -0.16917482987847457 0.9856435477375707 0 0 0 0.14 0 314 198 15 224 23 
315 -0.18622461173743143 -0.17469458238265384 1.0294427337528753 0 0 0 0.5 0 315 196 16 198 16 199 10 204 117 213 147 217 88 219 68 220 35 221 93 223 12 
316 -0.05373089652661953 -0.18368751042227235 1.0933421293451566 0 0 0 0.73 0 316 190 117 213 148 221 94 
317 -0.17235547132890502 -0.16755854390619043 1.0354160735264972 0 0 0 0.38 0 317 190 118 198 17 213 149 214 9 217 89 220 36 222 59 223 13 224 24 232 181 
318 -0.17295577856391744 -0.168116002976404 1.0373899005917382 0 0 0 0.11 0 318 204 118 217 90 
319 -0.1460900103222555 -0.16687106717377964 1.0478471432073442 0 0 0 0.45 0 319 190 119 198 18 199 11 204 119 213 150 217 91 221 95 232 182 
320 -0.002732791159803353 -0.17816485877748972 1.1307015002295782 0 0 0 0.54 0 320 190 120 204 120 221 96 232 183 
321 -0.22879680282804565 -0.15560612843090357 1.0103843347222004 0 0 0 0.44 0 321 190 121 199 12 221 97 227 98 232 184 
322 -0.46807685547649114 -0.14561392687980992 0.9525826288528195 0 0 0 0.33 0 322 190 122 213 151 227 99 232 185 
323 -0.10995020810436892 -0.15966558937128705 1.061104131751066 0 0 0 0.33 0 323 196 17 199 13 204 121 213 152 217 92 219 69 220 37 221 98 222 60 223 14 227 100 
324 -0.22364022452311913 -0.1524432291547548 1.0138928762739432 0 0 0 0.15 0 324 198 19 232 186 
325 -0.22387032064019693 -0.15304979557409484 1.015071385416381 0 0 0 0.27 0 325 190 123 217 93 224 25 232 187 
326 -0.14490909124070306 -0.15372595680360657 1.0475887225339848 0 0 0 0.46 0 326 222 61 232 188 
327 -0.20777602479825977 -0.14909382547644282 1.0211861376794897 0 0 0 0.36 0 327 204 122 213 153 217 94 219 70 222 62 223 15 232 189 
328 -0.24792140893746786 -0.1415280135479387 1.0041308063079473 0 0 0 0.3 0 328 190 124 204 123 213 154 217 95 220 38 221 99 222 63 227 101 232 190 
329 -0.040397045978476986 -0.15013976738364707 1.0933572139916987 0 0 0 0.27 0 329 227 102 232 191 
330 0.030960545005708807 -0.15430487415184635 1.1223708521851623 0 0 0 0.11 0 330 204 124 227 103 
331 0.1181630445638758 -0.1566571586134328 1.159282900281801 0 0 0 0.34 0 331 190 125 204 125 232 192 234 16 
332 -0.17925964219128387 -0.13122824037608927 1.0289242724083054 0 0 0 0.17 0 332 204 126 217 96 219 71 220 39 
333 -0.08922903587618122 -0.127551927561023 1.0642318285481123 0 0 0 0.27 0 333 198 20 204 127 217 97 219 72 220 40 227 104 
334 -0.3992582727417315 -0.08723564952681909 0.7370601587115883 0 0 0 0.51 0 334 190 126 227 105 
335 -0.16407807082675174 -0.12199581931010042 1.033552410281418 0 0 0 0.11 0 335 190 127 213 155 
336 0.12480477531361098 -0.1287927952666221 1.153119169428126 0 0 0 0.13 0 336 190 128 227 106 
337 -0.45919777181937715 -0.10551496040362919 0.9466444182109179 0 0 0 0.15 0 337 220 41 221 100 
338 0.024113690081109165 -0.12263951454997873 1.111010279019251 0 0 0 0.31 0 338 190 129 198 21 217 98 220 42 221 101 222 64 232 193 
339 0.14634800531092326 -0.12962160661199817 1.180969630421251 0 0 0 0.24 0 339 204 128 232 194 
340 0.14625435227382036 -0.1293460919736669 1.180160989989549 0 0 0 0.1 0 340 204 129 227 107 
341 -0.07389346080692624 -0.11368281652632997 1.0704109910106334 0 0 0 0.35 0 341 196 18 198 22 213 156 219 73 220 43 221 102 232 195 
342 0.3670466406701756 -0.09923948086228786 0.924229680699052 0 0 0 1.06 0 342 217 99 222 65 
343 0.019853708877546773 -0.11666855658954572 1.109007280945586 0 0 0 0.39 0 343 196 19 222 66 
344 -0.18954427874447138 -0.0989552620021904 1.0250963640733068 0 0 0 0.05 0 344 214 10 221 103 
345 -0.38848245130514975 -0.08577163135082541 0.9618416679846895 0 0 0 0.39 0 345 204 130 219 74 221 104 227 108 232 196 
346 -0.37032554680176055 -0.07920789146218614 0.9677655089007674 0 0 0 0.1 0 346 190 130 204 131 232 197 
347 -0.4621047263392714 -0.07158455451833243 0.9414821592558317 0 0 0 0.22 0 347 190 131 213 157 217 100 219 75 220 44 232 198 
348 -0.2499797988308309 -0.07530176765105506 0.9952690445095199 0 0 0 0.12 0 348 213 158 219 76 222 67 232 199 
349 -0.16797795023845147 -0.07801564981708949 1.0318232237784248 0 0 0 0.1 0 349 190 132 198 23 
350 -0.10177229025343155 -0.07308617868568033 1.0572735873806849 0 0 0 0.58 0 350 190 133 204 132 214 11 219 77 220 45 221 105 222 68 231 9 232 200 
351 -0.16830860594397923 -0.06980815689500865 1.0306555472692902 0 0 0 0.25 0 351 190 134 204 133 213 159 217 101 219 78 221 106 222 69 232 201 
352 -0.05207683909028237 -0.07044966404161929 1.0772698121362543 0 0 0 0.55 0 352 190 135 199 14 213 160 217 102 220 46 221 107 222 70 223 16 
353 -0.010702714572855728 -0.06419583498212265 1.091689722339046 0 0 0 0.32 0 353 219 79 221 108 222 71 232 202 
354 -0.0001339447772066253 -0.06374974087353047 1.0999067788994195 0 0 0 0.15 0 354 198 24 222 72 227 109 
355 -0.06239845985697647 -0.06134422232322525 1.071138472055773 0 0 0 0.58 0 355 190 136 213 161 219 80 220 47 222 73 223 17 232 203 
356 -0.03544877579751423 -0.0597200256067878 1.085388884611492 0 0 0 0.54 0 356 198 25 232 204 
357 -0.42151273475406387 -0.049402404936892894 0.9502112874341782 0 0 0 0.17 0 357 198 26 213 162 232 205 
358 0.13052490110431245 -0.05810096017137588 1.1561624156314103 0 0 0 0.34 0 358 190 137 204 134 217 103 221 109 222 74 232 206 
359 -0.41278707055209746 -0.03167378365055107 0.9479609580353282 0 0 0 0.24 0 359 190 138 217 104 227 110 232 207 
360 0.15827454740083277 -0.03940983620381218 1.1917600107347783 0 0 0 0.12 0 360 190 139 232 208 
361 0.17537516570304687 -0.03641648412593575 1.203813843389917 0 0 0 0.62 0 361 217 105 222 75 
362 -0.31263181499511733 -0.02791612339805835 0.9719601643475144 0 0 0 0.23 0 362 190 140 213 163 232 209 
363 -0.2803597478362439 -0.027874495083988097 0.9879724013136276 0 0 0 0.11 0 363 198 27 199 15 
364 -0.15999328568778984 -0.021962529959317318 1.0248724038970092 0 0 0 0.3 0 364 190 141 213 164 232 210 
365 -0.05197266312397502 -0.019126263952498713 1.071254222765442 0 0 0 0.21 0 365 204 135 219 81 232 211 
366 0.15720634370893907 -0.02183780999402662 1.1876979119014774 0 0 0 0.38 0 366 190 142 232 212 
367 -0.02324987785037955 -0.017977624625620612 1.083392637514169 0 0 0 0.13 0 367 204 136 219 82 232 213 
368 0.00012940319085875417 0.006406219253178672 1.093237196546611 0 0 0 0.33 0 368 198 28 199 16 213 165 221 110 232 214 
369 -0.38675002124324814 0.008011650567162007 0.9231226819945717 0 0 0 0.27 0 369 219 83 227 111 
370 -0.40021523826403715 0.01807616813549986 0.9497707633262452 0 0 0 0.77 0 370 213 166 217 106 219 84 221 111 232 215 
371 -0.3227906079148545 0.019249984892878533 0.9661071422691068 0 0 0 0.36 0 371 190 143 227 112 
372 -0.333809039244139 0.02064890844730602 0.9639347338301394 0 0 0 0.33 0 372 198 29 204 137 219 85 
373 0.10033554127040553 0.04527356129701441 1.1205140425253484 0 0 0 0.35 0 373 217 107 227 113 
374 -0.24307594793201032 -0.21491595473830552 1.0098748563603948 0 0 0 0.71 0 374 221 112 227 114 232 216 
375 -0.19749502917934578 -0.21531872334785598 1.0337612003308025 0 0 0 0.63 0 375 217 108 219 86 
376 -0.45965434614486295 -0.201014972305913 0.9918810794226371 0 0 0 0.41 0 376 217 109 227 115 232 217 
377 -0.1269938109178662 -0.20957811156558995 1.044622734075194 0 0 0 0.31 0 377 190 144 204 138 
378 -0.3148889716944988 -0.19139709498742608 0.9944711897080012 0 0 0 0.26 0 378 190 145 204 139 219 87 224 26 232 218 
379 -0.291180798072379 -0.1913660340738587 1.0021794104391761 0 0 0 0.27 0 379 190 146 204 140 213 167 219 88 232 219 
380 -0.4629715563524508 -0.17099975450740365 0.960274511557194 0 0 0 0.23 0 380 190 147 227 116 
381 -0.2581066909047238 -0.17776837999558012 1.0125730974119462 0 0 0 0.79 0 381 213 168 219 89 221 113 222 76 227 117 232 220 
382 -0.38178704239260763 -0.16952910217377626 0.9755883379147574 0 0 0 0.33 0 382 199 17 204 141 213 169 217 110 219 90 224 27 232 221 
383 -0.32345723650448827 -0.1664196259087125 0.9800293328792533 0 0 0 0.1 0 383 204 142 219 91 
384 -0.23589706166247984 -0.1703446827451573 1.0052824602011994 0 0 0 0.54 0 384 204 143 222 77 227 118 
385 -0.41360414305746784 -0.16401995929135924 0.9671485557606108 0 0 0 0.13 0 385 217 111 227 119 
386 -0.4749065722187543 -0.15993376906948306 0.9486056364143584 0 0 0 0.14 0 386 227 120 232 222 
387 -0.1928823489675526 -0.17213862174004166 1.026115936769416 0 0 0 0.4 0 387 190 148 198 30 199 18 217 112 219 92 222 78 227 121 232 223 
388 -0.2752254410495601 -0.16432848968608676 0.987742716625448 0 0 0 0.2 0 388 204 144 227 122 
389 -0.2678334010340259 -0.1658245529145451 1.0039409430776614 0 0 0 0.51 0 389 213 170 217 113 219 93 221 114 227 123 232 224 
390 -0.29147405880097 -0.16120365322066413 0.9954787153714895 0 0 0 0.2 0 390 224 28 227 124 
391 -0.2715986093141002 -0.1591152984285169 1.0023125930121135 0 0 0 0.18 0 391 198 31 199 19 204 145 213 171 219 94 227 125 232 225 
392 -0.26336153877060486 -0.1594840552435064 1.0073940320348973 0 0 0 0.41 0 392 190 149 198 32 204 146 213 172 217 114 219 95 227 126 232 226 
393 -0.06745676258534686 -0.16948299045639573 1.0750461263614572 0 0 0 0.46 0 393 190 150 204 147 213 173 219 96 
394 -0.479016139178454 -0.14364095353618184 0.9521627085231401 0 0 0 0.47 0 394 190 151 219 97 227 127 232 227 
395 -0.46841974086639654 -0.14388415472078625 0.9646411715297364 0 0 0 0.49 0 395 227 128 232 228 
396 -0.4346548964755983 -0.13923930191174422 0.9531130762101412 0 0 0 0.42 0 396 199 20 204 148 217 115 219 98 221 115 227 129 232 229 
397 -0.48346337688594365 -0.13678613877513227 0.949883185486543 0 0 0 0.25 0 397 190 152 219 99 227 130 232 230 
398 -0.3398721679620518 -0.13703584740215594 0.9799141217462175 0 0 0 0.22 0 398 190 153 196 20 213 174 217 116 219 100 220 48 221 116 224 29 232 231 
399 -0.25996533257811344 -0.13471874685656773 0.9990338203637944 0 0 0 0.41 0 399 204 149 213 175 217 117 219 101 220 49 232 232 
400 -0.23151580577748923 -0.13490200189126403 1.0094690102049046 0 0 0 0.37 0 400 190 154 198 33 204 150 213 176 214 12 219 102 221 117 222 79 223 18 232 233 
401 0.10191944367070203 -0.15331270869932936 1.1570939270937717 0 0 0 0.58 0 401 190 155 204 151 213 177 221 118 232 234 
402 -0.4824858694874955 -0.12545300490550362 0.9422311511048722 0 0 0 0.24 0 402 190 156 219 103 227 131 
403 -0.482758087032031 -0.12537045146845024 0.9426125455592511 0 0 0 0.19 0 403 190 157 219 104 
404 -0.4652249025907941 -0.12495418956495731 0.949336441045397 0 0 0 0.24 0 404 213 178 217 118 221 119 232 235 
405 -0.46462562048590317 -0.1249713549368313 0.9483193390466846 0 0 0 0.31 0 405 199 21 213 179 217 119 219 105 221 120 227 132 232 236 
406 -0.08371856518752176 -0.13858731265363664 1.0693257814049066 0 0 0 0.39 0 406 196 21 199 22 204 152 217 120 219 106 220 50 221 121 222 80 223 19 227 133 232 237 234 17 
407 -0.004817304910743541 -0.13895504527846114 1.1012618510949321 0 0 0 0.45 0 407 199 23 217 121 227 134 
408 -0.45829983687012804 -0.11803376031796285 0.94657481950996 0 0 0 0.25 0 408 190 158 196 22 198 34 199 24 213 180 217 122 219 107 220 51 221 122 224 30 227 135 232 238 
409 -0.06049997302485943 -0.1263354663977363 1.0743631946242969 0 0 0 0.46 0 409 190 159 204 153 213 181 217 123 219 108 220 52 232 239 
410 -0.0010783231741751573 -0.12377192715135923 1.1012465301115049 0 0 0 0.34 0 410 221 123 222 81 
411 -0.05608079340115746 -0.11918882921271767 1.0779138837654942 0 0 0 0.52 0 411 220 53 221 124 
412 0.0007919529192697426 -0.11670413678674794 1.1039906681829885 0 0 0 0.41 0 412 198 35 221 125 
413 0.10717589726285694 -0.1195074962304839 1.144647359347513 0 0 0 0.28 0 413 199 25 204 154 217 124 220 54 221 126 222 82 227 136 232 240 
414 -0.22856685362122728 -0.09196363659673906 1.008397087881583 0 0 0 0.28 0 414 196 23 217 125 
415 -0.4527119034222744 -0.08063842470553088 0.9441310088386211 0 0 0 0.36 0 415 190 160 198 36 221 127 232 241 
416 -0.32999046705459373 -0.07680806652782549 0.9791963000853277 0 0 0 0.15 0 416 204 155 232 242 
417 -0.330120156344091 -0.07710728282195353 0.9794431497718511 0 0 0 0.31 0 417 213 182 221 128 
418 -0.47120615792194603 -0.05873619274271144 0.9363224701536558 0 0 0 0.22 0 418 199 26 219 109 232 243 
419 0.14939979605453366 -0.07117154295272236 1.183365435455628 0 0 0 0.36 0 419 190 161 198 37 204 156 227 137 232 244 
420 0.14901469435960304 -0.07085828594948437 1.178857469223134 0 0 0 0.35 0 420 190 162 204 157 232 245 
421 0.16738473024985379 -0.06898947026420779 1.2014781349175914 0 0 0 0.4 0 421 204 158 227 138 
422 0.11653748020721089 -0.05503527528407669 1.1437655941720493 0 0 0 0.31 0 422 190 163 204 159 213 183 217 126 221 129 222 83 227 139 232 246 
423 0.13939104015255774 -0.05497168196174495 1.1684468366490484 0 0 0 0.38 0 423 190 164 204 160 217 127 221 130 222 84 227 140 232 247 
424 0.17598818363787472 -0.05137428494452687 1.2115440195423561 0 0 0 0.29 0 424 190 165 227 141 232 248 
425 -0.44590686243926897 -0.032778384616557424 0.9413927049743422 0 0 0 0.31 0 425 213 184 217 128 227 142 
426 -0.07243227818919747 -0.02499023727975246 1.0582655197902557 0 0 0 0.18 0 426 204 161 219 110 
427 -0.18246372545612952 -0.016869103610759363 1.0169783487741941 0 0 0 0.36 0 427 190 166 204 162 213 185 219 111 221 131 222 85 
428 -0.3620524860895637 -0.014092191988009262 0.9502666536914237 0 0 0 0.41 0 428 219 112 227 143 
429 -0.18027461139436232 -0.007683941139660246 1.019319054508998 0 0 0 0.23 0 429 190 167 198 38 
430 -0.3566782888538191 -0.0022956578154524005 0.9594893034150639 0 0 0 0.25 0 430 204 163 227 144 232 249 
431 -0.47171798554953187 -0.0017603052207778769 0.9308078481697833 0 0 0 0.34 0 431 199 27 221 132 
432 -0.00455766570019255 0.00024229094000368292 1.0897720729162061 0 0 0 0.21 0 432 198 39 204 164 232 250 
433 0.13049361988741617 0.010626444090509397 1.14848914525046 0 0 0 0.4 0 433 198 40 222 86 
434 -0.3329928617974463 0.010718972406366363 0.9664447702732639 0 0 0 0.58 0 434 213 186 217 129 219 113 221 133 
435 0.11442724990666957 0.01455275303536686 1.137702336096576 0 0 0 0.89 0 435 190 168 198 41 221 134 222 87 223 20 234 18 
436 -0.32322471708489475 0.01976841979124683 0.9680162418645274 0 0 0 0.48 0 436 219 114 220 55 
437 -0.29431130616233175 0.028089076548367523 0.976507050260372 0 0 0 0.39 0 437 220 56 227 145 
438 -0.40274519064073366 -0.23098736813182208 0.7581507190641991 0 0 0 1.18 0 438 190 169 227 146 
439 -0.24972580980569403 -0.22645170026690967 1.0163296050992416 0 0 0 0.31 0 439 198 42 217 130 
440 -0.19274999963718456 -0.2234155026063931 1.0359135535090414 0 0 0 0.33 0 440 190 170 204 165 213 187 219 115 232 251 
441 -0.19190910332724245 -0.2226377547780101 1.031313202780773 0 0 0 0.33 0 441 190 171 204 166 219 116 
442 -0.25658783621276615 -0.21888743265759947 1.015967462101012 0 0 0 0.82 0 442 198 43 217 131 
443 -0.13488335910316335 -0.22120574791644632 1.0587858763259343 0 0 0 0.32 0 443 190 172 213 188 227 147 232 252 
444 -0.13445563933251384 -0.22070003635399996 1.0538426019980187 0 0 0 0.27 0 444 204 167 227 148 
445 -0.07573821874283965 -0.21877334769983856 1.0803539666652648 0 0 0 0.31 0 445 190 173 204 168 227 149 
446 -0.07607055453338407 -0.21882728980111332 1.0842712976877478 0 0 0 0.56 0 446 190 174 213 189 221 135 227 150 232 253 
447 -0.30655095609696226 -0.1936873467212003 0.9965272972291976 0 0 0 0.36 0 447 224 31 232 254 
448 -0.2928633732506698 -0.17754075382331286 0.9974002900745997 0 0 0 0.14 0 448 198 44 220 57 
449 -0.4839078530823591 -0.16919483955044834 0.9560713158892364 0 0 0 0.17 0 449 227 151 232 255 
450 -0.31474373787422566 -0.1619194679583473 0.9928819383783122 0 0 0 0.19 0 450 220 58 227 152 
451 -0.31474373787422566 -0.1619194679583473 0.9928819383783122 0 0 0 0.19 0 451 220 59 227 153 
452 -0.4738357533589584 -0.15509647570252602 0.9609403960071421 0 0 0 0.26 0 452 190 175 217 132 227 154 
453 -0.4704318014539279 -0.1541875043720038 0.9541727463610911 0 0 0 0.2 0 453 190 176 227 155 
454 -0.21977955776090624 -0.16088586832810353 1.0162917272702126 0 0 0 0.74 0 454 190 177 199 28 213 190 217 133 221 136 223 21 227 156 232 256 
455 0.050616904806516476 -0.17804768581628352 1.1304527685413006 0 0 0 0.55 0 455 190 178 198 45 217 134 221 137 232 257 
456 -0.04560882867615837 -0.1575066908882136 1.0885547152333515 0 0 0 0.35 0 456 190 179 204 169 213 191 217 135 219 117 227 157 232 258 
457 0.03878232006634203 -0.15403424547173117 1.1216938400228844 0 0 0 0.42 0 457 217 136 227 158 
458 0.038641228065575677 -0.15364786992490473 1.1166549976002462 0 0 0 0.27 0 458 190 180 204 170 227 159 
459 -0.07156345539897291 -0.13955582090510987 1.0727555045413886 0 0 0 0.62 0 459 190 181 204 171 213 192 217 137 219 118 220 60 221 138 222 88 223 22 227 160 232 259 
460 -0.0721465516433852 -0.13952057225818068 1.0736440353929078 0 0 0 0.24 0 460 198 46 199 29 204 172 
461 -0.18858840729493437 -0.13044782182434705 1.0255490123525686 0 0 0 0.2 0 461 217 138 220 61 
462 0.12604431413657857 -0.14716093554798781 1.156644779829698 0 0 0 0.53 0 462 204 173 227 161 
463 -0.48137141982448733 -0.11290321831601507 0.953614377910625 0 0 0 0.31 0 463 219 119 232 260 
464 0.15626737373508073 -0.11914781292546771 1.1958506590776061 0 0 0 0.44 0 464 190 182 217 139 221 139 227 162 
465 -0.4314845837697797 -0.08772672696676972 0.9519764490195916 0 0 0 0.54 0 465 204 174 213 193 219 120 232 261 
466 0.14531058569941457 -0.08913412441406693 1.177290821074886 0 0 0 0.24 0 466 190 183 204 175 217 140 221 140 222 89 232 262 
467 -0.4587708321119851 -0.0651192218285912 0.9420940701044698 0 0 0 0.36 0 467 190 184 196 24 198 47 199 30 213 194 217 141 219 121 220 62 221 141 224 32 232 263 
468 0.1589169093758859 -0.07571644846573837 1.1888115394699426 0 0 0 0.43 0 468 227 163 232 264 
469 0.15920676633613579 -0.07537626672729739 1.191765355426186 0 0 0 0.46 0 469 190 185 221 142 222 90 227 164 232 265 
470 0.11601680172746982 -0.04432717672315587 1.1446542356303064 0 0 0 0.29 0 470 190 186 198 48 199 31 204 176 221 143 222 91 232 266 
471 -0.34077235282143115 -0.013125595313223328 0.9742966662563605 0 0 0 0.36 0 471 204 177 213 195 219 122 
472 -0.29969948782318584 -0.013218937220893512 0.9818216989946195 0 0 0 0.65 0 472 213 196 219 123 221 144 227 165 232 267 
473 -0.18432830333617534 -0.20048391391909182 1.0409377088113907 0 0 0 0.91 0 473 204 178 220 63 223 23 
474 -0.3888605404067487 -0.1687553383653782 0.9707632000593266 0 0 0 0.3 0 474 204 179 213 197 232 268 
475 -0.3888863205257354 -0.1690106448050819 0.9708076231901156 0 0 0 0.33 0 475 198 49 204 180 213 198 217 142 219 124 
476 -0.28761403719584583 -0.16661953009948952 0.9976039213977673 0 0 0 0.45 0 476 190 187 204 181 213 199 217 143 
477 -0.2878718211747289 -0.16717828093396686 0.9982816596388656 0 0 0 0.29 0 477 204 182 217 144 
478 -0.03337976414364432 -0.18135717531544113 1.095898685651239 0 0 0 0.51 0 478 190 188 204 183 213 200 221 145 227 166 232 269 
479 -0.47392561561504076 -0.1610247245147162 0.9787633485611319 0 0 0 0.39 0 479 190 189 213 201 
480 -0.42476214776655424 -0.15338411377442504 0.950019917985847 0 0 0 0.26 0 480 198 50 204 184 213 202 219 125 221 146 232 270 
481 -0.2683462298474164 -0.14936896449643122 0.9961892859874609 0 0 0 0.26 0 481 190 190 198 51 204 185 213 203 217 145 219 126 220 64 227 167 
482 -0.2694402455973119 -0.14931336078543667 0.997993782338286 0 0 0 0.43 0 482 199 32 217 146 220 65 224 33 
483 -0.0753433491461389 -0.15962813263827305 1.0664857601392503 0 0 0 0.61 0 483 190 191 204 186 
484 -0.2525253156504455 -0.14745372501514345 1.002745130321885 0 0 0 0.67 0 484 190 192 198 52 199 33 204 187 213 204 217 147 219 127 220 66 223 24 224 34 227 168 232 271 
485 -0.03301859058496489 -0.15857544074166713 1.092523302439055 0 0 0 0.37 0 485 198 53 204 188 213 205 217 148 219 128 221 147 227 169 232 272 
486 0.05129639735973767 -0.1563137893932767 1.1313923133420705 0 0 0 0.22 0 486 204 189 227 170 
487 -0.4781613340159367 -0.13163304909194323 0.9534732953997123 0 0 0 0.37 0 487 190 193 219 129 227 171 232 273 
488 -0.47573614678073595 -0.13098804273308237 0.9489212816547596 0 0 0 0.41 0 488 190 194 219 130 221 148 227 172 232 274 
489 -0.021254656566891305 -0.1406428469268997 1.0957777548678183 0 0 0 0.46 0 489 204 190 213 206 220 67 227 173 
490 0.03460290062998848 -0.1393484459791986 1.1201935554870426 0 0 0 0.47 0 490 196 25 198 54 204 191 221 149 222 92 
491 -0.05846838922899253 -0.12887059548001797 1.0789413590863848 0 0 0 0.58 0 491 196 26 221 150 222 93 232 275 234 19 
492 0.12020855785061253 -0.13478156757781906 1.1441054652317957 0 0 0 0.15 0 492 213 207 227 174 
493 0.07762844221031374 -0.1245165909828072 1.1251967564818242 0 0 0 0.37 0 493 198 55 204 192 232 276 
494 0.16215426392458632 -0.10505607885054717 1.2004458515512755 0 0 0 0.33 0 494 190 195 204 193 227 175 232 277 
495 0.09147698466952779 -0.09391317333965103 1.1377491689208907 0 0 0 0.39 0 495 190 196 204 194 213 208 217 149 227 176 
496 0.09147069965735212 -0.09386024395714401 1.1384518463177251 0 0 0 0.43 0 496 190 197 198 56 199 34 204 195 213 209 217 150 227 177 
497 0.10422087489564254 -0.08341417419896666 1.141177300395968 0 0 0 0.33 0 497 190 198 198 57 204 196 217 151 221 151 222 94 227 178 232 278 
498 0.13881516230235744 -0.0767159292479809 1.1614387502578059 0 0 0 0.73 0 498 204 197 227 179 
499 -0.06187418198687372 -0.06729232031977031 1.0698823298457891 0 0 0 0.86 0 499 217 152 219 131 223 25 232 279 
500 -0.06265409728687181 -0.066909195020645 1.073817471170366 0 0 0 0.27 0 500 217 153 232 280 
501 0.10439010948537505 -0.05273662097778206 1.1417879363247052 0 0 0 0.24 0 501 190 199 204 198 232 281 
502 0.10439753431008794 -0.052836179697941035 1.1407589049527165 0 0 0 0.21 0 502 190 200 232 282 
503 0.10451028398984555 -0.023207119676768515 1.1334989756687646 0 0 0 0.5 0 503 217 154 221 152 
504 -0.377184396580336 0.012485044122499796 0.9549872927594963 0 0 0 0.4 0 504 217 155 227 180 
505 0.0911185241602762 0.017679811702522693 1.1238774985695477 0 0 0 1.1 0 505 190 201 221 153 223 26 
506 -0.4022732391021191 -0.19530317646652934 0.9702196033253561 0 0 0 0.38 0 506 190 202 213 210 219 132 
507 -0.3014769312493668 -0.19345517029256792 0.9935766499938714 0 0 0 0.62 0 507 204 199 217 156 219 133 227 181 232 283 
508 -0.30175619734077863 -0.1937579423736618 0.9950338190805391 0 0 0 0.52 0 508 217 157 219 134 
509 -0.4032351170425185 -0.17187089267522748 0.9684638245146034 0 0 0 0.43 0 509 190 203 213 211 217 158 219 135 232 284 
510 -0.15488391160766177 -0.1858614610300438 1.0441377649455548 0 0 0 0.35 0 510 196 27 199 35 217 159 
511 -0.30239907382337355 -0.16973143556911388 0.9936507264808742 0 0 0 0.66 0 511 198 58 213 212 220 68 232 285 
512 -0.22154768366901387 -0.16910887180715892 1.0091906257971441 0 0 0 0.25 0 512 204 200 219 136 227 182 
513 -0.1455409612974145 -0.16894221298974435 1.047381304401078 0 0 0 0.42 0 513 204 201 222 95 
514 -0.3478468978779792 -0.15533646900965947 0.9809258177104214 0 0 0 0.3 0 514 198 59 199 36 
515 -0.43380472083443034 -0.14239163337442226 0.9524007244791467 0 0 0 0.32 0 515 190 204 199 37 204 202 219 137 221 154 227 183 232 286 
516 -0.39789167919478563 -0.14355615685577777 0.9739288925374849 0 0 0 0.93 0 516 204 203 219 138 227 184 
517 -0.08686242571343868 -0.15371580104312024 1.0657695239142446 0 0 0 0.52 0 517 190 205 204 204 213 213 217 160 219 139 220 69 221 155 223 27 227 185 232 287 
518 -0.10222948972347874 -0.14960066405840688 1.0645724248717023 0 0 0 0.52 0 518 213 214 217 161 219 140 221 156 222 96 223 28 234 20 
519 -0.17744583124811011 -0.14080762011338793 1.029898304722453 0 0 0 0.75 0 519 198 60 204 205 219 141 221 157 222 97 
520 -0.2451410521941581 -0.13817230040368095 1.0082312904320259 0 0 0 0.47 0 520 190 206 198 61 199 38 204 206 213 215 217 162 232 288 
521 -0.048561760542808766 -0.14087696141545358 1.0853927935541094 0 0 0 0.78 0 521 196 28 198 62 199 39 217 163 219 142 220 70 221 158 227 186 
522 -0.17806244507546684 -0.1233302573348822 1.0274864604145608 0 0 0 0.48 0 522 204 207 231 10 
523 -0.44999636292125283 -0.11257335764680677 0.950109412460219 0 0 0 0.37 0 523 190 207 198 63 199 40 204 208 213 216 217 164 219 143 220 71 221 159 227 187 232 289 
524 -0.04626547796084165 -0.1252282951487483 1.0811451681544026 0 0 0 0.4 0 524 190 208 198 64 199 41 204 209 219 144 220 72 221 160 227 188 232 290 
525 -0.04643797967147908 -0.12538808615955968 1.0818539651032986 0 0 0 0.4 0 525 199 42 204 210 219 145 220 73 221 161 222 98 223 29 232 291 
526 -0.016422946429618435 -0.1236398153690146 1.09066140077146 0 0 0 0.91 0 526 198 65 213 217 220 74 227 189 
527 -0.017798470020667208 -0.12374470765787347 1.0924175696093805 0 0 0 0.36 0 527 199 43 217 165 220 75 221 162 232 292 234 21 
528 0.01100331095462133 -0.12361500952945106 1.106819769354971 0 0 0 0.5 0 528 190 209 198 66 204 211 213 218 217 166 227 190 
529 0.010888970398193157 -0.12359127524150074 1.1076980619852268 0 0 0 0.5 0 529 204 212 213 219 227 191 232 293 
