# 3D point list with one line of data per point:
#   POINT3D_ID, X, Y, Z, R, G, B, ERROR, TRACK[] as (IMAGE_ID, POINT2D_IDX)
# Number of points: 337, mean track length: 10.34
11702 -0.5192004637352133 0.12419402798542976 1.0983585122860247 0 0 0 0.37 18 2202 144 2250 145 1487 154 3116 
11703 -0.5399911457827014 0.1736383497839485 1.083092000430831 0 0 0 0.61 18 2203 59 2247 86 2262 139 1706 166 2654 7 2355 58 1525 151 3460 51 567 145 1488 167 1679 178 1551 191 1827 202 1905 212 2013 216 2682 8 1826 24 1623 
11704 -0.32169063674498327 0.0793615367204098 1.0994220207309977 0 0 0 0.14 18 2204 57 2506 59 2248 
11705 -0.11924520866005632 -0.030083815357239495 0.9644362386591718 0 0 0 0.47 18 2205 94 2631 116 3271 125 2847 166 2655 31 1522 59 2249 228 3489 
11706 -0.46595849395563316 0.1931538579612934 1.058892406917582 0 0 0 0.38 18 2206 125 2848 171 2552 178 1552 191 1828 218 3298 7 2356 46 2664 151 3461 186 2103 202 1906 48 678 86 2263 131 1772 167 1680 180 4429 211 1988 212 2014 228 3490 8 1827 24 1624 55 1915 72 3265 119 1673 183 1395 
11707 -0.4252501880999902 0.19181307888877863 1.0288633085649006 0 0 0 0.44 18 2207 57 2507 191 1829 24 1625 
11708 -0.4535465238967194 0.21662901125612183 1.0316027696369723 0 0 0 0.31 18 2208 58 1526 59 2250 94 2632 116 3272 171 2553 180 4430 37 2254 57 2508 86 2264 131 1773 139 1707 151 3462 153 1685 167 1681 178 1553 186 2104 189 1862 191 1830 193 3723 202 1907 212 2015 216 2683 218 3299 228 3491 24 1626 23 3570 72 3266 102 2345 168 364 173 3647 
11709 -0.44115503150675583 0.2215863912264964 1.0297562678529995 0 0 0 0.41 18 2209 23 3571 180 4431 58 1527 59 2251 86 2265 94 2633 116 3273 125 2849 131 1774 143 1738 144 2251 151 3463 167 1682 189 1863 193 3724 202 1908 211 1989 212 2016 218 3300 8 1828 24 1627 48 679 178 1554 
11710 -0.4964777444312282 0.2757561544890918 1.1048668861321813 0 0 0 0.3 18 2210 166 2656 202 1909 51 568 86 2266 125 2850 151 3464 167 1683 
11711 -0.2277645930143523 0.13701942118265775 0.9437120347941201 0 0 0 0.2 18 2211 102 2346 153 1686 
11712 -0.5355400326910807 0.2780861933858898 1.0405109356609876 0 0 0 0.28 18 2212 59 2252 211 1990 
11713 -0.5343888201609197 0.27246418167377817 1.0263747028153294 0 0 0 0.52 18 2213 57 2509 94 2634 102 2347 144 2252 145 1489 153 1687 171 2554 180 4432 24 1628 58 1528 154 3117 
11714 -0.4223892910617467 0.23452414502919147 1.0048208784315982 0 0 0 0.28 18 2214 102 2348 153 1688 
11715 -0.4636086017920271 0.2859099943865542 1.0044504498262186 0 0 0 0.31 18 2215 51 569 55 1916 57 2510 58 1529 59 2253 72 3267 94 2635 102 2349 116 3274 119 1674 125 2851 131 1775 137 1210 139 1708 143 1739 144 2253 145 1490 151 3465 153 1689 154 3118 166 2657 171 2555 173 3648 178 1555 180 4433 189 1864 191 1831 193 3725 202 1910 211 1991 218 3301 226 2123 228 3492 7 2357 34 2019 37 2255 45 647 212 2017 216 2684 86 2267 121 372 167 1684 8 1829 24 1629 
11716 -0.4502601473139642 0.2953830066355803 0.9924372416161741 0 0 0 0.41 18 2216 86 2268 145 1491 151 3466 166 2658 178 1556 23 3572 94 2636 116 3275 154 3119 167 1685 191 1832 193 3726 202 1911 8 1830 24 1630 51 570 57 2511 59 2254 131 1776 139 1709 143 1740 144 2254 
11717 -0.43872318311594416 0.29421303315353614 0.9891525405955741 0 0 0 0.55 18 2217 51 571 151 3467 154 3120 171 2556 178 1557 180 4434 211 1992 212 2018 218 3302 7 2358 23 3573 57 2512 90 714 116 3276 121 373 143 1741 144 2255 145 1492 166 2659 193 3727 202 1912 228 3493 48 680 94 2637 167 1686 8 1831 34 2020 59 2255 102 2350 137 1211 
11718 0.25408938703450223 0.02538894112002278 0.7015607693331269 0 0 0 1.2 18 2218 102 2351 140 3185 171 2557 173 3649 210 1242 216 2685 218 3303 7 2359 45 648 59 2256 90 715 125 2852 139 1710 150 2136 151 3468 166 2660 177 2517 180 4435 193 3728 225 713 31 1523 106 1809 115 181 119 1675 68 648 86 2269 94 2638 122 872 202 1913 211 1993 212 2019 34 2021 144 2256 191 1833 228 3494 37 2256 46 2665 
11719 0.2560570824038117 0.014762750268898745 0.6784161954555218 0 0 0 0.43 18 2219 23 3574 94 2639 149 2239 173 3650 178 1558 180 4436 216 2686 218 3304 228 3495 24 1631 57 2513 144 2257 151 3469 166 2661 171 2558 177 2518 212 2020 233 1967 55 1917 106 1810 
11720 -0.42895909438453006 0.2928926575462109 0.9831205358015016 0 0 0 0.56 18 2220 23 3575 171 2559 180 4437 225 714 48 681 86 2270 94 2640 167 1687 189 1865 191 1834 202 1914 212 2021 218 3305 8 1832 24 1632 59 2257 131 1777 139 1711 144 2258 153 1690 161 1819 166 2662 193 3729 45 649 90 716 116 3277 121 374 125 2853 154 3121 211 1994 
11721 -0.4425503170529403 0.3128424590788967 0.9875307235400292 0 0 0 0.09 18 2221 173 3651 180 4438 
11722 -0.38800370111960186 0.2926308479967042 0.9600999220210319 0 0 0 0.41 18 2222 23 3576 57 2514 58 1530 59 2258 86 2271 94 2641 116 3278 144 2259 166 2663 171 2560 180 4439 193 3730 189 1866 202 1915 7 2360 48 682 125 2854 139 1712 149 2240 183 1396 46 2666 55 1918 167 1688 178 1559 212 2022 216 2687 8 1833 24 1633 34 2022 72 3268 119 1676 131 1778 151 3470 218 3306 225 715 203 806 
11723 -0.4929755044878507 0.3761035022341732 1.0661803668218097 0 0 0 0.77 18 2223 59 2259 202 1916 
11724 -0.45580561639021955 0.33110506178047394 0.9809063396480949 0 0 0 0.31 18 2224 37 2257 46 2667 58 1531 59 2260 72 3269 116 3279 125 2855 144 2260 153 1691 166 2664 171 2561 173 3652 178 1560 180 4440 189 1867 191 1835 202 1917 212 2023 218 3307 225 716 226 2124 131 1779 186 2105 8 1834 24 1634 48 683 51 572 55 1919 57 2515 102 2352 143 1742 167 1689 228 3496 
11725 -0.4477888880361154 0.3438243713069404 0.9707854673128204 0 0 0 0.43 18 2225 178 1561 180 4441 
11726 -0.13950640326667385 0.24321226553268968 0.8369161050603261 0 0 0 0.46 18 2226 119 1677 143 1743 171 2562 226 2125 
11727 0.2581679986383394 0.10664720015839174 0.649247532412355 0 0 0 0.74 18 2227 30 1927 57 2516 72 3270 102 2353 131 1780 171 2563 178 1562 225 717 226 2126 23 3577 31 1524 34 2023 137 1212 216 2688 106 1811 121 375 173 3653 193 3731 218 3308 
11728 -0.28167181966694355 0.29378459371599513 0.8909771323745564 0 0 0 0.3 18 2228 55 1920 102 2354 143 1744 205 1527 23 3578 57 2517 59 2261 72 3271 116 3280 144 2261 173 3654 177 2519 212 2024 216 2689 226 2127 7 2361 34 2024 37 2258 90 717 94 2642 119 1678 125 2856 131 1781 139 1713 140 3186 183 1397 193 3732 202 1918 211 1995 233 1968 30 1928 189 1868 99 2588 167 1690 46 2668 153 1692 166 2665 171 2564 178 1563 191 1836 8 1835 24 1635 149 2241 228 3497 58 1532 151 3471 161 1820 180 4442 218 3309 225 718 145 1493 174 353 
11729 -0.5352432414128768 0.3830396030126642 1.006669011852837 0 0 0 0.43 18 2229 57 2518 58 1533 59 2262 191 1837 228 3498 51 573 125 2857 167 1691 24 1636 46 2669 151 3472 166 2666 211 1996 
11730 -0.12522125381550278 0.2506563695464415 0.7871273758227012 0 0 0 0.44 18 2230 121 376 171 2565 7 2362 23 3579 30 1929 34 2025 37 2259 45 650 46 2670 55 1921 59 2263 90 718 99 2589 116 3281 119 1679 122 873 125 2858 137 1213 139 1714 140 3187 149 2242 166 2667 177 2520 183 1398 193 3733 202 1919 211 1997 212 2025 233 1969 8 1836 24 1637 57 2519 72 3272 94 2643 102 2355 131 1782 143 1745 144 2262 145 1494 151 3473 173 3655 178 1564 180 4443 189 1869 191 1838 216 2690 218 3310 226 2128 106 1812 186 2106 
11731 -0.5452652760189474 0.3833253093003073 0.9645405315952389 0 0 0 0.25 18 2231 58 1534 166 2668 
11732 -0.4786072035602145 0.3651182773780742 0.9380009881738931 0 0 0 0.32 18 2232 51 574 58 1535 144 2263 24 1638 143 1746 
11733 -0.12092183480144832 0.2644176800005309 0.7785696151659557 0 0 0 0.43 18 2233 59 2264 119 1680 140 3188 151 3474 171 2566 189 1870 193 3734 216 2691 228 3499 233 1970 7 2363 34 2026 45 651 55 1922 90 719 99 2590 102 2356 116 3282 125 2859 143 1747 149 2243 166 2669 186 2107 211 1998 212 2026 
11734 -0.15493976958713002 0.27970718788783905 0.7895030803365825 0 0 0 0.74 23 3580 72 3273 102 2357 140 3189 151 3475 173 3656 205 1528 18 2234 24 1639 31 1525 99 2591 119 1681 143 1748 177 2521 178 1565 191 1839 34 2027 106 1813 131 1783 137 1214 180 4444 228 3500 233 1971 203 807 
11735 -0.5386501214186024 0.1537097116208508 1.0886351280323487 0 0 0 0.51 18 2235 51 575 58 1536 59 2265 139 1715 144 2264 151 3476 154 3122 166 2670 178 1566 202 1920 228 3501 34 2028 48 684 57 2520 86 2272 125 2860 153 1693 161 1821 167 1692 171 2567 211 1999 24 1640 
11736 -0.5437378093049969 0.17089807464655038 1.0872422122468168 0 0 0 0.52 18 2236 51 576 57 2521 58 1537 59 2266 86 2273 125 2861 151 3477 154 3123 166 2671 180 4445 202 1921 212 2027 216 2692 48 685 167 1693 178 1567 228 3502 8 1837 24 1641 186 2108 
11737 -0.5345719333781408 0.16645789197753202 1.069505414846243 0 0 0 0.48 18 2237 34 2029 57 2522 58 1538 59 2267 102 2358 116 3283 125 2862 144 2265 145 1495 151 3478 154 3124 166 2672 171 2568 173 3657 178 1568 180 4446 193 3735 202 1922 211 2000 212 2028 216 2693 218 3311 228 3503 7 2364 45 652 46 2671 48 686 86 2274 94 2644 131 1784 167 1694 8 1838 24 1642 51 577 55 1923 133 452 
11738 -0.07477794393280962 -0.037934989910907976 1.053029359118425 0 0 0 0.97 18 2238 57 2523 58 1539 59 2268 94 2645 116 3284 139 1716 166 2673 180 4447 189 1871 212 2029 7 2365 45 653 90 720 125 2863 144 2266 149 2244 154 3125 186 2109 202 1923 228 3504 167 1695 171 2569 191 1840 8 1839 23 3581 34 2030 102 2359 133 453 140 3190 173 3658 177 2522 193 3736 
11739 -0.014342231446934089 -0.1307633754508088 0.8901538606183486 0 0 0 0.67 18 2239 140 3191 226 2129 8 1840 94 2646 119 1682 131 1785 137 1215 145 1496 171 2570 72 3274 102 2360 115 182 55 1924 
11740 -0.4449922646383808 0.16834803368814766 1.0528762101782765 0 0 0 0.45 18 2240 37 2260 46 2672 51 578 59 2269 94 2647 144 2267 145 1497 151 3479 171 2571 178 1569 212 2030 228 3505 7 2366 23 3582 45 654 74 51 90 721 116 3285 139 1717 154 3126 166 2674 189 1872 191 1841 216 2694 218 3312 34 2031 86 2275 131 1786 167 1696 193 3737 202 1924 125 2864 186 2110 211 2001 8 1841 24 1643 58 1540 183 1399 180 4448 
11741 -0.4051829383318215 0.16049313345992464 1.0334347435129911 0 0 0 0.57 18 2241 51 579 57 2524 59 2270 125 2865 153 1694 154 3127 173 3659 178 1570 180 4449 216 2695 228 3506 7 2367 58 1541 94 2648 116 3286 191 1842 202 1925 8 1842 55 1925 139 1718 144 2268 151 3480 174 354 
11742 -0.5331198175698814 0.21982964802784166 1.0538267003795194 0 0 0 0.55 18 2242 51 580 59 2271 125 2866 144 2269 145 1498 153 1695 154 3128 180 4450 202 1926 212 2031 46 2673 48 687 55 1926 58 1542 102 2361 119 1683 137 1216 139 1719 161 1822 166 2675 167 1697 171 2572 178 1571 183 1400 186 2111 193 3738 211 2002 216 2696 218 3313 24 1644 34 2032 
11743 -0.5321352651509773 0.24155676730558517 1.0465107189789946 0 0 0 0.35 18 2243 51 581 171 2573 167 1698 
11744 -0.5297573105990313 0.2527416058626603 1.0360678114326123 0 0 0 0.77 18 2244 59 2272 119 1684 151 3481 166 2676 125 2867 167 1699 171 2574 211 2003 24 1645 143 1749 
11745 0.27765661948239834 -0.11846902622884808 0.7574234541632143 0 0 0 0.54 18 2245 34 2033 149 2245 225 719 7 2368 59 2273 86 2276 94 2649 99 2592 122 874 125 2868 144 2270 150 2137 166 2677 173 3660 180 4451 191 1843 202 1927 211 2004 212 2032 216 2697 228 3507 24 1646 31 1526 116 3287 139 1720 145 1499 151 3482 178 1572 23 3583 106 1814 
11746 -0.5312448111578634 0.27686204169879913 1.0605987208398493 0 0 0 0.51 18 2246 59 2274 212 2033 86 2277 125 2869 166 2678 48 688 167 1700 202 1928 51 582 57 2525 151 3483 154 3129 24 1647 153 1696 
11747 -0.5352605302595221 0.2953129104841152 1.0245083637070709 0 0 0 0.49 18 2247 125 2870 144 2271 7 2369 34 2034 51 583 57 2526 151 3484 171 2575 191 1844 216 2698 
11748 -0.4214906154155718 0.2648212364772688 0.9894766475135389 0 0 0 0.37 18 2248 34 2035 51 584 58 1543 59 2275 94 2650 139 1721 144 2272 171 2576 180 4452 193 3739 228 3508 57 2527 131 1787 174 355 
11749 -0.5402907629432091 0.3318473860226633 1.015249715745028 0 0 0 0.18 18 2249 137 1217 151 3485 212 2034 
11750 -0.4207809580801356 0.30050891397961993 0.9680993285245757 0 0 0 0.42 18 2250 23 3584 59 2276 153 1697 171 2577 173 3661 178 1573 180 4453 218 3314 225 720 7 2370 51 585 161 1823 46 2674 58 1544 72 3275 116 3288 125 2871 167 1701 191 1845 202 1929 212 2035 8 1843 24 1648 34 2036 48 689 94 2651 102 2362 119 1685 133 454 137 1218 139 1722 144 2273 151 3486 154 3130 166 2679 189 1873 193 3740 216 2699 226 2130 228 3509 37 2261 149 2246 211 2005 
11751 -0.21883193273628349 0.23198723111932215 0.886803082566155 0 0 0 0.5 18 2251 23 3585 57 2528 140 3192 145 1500 183 1401 216 2700 218 3315 228 3510 7 2371 37 2262 45 655 86 2278 90 722 94 2652 99 2593 116 3289 119 1686 125 2872 149 2247 166 2680 202 1930 212 2036 46 2675 59 2277 139 1723 154 3131 167 1702 171 2578 191 1846 203 808 
11752 0.2537825366185321 0.0649922404819067 0.6820250636204458 0 0 0 0.64 18 2252 34 2037 45 656 57 2529 94 2653 99 2594 102 2363 121 377 122 875 125 2873 143 1750 149 2248 166 2681 171 2579 178 1574 210 1243 226 2131 8 1844 24 1649 31 1527 37 2263 59 2278 72 3276 86 2279 116 3290 119 1687 131 1788 133 455 139 1724 140 3193 144 2274 150 2138 151 3487 154 3132 173 3662 177 2523 186 2112 189 1874 191 1847 193 3741 212 2037 216 2701 228 3511 106 1815 225 721 137 1219 233 1972 55 1927 68 649 168 365 180 4454 211 2006 202 1931 218 3316 
11753 -0.2223670087692001 0.24385857516741533 0.8850528821147933 0 0 0 0.68 18 2253 34 2038 166 2682 205 1529 210 1244 7 2372 22 20 30 1930 57 2530 94 2654 102 2364 116 3291 125 2874 139 1725 144 2275 145 1501 149 2249 151 3488 153 1698 171 2580 178 1575 189 1875 211 2007 212 2038 228 3512 233 1973 167 1703 168 366 45 657 161 1824 203 809 
11754 -0.2088145207579511 0.2580644885913306 0.862139148027814 0 0 0 0.26 18 2254 59 2279 151 3489 
11755 -0.5338609116699065 0.38698065226489 1.0087867713013225 0 0 0 0.55 18 2255 57 2531 58 1545 59 2280 137 1220 191 1848 212 2039 228 3513 125 2875 167 1704 202 1932 211 2008 8 1845 24 1650 119 1688 
11756 -0.05596145042484548 0.2622765434384843 0.7381046786557784 0 0 0 0.39 72 3277 99 2595 102 2365 143 1751 171 2581 173 3663 178 1576 7 2373 30 1931 34 2039 37 2264 59 2281 90 723 116 3292 119 1689 137 1221 139 1726 140 3194 145 1502 151 3490 177 2524 183 1402 189 1876 193 3742 202 1933 211 2009 212 2040 216 2702 226 2132 228 3514 233 1974 8 1846 23 3586 24 1651 31 1528 45 658 55 1928 57 2532 106 1816 131 1789 144 2276 149 2250 180 4455 191 1849 218 3317 68 650 121 378 133 456 168 367 
11757 -0.46919657739373694 0.1942921684214518 1.1854061453160192 0 0 0 0.52 18 2256 86 2280 166 2683 
11758 -0.17016341094265433 0.17530382271102235 0.8882450041430557 0 0 0 0.55 18 2257 102 2366 171 2582 8 1847 23 3587 37 2265 55 1929 57 2533 59 2282 72 3278 86 2281 94 2655 99 2596 116 3293 119 1690 121 379 137 1222 139 1727 140 3195 143 1752 145 1503 154 3133 177 2525 178 1577 183 1403 210 1245 216 2703 218 3318 225 722 228 3515 30 1932 144 2277 203 810 
11759 -0.13665941588043817 0.1698690796791005 0.8727401831567815 0 0 0 0.31 18 2258 144 2278 171 2583 
11760 -0.32567985682483175 0.2528493052220328 0.9381342835410921 0 0 0 0.35 18 2259 23 3588 59 2283 102 2367 151 3491 154 3134 166 2684 171 2584 173 3664 178 1578 193 3743 202 1934 218 3319 8 1848 24 1652 55 1930 119 1691 191 1850 225 723 226 2133 
11761 -0.42647616576206554 0.3057708586435131 0.9801038076999914 0 0 0 0.45 18 2260 23 3589 116 3294 125 2876 139 1728 143 1753 151 3492 180 4456 202 1935 218 3320 225 724 228 3516 48 690 167 1705 191 1851 
11762 -0.2994082597605732 0.25837556549977136 0.9223179286826153 0 0 0 0.52 18 2261 23 3590 37 2266 59 2284 86 2282 94 2656 99 2597 116 3295 119 1692 140 3196 149 2251 151 3493 153 1699 154 3135 166 2685 171 2585 173 3665 178 1579 191 1852 193 3744 218 3321 228 3517 57 2534 58 1546 72 3279 125 2877 144 2279 167 1706 189 1877 210 1246 211 2010 24 1653 133 457 180 4457 202 1936 212 2041 168 368 203 811 
11763 -0.3311249214081178 0.2983886970894856 0.9237029484998726 0 0 0 0.75 18 2262 153 1700 171 2586 173 3666 180 4458 23 3591 59 2285 72 3280 116 3296 125 2878 131 1790 143 1754 166 2686 167 1707 193 3745 202 1937 218 3322 225 725 8 1849 24 1654 133 458 191 1853 226 2134 46 2676 151 3494 203 812 
11764 -0.42673559756624185 0.1716192115346988 1.2378420835315906 0 0 0 0.94 18 2263 125 2879 166 2687 202 1938 24 1655 139 1729 
11765 -0.4772521592358443 0.2141045221712605 1.169165652445405 0 0 0 0.16 18 2264 178 1580 212 2042 
11766 -0.5334047746391172 0.23230259261953193 1.042339290543559 0 0 0 0.45 18 2265 55 1931 59 2286 145 1504 151 3495 153 1701 166 2688 173 3667 178 1581 212 2043 7 2374 34 2040 46 2677 57 2535 58 1547 86 2283 171 2587 186 2113 216 2704 51 586 119 1693 48 691 94 2657 125 2880 131 1791 167 1708 180 4459 189 1878 202 1939 211 2011 218 3323 133 459 8 1850 24 1656 139 1730 144 2280 193 3746 228 3518 
11767 -0.2870051747821077 0.1447484534510583 0.9663481425758934 0 0 0 0.48 18 2266 102 2368 131 1792 144 2281 193 3747 
11768 -0.24103682074025565 0.1874558365836427 0.9244578281568232 0 0 0 0.31 18 2267 94 2658 131 1793 
11769 -0.3911440500355665 0.2677598692070492 0.9744278721493284 0 0 0 0.56 18 2268 23 3592 46 2678 58 1548 59 2287 72 3281 86 2284 94 2659 102 2369 116 3297 131 1794 143 1755 144 2282 151 3496 154 3136 166 2689 173 3668 178 1582 180 4460 183 1404 191 1854 193 3748 211 2012 212 2044 218 3324 226 2135 57 2536 119 1694 149 2252 167 1709 202 1940 8 1851 37 2267 133 460 137 1223 216 2705 
11770 -0.5418941458135319 0.3774137760344103 0.9996786366042647 0 0 0 0.51 18 2269 59 2288 212 2045 46 2679 57 2537 58 1549 119 1695 125 2881 144 2283 151 3497 166 2690 167 1710 211 2013 228 3519 
11771 -0.1400290589550098 0.2766437386390895 0.8218579351762769 0 0 0 1.2 18 2270 23 3593 57 2538 99 2598 119 1696 121 380 140 3197 171 2588 177 2526 180 4461 7 2375 55 1932 102 2370 122 876 161 1825 178 1583 183 1405 191 1855 211 2014 216 2706 233 1975 8 1852 30 1933 31 1529 34 2041 37 2268 59 2289 72 3282 90 724 116 3298 125 2882 131 1795 133 461 137 1224 143 1756 145 1505 149 2253 151 3498 166 2691 173 3669 186 2114 189 1879 193 3749 202 1941 205 1530 210 1247 212 2046 218 3325 144 2284 168 369 46 2680 203 813 
11772 -0.3595245430532159 0.26378546870046965 0.9626958942347627 0 0 0 1.0 18 2271 143 1757 228 3520 
11773 -0.3509039725832846 0.3183026183701488 0.9242651338249944 0 0 0 0.81 18 2272 166 2692 171 2589 180 4462 8 1853 23 3594 24 1657 34 2042 37 2269 46 2681 55 1933 57 2539 59 2290 102 2371 116 3299 119 1697 125 2883 133 462 143 1758 144 2285 149 2254 151 3499 173 3670 191 1856 202 1942 218 3326 225 726 226 2136 90 725 174 356 
11774 -0.5334114332571114 0.38082938462129234 0.963426899489773 0 0 0 0.73 18 2273 125 2884 166 2693 211 2015 24 1658 34 2043 
11775 -0.29875075800166095 0.2533526276223894 0.9234548052143337 0 0 0 0.51 18 2274 23 3595 34 2044 57 2540 58 1550 59 2291 72 3283 94 2660 102 2372 125 2885 143 1759 144 2286 149 2255 151 3500 153 1702 154 3137 166 2694 178 1584 180 4463 202 1943 211 2016 212 2047 218 3327 228 3521 7 2376 22 21 30 1934 37 2270 45 659 46 2682 55 1934 116 3300 161 1826 193 3750 225 727 226 2137 233 1976 139 1731 167 1711 183 1406 189 1880 191 1857 8 1854 24 1659 90 726 119 1698 133 463 137 1225 140 3198 173 3671 205 1531 210 1248 216 2707 168 370 171 2590 
11776 -0.522277860065125 0.29967786137599 1.009027553880687 0 0 0 0.61 18 2275 119 1699 151 3501 202 1944 
11777 -0.36031014327250915 0.2612329295282214 0.9342492786990302 0 0 0 1.1 18 2276 34 2045 59 2292 178 1585 180 4464 37 2271 167 1712 202 1945 24 1660 125 2886 140 3199 144 2287 228 3522 
11778 -0.095630072764325 -0.3721048325378685 1.159659092320224 0 0 0 0.29 7 2377 94 2661 122 877 
11779 -0.042557626002697135 -0.3839511083510388 1.096752809918978 0 0 0 0.33 7 2378 55 1935 189 1881 
11780 -0.07762199966253343 -0.3429239024920458 1.0343311356963447 0 0 0 0.2 7 2379 94 2662 205 1532 
11781 -0.07500372733187513 -0.3333376665067911 1.0582066681815472 0 0 0 0.26 7 2380 94 2663 125 2887 
11782 -0.07903062930955161 -0.32621267827191436 1.0632453039061192 0 0 0 0.34 7 2381 116 3301 216 2708 218 3328 
11783 -0.07282882994543628 -0.32282577869579293 1.0283161927216065 0 0 0 0.42 7 2382 122 878 161 1827 216 2709 
11784 -0.06336489849224478 -0.3151838444664719 1.0407242021556284 0 0 0 0.27 7 2383 46 2683 94 2664 122 879 125 2888 161 1828 
11785 -0.13108463288812938 -0.2710507669201635 1.0338958007145616 0 0 0 0.34 7 2384 193 3751 211 2017 
11786 -0.014216852310479368 -0.3350704901298215 1.0362970073519822 0 0 0 0.3 7 2385 161 1829 205 1533 
11787 -0.13452775649834173 -0.25886427566240205 1.0332475159399428 0 0 0 0.37 7 2386 94 2665 154 3138 161 1830 193 3752 90 727 125 2889 
11788 -0.07342662821234187 -0.2921181174774288 1.0406438013927475 0 0 0 0.16 7 2387 94 2666 193 3753 
11789 -0.07642374161323538 -0.2885917617188599 1.0447879850723605 0 0 0 0.18 7 2388 122 880 161 1831 
11790 -0.08396848299865127 -0.24262326014267047 1.0880048514619831 0 0 0 0.08 7 2389 37 2272 94 2667 
11791 -0.1457028531970835 -0.2129663021263179 1.0199321152693934 0 0 0 0.17 7 2390 94 2668 116 3302 161 1832 
11792 -0.10978570889286757 -0.21450723995890802 1.088606255695826 0 0 0 0.12 7 2391 94 2669 149 2256 
11793 -0.14660342586845085 -0.20108018342086817 1.013961924084788 0 0 0 0.21 7 2392 18 2277 116 3303 
11794 -0.08136653960331294 -0.2271921660992982 1.077440323901095 0 0 0 0.31 7 2393 58 1551 94 2670 177 2527 
11795 -0.0789818465992658 -0.23598235356503489 0.9822766691125283 0 0 0 0.17 7 2394 45 660 122 881 
11796 -0.013291041068104883 -0.2644492915367975 0.9884208222784214 0 0 0 0.34 7 2395 94 2671 116 3304 125 2890 149 2257 183 1407 216 2710 
11797 -0.14018026299930475 -0.18523040038276312 1.0066640878110884 0 0 0 0.22 7 2396 18 2278 154 3139 180 4465 
11798 -0.011834731717438856 -0.256628034828108 0.9860890080054879 0 0 0 0.24 7 2397 94 2672 116 3305 117 537 183 1408 
11799 -0.06323091394860382 -0.2087516673602581 1.1382506809898862 0 0 0 0.25 7 2398 149 2258 154 3140 193 3754 
11800 -0.06103331040840216 -0.20842452472107006 1.1356757531236255 0 0 0 0.18 7 2399 149 2259 210 1249 
11801 -0.13649566603886745 -0.18379899041517558 1.001852970841062 0 0 0 0.29 7 2400 94 2673 122 882 149 2260 
11802 -0.0702973123946164 -0.18861782298973262 0.9757967576909042 0 0 0 0.67 7 2401 23 3596 94 2674 116 3306 216 2711 24 1661 212 2048 46 2684 117 538 
11803 -0.019409838753049212 -0.20758258508128433 0.9505680619819981 0 0 0 0.31 7 2402 94 2675 149 2261 
11804 -0.01627313558879049 -0.20983240979449505 0.9388763533760068 0 0 0 0.38 7 2403 94 2676 140 3200 183 1409 193 3755 
11805 -0.08686049992497458 -0.16001444675159493 0.9490263615142767 0 0 0 0.26 7 2404 140 3201 149 2262 
11806 -0.07102224354293313 -0.13417542103283853 1.1101167665145484 0 0 0 0.22 7 2405 149 2263 153 1703 
11807 -0.14649918656887037 -0.11476977972440998 0.9608580033262116 0 0 0 0.36 7 2406 18 2279 22 22 140 3202 
11808 -0.14432036512946395 -0.11629196988576197 0.9572566316266363 0 0 0 0.18 7 2407 22 23 149 2264 193 3756 210 1250 122 883 
11809 -0.14743452700403134 -0.1126844237479178 0.9656404535269123 0 0 0 0.15 7 2408 18 2280 116 3307 210 1251 
11810 -0.08128140923329343 -0.1494451570681039 0.9332044798485059 0 0 0 0.13 7 2409 140 3203 149 2265 
11811 -0.14084409419991253 -0.11675062441837383 0.9553189790959619 0 0 0 0.32 7 2410 22 24 122 884 149 2266 210 1252 
11812 -0.13401690277408362 -0.11872784612046669 0.9534010011000237 0 0 0 0.33 7 2411 122 885 210 1253 
11813 -0.5223262402517488 0.09352026227223804 1.1122536501876632 0 0 0 0.76 7 2412 18 2281 94 2677 180 4466 
11814 -0.1110047111589339 -0.10929335453819396 1.021444612889149 0 0 0 0.22 7 2413 46 2685 116 3308 
11815 -0.14349281864583457 -0.10154035069432567 0.9672164566419926 0 0 0 0.33 7 2414 30 1935 94 2678 122 886 
11816 -0.11785861289363507 -0.11564546027520234 0.9557851363149382 0 0 0 0.12 7 2415 94 2679 122 887 140 3204 
11817 -0.5121955988374507 0.09751802682119125 1.1058198776230732 0 0 0 0.46 7 2416 94 2680 171 2591 
11818 -0.11511125913370705 -0.09513812008421504 1.027361035535494 0 0 0 0.39 7 2417 46 2686 90 728 205 1534 30 1936 94 2681 149 2267 
11819 -0.07890765552562744 -0.11766890839539185 0.9260016899811063 0 0 0 0.29 7 2418 116 3309 122 888 145 1506 149 2268 183 1410 106 1817 180 4467 193 3757 
11820 -0.29611594798603286 0.026812009016121515 1.1592758429736947 0 0 0 0.26 7 2419 94 2682 125 2891 
11821 0.2939131402241253 -0.27116698732231964 0.8288458367963752 0 0 0 0.35 7 2420 18 2282 94 2683 116 3310 
11822 -0.14450936622727137 -0.05055511178686202 0.9427439762976041 0 0 0 0.32 7 2421 116 3311 149 2269 
11823 -0.06234303798523059 -0.052909805506403576 1.087762365654112 0 0 0 0.48 7 2422 23 3597 125 2892 143 1760 151 3502 166 2695 173 3672 180 4468 218 3329 37 2273 46 2687 153 1704 154 3141 167 1713 186 2115 193 3758 228 3523 177 2528 
11824 -0.06587232923114483 -0.04573963754807617 1.0751944880952577 0 0 0 0.38 7 2423 154 3142 173 3673 
11825 -0.0973568859366103 -0.028484150870288723 1.076507996448796 0 0 0 0.2 7 2424 193 3759 228 3524 
11826 -0.08125615668983792 -0.06904344226793387 0.9018139632383421 0 0 0 0.22 7 2425 94 2684 140 3205 149 2270 
11827 -0.1636796101837349 0.001788239985814956 1.0810526124837292 0 0 0 0.18 7 2426 58 1552 140 3206 154 3143 228 3525 
11828 -0.13753111546393057 -0.029911483031317986 0.9204588516970456 0 0 0 0.27 7 2427 94 2685 149 2271 150 2139 151 3503 161 1833 193 3760 216 2712 55 1936 106 1818 145 1507 154 3144 
11829 -0.526147918961244 0.1527893620406252 1.0706758786845765 0 0 0 0.73 7 2428 94 2686 171 2592 216 2713 
11830 -0.02397972463084714 -0.07840474151465932 0.8779186872457954 0 0 0 0.38 7 2429 149 2272 210 1254 
11831 -0.2826859554124726 0.06683809552088593 1.0714062351019347 0 0 0 0.51 7 2430 149 2273 210 1255 
11832 0.2822764001583398 -0.17566427636298726 0.7841074821893862 0 0 0 0.51 7 2431 122 889 149 2274 151 3504 
11833 0.2828743531048825 -0.1742793071251867 0.7709942547961153 0 0 0 0.42 7 2432 94 2687 125 2893 166 2696 
11834 -0.5331335119704191 0.18463868384701118 1.0750678320763576 0 0 0 0.27 7 2433 18 2283 171 2593 
11835 -0.532317635730833 0.1869142790166701 1.0775616632129346 0 0 0 0.44 7 2434 18 2284 171 2594 
11836 -0.14630388695172097 0.014579449502850662 0.9123416724261989 0 0 0 0.17 7 2435 149 2275 180 4469 
11837 -0.5299560197646886 0.18479212974353423 1.0679064407005878 0 0 0 0.54 7 2436 18 2285 94 2688 
11838 -0.03230802708142175 -0.03201363937668595 0.8641346523413689 0 0 0 0.18 7 2437 149 2276 210 1256 
11839 -0.025513362329716686 -0.03392651862762019 0.8559115998769152 0 0 0 0.3 7 2438 149 2277 210 1257 
11840 -0.09867081949302618 0.00038874410284634397 0.8924288650696743 0 0 0 0.19 7 2439 122 890 149 2278 161 1834 
11841 -0.037905985313098085 -0.02804791010592155 0.8623849936132513 0 0 0 0.21 7 2440 94 2689 233 1977 
11842 -0.5124476858308735 0.1830961314631562 1.056266351400734 0 0 0 0.11 7 2441 18 2286 171 2595 
11843 0.22208794323869085 -0.09474646654129455 0.9025253245023979 0 0 0 0.38 7 2442 125 2894 228 3526 
11844 -0.4492018924376404 0.16628349138431928 1.0561316791313948 0 0 0 0.72 7 2443 18 2287 154 3145 171 2596 216 2714 
11845 -0.4497533631499343 0.16813301499171537 1.0550212384627873 0 0 0 0.33 7 2444 18 2288 74 52 
11846 0.27299756999893166 -0.12494755937186951 0.7660539421234909 0 0 0 0.54 7 2445 18 2289 122 891 149 2279 233 1978 
11847 0.27894938906160666 -0.1121839053525266 0.7640136223852187 0 0 0 0.45 7 2446 99 2599 122 892 166 2697 
11848 -0.11728313065250814 0.04253722203657414 0.8794716912137988 0 0 0 0.36 7 2447 122 893 233 1979 
11849 0.27523026628341596 -0.10727988520513106 0.7572144841072533 0 0 0 0.35 7 2448 122 894 233 1980 
11850 0.289019394301388 -0.08791824615158957 0.8275432801768118 0 0 0 0.19 7 2449 94 2690 116 3312 193 3761 
11851 -0.2010671741506595 0.08979869121124663 0.942927955087978 0 0 0 0.13 7 2450 94 2691 149 2280 
11852 -0.14848865007409692 0.06227074615540072 0.8844862086887528 0 0 0 0.07 7 2451 18 2290 233 1981 
11853 -0.1802266496433477 0.08916493954211967 0.9358481999802036 0 0 0 0.4 7 2452 99 2600 233 1982 203 814 
11854 -0.2754424133306557 0.12605318127672838 0.9689555427491698 0 0 0 0.29 7 2453 94 2692 149 2281 210 1258 
11855 -0.14808050814937285 0.08166526328228015 0.9196529981855367 0 0 0 0.18 7 2454 193 3762 205 1535 
11856 -0.30351165998151347 0.144347309246152 0.9825104658209217 0 0 0 0.37 7 2455 149 2282 233 1983 
11857 -0.3117724556185883 0.14832734345853887 0.9844436064688273 0 0 0 0.32 7 2456 94 2693 154 3146 210 1259 233 1984 
11858 0.2561548339385152 -0.08307967850340581 0.7222756572531291 0 0 0 0.5 7 2457 94 2694 149 2283 
11859 -0.3436279044195323 0.1600490098306067 0.99253780581033 0 0 0 0.21 7 2458 149 2284 210 1260 
11860 -0.35333097799866264 0.16665921382606655 1.0001598822952615 0 0 0 0.28 7 2459 149 2285 210 1261 
11861 -0.14856078078238594 0.07952828367917132 0.8817369211958098 0 0 0 0.19 7 2460 18 2291 99 2601 140 3207 193 3763 203 815 
11862 0.21027173603117816 -0.03539153543393056 0.8219365549252414 0 0 0 0.39 7 2461 140 3208 161 1835 205 1536 
11863 -0.30122275919834546 0.15027276190912667 0.9790676887551176 0 0 0 0.39 7 2462 140 3209 149 2286 233 1985 
11864 -0.2987419857684804 0.15212476429456512 0.9789981096954438 0 0 0 0.29 7 2463 94 2695 140 3210 149 2287 210 1262 233 1986 
11865 -0.31204698219548366 0.15915197277102713 0.9805269412171366 0 0 0 0.3 7 2464 149 2288 210 1263 226 2138 
11866 -0.35523843933688126 0.17969440531926778 1.0055321551029954 0 0 0 0.61 7 2465 149 2289 210 1264 203 816 
11867 -0.14779926549498218 0.08795136471431007 0.8782263383849637 0 0 0 0.27 7 2466 94 2696 122 895 140 3211 171 2597 203 817 
11868 0.2698852029885586 -0.06781604874456552 0.7183448883563476 0 0 0 0.39 7 2467 149 2290 180 4470 
11869 -0.14754685256324673 0.08804537270243466 0.8760145221504834 0 0 0 0.31 7 2468 94 2697 122 896 203 818 
11870 -0.1384876202973681 0.08348218618293356 0.866074785136431 0 0 0 0.4 7 2469 122 897 233 1987 203 819 
11871 -0.017635562049816374 0.04244873145068045 0.8163784927541637 0 0 0 0.39 7 2470 193 3764 216 2715 46 2688 117 539 145 1508 183 1411 210 1265 
11872 -0.13537614816337848 0.09667269171427945 0.8915962180842362 0 0 0 0.18 7 2471 116 3313 233 1988 
11873 -0.124779792764577 0.08546847510770328 0.8621576399345372 0 0 0 0.1 7 2472 149 2291 233 1989 
11874 -0.2002460854437286 0.1249318107377049 0.9295204838605247 0 0 0 0.18 7 2473 205 1537 226 2139 
11875 -0.1947471963779668 0.12393073304268752 0.9268269481743447 0 0 0 0.29 7 2474 149 2292 233 1990 
11876 -0.3552091206336555 0.18249391075012814 0.9851805146229589 0 0 0 0.18 7 2475 149 2293 210 1266 
11877 -0.02394068657024137 0.04864423851711146 0.8156970166865589 0 0 0 0.45 7 2476 122 898 149 2294 205 1538 
11878 -0.3516210131667926 0.18600502727861865 0.9986162692167128 0 0 0 0.48 7 2477 94 2698 210 1267 203 820 
11879 -0.31991948002196147 0.17381998867892817 0.9832280761809252 0 0 0 0.47 7 2478 149 2295 233 1991 
11880 0.22072986381129303 -0.022382867167569997 0.7729684927807571 0 0 0 0.12 7 2479 161 1836 205 1539 
11881 -0.4556118689187126 0.22531437047662764 1.0293243116985975 0 0 0 0.35 7 2480 23 3598 216 2716 
11882 -0.08817215266478577 0.07911335329571555 0.8478146657144927 0 0 0 0.29 7 2481 122 899 233 1992 
11883 -0.4243498600128082 0.21566481364958115 1.0158922225303777 0 0 0 0.51 7 2482 149 2296 183 1412 
11884 -0.08891909409521596 0.08105444716574757 0.8449601469914347 0 0 0 0.25 7 2483 122 900 210 1268 203 821 
11885 -0.425859636964365 0.2152190074191762 1.0080073033226697 0 0 0 0.37 7 2484 94 2699 149 2297 171 2598 
11886 -0.11804310334621494 0.09336510645901809 0.8554554691341505 0 0 0 0.27 7 2485 122 901 140 3212 203 822 205 1540 
11887 -0.313975031102133 0.1786688038452006 0.9675275416826823 0 0 0 0.25 7 2486 149 2298 210 1269 233 1993 
11888 -0.24842771116240883 0.15792657852876224 0.9492847029055249 0 0 0 0.29 7 2487 99 2602 149 2299 210 1270 233 1994 
11889 -0.31450549957242396 0.1789233053238901 0.9646104237580159 0 0 0 0.19 7 2488 149 2300 210 1271 233 1995 
11890 -0.03668001725309446 0.06823777884787136 0.8206598798547262 0 0 0 0.11 7 2489 94 2700 161 1837 
11891 -0.20628745703042106 0.14036993817630863 0.9211849735621944 0 0 0 0.23 7 2490 94 2701 149 2301 
11892 -0.030140396139490294 0.06728621992219744 0.817947366361891 0 0 0 0.21 7 2491 149 2302 233 1996 
11893 -0.12305112186761956 0.1002480225976761 0.8540122643789846 0 0 0 0.09 7 2492 149 2303 233 1997 
11894 -0.1714888844281654 0.13033531028831014 0.9119800697043254 0 0 0 0.26 7 2493 94 2702 99 2603 210 1272 31 1530 177 2529 226 2140 203 823 
11895 -0.10101999837232416 0.0946734964323563 0.8474072484604797 0 0 0 0.36 7 2494 94 2703 122 902 
11896 0.07244457889034797 0.04340025645258451 0.8128700590331767 0 0 0 0.19 7 2495 149 2304 183 1413 
11897 -0.3121237090931667 0.18432975495901158 0.9690285567708763 0 0 0 0.07 7 2496 171 2599 233 1998 
11898 -0.10465835387359258 0.0981031139076111 0.8462253633939992 0 0 0 0.09 7 2497 149 2305 233 1999 
11899 -0.028072421669125252 0.06866725127886343 0.8084295524510888 0 0 0 0.05 7 2498 122 903 149 2306 
11900 0.056357884191041006 0.050400334925881675 0.8141390683474546 0 0 0 0.17 7 2499 149 2307 193 3765 
11901 -0.31107469467126775 0.185140798710488 0.9670318641477795 0 0 0 0.23 7 2500 149 2308 233 2000 99 2604 203 824 210 1273 
11902 -0.17155448387258004 0.13474646746962626 0.9102565150731062 0 0 0 0.25 7 2501 99 2605 122 904 
11903 -0.24378059619273618 0.16232627879256256 0.9432112429582151 0 0 0 0.2 7 2502 99 2606 210 1274 
11904 -0.1459461631214719 0.1137625419881096 0.8558867386911727 0 0 0 0.21 7 2503 90 729 99 2607 122 905 210 1275 233 2001 
11905 0.08117593144851269 0.043881568628895355 0.8003914336800767 0 0 0 0.18 7 2504 90 730 193 3766 210 1276 
11906 -0.024269070880111984 0.07150150315048037 0.8055534295807251 0 0 0 0.19 7 2505 122 906 233 2002 
11907 -0.1236221140622347 0.10951093434839426 0.8481421825675379 0 0 0 0.29 7 2506 149 2309 233 2003 
11908 0.1146674556409261 0.03784590979410392 0.7813870513538441 0 0 0 0.1 7 2507 122 907 233 2004 
11909 -0.5309460423503348 0.2615767781281704 1.026483208172626 0 0 0 0.51 7 2508 18 2292 74 53 
11910 -0.27389338378510963 0.17929164601843367 0.9400530250999342 0 0 0 0.34 7 2509 149 2310 210 1277 
11911 0.2562184342909841 -0.014921983711727007 0.6935672194753841 0 0 0 0.41 7 2510 94 2704 122 908 140 3213 149 2311 193 3767 
11912 -0.049713845027290704 0.09164284651203 0.8166253327157 0 0 0 0.19 7 2511 122 909 140 3214 233 2005 203 825 
11913 -0.35426055053931976 0.20829550117634218 0.9711156874860557 0 0 0 0.26 7 2512 149 2312 210 1278 233 2006 203 826 
11914 -0.1405031089914916 0.1413744647923744 0.8962800182102091 0 0 0 0.64 7 2513 22 25 99 2608 122 910 149 2313 203 827 
11915 0.05012740308741621 0.07217953940747927 0.8069282748335711 0 0 0 0.1 7 2514 94 2705 233 2007 
11916 -0.14547341047480614 0.13476149184893768 0.8694651067536735 0 0 0 0.39 7 2515 94 2706 140 3215 
11917 0.061287104346654464 0.07062653792483155 0.8037444934168066 0 0 0 0.17 7 2516 94 2707 122 911 233 2008 
11918 -0.45625047531108576 0.25114120937525697 1.0200784758431525 0 0 0 0.16 7 2517 18 2293 171 2600 
11919 -0.04377473373221992 0.09725031557117972 0.8153054647531159 0 0 0 0.12 7 2518 30 1937 122 912 233 2009 
11920 0.07071277449407169 0.06843057551843376 0.8007218264220329 0 0 0 0.4 7 2519 99 2609 122 913 233 2010 
11921 0.2479659026569891 0.0029301794961292035 0.7139156077680303 0 0 0 0.34 7 2520 149 2314 193 3768 
11922 -0.27821277126215066 0.18598691771223044 0.9345540162350409 0 0 0 0.35 7 2521 149 2315 210 1279 233 2011 
11923 -0.09311127626262482 0.11194806199030566 0.8228323973684554 0 0 0 0.14 7 2522 122 914 233 2012 
11924 -0.04506859539598171 0.09768737839181786 0.8113693077108174 0 0 0 0.19 7 2523 90 731 122 915 193 3769 
11925 -0.20251231517513682 0.16319186766323154 0.9043591234196285 0 0 0 0.08 7 2524 149 2316 233 2013 
11926 -0.2070283805966672 0.1703185995249318 0.9167204737986712 0 0 0 0.41 7 2525 99 2610 171 2601 
11927 -0.16602277349725866 0.1541764337244641 0.8953196110009131 0 0 0 0.26 7 2526 122 916 233 2014 
11928 0.11353337065446072 0.05953635313821384 0.7807027215273392 0 0 0 0.17 7 2527 149 2317 233 2015 
11929 0.058039593992794646 0.0774394433789479 0.7987493425008528 0 0 0 0.2 7 2528 94 2708 216 2717 
11930 -0.05113125497326109 0.10456183574404104 0.8061229283800707 0 0 0 0.29 7 2529 122 917 233 2016 
11931 -0.31115544350125807 0.2066812671649777 0.9552864456647634 0 0 0 0.29 7 2530 210 1280 233 2017 
11932 -0.2751853650911601 0.19269988539577962 0.9330234891658401 0 0 0 0.15 7 2531 149 2318 210 1281 233 2018 
11933 0.1844766169102065 0.03571022452247644 0.7368333733670895 0 0 0 0.27 7 2532 94 2709 122 918 149 2319 
11934 -0.5318719897850546 0.27540698536369923 1.021910246637203 0 0 0 0.53 7 2533 94 2710 171 2602 
11935 -0.4244264811953632 0.24621948215097023 0.9982468411709844 0 0 0 0.58 7 2534 94 2711 149 2320 
11936 -0.4312854485852719 0.2505950201020455 1.0061267844987596 0 0 0 0.34 7 2535 149 2321 171 2603 216 2718 
11937 -0.2382944399264101 0.18329778743877187 0.9225382315062759 0 0 0 0.12 7 2536 99 2611 233 2019 
11938 0.2550106368800712 0.012654128714753902 0.7028523678127508 0 0 0 0.4 7 2537 94 2712 122 919 149 2322 210 1282 
11939 -0.04934660409267012 0.11122489698172432 0.814405334150862 0 0 0 0.38 7 2538 94 2713 122 920 
11940 0.07437755450379491 0.07866842082484832 0.7897727067054358 0 0 0 0.14 7 2539 37 2274 94 2714 116 3314 122 921 149 2323 
11941 -0.14695859045990098 0.1408004422001808 0.8423073059379095 0 0 0 0.22 7 2540 94 2715 210 1283 
11942 -0.13622336222789572 0.15365728927437705 0.8842403036230462 0 0 0 0.28 7 2541 94 2716 122 922 140 3216 149 2324 
11943 -0.03981786805381361 0.10710975003182116 0.8004003463748819 0 0 0 0.17 7 2542 122 923 149 2325 233 2020 
11944 0.06351331387752095 0.08295281686758262 0.7888601586217691 0 0 0 0.14 7 2543 161 1838 183 1414 205 1541 
11945 0.05626639807227843 0.0880238945807392 0.7970154571430657 0 0 0 0.33 7 2544 90 732 122 924 
11946 -0.07772652737494043 0.1192533368191036 0.8099682163536267 0 0 0 0.19 7 2545 161 1839 233 2021 
11947 0.18448320867192114 0.04219910637819554 0.7320050551807765 0 0 0 0.18 7 2546 99 2612 149 2326 
11948 0.10915763900759724 0.07137606420524915 0.7715981448916222 0 0 0 0.26 7 2547 94 2717 122 925 140 3217 233 2022 
11949 -0.4229971089511809 0.2492964431620628 0.992810489979911 0 0 0 0.16 7 2548 94 2718 216 2719 
11950 0.1834984474035499 0.047495777519440605 0.7377939375986707 0 0 0 0.56 7 2549 94 2719 122 926 
11951 -0.27609440056718004 0.20014988203328368 0.9289056974644704 0 0 0 0.16 7 2550 149 2327 233 2023 
11952 -0.14754963262193427 0.1457594021501267 0.8392065401242077 0 0 0 0.24 7 2551 94 2720 149 2328 193 3770 210 1284 
11953 -0.03978957803671628 0.11381036271722725 0.798297703079894 0 0 0 0.12 7 2552 94 2721 140 3218 149 2329 226 2141 
11954 0.2535572388908073 0.02436937518710066 0.6982425602970704 0 0 0 0.22 7 2553 90 733 94 2722 233 2024 
11955 -0.09286672315224145 0.13465268619698087 0.8280419013440837 0 0 0 0.17 7 2554 99 2613 210 1285 
11956 -0.4248624224256253 0.2550781353719666 0.9943742149786565 0 0 0 0.27 7 2555 94 2723 171 2604 
11957 -0.07647760642770697 0.12649775006836414 0.8068514130010762 0 0 0 0.07 7 2556 149 2330 161 1840 183 1415 233 2025 
11958 -0.35272870876763324 0.23044376393891197 0.9590116487929845 0 0 0 0.15 7 2557 149 2331 210 1286 
11959 -0.13356308011124723 0.14688225319515852 0.8325740293535304 0 0 0 0.3 7 2558 149 2332 233 2026 94 2724 203 828 210 1287 
11960 0.0843646462558342 0.09086506754754377 0.7880064092482546 0 0 0 0.07 7 2559 122 927 149 2333 
11961 -0.20176222399453916 0.18121008719584755 0.8948030389107673 0 0 0 0.18 7 2560 149 2334 233 2027 
11962 -0.08056007622656812 0.1292520859899209 0.8063798040343025 0 0 0 0.12 7 2561 122 928 233 2028 
11963 0.10521382986525635 0.08214838413295934 0.7672187357113495 0 0 0 0.32 7 2562 228 3527 233 2029 
11964 -0.3519629989442262 0.232818317921598 0.9584304260354554 0 0 0 0.27 7 2563 140 3219 149 2335 210 1288 
11965 0.18068766797926264 0.05836279665092207 0.7324413279280585 0 0 0 0.52 7 2564 18 2294 122 929 145 1509 193 3771 226 2142 233 2030 
11966 -0.14357833464796585 0.15260280220861347 0.8311744474875109 0 0 0 0.12 7 2565 149 2336 233 2031 
11967 0.25157887942000123 0.03604374135657126 0.7025660441085023 0 0 0 0.37 7 2566 90 734 122 930 149 2337 228 3528 233 2032 
11968 -0.32857170547711734 0.22856880680872066 0.9551260711466663 0 0 0 0.24 7 2567 94 2725 149 2338 
11969 -0.3111371678276291 0.2231849938366869 0.9488708213814744 0 0 0 0.23 7 2568 99 2614 149 2339 210 1289 
11970 -0.3385636648965716 0.23320746439590753 0.9572641005876044 0 0 0 0.18 7 2569 149 2340 233 2033 
11971 0.2349007057937106 0.04481130771847487 0.7074872582342425 0 0 0 0.28 7 2570 99 2615 149 2341 
11972 -0.43293685997566356 0.2641804018289469 0.9950913915263082 0 0 0 0.05 7 2571 18 2295 94 2726 
11973 0.08414607384579736 0.09299610055372959 0.7690265796256578 0 0 0 0.3 7 2572 94 2727 122 931 
11974 -0.2880174198989664 0.21903161296025195 0.941339403960641 0 0 0 0.23 7 2573 149 2342 210 1290 233 2034 
11975 0.05990377352878292 0.10492669313548073 0.7854610449310169 0 0 0 0.1 7 2574 140 3220 149 2343 233 2035 
11976 0.08970750649029911 0.09239740707332128 0.7640164990482243 0 0 0 0.23 7 2575 94 2728 122 932 
11977 -0.3507445548100331 0.23680643644399088 0.9550473931278212 0 0 0 0.14 7 2576 149 2344 210 1291 203 829 
11978 -0.28088565969323925 0.21429170602476819 0.9249767594814704 0 0 0 0.17 7 2577 149 2345 233 2036 
11979 -0.07431905845327237 0.13669010291923475 0.8026023753373338 0 0 0 0.21 7 2578 149 2346 205 1542 233 2037 
11980 -0.035125556581288124 0.12392752924537631 0.7850569618143326 0 0 0 0.22 7 2579 122 933 149 2347 210 1292 233 2038 203 830 
11981 -0.3514340271067396 0.23909428306904074 0.9535351803106124 0 0 0 0.23 7 2580 149 2348 210 1293 203 831 
11982 -0.3145235565228533 0.23020449463021053 0.9468545865784661 0 0 0 0.4 7 2581 99 2616 149 2349 233 2039 
11983 -0.2803587959185474 0.21631491603651443 0.9243807114014033 0 0 0 0.2 7 2582 210 1294 233 2040 
11984 -0.24002273912512073 0.20696501857529 0.9139910037053909 0 0 0 0.08 7 2583 99 2617 210 1295 
11985 0.2580528030366622 0.0428533207247819 0.6883517573946849 0 0 0 0.22 7 2584 90 735 122 934 
11986 -0.09165618336272155 0.1446877109243085 0.8069475595814438 0 0 0 0.23 7 2585 94 2729 122 935 149 2350 210 1296 
11987 0.0601660220251588 0.10947831847263506 0.7808905553448807 0 0 0 0.18 7 2586 122 936 233 2041 
11988 -0.28022481141482225 0.21845213846061357 0.9232944949559448 0 0 0 0.2 7 2587 99 2618 210 1297 233 2042 
11989 0.1723763203388507 0.08115285776792339 0.7357834776315787 0 0 0 0.37 7 2588 30 1938 90 736 149 2351 216 2720 228 3529 
11990 0.05988793740651874 0.11619620528830499 0.778754243120834 0 0 0 0.19 7 2589 122 937 233 2043 
11991 -0.031518774769180094 0.13298752066476036 0.7761085017995443 0 0 0 0.17 7 2590 94 2730 122 938 18 2296 
11992 -0.24280648630999485 0.21597389795697625 0.9111693249671706 0 0 0 0.34 7 2591 149 2352 233 2044 99 2619 203 832 
11993 -0.30959720496472476 0.23717659362380267 0.935381214640124 0 0 0 0.35 7 2592 99 2620 149 2353 210 1298 
11994 0.15333729453633968 0.09666556676595768 0.7338268821987438 0 0 0 0.12 7 2593 122 939 149 2354 210 1299 
11995 -0.39513748567595197 0.2705926868604485 0.9714787160588374 0 0 0 0.36 7 2594 94 2731 149 2355 
11996 -0.146760414500356 0.18069319320523025 0.8281341601309878 0 0 0 0.63 7 2595 149 2356 210 1300 228 3530 
11997 -0.32157787353455575 0.24748153350277644 0.938638711155058 0 0 0 0.1 7 2596 149 2357 210 1301 
11998 -0.3287038069689495 0.2511101382915134 0.9429074042307188 0 0 0 0.3 7 2597 149 2358 233 2045 116 3315 140 3221 154 3147 183 1416 193 3772 203 833 210 1302 
11999 -0.14821289416587938 0.1815119975444934 0.8245822694115879 0 0 0 0.29 7 2598 99 2621 149 2359 233 2046 122 940 203 834 
12000 -0.15050237826897517 0.18305738307707808 0.8255851030673257 0 0 0 0.28 7 2599 122 941 210 1303 
12001 -0.08962577513204614 0.16492452649769207 0.7960691015979786 0 0 0 0.35 7 2600 99 2622 193 3773 233 2047 203 835 
12002 -0.30041434247763427 0.24553982761627235 0.9312849208060522 0 0 0 0.22 7 2601 149 2360 210 1304 233 2048 
12003 -0.2870814404210533 0.24052250407516268 0.9232826188451305 0 0 0 0.21 7 2602 99 2623 149 2361 210 1305 233 2049 203 836 
12004 -0.4698720548761793 0.29846240332018353 1.0032909396876148 0 0 0 0.25 7 2603 18 2297 74 54 
12005 -0.1500694639013076 0.18520388289705056 0.8245857949598507 0 0 0 0.38 7 2604 122 942 210 1306 
12006 -0.28386732936244485 0.23943586524070704 0.9166349992491666 0 0 0 0.44 7 2605 94 2732 99 2624 210 1307 
12007 -0.2853731237914454 0.2423361470976076 0.9221244081897753 0 0 0 0.21 7 2606 99 2625 233 2050 203 837 210 1308 
12008 -0.21079660950803022 0.21712314054229162 0.8818134839228641 0 0 0 0.38 7 2607 149 2362 210 1309 203 838 
12009 -0.1467470597360169 0.18472073667965289 0.8193439593953272 0 0 0 0.17 7 2608 149 2363 233 2051 
12010 -0.37958646958070746 0.27120268790088004 0.9616319549504089 0 0 0 0.2 7 2609 140 3222 149 2364 203 839 
12011 -0.20676475315442994 0.2178135740634059 0.8795381654355365 0 0 0 0.31 7 2610 99 2626 210 1310 203 840 
12012 -0.03566552037829243 0.154233729259442 0.7707110972353767 0 0 0 0.21 7 2611 122 943 193 3774 233 2052 
12013 0.08715118605128143 0.13065616973396454 0.7542940275785477 0 0 0 0.13 7 2612 22 26 122 944 140 3223 233 2053 
12014 -0.25226008868631866 0.2362126863458542 0.9093902106450422 0 0 0 0.26 7 2613 210 1311 233 2054 
12015 -0.2452991113455854 0.23304128375217598 0.9030258367992737 0 0 0 0.27 7 2614 99 2627 210 1312 
12016 -0.39447463918639264 0.2800530968197005 0.9689472028846868 0 0 0 0.24 7 2615 116 3316 149 2365 154 3148 
12017 -0.3413899846023565 0.26208316391505027 0.9417342478676763 0 0 0 0.51 7 2616 149 2366 210 1313 140 3224 203 841 
12018 0.08365557605758121 0.13351949120368917 0.754776386394933 0 0 0 0.35 7 2617 122 945 149 2367 
12019 -0.2564679249314691 0.23822118025973546 0.9070983191127989 0 0 0 0.32 7 2618 99 2628 233 2055 
12020 -0.16943836523398437 0.21172284857992932 0.8677311451238005 0 0 0 0.26 7 2619 99 2629 233 2056 
12021 -0.04902556137226455 0.1639987356194927 0.7824280295106438 0 0 0 0.12 7 2620 99 2630 122 946 233 2057 
12022 -0.2081805711325701 0.22168434468228018 0.8778262835026553 0 0 0 0.14 7 2621 149 2368 233 2058 
12023 -0.20859741810132124 0.22332612723009945 0.8794384697157276 0 0 0 0.23 7 2622 94 2733 149 2369 233 2059 
12024 -0.15186153987206336 0.19423498498067232 0.8204323560550608 0 0 0 0.26 7 2623 122 947 149 2370 
12025 0.04900459668356174 0.14779246689957704 0.7693784145097814 0 0 0 0.4 7 2624 94 2734 140 3225 
12026 -0.238839266761924 0.23518525110355082 0.8988059341196144 0 0 0 0.34 7 2625 94 2735 149 2371 210 1314 233 2060 203 842 
12027 -0.31184661039322437 0.25734724344565646 0.9279232307755436 0 0 0 0.2 7 2626 94 2736 99 2631 149 2372 203 843 210 1315 233 2061 
12028 0.21910865224153403 0.09983168402798315 0.6915541229357692 0 0 0 0.26 7 2627 22 27 122 948 193 3775 
12029 -0.33073790940844505 0.2647804130605436 0.936942671034728 0 0 0 0.21 7 2628 149 2373 210 1316 203 844 
12030 -0.09358304688515721 0.17981547425046218 0.7916327792439593 0 0 0 0.26 7 2629 210 1317 233 2062 
12031 -0.11169124313757413 0.1879691613118891 0.8064990632444968 0 0 0 0.18 7 2630 149 2374 233 2063 
12032 -0.3202190735348159 0.2622866887536652 0.9309091660164386 0 0 0 0.24 7 2631 99 2632 149 2375 203 845 
12033 -0.2592395667602523 0.2450596782227849 0.9061565995617211 0 0 0 0.46 7 2632 99 2633 149 2376 233 2064 
12034 -0.09146520739594839 0.17984410940694914 0.7884943525609527 0 0 0 0.23 7 2633 122 949 149 2377 203 846 
12035 0.15950130821879063 0.12063974689010735 0.7190539742471813 0 0 0 0.4 7 2634 94 2737 193 3776 117 540 122 950 
12036 0.24984286177969822 0.09352350948363775 0.6762249144087782 0 0 0 0.16 7 2635 90 737 122 951 
12037 -0.15031769786519678 0.21507838669942445 0.8596037293562769 0 0 0 0.26 7 2636 149 2378 210 1318 226 2143 
12038 0.06389666720783524 0.15155657346873172 0.7628757452243861 0 0 0 0.15 7 2637 149 2379 233 2065 
