# 3D point list with one line of data per point:
#   POINT3D_ID, X, Y, Z, R, G, B, ERROR, TRACK[] as (IMAGE_ID, POINT2D_IDX)
# Number of points: 377, mean track length: 9.86
4896 0.07105303979026545 0.08878560840591158 0.9691456737330366 0 0 0 0.28 31 1444 116 1245 125 1140 139 758 145 616 149 617 193 1060 211 726 228 1168 
4897 0.5410362721422055 0.058846769916337666 1.2684296934433223 0 0 0 0.27 31 1445 99 880 210 317 233 419 
4898 0.5520695068299012 0.06108945082035989 1.2762584319764991 0 0 0 0.42 31 1446 99 881 210 318 
4899 0.17581034020043634 0.07813548620898005 0.9948171543984045 0 0 0 0.15 31 1447 116 1246 183 373 
4900 0.35285481192771306 0.09286616009877438 1.1957021889737807 0 0 0 0.29 31 1448 37 468 46 428 94 771 116 1247 125 1141 180 1335 211 727 216 900 
4901 0.35542899929349314 0.0964458900595051 1.190769987754653 0 0 0 0.31 31 1449 116 1248 154 779 173 1098 180 1336 211 728 218 1264 
4902 0.15283234494325848 0.09181107543110449 0.971344277533911 0 0 0 0.18 31 1450 34 703 193 1061 
4903 0.5139383940092849 0.09633192406481811 1.311257109764802 0 0 0 0.31 31 1451 149 618 216 901 
4904 0.5440063999004427 0.08476316726797713 1.2668260785330976 0 0 0 0.4 31 1452 99 882 216 902 
4905 0.1861788703465036 0.09068040859804984 0.980824732666279 0 0 0 0.26 31 1453 94 772 151 1229 
4906 0.44612366115215274 0.10541452190666598 1.2689299441529094 0 0 0 0.23 31 1454 99 883 102 809 154 780 180 1337 218 1265 
4907 0.5109715058889953 0.10175095938798305 1.2943339030248247 0 0 0 0.46 31 1455 99 884 149 619 
4908 0.5378961283695193 0.0937971578564146 1.2688568865047123 0 0 0 0.19 31 1456 34 704 150 469 151 1230 193 1062 216 903 
4909 0.5606505841487343 0.09458354498713792 1.2806196238887044 0 0 0 0.48 31 1457 99 885 180 1338 
4910 0.06916226526219198 0.10978326339046429 0.9347009598100684 0 0 0 0.9 31 1458 47 222 94 773 116 1249 125 1142 140 953 
4911 0.071320454585614 0.11725287570995832 0.9506270328460613 0 0 0 0.39 31 1459 34 705 99 886 218 1266 
4912 0.1560209557094713 0.10825589716523991 0.9762425401898887 0 0 0 0.3 31 1460 34 706 47 223 72 784 94 774 116 1250 119 761 140 954 144 1205 145 617 149 620 151 1231 154 781 161 361 177 968 193 1063 205 369 218 1267 
4913 0.2579467295520038 0.10542752886572987 1.0297729288090474 0 0 0 0.94 31 1461 72 785 233 420 
4914 0.19362785011490283 0.10958869463761829 0.9817578465124764 0 0 0 0.21 31 1462 72 786 86 929 116 1251 154 782 
4915 0.07329337938196344 0.12557503578626336 0.9542387518214409 0 0 0 0.13 31 1463 154 783 226 595 
4916 0.09776579505432553 0.12478445165590381 0.9657931535695856 0 0 0 0.53 31 1464 94 775 140 955 149 621 171 596 177 969 205 370 210 319 
4917 0.10470139089368895 0.1248982617764125 0.9630105725444872 0 0 0 0.23 31 1465 149 622 154 784 193 1064 
4918 0.10395382871579406 0.12378319429698544 0.9596638216970697 0 0 0 0.34 31 1466 193 1065 216 904 
4919 0.18371331109546538 0.11642902953785976 0.9761487927180422 0 0 0 0.23 31 1467 72 787 116 1252 202 953 218 1268 
4920 0.0807784699279784 0.1314459947879349 0.9653796792897562 0 0 0 0.31 31 1468 86 930 154 785 
4921 0.07353702535470452 0.13091087289566036 0.9508750582150451 0 0 0 0.4 31 1469 46 429 55 700 94 776 99 887 116 1253 125 1143 140 956 149 623 151 1232 161 362 177 970 183 374 193 1066 205 371 210 320 226 596 228 1169 
4922 0.16085886634735308 0.12632870785500364 0.9711564624535473 0 0 0 0.29 31 1470 140 957 183 375 
4923 0.15051597607806805 0.1267544378133968 0.9589929551586948 0 0 0 0.31 31 1471 34 707 37 469 47 224 72 788 86 931 94 777 116 1254 125 1144 140 958 149 624 151 1233 154 786 177 971 180 1339 183 376 193 1067 211 729 216 905 228 1170 
4924 0.2603648253670746 0.12879490476142277 1.0384580126563805 0 0 0 0.26 31 1472 72 789 180 1340 
4925 0.16227409741619844 0.1319734444502462 0.9753001678234925 0 0 0 0.42 31 1473 116 1255 125 1145 166 1239 
4926 0.1428792942958621 0.1286194267862443 0.9419453008555656 0 0 0 0.24 31 1474 72 790 116 1256 154 787 218 1269 
4927 0.7960511467133627 0.08283223973553873 1.1562375451567408 0 0 0 0.48 31 1475 99 888 131 771 150 470 161 363 177 972 180 1341 212 621 216 906 228 1171 233 421 
4928 0.19811239300087774 0.13336581425622318 0.97827673553561 0 0 0 0.28 31 1476 116 1257 154 788 
4929 0.215894791035187 0.13816015200595427 1.007376556592947 0 0 0 0.23 31 1477 72 791 140 959 149 625 173 1099 177 973 216 907 
4930 0.07999190723854413 0.14997865391468196 0.9564148778407983 0 0 0 0.41 31 1478 57 1425 86 932 94 778 116 1258 145 618 151 1234 154 789 216 908 
4931 0.07990130587968416 0.1498243627015879 0.9557266888673724 0 0 0 0.5 31 1479 86 933 94 779 99 889 116 1259 151 1235 154 790 177 974 211 730 226 597 
4932 0.5355759434430202 0.15049650108899487 1.2389094408485983 0 0 0 0.27 31 1480 211 731 218 1270 233 422 
4933 0.16059728504742993 0.1421848021690959 0.9644397710016965 0 0 0 0.61 31 1481 34 708 86 934 94 780 116 1260 151 1236 166 1240 177 975 205 372 218 1271 
4934 0.7923116306324077 0.09564313240951695 1.152322275848742 0 0 0 0.41 31 1482 154 791 161 364 205 373 216 909 
4935 0.45949147760015985 0.1569870669592175 1.2106659780716562 0 0 0 0.36 31 1483 86 935 102 810 116 1261 177 976 
4936 0.11598737450054027 0.14329058183856322 0.9300605846272395 0 0 0 0.33 31 1484 140 960 145 619 183 377 
4937 0.11750017755545605 0.1446749133080538 0.9347991979275998 0 0 0 0.51 31 1485 99 890 145 620 
4938 0.30989117372811736 0.15878488256617893 1.1117696074332821 0 0 0 0.18 31 1486 143 776 161 365 
4939 0.33546978304975206 0.15659005295093922 1.114999025726238 0 0 0 0.26 31 1487 46 430 86 936 99 891 116 1262 125 1146 186 200 210 321 226 598 
4940 0.3609176132792718 0.1594027110112137 1.1402388249571456 0 0 0 0.39 31 1488 46 431 119 762 166 1241 180 1342 183 378 216 910 
4941 0.48088458930041095 0.16168758773223466 1.2212616172859871 0 0 0 0.08 31 1489 37 470 228 1172 
4942 0.4861359656654854 0.1619756344565638 1.218540376697384 0 0 0 0.36 31 1490 37 471 46 432 47 225 94 781 125 1147 140 961 149 626 166 1242 218 1272 228 1173 233 423 
4943 0.20958218774038087 0.14862039152055176 0.992749560188379 0 0 0 0.44 8 2655 31 1491 47 226 86 937 116 1263 125 1148 139 759 144 1206 145 621 151 1237 154 792 177 977 218 1273 228 1174 
4944 0.15985477062732825 0.14950834327254572 0.958913338959973 0 0 0 0.38 31 1492 86 938 140 962 210 322 216 911 
4945 0.6983952194547294 0.17213422629934083 1.3414730613417822 0 0 0 0.36 31 1493 86 939 131 772 139 760 144 1207 150 471 151 1238 166 1243 173 1100 180 1343 211 732 228 1175 
4946 0.749920457268935 0.13717261103280684 1.2256745810634386 0 0 0 0.21 31 1494 99 892 228 1176 
4947 0.7487569188021 0.1366552704382887 1.2236561290058385 0 0 0 0.28 31 1495 59 1406 171 597 210 323 216 912 228 1177 
4948 0.42352424185177123 0.1731163774100113 1.177093654922363 0 0 0 0.23 31 1496 37 472 46 433 72 792 116 1264 125 1149 218 1274 
4949 0.4565805751102024 0.17345149146471622 1.1976816017479066 0 0 0 0.27 31 1497 72 793 94 782 137 465 166 1244 178 622 
4950 0.7355212796652759 0.14844945154517913 1.2500056356222164 0 0 0 0.14 31 1498 86 940 166 1245 228 1178 
4951 0.7364788573463494 0.14874313981348272 1.2516090689462067 0 0 0 0.19 31 1499 86 941 119 763 150 472 166 1246 228 1179 
4952 0.12172411739965681 0.15378568675743198 0.9290741870600571 0 0 0 0.39 31 1500 86 942 102 811 151 1239 
4953 0.12162765784787112 0.1529451537828873 0.9266388883343047 0 0 0 0.3 31 1501 140 963 149 627 173 1101 180 1344 193 1068 210 324 218 1275 226 599 
4954 0.3686864618150321 0.17277378258532813 1.1386251862382422 0 0 0 0.28 31 1502 99 893 144 1208 166 1247 173 1102 180 1345 193 1069 
4955 0.37607122361774215 0.17327102623387083 1.1455196382123758 0 0 0 0.12 31 1503 72 794 94 783 99 894 154 793 
4956 0.8111193036614219 0.10802988572014302 1.1137568483611957 0 0 0 0.47 24 2364 31 1504 59 1407 72 795 119 764 139 761 150 473 161 366 191 775 233 424 
4957 0.536414994293019 0.17222334220508154 1.2225702325688574 0 0 0 0.25 31 1505 99 895 149 628 210 325 228 1180 233 425 
4958 0.7263604682861993 0.15997370555320037 1.2723903068698588 0 0 0 0.39 31 1506 59 1408 99 896 144 1209 166 1248 216 913 
4959 0.7559271586528872 0.14486223371274573 1.223911683983542 0 0 0 0.47 31 1507 99 897 140 964 145 622 171 598 216 914 
4960 0.5179623560251589 0.17860252961577527 1.2311008250778122 0 0 0 0.36 31 1508 47 227 86 943 99 898 122 198 149 629 151 1240 171 599 180 1346 211 733 
4961 0.5203395982425721 0.17502492701339278 1.2147745292135297 0 0 0 0.44 31 1509 102 812 210 326 218 1276 
4962 0.525236552902665 0.17629262750979105 1.2218523184667145 0 0 0 0.41 31 1510 47 228 210 327 211 734 
4963 0.13359963787788226 0.15490716311608654 0.9234508540244024 0 0 0 0.35 31 1511 116 1265 193 1070 210 328 228 1181 
4964 0.5435835779864606 0.1765496013489043 1.2261218274569645 0 0 0 0.28 31 1512 99 899 171 600 210 329 
4965 0.541720490882768 0.17616733524061837 1.2226381575860434 0 0 0 0.18 31 1513 57 1426 99 900 
4966 0.14683044319274968 0.159203380060769 0.9437541450141291 0 0 0 0.49 8 2656 31 1514 72 796 99 901 121 145 131 773 140 965 180 1347 210 330 
4967 0.19313337219548707 0.15836948977233964 0.9661932663821722 0 0 0 0.3 31 1515 72 797 90 127 99 902 140 966 149 630 150 474 161 367 210 331 226 600 233 426 
4968 0.11094822889437606 0.16532926171890533 0.9426218196338954 0 0 0 0.26 31 1516 99 903 102 813 
4969 0.2999720184463518 0.17773934576328312 1.0915463713555524 0 0 0 0.16 31 1517 173 1103 177 978 
4970 0.5365977603383821 0.18083546118924515 1.2239342394419825 0 0 0 0.18 31 1518 37 473 216 915 
4971 0.5355733693231363 0.1804265345975836 1.2218453122939437 0 0 0 0.34 31 1519 94 784 99 904 150 475 166 1249 171 601 180 1348 210 332 216 916 
4972 0.7527065865090438 0.14854732444479166 1.2068819438242395 0 0 0 0.21 31 1520 57 1427 119 765 212 622 216 917 228 1182 
4973 0.8018212294771548 0.11857519951464342 1.1103206518544495 0 0 0 0.38 31 1521 140 967 180 1349 216 918 233 427 
4974 0.3820990865528078 0.18297304897975222 1.1509877624756084 0 0 0 0.19 31 1522 72 798 94 785 119 766 151 1241 154 794 226 601 
4975 0.35812723716552775 0.18488982277023258 1.132853099376769 0 0 0 0.18 31 1523 72 799 94 786 99 905 140 968 149 631 154 795 166 1250 226 602 
4976 0.7244658767400157 0.17654834325505875 1.2801753407619196 0 0 0 0.25 31 1524 150 476 180 1350 
4977 0.7882841145712685 0.13968314694795453 1.1475812344590157 0 0 0 0.22 31 1525 99 906 180 1351 
4978 0.35851799022970926 0.19061355506973993 1.1312888036025646 0 0 0 0.5 31 1526 72 800 149 632 151 1242 205 374 211 735 216 919 218 1277 228 1183 
4979 0.07655336157323347 0.17846546900119842 0.931074297035275 0 0 0 0.18 31 1527 145 623 149 633 
4980 0.23983387606253287 0.17630017128788056 0.9959425964669151 0 0 0 0.17 31 1528 140 969 145 624 166 1251 177 979 186 201 228 1184 
4981 0.1709335057938844 0.175852594698839 0.9570467358581766 0 0 0 0.14 31 1529 116 1266 140 970 166 1252 177 980 
4982 0.6912140655163288 0.20427904908239977 1.304260103685226 0 0 0 0.41 31 1530 211 736 233 428 
4983 0.6925437891562275 0.20468971242781991 1.3069720901679411 0 0 0 0.36 31 1531 173 1104 211 737 233 429 
4984 0.9582211566588031 0.07821377975016348 0.9455635066995527 0 0 0 0.22 31 1532 99 907 202 954 
4985 0.35384038164788234 0.19441242758177493 1.1028572105942038 0 0 0 0.42 31 1533 72 801 177 981 
4986 0.7109816775708393 0.19028593440167957 1.2506681620446725 0 0 0 0.45 31 1534 99 908 122 199 
4987 0.5336244655531492 0.2019136228718268 1.214674577031045 0 0 0 0.61 31 1535 86 944 99 909 122 200 140 971 171 602 173 1105 180 1352 210 333 212 623 218 1278 
4988 0.2997828044878694 0.19669526357231235 1.0830350815472254 0 0 0 0.18 31 1536 46 434 72 802 99 910 102 814 116 1267 122 201 140 972 149 634 150 477 154 796 166 1253 173 1106 177 982 193 1071 210 334 218 1279 226 603 233 430 
4989 0.29843504310973956 0.19588983280373104 1.0795654423005063 0 0 0 0.17 31 1537 86 945 94 787 154 797 166 1254 173 1107 177 983 
4990 0.384181564028301 0.20547763741646266 1.1453213680271859 0 0 0 0.13 31 1538 72 803 116 1268 173 1108 193 1072 202 955 218 1280 226 604 
4991 0.7597403408256532 0.17185248265220682 1.1744334297205816 0 0 0 0.32 31 1539 99 911 216 920 
4992 0.3556649656787673 0.20499796351610475 1.1169296625533225 0 0 0 0.73 31 1540 34 709 47 229 72 804 116 1269 140 973 143 777 149 635 151 1243 173 1109 193 1073 216 921 218 1281 226 605 
4993 0.7021157941254842 0.21040490701809952 1.2882122155010403 0 0 0 0.34 31 1541 99 912 139 762 150 478 171 603 173 1110 180 1353 191 776 210 335 212 624 216 922 
4994 0.6983251784530679 0.2127688411543209 1.2919001139195054 0 0 0 0.24 31 1542 116 1270 171 604 216 923 
4995 0.8077824483894314 0.149197363333445 1.0987830375485474 0 0 0 0.42 31 1543 55 701 72 805 99 913 139 763 144 1210 145 625 161 368 171 605 180 1354 216 924 
4996 0.4113203342661678 0.21002509344802345 1.1549029152085348 0 0 0 0.21 31 1544 72 806 99 914 180 1355 
4997 0.38587285050968745 0.2099986837994416 1.134524034813051 0 0 0 0.86 31 1545 47 230 102 815 116 1271 149 636 173 1111 193 1074 212 625 218 1282 
4998 0.2294770423081457 0.1900103157421196 0.9881248379149838 0 0 0 0.44 31 1546 55 702 150 479 171 606 
4999 0.34820161740691474 0.20905088732306173 1.0984617756448654 0 0 0 0.19 31 1547 72 807 99 915 
5000 0.7715371743147544 0.16541854481164758 1.1151832347015953 0 0 0 0.28 31 1548 72 808 145 626 
5001 0.6976800748632213 0.22209871589403815 1.2875972592295097 0 0 0 0.4 31 1549 57 1428 99 916 122 202 139 764 150 480 166 1255 171 607 180 1356 210 336 211 738 216 925 228 1185 233 431 
5002 0.47072888019446796 0.22093831828367738 1.1878389650964265 0 0 0 0.28 31 1550 55 703 72 809 99 917 143 778 166 1256 173 1112 180 1357 
5003 0.6774616001488086 0.23724914678445963 1.3336280407590824 0 0 0 0.32 31 1551 139 765 166 1257 210 337 216 926 228 1186 
5004 0.06170837642477528 0.19293259551733544 0.9145017216295392 0 0 0 0.39 31 1552 140 974 226 606 
5005 0.33682735188909113 0.21023688817682937 1.0937509748438712 0 0 0 0.4 31 1553 72 810 86 946 143 779 180 1358 
5006 0.6535554124343569 0.250731550998665 1.366223447802468 0 0 0 0.12 31 1554 122 203 178 623 
5007 0.8217136991932618 0.1582369810048163 1.0940350636452987 0 0 0 0.13 31 1555 72 811 99 918 
5008 0.5365792283723625 0.22209427130052228 1.2037141919213827 0 0 0 0.18 31 1556 57 1429 99 919 122 204 131 774 139 766 140 975 144 1211 149 637 150 481 151 1244 166 1258 173 1113 177 984 193 1075 212 626 216 927 218 1283 228 1187 
5009 0.6927664729442279 0.2313206028539936 1.2987045315032368 0 0 0 0.55 31 1557 99 920 122 205 137 466 166 1259 171 608 180 1359 186 202 211 739 228 1188 233 432 
5010 0.16496784927848204 0.1923478651699758 0.9408935783139878 0 0 0 0.15 31 1558 34 710 46 435 55 704 94 788 140 976 173 1114 193 1076 228 1189 
5011 0.16472182714451294 0.19214136367623477 0.9398381348923395 0 0 0 0.08 31 1559 102 816 140 977 149 638 193 1077 228 1190 
5012 0.35884458370421757 0.219865110389461 1.1189239842513268 0 0 0 0.44 31 1560 99 921 122 206 
5013 0.10881709549315623 0.1983570584115084 0.9339691216947626 0 0 0 0.25 31 1561 72 812 102 817 116 1272 140 978 177 985 210 338 218 1284 
5014 0.31719663517057944 0.21949087256581912 1.0943687415473662 0 0 0 0.15 31 1562 37 474 46 436 86 947 137 467 211 740 
5015 0.3168419941811308 0.21964922052667246 1.0930369654572654 0 0 0 0.2 31 1563 37 475 72 813 86 948 94 789 116 1273 139 767 149 639 154 798 216 928 218 1285 226 607 228 1191 
5016 0.7352684314753504 0.21044084949405611 1.221836165592704 0 0 0 0.2 31 1564 216 929 233 433 
5017 0.8535292073186043 0.14887590609017404 1.0486665884037918 0 0 0 0.18 31 1565 99 922 140 979 150 482 216 930 
5018 0.13557686059975926 0.18961794020123066 0.9118478010280572 0 0 0 0.21 31 1566 177 986 205 375 
5019 0.12485499564024621 0.19155126584718893 0.9092114375483978 0 0 0 0.16 31 1567 125 1150 140 980 226 608 
5020 0.8158023839900831 0.164111701147825 1.0794217379165478 0 0 0 0.25 31 1568 72 814 216 931 
5021 0.31080278342467366 0.2212115466672546 1.0835547187784447 0 0 0 0.25 31 1569 55 705 119 767 137 468 144 1212 145 627 149 640 154 799 173 1115 177 987 183 379 191 777 193 1078 216 932 218 1286 228 1192 233 434 
5022 0.7495845283263528 0.1998491603473582 1.1742445478552181 0 0 0 0.19 31 1570 139 768 216 933 
5023 0.21477794271437187 0.20189900017968304 0.9771543200238691 0 0 0 0.18 31 1571 72 815 99 923 143 780 
5024 0.2561452960604774 0.2042463670494604 0.9986327017218777 0 0 0 0.14 31 1572 149 641 154 800 226 609 
5025 0.3498821787974737 0.2253381838820499 1.1057241876511168 0 0 0 0.22 31 1573 72 816 173 1116 
5026 0.15877105057694677 0.19833168498523088 0.9331727177463551 0 0 0 0.17 31 1574 102 818 210 339 228 1193 
5027 0.15850568763899608 0.19820155887359378 0.93322937412624 0 0 0 0.34 31 1575 72 817 99 924 140 981 154 801 173 1117 183 380 193 1079 210 340 218 1287 228 1194 
5028 0.10880300176070844 0.20267151695027436 0.9293282109998808 0 0 0 0.22 31 1576 72 818 99 925 154 802 177 988 
5029 0.2094304984998988 0.20343999783415553 0.9692232890408337 0 0 0 0.17 31 1577 94 790 99 926 116 1274 125 1151 140 982 149 642 151 1245 161 369 173 1118 193 1080 226 610 228 1195 
5030 0.30133145018530505 0.22038544040420832 1.06599672535283 0 0 0 0.83 31 1578 47 231 119 768 150 483 161 370 177 989 183 381 205 376 226 611 
5031 0.16790691761911775 0.2015373536648312 0.9434099822214373 0 0 0 0.07 31 1579 140 983 228 1196 
5032 0.3680124266972173 0.22847135894182563 1.1172274256963515 0 0 0 0.2 31 1580 72 819 131 775 139 769 149 643 
5033 0.6798101623586991 0.25428858435278123 1.3129532570258862 0 0 0 0.54 31 1581 99 927 119 769 151 1246 178 624 180 1360 211 741 228 1197 
5034 0.34568151581615647 0.22715019587171323 1.094038912533439 0 0 0 0.47 31 1582 34 711 47 232 72 820 86 949 94 791 99 928 116 1275 149 644 177 990 180 1361 193 1081 211 742 218 1288 226 612 
5035 0.15065564648508706 0.20353511077606254 0.927090557918538 0 0 0 0.39 31 1583 99 929 102 819 140 984 177 991 193 1082 210 341 218 1289 226 613 
5036 0.49764004199999246 0.24694095611800407 1.2015812512872541 0 0 0 0.12 31 1584 140 985 177 992 226 614 
5037 0.8486511982158383 0.16543521377939968 1.0430676283807936 0 0 0 0.31 31 1585 139 770 216 934 
5038 0.8647351528299171 0.15951398982930093 1.0289642359660893 0 0 0 0.1 31 1586 139 771 150 484 
5039 0.21139899502012507 0.2107735570007605 0.9653789966118718 0 0 0 0.32 31 1587 99 930 139 772 193 1083 218 1290 
5040 0.3053526396631922 0.23308207824409274 1.0750667197714834 0 0 0 0.17 31 1588 149 645 166 1260 210 342 
5041 0.49110363428412807 0.24889570317514487 1.198942659247395 0 0 0 0.4 31 1589 47 233 94 792 99 931 116 1276 154 803 177 993 180 1362 193 1084 218 1291 233 435 
5042 0.12430057371528618 0.20378466679343654 0.90402414869466 0 0 0 0.27 31 1590 86 950 210 343 226 615 
5043 0.662572165441197 0.27700907988004675 1.3440822866632451 0 0 0 0.26 24 2365 31 1591 46 437 72 821 99 932 122 207 143 781 166 1261 180 1363 211 743 216 935 226 616 233 436 
5044 0.21613010948205938 0.21525436484654215 0.9673225870789397 0 0 0 0.21 31 1592 151 1247 161 371 180 1364 205 377 228 1198 
5045 0.2318396405433542 0.21493179512081434 0.9726085837215571 0 0 0 0.43 31 1593 116 1277 154 804 161 372 183 382 216 936 
5046 0.4673583793289298 0.25118445889880636 1.1739157373410258 0 0 0 0.14 31 1594 99 933 102 820 149 646 226 617 
5047 0.6704195218416009 0.2761117939814743 1.3258064467738186 0 0 0 0.85 31 1595 125 1152 154 805 216 937 
5048 0.33996979699582 0.23944494190330726 1.0890765681050518 0 0 0 0.33 31 1596 72 822 99 934 166 1262 173 1119 210 344 
5049 0.7865015906131784 0.20596645695142468 1.112821549459769 0 0 0 0.08 31 1597 139 773 143 782 
5050 0.23869613313759427 0.22357258717168366 0.9858059804714897 0 0 0 0.6 31 1598 47 234 72 823 86 951 149 647 150 485 154 806 161 373 173 1120 193 1085 216 938 226 618 
5051 0.7846647839739225 0.21123315564512102 1.1140868228398766 0 0 0 0.26 31 1599 59 1409 99 935 119 770 216 939 228 1199 
5052 0.1758278159649835 0.2186632690907274 0.9360483659312816 0 0 0 0.12 31 1600 37 476 90 128 116 1278 140 986 151 1248 177 994 226 619 
5053 0.810895959404736 0.20122908856897717 1.075560036720351 0 0 0 0.27 31 1601 72 824 99 936 150 486 216 940 
5054 1.0898735079457458 0.09018635611228071 0.7877477428063138 0 0 0 0.45 31 1602 57 1430 150 487 
5055 0.7393626895852509 0.24336284412383893 1.175667728331475 0 0 0 0.29 31 1603 131 776 171 609 210 345 
5056 0.7379630398504743 0.25151175389770924 1.1989699268039047 0 0 0 0.37 31 1604 140 987 150 488 
5057 0.07948908470775369 0.230280704544354 0.9200478764417424 0 0 0 0.21 31 1605 151 1249 177 995 
5058 0.4600058490724428 0.26928330651818266 1.16464204724181 0 0 0 0.22 31 1606 72 825 149 648 173 1121 226 620 
5059 0.4611266529957859 0.26969692396338873 1.1669084136582342 0 0 0 0.18 31 1607 149 649 226 621 
5060 0.4739868229089429 0.2725406785616037 1.1728582988820144 0 0 0 0.27 31 1608 72 826 99 937 140 988 177 996 180 1365 
5061 0.4756607589474903 0.273293102172333 1.1763693694005872 0 0 0 0.19 31 1609 140 989 149 650 177 997 180 1366 
5062 0.5401865990225739 0.27541225265038943 1.188298649411841 0 0 0 0.24 31 1610 34 712 86 952 94 793 140 990 151 1250 154 807 177 998 211 744 216 941 228 1200 
5063 0.4802145051704546 0.27601577721530945 1.1722655728428384 0 0 0 0.07 31 1611 173 1122 177 999 218 1292 
5064 0.247219360107128 0.23758228295851944 0.974711234248416 0 0 0 0.2 31 1612 151 1251 218 1293 228 1201 
5065 0.11237048278905862 0.23176335382800992 0.9148888831071872 0 0 0 0.26 31 1613 140 991 233 437 
5066 0.38378790670676 0.27188930217415586 1.1099708187163457 0 0 0 0.31 31 1614 143 783 193 1086 
5067 0.761490023902643 0.24934663434289972 1.1362398678713863 0 0 0 0.35 31 1615 99 938 102 821 140 992 171 610 216 942 228 1202 
5068 0.8023972505171187 0.23702589097695084 1.097046519518236 0 0 0 0.46 31 1616 102 822 137 469 
5069 0.8023972505171187 0.23702589097695084 1.097046519518236 0 0 0 0.46 31 1617 102 823 137 470 
5070 0.14512976048590884 0.23396982109434486 0.9122160803307393 0 0 0 0.31 31 1618 166 1263 177 1000 180 1367 218 1294 
5071 0.32798560032974955 0.27097922827965715 1.0759398001148959 0 0 0 0.56 31 1619 125 1153 151 1252 161 374 177 1001 218 1295 233 438 
5072 0.3564726816610901 0.27481056135328863 1.0905891976411846 0 0 0 0.54 31 1620 140 993 149 651 154 808 161 375 177 1002 193 1087 
5073 0.28886121570732654 0.26918214745518093 1.0471764843677105 0 0 0 0.37 31 1621 143 784 177 1003 218 1296 
5074 0.5326499670832051 0.2931560797631715 1.1830847858410232 0 0 0 0.28 31 1622 122 208 150 489 180 1368 
5075 0.7612717095747642 0.26092035227872434 1.1319396365901617 0 0 0 0.36 31 1623 99 939 140 994 216 943 228 1203 
5076 0.857402467742708 0.21377746294551886 0.9972491205187928 0 0 0 0.11 31 1624 143 785 171 611 
5077 0.07034474334895276 0.2464411161335724 0.9013216291911426 0 0 0 0.45 31 1625 99 940 143 786 149 652 151 1253 166 1264 
5078 0.3965034736005067 0.2906358074383972 1.115287907393176 0 0 0 0.36 31 1626 99 941 149 653 177 1004 
5079 0.16110344982808045 0.24859808739945144 0.9245681026476389 0 0 0 0.21 31 1627 37 477 46 438 125 1154 140 995 151 1254 177 1005 
5080 0.5257285191901355 0.3029155564658181 1.1834652334401645 0 0 0 0.27 31 1628 102 824 122 209 
5081 0.3169416366055754 0.28407748624513585 1.066998512561917 0 0 0 0.16 31 1629 173 1123 226 622 
5082 0.24922151050870017 0.2653226365738779 0.9867966883694459 0 0 0 0.4 31 1630 72 827 173 1124 218 1297 
5083 0.2455003354563033 0.26095851772834616 0.972319322520384 0 0 0 0.43 31 1631 45 129 90 129 233 439 
5084 0.7311361686445789 0.3064794819669237 1.22095320895794 0 0 0 0.32 31 1632 143 787 180 1369 
5085 0.5234865031402312 0.30803456932342416 1.177285427611473 0 0 0 0.21 31 1633 122 210 173 1125 
5086 0.09869373612504509 0.256274824825876 0.9133064842468772 0 0 0 0.26 31 1634 46 439 140 996 171 612 177 1006 193 1088 
5087 0.6839498463666941 0.32835523685045565 1.2648986136173481 0 0 0 0.29 24 2366 30 635 31 1635 99 942 116 1279 139 774 143 788 144 1213 166 1265 177 1007 186 203 
5088 0.9009112413732462 0.21339787761196408 0.9580720023599167 0 0 0 0.33 31 1636 57 1431 202 956 
5089 0.18771164904783166 0.26518156942086035 0.938402240071257 0 0 0 0.5 31 1637 72 828 116 1280 145 628 
5090 0.17978362203898463 0.26287544533057927 0.9234114301538063 0 0 0 0.37 31 1638 151 1255 171 613 177 1008 180 1370 233 440 
5091 0.2135123199918797 0.2730719105574241 0.9606104657370697 0 0 0 0.31 31 1639 72 829 202 957 
5092 0.3527361026333321 0.3050999771472048 1.0806703529472512 0 0 0 0.14 31 1640 72 830 154 809 177 1009 
5093 0.5569352092437487 0.32621418504403504 1.1704729945578978 0 0 0 0.49 24 2367 31 1641 99 943 119 771 139 775 154 810 171 614 180 1371 202 958 228 1204 
5094 0.7264930768942324 0.32084968066857844 1.1853701326619446 0 0 0 0.23 31 1642 99 944 228 1205 
5095 0.18015076265206542 0.2723944143010498 0.9235420071544129 0 0 0 0.43 31 1643 46 440 72 831 140 997 193 1089 211 745 228 1206 233 441 
5096 0.7361641147388895 0.324625982148952 1.1652790255290937 0 0 0 0.25 31 1644 99 945 102 825 140 998 
5097 0.30629136452636957 0.3128906328686047 1.0500696786706702 0 0 0 0.37 31 1645 72 832 119 772 140 999 166 1266 177 1010 193 1090 212 627 218 1298 
5098 0.5000529396944929 0.34148212388236554 1.166768742685502 0 0 0 0.33 31 1646 37 478 116 1281 150 490 151 1256 154 811 173 1126 177 1011 180 1372 218 1299 
5099 0.5039514448020249 0.3490184154761929 1.1615310592383938 0 0 0 0.14 31 1647 37 479 45 130 46 441 72 833 116 1282 139 776 140 1000 154 812 173 1127 193 1091 218 1300 226 623 228 1207 
5100 0.12372754986545006 0.27382643992730443 0.8816230831789443 0 0 0 0.16 31 1648 216 944 218 1301 
5101 0.30102433173403165 0.32121494408273005 1.0387087725592798 0 0 0 0.71 31 1649 34 713 72 834 173 1128 
5102 0.7099864178726671 0.3591668700725108 1.1971969021569029 0 0 0 0.24 31 1650 72 835 99 946 102 826 140 1001 150 491 154 813 171 615 177 1012 180 1373 191 778 193 1092 216 945 
5103 0.05772850581249405 0.26784167481680826 0.8401755380945941 0 0 0 0.3 31 1651 37 480 154 814 216 946 
5104 0.2183186459247953 0.2948329081093288 0.9396170187906843 0 0 0 0.5 31 1652 140 1002 151 1257 171 616 183 383 193 1093 216 947 233 442 
5105 0.3873278975927773 0.34254685537698376 1.0935322381891057 0 0 0 0.18 31 1653 119 773 177 1013 226 624 233 443 
5106 0.1765422813616143 0.2948652510667843 0.9233512074314245 0 0 0 0.19 31 1654 34 714 143 789 144 1214 
5107 0.7057412237011872 0.3685783001320321 1.1940269023230918 0 0 0 0.24 31 1655 57 1432 72 836 99 947 116 1283 131 777 154 815 171 617 177 1014 180 1374 193 1094 216 948 228 1208 
5108 0.6629730158303798 0.3982137231953201 1.2694640496951712 0 0 0 0.24 31 1656 72 837 116 1284 151 1258 154 816 177 1015 228 1209 
5109 0.11023442451503056 0.2835169874142851 0.8694166825829526 0 0 0 0.32 31 1657 140 1003 205 378 
5110 0.8794578376612683 0.2795747764936924 0.9595306118908392 0 0 0 0.18 31 1658 55 706 57 1433 
5111 0.13115184815350622 0.28719352693267597 0.8786124646116499 0 0 0 0.43 31 1659 55 707 145 629 151 1259 173 1129 177 1016 193 1095 218 1302 
5112 0.13113595266081382 0.28699944491002793 0.878688703995348 0 0 0 0.43 31 1660 145 630 173 1130 177 1017 218 1303 
5113 0.8944572964992968 0.27682562499564445 0.9396230647559821 0 0 0 0.06 31 1661 99 948 191 779 
5114 0.7222579529986346 0.37609927353817507 1.1889809023782227 0 0 0 0.17 31 1662 72 838 140 1004 171 618 177 1018 180 1375 
5115 0.9054100640474999 0.27633958020333654 0.9260962097669269 0 0 0 0.17 31 1663 55 708 99 949 
5116 0.8259069091004593 0.314901463618765 1.0229119482652866 0 0 0 0.46 31 1664 216 949 233 444 
5117 0.14487425040043023 0.3023056105695827 0.8847048217726906 0 0 0 0.29 31 1665 34 715 55 709 72 839 116 1285 131 778 144 1215 145 631 151 1260 166 1267 173 1131 177 1019 183 384 193 1096 211 746 218 1304 228 1210 
5118 0.6878673791001562 0.41203105654732813 1.2390820131304465 0 0 0 0.34 31 1666 57 1434 72 840 102 827 131 779 143 790 144 1216 154 817 180 1376 216 950 
5119 0.7027247039268314 0.40198250549040204 1.215316749048068 0 0 0 0.19 31 1667 72 841 143 791 189 823 212 628 
5120 0.7076797579057054 0.38961779607426283 1.1797442426722093 0 0 0 0.1 31 1668 72 842 131 780 
5121 0.2580292864919447 0.3267088179523786 0.9521623865948771 0 0 0 0.43 31 1669 57 1435 72 843 116 1286 139 777 151 1261 173 1132 180 1377 193 1097 216 951 
5122 0.6731687535929894 0.4230929320597824 1.2515502702603718 0 0 0 0.41 31 1670 72 844 99 950 180 1378 
5123 0.28381541401965205 0.33321102115980766 0.9696639422216331 0 0 0 0.3 31 1671 45 131 116 1287 139 778 
5124 0.2849275913849326 0.33433709844012405 0.9721249531435772 0 0 0 0.16 31 1672 57 1436 116 1288 
5125 0.3319234233739112 0.3444134582678339 0.9985190877939619 0 0 0 0.32 31 1673 99 951 116 1289 143 792 166 1268 193 1098 
5126 0.6555882489987233 0.42956432354384977 1.2543261726017034 0 0 0 0.35 31 1674 99 952 140 1005 193 1099 216 952 228 1211 233 445 
5127 0.7625144036601227 0.3751172978782521 1.1175663455915859 0 0 0 0.15 31 1675 119 774 180 1379 
5128 0.3010549327200233 0.33797256004627774 0.9736112377192514 0 0 0 0.27 31 1676 99 953 125 1155 218 1305 
5129 0.39274841658032106 0.36043655116214474 1.0405143983605836 0 0 0 0.14 31 1677 55 710 151 1262 
5130 0.7181897070410332 0.38630260543852324 1.1337296148414149 0 0 0 0.41 31 1678 102 828 131 781 177 1020 178 625 
5131 1.0059877060484004 0.2613847339178319 0.8250225282711157 0 0 0 0.51 31 1679 72 845 189 824 191 780 202 959 
5132 0.16432093552511687 0.32143060320637207 0.9061706846439772 0 0 0 0.37 31 1680 151 1263 177 1021 180 1380 218 1306 
5133 0.45298540840702295 0.3734321191819815 1.0647531571128 0 0 0 0.35 31 1681 116 1290 233 446 
5134 0.5437965538635755 0.3919907373382175 1.1208244196520256 0 0 0 0.56 31 1682 57 1437 102 829 143 793 144 1217 154 818 
5135 0.5494767434220262 0.39617178103946793 1.1325740858303182 0 0 0 0.33 31 1683 57 1438 99 954 143 794 191 781 
5136 0.17997919150899988 0.32690480750752526 0.9168613674726237 0 0 0 0.32 31 1684 99 955 173 1133 177 1022 180 1381 218 1307 
5137 0.8047766363899485 0.35730878449858794 1.0432500575725077 0 0 0 0.4 31 1685 140 1006 154 819 216 953 
5138 0.18736053938167982 0.32913774384548394 0.9185946295969959 0 0 0 0.32 31 1686 46 442 99 956 177 1023 193 1100 
5139 0.5331694996707279 0.3971295349678288 1.1214375923713347 0 0 0 0.35 31 1687 34 716 154 820 
5140 0.5594304423523491 0.4013273940159988 1.1353169726413006 0 0 0 0.37 31 1688 37 481 72 846 154 821 
5141 0.7488433336546968 0.3810537736505736 1.0923332020003584 0 0 0 0.16 31 1689 140 1007 177 1024 
5142 0.20608979445973083 0.32978627504553365 0.9169573029593892 0 0 0 0.41 31 1690 218 1308 228 1212 233 447 
5143 0.8289562332845739 0.34577082587703356 1.0051186633359603 0 0 0 0.25 31 1691 72 847 99 957 140 1008 150 492 
5144 0.19473320951383163 0.33290780228781675 0.9238433163863555 0 0 0 0.26 31 1692 171 619 173 1134 180 1382 
5145 0.3787886776396698 0.36804939316550683 1.0217872204143073 0 0 0 0.2 31 1693 72 848 233 448 
5146 0.8640423163149196 0.33288686834470893 0.9546433838956939 0 0 0 0.08 31 1694 137 471 191 782 
5147 0.5415439730150933 0.40612415416240877 1.120720842330601 0 0 0 0.33 31 1695 119 775 144 1218 216 954 
5148 0.34628731450768113 0.3668411470909175 1.0048537427398336 0 0 0 0.56 31 1696 151 1264 177 1025 
5149 0.2986281557626947 0.3550596100072499 0.9700887256421599 0 0 0 0.21 31 1697 140 1009 177 1026 180 1383 228 1213 
5150 0.9565427346814832 0.299760384069444 0.8571358888630893 0 0 0 0.12 31 1698 99 958 140 1010 
5151 0.24972074022356971 0.3561359565178045 0.9369222177053088 0 0 0 0.29 31 1699 99 959 145 632 171 620 193 1101 
5152 0.1337287306879437 0.32646257941741436 0.8514612541299542 0 0 0 0.32 31 1700 116 1291 193 1102 
5153 0.8310110202650552 0.36355279291249465 0.9697400659225488 0 0 0 0.59 31 1701 99 960 143 795 171 621 
5154 0.8677012293664218 0.35341583492983497 0.9397698783598144 0 0 0 0.13 31 1702 137 472 150 493 
5155 0.7614144294722099 0.4088540343908294 1.069020693778399 0 0 0 0.44 31 1703 99 961 102 830 119 776 140 1011 171 622 180 1384 228 1214 
5156 0.7177350775015229 0.4438258796870127 1.1522302925799948 0 0 0 0.37 31 1704 59 1410 72 849 119 777 139 779 191 783 202 960 228 1215 
5157 0.7473329299199554 0.42466137748535204 1.1016341171040915 0 0 0 0.18 31 1705 99 962 150 494 
5158 0.7669680627432901 0.41269631851819066 1.0668720053744638 0 0 0 0.54 31 1706 59 1411 137 473 140 1012 
5159 0.7418934833166414 0.43077887242053226 1.1066651803559726 0 0 0 0.4 31 1707 99 963 228 1216 
5160 0.14203339716238075 0.3388057870706288 0.8618402929455424 0 0 0 0.14 31 1708 193 1103 233 449 
5161 0.7119090057617079 0.46028434376539923 1.1705091064128073 0 0 0 0.42 31 1709 72 850 99 964 119 778 140 1013 154 822 171 623 180 1385 193 1104 216 955 228 1217 
5162 0.800219575167713 0.4040938883877474 1.0344649784209752 0 0 0 0.12 31 1710 59 1412 150 495 177 1027 
5163 0.7549153989402224 0.426400900330946 1.0749436709122315 0 0 0 0.31 31 1711 171 624 228 1218 
5164 0.7601667635599474 0.43648583912759975 1.087889733245385 0 0 0 0.24 31 1712 137 474 228 1219 
5165 0.1177241722966202 0.34529192510386597 0.8513229210491261 0 0 0 0.29 31 1713 180 1386 211 747 218 1309 228 1220 
5166 0.20580383896215998 -0.10972509722174606 1.1011367036537112 0 0 0 0.5 31 1714 34 717 46 443 72 851 116 1292 143 796 149 654 154 823 166 1269 173 1135 177 1028 
5167 0.22563883442300114 -0.11505439464700704 1.109043107063339 0 0 0 0.53 31 1715 34 718 86 953 116 1293 122 211 139 780 140 1014 149 655 151 1265 189 825 218 1310 
5168 0.1270584767560608 -0.07367060014676177 1.0213900774885967 0 0 0 0.25 31 1716 57 1439 116 1294 145 633 149 656 216 956 
5169 0.10965499776617604 -0.06917667548358769 1.0236384907189398 0 0 0 0.42 31 1717 149 657 180 1387 
5170 0.13097381079367815 -0.06953444046774584 1.0181757379795278 0 0 0 0.23 31 1718 149 658 173 1136 180 1388 218 1311 
5171 0.1303752719268472 -0.06930589931586444 1.0162512831112727 0 0 0 0.13 31 1719 149 659 154 824 211 748 
5172 0.1853025636581347 -0.08142953676990464 1.0619926943668094 0 0 0 0.23 31 1720 34 719 57 1440 116 1295 149 660 171 625 
5173 0.18683103183000488 -0.08135140728441981 1.0680678377067976 0 0 0 0.31 31 1721 116 1296 150 496 154 825 166 1270 
5174 0.22872801706638518 -0.08641917636263288 1.1048206427671594 0 0 0 0.29 31 1722 72 852 86 954 94 794 116 1297 140 1015 144 1219 145 634 150 497 151 1266 166 1271 173 1137 177 1029 178 626 191 784 193 1105 210 346 211 749 212 629 216 957 218 1312 
5175 0.2181198608408366 -0.07321421997794454 1.0970505281468643 0 0 0 0.44 31 1723 47 235 55 711 59 1413 72 853 86 955 94 795 145 635 149 661 161 376 180 1389 191 785 193 1106 212 630 226 625 228 1221 
5176 0.1069678178947715 -0.034250510294602104 1.0245974223582435 0 0 0 0.79 31 1724 47 236 94 796 116 1298 151 1267 
5177 0.09836495097300475 -0.02806674697107548 1.0395510925333447 0 0 0 0.34 31 1725 94 797 116 1299 125 1156 143 797 149 662 151 1268 166 1272 
5178 0.2179838312878018 -0.04731765133956199 1.086481175183271 0 0 0 0.37 31 1726 46 444 72 854 94 798 116 1300 145 636 149 663 150 498 166 1273 173 1138 177 1030 180 1390 191 786 210 347 212 631 215 90 216 958 218 1313 
5179 0.2172713056806862 -0.040841069827305995 1.0802898000990833 0 0 0 0.38 31 1727 47 237 116 1301 140 1016 151 1269 210 348 212 632 
5180 0.11919936397229233 -0.02396656467785709 0.9984624113017536 0 0 0 0.25 31 1728 139 781 149 664 151 1270 212 633 
5181 0.164396768066939 -0.026579634954571628 1.0355425125471605 0 0 0 0.3 31 1729 94 799 125 1157 150 499 166 1274 177 1031 202 961 210 349 218 1314 233 450 
5182 0.18400865015541573 -0.025145238968648773 1.0414869497395465 0 0 0 0.22 31 1730 149 665 193 1107 218 1315 
5183 0.19080691380897027 -0.0252420565910723 1.0398572739680234 0 0 0 0.31 31 1731 116 1302 149 666 212 634 
5184 0.11858220913290059 -0.013325546594803126 0.9899403709070033 0 0 0 0.48 31 1732 34 720 45 132 
5185 0.07553680274088281 0.008131938436718783 1.0692056407795332 0 0 0 0.39 31 1733 140 1017 193 1108 
5186 0.17940390532923106 -0.01853395930971512 1.0376194864840644 0 0 0 0.64 31 1734 47 238 210 350 233 451 
5187 0.17912633317550156 -0.018655877655942902 1.0376037181962374 0 0 0 0.33 31 1735 180 1391 210 351 233 452 
5188 0.24306956092306803 0.009992314365502387 1.070952692869584 0 0 0 0.21 31 1736 94 800 116 1303 125 1158 173 1139 177 1032 210 352 216 959 226 626 
5189 0.16938524035211672 0.020376114599741507 1.0285827081995602 0 0 0 0.41 31 1737 46 445 55 712 59 1414 72 855 116 1304 140 1018 154 826 166 1275 173 1140 180 1392 191 787 193 1109 210 353 218 1316 
5190 0.10299029963356096 0.03223998015583487 0.997624460876305 0 0 0 0.72 31 1738 47 239 125 1159 166 1276 186 204 218 1317 
5191 0.5140479773196475 -0.005682329907706403 1.3313702263019631 0 0 0 0.51 31 1739 149 667 154 827 
5192 0.08607927531181822 0.04606268056864998 0.9881165329008154 0 0 0 0.59 31 1740 34 721 47 240 86 956 94 801 116 1305 125 1160 149 668 154 828 166 1277 180 1393 
5193 0.5454800023443952 0.012947083883173135 1.3079697222762492 0 0 0 0.47 24 2368 31 1741 94 802 99 965 150 500 180 1394 233 453 
5194 0.2190967757552258 0.04176024515958858 1.0521329404972228 0 0 0 0.4 31 1742 47 241 72 856 
5195 0.06218699159861895 0.06382089611140118 0.9665933751446879 0 0 0 0.3 31 1743 86 957 149 669 151 1271 154 829 
5196 0.10762093916383773 0.06046103581430377 0.9952858637286728 0 0 0 0.32 31 1744 59 1415 86 958 94 803 102 831 116 1306 139 782 144 1220 151 1272 154 830 177 1033 212 635 
5197 0.16555975519499858 0.050543888418649964 1.001490392056216 0 0 0 0.5 31 1745 37 482 151 1273 154 831 
5198 0.17219462656848533 0.0499891123097511 1.0086333975684727 0 0 0 0.2 31 1746 131 782 151 1274 154 832 
5199 0.5409993374492387 0.05301216796637089 1.2705978841956245 0 0 0 0.23 31 1747 99 966 154 833 
5200 0.07595099304755583 0.08551278387930855 0.9715036570182375 0 0 0 0.18 31 1748 37 483 55 713 116 1307 125 1161 149 670 154 834 183 385 193 1110 
5201 0.13149945164501628 0.07606754578852368 0.9622008745586721 0 0 0 0.36 31 1749 47 242 102 832 116 1308 139 783 151 1275 
5202 0.14557239892286308 0.08195531137155244 0.9732888165740291 0 0 0 0.23 31 1750 34 722 149 671 211 750 212 636 233 454 
5203 0.1748626453361186 0.08178490855497263 0.99698141306368 0 0 0 0.25 31 1751 171 626 210 354 
5204 0.23584970755174997 0.08495237160544844 1.0374874629763784 0 0 0 0.36 31 1752 37 484 72 857 102 833 140 1019 149 672 178 627 211 751 226 627 228 1222 
5205 0.14686035293275096 0.08843019291304054 0.9723139332904598 0 0 0 0.23 31 1753 102 834 116 1309 125 1162 154 835 173 1141 215 91 228 1223 
5206 0.18393827593818332 0.08743490731361026 0.9940822992302029 0 0 0 0.24 31 1754 140 1020 149 673 180 1395 210 355 
5207 0.13374186173884023 0.08920390485120112 0.9523724019343179 0 0 0 0.52 31 1755 57 1441 94 804 99 967 102 835 116 1310 
5208 0.16982332861609428 0.09310818724456628 0.9861374665852757 0 0 0 0.46 31 1756 37 485 45 133 86 959 90 130 139 784 171 627 202 962 211 752 212 637 228 1224 
5209 0.1490666494167233 0.10899494253545691 0.9649073945002443 0 0 0 0.37 31 1757 94 805 116 1311 144 1221 149 674 
5210 0.1094481496437 0.11790452138299329 0.9569839662749889 0 0 0 0.14 31 1758 171 628 173 1142 177 1034 
5211 0.5047716257767647 0.1287373239484865 1.2712892478224194 0 0 0 0.98 31 1759 166 1278 173 1143 180 1396 
5212 0.7498925897998219 0.0856530396361992 1.2506128224755384 0 0 0 0.29 8 2657 31 1760 59 1416 86 960 99 968 189 826 
5213 0.7549572427232215 0.08344042573364711 1.243124479708059 0 0 0 0.43 8 2658 24 2369 31 1761 57 1442 59 1417 99 969 137 475 144 1222 150 501 154 836 171 629 178 628 180 1397 228 1225 233 455 
5214 0.20730198110117246 0.1270846321343007 1.0015027508391607 0 0 0 0.27 31 1762 72 858 149 675 178 629 
5215 0.08988282787807636 0.13856884333458905 0.9674313075915223 0 0 0 0.32 31 1763 34 723 37 486 46 446 72 859 86 961 94 806 99 970 125 1163 149 676 151 1276 161 377 173 1144 177 1035 180 1398 183 386 193 1111 210 356 216 960 218 1318 226 628 228 1226 
5216 0.858244504026474 0.08320131579960392 1.2024174988286644 0 0 0 0.42 31 1764 102 836 180 1399 
5217 0.2065341072635156 0.13268656121859188 0.9918290745713294 0 0 0 0.4 31 1765 72 860 99 971 
5218 0.208665757287634 0.13422365845337608 0.9981021138397016 0 0 0 0.21 31 1766 116 1312 143 798 216 961 218 1319 226 629 
5219 0.52639261998129 0.14423965898455068 1.2439754956963651 0 0 0 0.33 31 1767 34 724 47 243 59 1418 94 807 144 1223 211 753 228 1227 
5220 0.5216786284597315 0.1415180673599032 1.2332933563120627 0 0 0 0.36 31 1768 119 779 140 1021 173 1145 193 1112 228 1228 
5221 0.33818807823611197 0.14582384405255502 1.1283802718906955 0 0 0 0.33 31 1769 59 1419 86 962 94 808 149 677 177 1036 180 1400 189 827 191 788 193 1113 212 638 216 962 218 1320 
5222 0.34784054342047066 0.14887465270512365 1.1336523062712465 0 0 0 0.18 18 694 24 2370 31 1770 59 1420 72 861 86 963 99 972 116 1313 145 637 180 1401 210 357 
5223 0.39692759607834505 0.1532781036098583 1.1622365162932755 0 0 0 0.6 31 1771 171 630 180 1402 228 1229 
5224 0.11084127593666245 0.1511086658636082 0.9348498493663664 0 0 0 0.28 31 1772 46 447 55 714 72 862 86 964 102 837 116 1314 140 1022 149 678 161 378 177 1037 210 358 218 1321 228 1230 
5225 0.17240383388245017 0.1521730098504904 0.9736343985010513 0 0 0 0.33 31 1773 37 487 46 448 72 863 140 1023 149 679 151 1277 154 837 211 754 226 630 228 1231 233 456 
5226 0.13034233989987662 0.14879951693220514 0.9296235922810562 0 0 0 0.34 31 1774 72 864 90 131 99 973 125 1164 137 476 140 1024 149 680 173 1146 177 1038 193 1114 205 379 210 359 211 755 218 1322 226 631 233 457 
5227 0.32292676296771816 0.16891233070116807 1.1193529829612825 0 0 0 0.25 31 1775 72 865 177 1039 
5228 0.9514865444525534 0.05033518627270933 0.9713858836407216 0 0 0 0.33 31 1776 55 715 57 1443 
5229 0.36058292221676436 0.17194736081205927 1.1327265945162612 0 0 0 0.42 31 1777 102 838 149 681 193 1115 
5230 0.5047853194566481 0.17860833812312368 1.238867446946078 0 0 0 0.21 31 1778 180 1403 193 1116 211 756 
5231 0.2560801256665677 0.15658095810775363 1.013132102261911 0 0 0 0.17 31 1779 72 866 102 839 180 1404 
5232 0.3901923734005477 0.18039169494905422 1.1630369405983643 0 0 0 0.09 31 1780 55 716 143 799 
5233 0.09261086970768254 0.16954507637796276 0.9533204165721307 0 0 0 0.37 31 1781 37 488 72 867 102 840 122 212 125 1165 140 1025 143 800 149 682 151 1278 154 838 212 639 226 632 
5234 0.6726670547092652 0.20157283172839477 1.3355707184077228 0 0 0 0.25 31 1782 119 780 125 1166 178 630 
5235 0.6793789077006133 0.20015336208809345 1.3324640068991194 0 0 0 0.32 31 1783 119 781 122 213 137 477 150 502 171 631 173 1147 180 1405 191 789 193 1117 212 640 228 1232 
5236 0.21604559337897078 0.1736663268685538 0.9941029772783796 0 0 0 0.48 31 1784 34 725 72 868 102 841 140 1026 193 1118 216 963 218 1323 
5237 0.18898283157570142 0.16959876151731434 0.9612616907281449 0 0 0 0.5 31 1785 37 489 46 449 86 965 90 132 94 809 122 214 139 785 145 638 154 839 210 360 226 633 
5238 0.559630280589968 0.1926905596888059 1.2313709438412836 0 0 0 0.29 31 1786 173 1148 177 1040 218 1324 
5239 0.3897705999046487 0.19275554950897497 1.1522273588525775 0 0 0 0.26 31 1787 99 974 143 801 149 683 154 840 173 1149 
5240 0.6757973899514124 0.2169913471530911 1.3357576491242718 0 0 0 0.21 31 1788 150 503 228 1233 
5241 0.06590115723754285 0.1846405659015486 0.9213499056983224 0 0 0 0.18 31 1789 94 810 99 975 145 639 149 684 183 387 216 964 218 1325 
5242 0.32353507734993603 0.20611071838162978 1.104026622806106 0 0 0 0.55 24 2371 31 1790 55 717 57 1444 72 869 94 811 99 976 102 842 140 1027 145 640 150 504 151 1279 154 841 173 1150 177 1041 183 388 189 828 193 1119 202 963 210 361 218 1326 228 1234 
5243 0.08343746215875615 0.1894769198968432 0.933470835345235 0 0 0 0.13 31 1791 55 718 99 977 193 1120 
5244 0.07521951171766135 0.1916310164244513 0.9272230755043818 0 0 0 0.28 31 1792 37 490 94 812 99 978 210 362 228 1235 
5245 0.07492107280643813 0.19139208822276474 0.9261830850435222 0 0 0 0.3 31 1793 37 491 94 813 99 979 145 641 149 685 151 1280 166 1279 183 389 193 1121 210 363 216 965 228 1236 
5246 0.1323242019862051 0.18200673905074893 0.9168594299271382 0 0 0 0.3 31 1794 55 719 102 843 149 686 173 1151 183 390 210 364 226 634 
5247 0.14934375346867593 0.1831898522307291 0.9288903005591733 0 0 0 0.34 31 1795 37 492 46 450 116 1315 125 1167 140 1028 151 1281 193 1122 218 1327 228 1237 233 458 
5248 0.8311207330130409 0.14386659527349868 1.069053290079706 0 0 0 0.55 31 1796 57 1445 99 980 139 786 140 1029 233 459 
5249 0.3529442337636712 0.21240722160841574 1.1205242848838268 0 0 0 0.4 31 1797 34 726 72 870 102 844 154 842 218 1328 
5250 0.5449232344251113 0.21513171247386836 1.2092967276949325 0 0 0 0.31 31 1798 34 727 57 1446 72 871 122 215 140 1030 144 1224 151 1282 173 1152 218 1329 228 1238 233 460 
5251 0.06799330305784289 0.19774456902436152 0.9172058499096786 0 0 0 0.31 31 1799 46 451 55 720 57 1447 72 872 102 845 131 783 137 478 143 802 145 642 161 379 177 1042 180 1406 183 391 210 365 218 1330 226 635 
5252 0.7446140699536081 0.20669537594612644 1.2123297565674993 0 0 0 0.26 31 1800 150 505 202 964 216 966 233 461 
5253 0.08253926522615354 0.19983499802026894 0.9180749822959074 0 0 0 0.49 31 1801 99 981 173 1153 193 1123 
5254 0.0840563905311863 0.2008847619721317 0.9223411423760912 0 0 0 0.53 31 1802 34 728 37 493 46 452 55 721 57 1448 59 1421 72 873 86 966 94 814 139 787 140 1031 143 803 144 1225 149 687 151 1283 161 380 166 1280 173 1154 177 1043 183 392 193 1124 210 366 211 757 216 967 233 462 
5255 0.3354181804510333 0.22135793848598997 1.08362137313178 0 0 0 0.07 31 1803 72 874 216 968 
5256 0.12145024797928931 0.19556711085129813 0.9056054328242127 0 0 0 0.36 31 1804 72 875 102 846 125 1168 149 688 151 1284 161 381 171 632 210 367 218 1331 226 636 228 1239 
5257 0.8407736309105239 0.16128322025009856 1.0476755804750004 0 0 0 0.39 31 1805 55 722 139 788 
5258 0.6762584407175888 0.2598152954635604 1.3195674426599653 0 0 0 0.45 31 1806 86 967 99 982 119 782 137 479 144 1226 150 506 151 1285 166 1281 171 633 178 631 180 1407 186 205 202 965 210 368 216 969 228 1240 233 463 
5259 0.7325982185563076 0.22003398679805272 1.1991191577059936 0 0 0 0.22 31 1807 57 1449 59 1422 99 983 131 784 140 1032 150 507 154 843 202 966 216 970 228 1241 
5260 0.5487911589258564 0.24326702622064084 1.2062897676374271 0 0 0 0.15 31 1808 178 632 226 637 
5261 0.10825822166018506 0.20474515823534642 0.9105996530156885 0 0 0 0.49 31 1809 72 876 94 815 140 1033 145 643 151 1286 173 1155 177 1044 193 1125 
5262 0.6886050838729804 0.2516879083467642 1.2785971743385538 0 0 0 0.76 31 1810 86 968 122 216 137 480 139 789 178 633 210 369 212 641 225 329 
5263 0.057659296974637446 0.20965015573855048 0.9050512175836553 0 0 0 0.26 8 2659 31 1811 86 969 94 816 99 984 116 1316 119 783 125 1169 140 1034 144 1227 151 1287 154 844 166 1282 189 829 
5264 0.5341841882269095 0.2446253187059726 1.1935967001685088 0 0 0 0.13 24 2372 31 1812 57 1450 59 1423 72 877 140 1035 154 845 193 1126 202 967 228 1242 
5265 0.29906046917421686 0.22823760254245143 1.0577295814935779 0 0 0 0.69 8 2660 31 1813 47 244 140 1036 177 1045 178 634 193 1127 
5266 0.648396683757688 0.2757489008610139 1.3335141989879706 0 0 0 0.39 31 1814 72 878 178 635 218 1332 
5267 0.8355270211131138 0.17880017390980538 1.0518260408700084 0 0 0 0.48 31 1815 59 1424 72 879 99 985 139 790 143 804 150 508 180 1408 202 968 216 971 
5268 0.8299742978421029 0.18927257185911378 1.0823028672724262 0 0 0 0.29 31 1816 72 880 216 972 233 464 
5269 0.6982526790999941 0.2554800592391528 1.2476000749163574 0 0 0 0.22 31 1817 137 481 178 636 191 790 233 465 
5270 0.7559862243436118 0.22174477401574916 1.15154734915532 0 0 0 0.2 31 1818 99 986 139 791 191 791 
5271 0.13225381088745097 0.21013154750782695 0.9028673135246652 0 0 0 0.29 31 1819 37 494 233 466 
5272 0.3583962698907971 0.2464944509112478 1.1021924258721316 0 0 0 0.23 31 1820 34 729 116 1317 119 784 143 805 178 637 202 969 
