# 3D point list with one line of data per point:
#   POINT3D_ID, X, Y, Z, R, G, B, ERROR, TRACK[] as (IMAGE_ID, POINT2D_IDX)
# Number of points: 435, mean track length: 6.65
599 -0.02541069276666036 -0.08513654926502696 1.0293090468990262 0 0 0 0.22 16 86 28 193 98 384 112 72 124 286 146 194 200 238 213 174 
600 0.13209619892452706 -0.08738943980949197 1.0216516833717602 0 0 0 0.38 93 79 98 385 124 287 176 125 200 239 
601 0.09600418483756745 -0.08669711179940968 1.0249948696839661 0 0 0 0.34 33 158 50 241 77 89 98 386 109 45 124 288 157 232 176 126 200 240 
602 0.03821042767977315 -0.05811676525712621 1.0210927789066813 0 0 0 0.17 16 87 98 387 176 127 
603 0.0383680768530678 -0.05816058893224974 1.0215945213373339 0 0 0 0.22 16 88 28 194 98 388 
604 -0.06326843969463691 -0.05415098938879303 1.0266333213458085 0 0 0 0.15 16 89 98 389 146 195 157 233 213 175 214 25 
605 -0.005644652133116525 -0.023652456932434028 1.0215473401838566 0 0 0 0.17 16 90 28 195 98 390 112 73 124 289 157 234 213 176 214 26 
606 0.06611046444746826 -0.024095275580108905 1.0160141989189762 0 0 0 0.35 16 91 28 196 98 391 112 74 157 235 213 177 
607 -0.18365505576894994 -0.016305900112894622 1.0440428134143602 0 0 0 0.2 44 217 148 32 158 120 176 128 
608 -0.005645539237440209 -0.017415144423791103 1.0201325978462947 0 0 0 0.1 16 92 93 80 98 392 124 290 
609 -0.08298941981885163 -0.015334863034069135 1.0265678488187893 0 0 0 0.21 16 93 33 159 38 26 44 218 112 75 124 291 157 236 164 80 176 129 200 241 
610 0.10869065485452499 -0.015150357566293272 1.0116718399243265 0 0 0 0.21 16 94 41 34 93 81 98 393 112 76 136 17 146 196 196 35 213 178 
611 -0.020090913466927946 0.04679298665270121 1.007574494775991 0 0 0 0.26 16 95 28 197 98 394 124 292 157 237 
612 -0.037187763944833974 0.04655371771533988 1.0035717468784953 0 0 0 0.26 16 96 98 395 124 293 
613 -0.11071806720235614 0.04809617067192408 1.0110325533280506 0 0 0 0.11 16 97 28 198 38 27 50 242 
614 -0.04785994342738473 0.048383732677210425 1.0098434128999147 0 0 0 0.18 16 98 98 396 157 238 
615 -0.04785994342738473 0.048383732677210425 1.0098434128999147 0 0 0 0.18 16 99 98 397 157 239 
616 -0.10768459514037226 0.05458833993007895 1.0119278443479691 0 0 0 0.19 16 100 28 199 98 398 200 242 
617 -0.014391685342863038 0.053969330717823075 1.0057195867390374 0 0 0 0.44 16 101 28 200 98 399 
618 0.17800416312598688 0.057339981096774933 0.9904484148206761 0 0 0 0.24 28 201 33 160 98 400 124 294 175 43 
619 -0.2233636940164605 0.06522260496979393 1.0304655096094255 0 0 0 0.12 33 161 157 240 213 179 
620 -0.11689517064343886 0.06404799211515917 1.0126784340095458 0 0 0 0.13 16 102 157 241 213 180 
621 -0.06928346125024304 0.06489183023871227 0.9999151297733567 0 0 0 0.13 16 103 33 162 124 295 200 243 
622 0.03624002716889736 0.0693589096423681 0.9982085869730871 0 0 0 0.17 16 104 28 202 98 401 146 197 157 242 175 44 213 181 214 27 
623 -0.12631321588989405 0.0910161740772692 1.01422296831425 0 0 0 0.23 124 296 146 198 157 243 200 244 213 182 
624 -0.1227808747076903 0.09779207660716985 1.0122232553871289 0 0 0 0.31 124 297 157 244 176 130 213 183 
625 -0.04371373675864982 0.10054264434538061 0.9999984382366717 0 0 0 0.31 16 105 28 203 98 402 124 298 
626 0.04289421165240687 -0.12097803060118578 1.0328189835880928 0 0 0 0.23 16 106 19 47 96 36 98 403 157 245 159 29 213 184 
627 -0.030803106624731517 -0.10025886358454247 1.032719486541677 0 0 0 0.23 16 107 28 204 44 219 61 165 98 404 112 77 124 299 164 81 176 131 200 245 213 185 
628 -0.025377808392193363 -0.08936492240443993 1.0297954600548471 0 0 0 0.21 16 108 33 163 44 220 98 405 146 199 
629 -0.025134472878228075 -0.08948744934659271 1.0301636396855507 0 0 0 0.34 16 109 33 164 44 221 93 82 98 406 200 246 
630 -0.031202901634217673 -0.08231718101446393 1.0285990480621394 0 0 0 0.32 16 110 32 68 33 165 92 104 98 407 112 78 146 200 157 246 158 121 200 247 
631 -0.03121148244714471 -0.08249286690571594 1.0290429854266865 0 0 0 0.25 16 111 32 69 33 166 50 243 92 105 98 408 124 300 146 201 157 247 158 122 200 248 
632 -0.07129726998515618 -0.08018212615218032 1.0310009884244147 0 0 0 0.2 16 112 28 205 50 244 98 409 
633 0.2298626131909187 -0.08222518686202195 1.0204023607643091 0 0 0 0.44 36 36 61 166 77 90 98 410 124 301 146 202 157 248 176 132 204 48 
634 0.10509811642046571 -0.056725477473476435 1.019478068297015 0 0 0 0.21 28 206 98 411 112 79 146 203 164 82 213 186 
635 -0.07710556558854505 -0.025187270389272334 1.026356771829144 0 0 0 0.23 16 113 50 245 124 302 128 41 146 204 176 133 200 249 214 28 
636 0.026359632891095552 -0.022847326779761812 1.0177750957328338 0 0 0 0.16 16 114 28 207 50 246 98 412 112 80 146 205 157 249 200 250 213 187 
637 0.03198096906634072 -0.00976306798643031 1.0138556236475456 0 0 0 0.16 16 115 28 208 98 413 
638 -0.10642720751790286 0.047103441294593824 1.0130531151350959 0 0 0 0.09 16 116 50 247 146 206 213 188 
639 -0.0073900060384212915 0.04656450753530814 1.0056401749249027 0 0 0 0.18 16 117 17 75 44 222 61 167 92 106 98 414 124 303 152 58 157 250 158 123 176 134 213 189 
640 0.017551789679646285 0.06224508551140805 1.0032672873636845 0 0 0 0.61 16 118 19 48 33 167 77 91 98 415 124 304 200 251 213 190 214 29 
641 -0.1073943019323921 0.06344643846655279 1.0106649086211992 0 0 0 0.19 16 119 33 168 44 223 50 248 61 168 92 107 93 83 124 305 135 42 157 251 159 30 196 36 200 252 224 31 
642 -0.16003761726901594 0.10112002133866262 1.0146444267691788 0 0 0 0.42 157 252 158 124 172 37 
643 -0.10398029095744038 0.1058637649778157 1.001778016610669 0 0 0 0.09 16 120 146 207 213 191 
644 0.08568871011749783 -0.11224182146213492 1.0301601774788522 0 0 0 0.28 28 209 40 22 44 224 50 249 53 44 60 42 61 169 77 92 93 84 98 416 124 306 146 208 157 253 158 125 176 135 221 28 222 23 
645 0.13021323601888843 -0.11019808246453752 1.0229087403831185 0 0 0 0.35 28 210 44 225 93 85 98 417 124 307 146 209 157 254 
646 0.17339718128297296 -0.09046766215616278 1.023242081037571 0 0 0 0.48 17 76 28 211 32 70 44 226 50 250 77 93 96 37 98 418 111 53 146 210 152 59 162 22 200 253 219 30 220 35 
647 0.18819934281385892 -0.09015817014498785 1.0222872537710035 0 0 0 0.43 19 49 32 71 33 169 40 23 85 35 98 419 118 71 164 83 196 37 200 254 220 36 
648 -0.11253930309606852 0.13141169336611502 1.000432747964112 0 0 0 0.25 33 170 41 35 44 227 50 251 53 45 
649 -0.02038210622039493 0.04423054086419717 1.0075713549097205 0 0 0 0.37 16 121 50 252 98 420 172 38 204 49 
650 0.05000096003355511 0.10065240723947111 0.9940404668090069 0 0 0 0.19 16 122 17 77 96 38 98 421 152 60 
651 -0.08714945577813811 -0.023185654414040937 1.0287152874133594 0 0 0 0.32 16 123 61 170 77 94 112 81 172 39 213 192 219 31 
652 -0.16837763869282812 0.0887711365284687 1.0204993953949402 0 0 0 0.35 17 78 50 253 61 171 157 255 158 126 217 24 
653 0.07027913446810327 -0.09982816364777951 1.0285071554251703 0 0 0 0.37 17 79 98 422 146 211 
654 -0.060125997603750585 -0.09388317464388497 1.03299973732749 0 0 0 0.39 17 80 33 171 50 254 61 172 98 423 158 127 159 31 
655 0.16243712725262938 -0.08315717849987939 1.0223456911696411 0 0 0 0.4 17 81 28 212 44 228 98 424 118 72 124 308 200 255 213 193 
656 -0.1660930028039414 -0.021180665166423657 1.04168989403655 0 0 0 0.26 17 82 32 72 124 309 
657 0.23892935815548944 0.06674930990694497 0.9962125606126775 0 0 0 0.22 17 83 98 425 135 43 176 136 
658 0.29633861424552943 -0.08948831677137364 1.0194488839336981 0 0 0 0.39 17 84 98 426 157 256 
659 0.12663662754446747 -0.021778916136451956 1.0124425749133348 0 0 0 0.53 17 85 28 213 98 427 124 310 152 61 157 257 158 128 
660 0.0422590764343362 -0.015349504598191257 1.0154057662040312 0 0 0 0.48 17 86 98 428 112 82 146 212 152 62 204 50 
661 -0.06477118341751084 -0.05168133840958218 1.0282970604077522 0 0 0 0.65 17 87 36 37 44 229 98 429 124 311 146 213 157 258 172 40 213 194 
662 -0.014092374200875845 -0.04258437184782433 1.0245562901540113 0 0 0 0.63 17 88 27 35 53 46 61 173 98 430 158 129 204 51 213 195 219 32 
663 0.1988975253847044 -0.17448354309856653 1.0401862271476534 0 0 0 0.33 19 50 28 214 98 431 146 214 
664 0.07377227312387007 -0.17305090875741982 1.0427525292754316 0 0 0 0.53 19 51 98 432 164 84 
665 -0.08015532497013697 -0.09256800226317068 1.037899772122086 0 0 0 0.18 19 52 32 73 44 230 61 174 124 312 158 130 200 256 224 32 
666 -0.22058813281775708 -0.06034901446090108 1.0602322802295476 0 0 0 0.15 19 53 146 215 164 85 
667 -0.035395759593350375 0.03607452500290294 1.0065472511516715 0 0 0 0.34 19 54 50 255 98 433 158 131 159 32 164 86 176 137 200 257 214 30 
668 -0.1284737638739451 0.09125746334722842 1.015155901278747 0 0 0 0.2 19 55 32 74 44 231 50 256 135 44 158 132 200 258 224 33 
669 0.06735662041236458 0.09993518915686288 0.9906702089545668 0 0 0 0.2 19 56 33 172 98 434 175 45 200 259 
670 -0.031815327352407566 0.1187497203642432 0.9921778468889959 0 0 0 0.2 19 57 41 36 44 232 50 257 124 313 200 260 
671 0.08216483044520431 -0.11256413983075639 1.030955617841716 0 0 0 0.34 19 58 28 215 60 43 61 175 77 95 85 36 98 435 124 314 146 216 158 133 176 138 200 261 
672 0.07034740452308243 -0.10931330413508411 1.030131883338523 0 0 0 0.22 19 59 28 216 44 233 98 436 146 217 
673 0.19946087128797016 -0.08984849229283047 1.0218950121011858 0 0 0 0.58 19 60 98 437 200 262 
674 0.1986424080352508 -0.08228317423762663 1.0207334557957235 0 0 0 0.32 19 61 98 438 124 315 158 134 200 263 
675 -0.08569927304938327 -0.09764913376515096 1.037062567801689 0 0 0 0.39 19 62 44 234 93 86 124 316 200 264 
676 0.21424234692577734 0.08119870916089085 0.9899001186736709 0 0 0 0.16 19 63 40 24 98 439 124 317 200 265 
677 0.214335426464371 0.08124535520864791 0.9899602582326202 0 0 0 0.24 19 64 40 25 44 235 98 440 124 318 
678 0.2500176724341275 0.0936077634969272 0.9870830527958305 0 0 0 0.22 19 65 98 441 124 319 
679 -0.02202989704533501 -0.08969948532584089 1.0294585806071093 0 0 0 0.35 19 66 93 87 98 442 111 54 112 83 200 266 223 42 
680 0.04637104647390444 0.10597965389823188 0.9916869592663539 0 0 0 0.56 19 67 96 39 98 443 152 63 158 135 220 37 221 29 
681 -0.1329792307555678 0.09394772567493458 1.0097060230810346 0 0 0 0.48 19 68 157 259 172 41 204 52 219 33 
682 0.2002799373819314 -0.1697078937170053 1.0401933529455036 0 0 0 0.36 27 36 98 444 159 33 
683 -0.0059876214199376466 -0.08662553225519952 1.02772094874713 0 0 0 0.43 27 37 50 258 98 445 146 218 157 260 158 136 176 139 200 267 
684 0.2761132258004816 -0.07424145491232043 1.0164890084574953 0 0 0 0.37 27 38 98 446 176 140 
685 -0.021861539566384865 -0.02826433597405482 1.0219513164962324 0 0 0 0.22 27 39 77 96 98 447 159 34 
686 0.23854381772855887 -0.0897602371329821 1.0218416925319997 0 0 0 0.51 27 40 33 173 40 26 50 259 98 448 111 55 146 219 157 261 158 137 213 196 220 38 
687 -0.033853006880057254 0.053760799840232 0.995086152439034 0 0 0 0.25 27 41 98 449 158 138 
688 -0.014038583681556631 -0.04263612175982315 1.0247066552607222 0 0 0 0.66 27 42 53 47 61 176 98 450 158 139 204 53 213 197 219 34 
689 0.08994498247919659 -0.011350022967993378 1.013008487231762 0 0 0 0.29 27 43 98 451 219 35 
690 -0.05802291391148505 -0.14714376608995436 1.0440379982315768 0 0 0 0.16 28 217 98 452 124 320 
691 -0.05801197259367573 -0.14714394055131944 1.0440403405289012 0 0 0 0.14 28 218 98 453 124 321 213 198 
692 -0.11428666135126694 -0.1263510024659905 1.0505757378959646 0 0 0 0.57 28 219 98 454 146 220 
693 -0.006805688764398113 -0.131101191382871 1.0341950245198517 0 0 0 0.38 28 220 98 455 124 322 200 268 
694 -0.006805688764398113 -0.131101191382871 1.0341950245198517 0 0 0 0.38 28 221 98 456 124 323 200 269 
695 -0.08451259124767362 -0.101669935316279 1.0330171923617308 0 0 0 0.12 28 222 98 457 124 324 
696 -0.011538305976899423 -0.11549763880583178 1.0341340163534418 0 0 0 0.23 28 223 93 88 98 458 124 325 
697 -0.01161645627280502 -0.11542859247258816 1.0340463214341593 0 0 0 0.24 28 224 98 459 136 18 200 270 
698 -0.08608140356288682 -0.10051342390213447 1.0345427886006457 0 0 0 0.44 28 225 98 460 124 326 
699 0.0833710370507432 -0.13232305109630815 1.0294381172146954 0 0 0 0.16 28 226 93 89 98 461 124 327 
700 -0.08457856337274831 -0.09935479201423864 1.0348591801924512 0 0 0 0.38 28 227 98 462 124 328 200 271 
701 0.08460335782447408 -0.1307097849593762 1.0304304636550266 0 0 0 0.26 28 228 98 463 176 141 200 272 
702 -0.012460988595056488 -0.11135333056511632 1.034170412737797 0 0 0 0.28 28 229 93 90 98 464 124 329 136 19 176 142 
703 0.026086360728454636 -0.11742497218193157 1.033538079780488 0 0 0 0.22 28 230 60 44 98 465 146 221 157 262 176 143 
704 -0.0790477011808719 -0.09667576343468026 1.0370736088466568 0 0 0 0.62 28 231 98 466 124 330 
705 -0.04124481991719525 -0.10253900184833994 1.0340239569200775 0 0 0 0.12 28 232 98 467 213 199 
706 -0.04813457903151887 -0.10079045283582472 1.0340422230993358 0 0 0 0.05 28 233 98 468 157 263 
707 -0.14761994731673364 -0.08634952880880316 1.0480086229069279 0 0 0 0.26 28 234 124 331 157 264 
708 0.05554817909479943 -0.11847802155449619 1.0317441297007566 0 0 0 0.33 28 235 93 91 98 469 146 222 157 265 176 144 200 273 
709 0.05998129878198005 -0.11743854810821608 1.0318450805570012 0 0 0 0.27 28 236 98 470 200 274 
710 -0.011264160407264679 -0.09574528154600355 1.031204081768618 0 0 0 0.16 28 237 33 174 93 92 98 471 200 275 
711 -0.025462170941936244 -0.0916201457806062 1.0306349275123907 0 0 0 0.06 28 238 98 472 157 266 
712 0.31047774938504663 -0.152072822572754 1.030480556271745 0 0 0 0.11 28 239 98 473 124 332 
713 0.04188020822574974 -0.10047250668525531 1.0293892247815424 0 0 0 0.04 28 240 98 474 124 333 
714 0.06634446932115529 -0.10305067638940979 1.0295047160435284 0 0 0 0.12 28 241 98 475 124 334 
715 0.054718635403456096 -0.09427299842382975 1.0279445587021134 0 0 0 0.18 28 242 98 476 109 46 176 145 200 276 213 200 
716 0.11762704552177246 -0.09958055327448122 1.0262806746011317 0 0 0 0.4 28 243 44 236 98 477 
717 0.12130765521952455 -0.0881684309093088 1.023408991039461 0 0 0 0.56 28 244 98 478 124 335 176 146 200 277 
718 -0.0300661754402097 -0.057376432584994835 1.0255452133576934 0 0 0 0.31 28 245 98 479 124 336 157 267 
719 -0.11001600696696896 -0.03392948571003679 1.033448501600518 0 0 0 0.3 28 246 124 337 157 268 200 278 
720 0.45414631823726165 -0.10347335765219305 1.0529005188263656 0 0 0 0.2 28 247 40 27 44 237 50 260 92 108 98 480 
721 0.21402877696073774 -0.05752640755391272 1.0176325827478885 0 0 0 0.31 28 248 98 481 176 147 200 279 213 201 
722 -0.05176522576048178 -0.021878590870331775 1.0216498654736628 0 0 0 0.26 28 249 98 482 124 338 157 269 176 148 200 280 213 202 
723 -0.03728565021669454 -0.01856053451593339 1.0209788125791983 0 0 0 0.25 28 250 98 483 112 84 
724 -0.049463169351558665 -0.016607069896995168 1.0200596278882827 0 0 0 0.11 28 251 98 484 124 339 
725 -0.014701017421715562 -0.017087570696224526 1.020916148966286 0 0 0 0.18 28 252 98 485 146 223 
726 0.05671170929059509 -0.02150270519651021 1.0145798392195358 0 0 0 0.26 28 253 98 486 175 46 
727 0.061297410469356335 -0.022140503428038787 1.0153915963764417 0 0 0 0.24 28 254 98 487 175 47 176 149 
728 0.04532340489155512 -0.018829761195047038 1.016580524227383 0 0 0 0.26 28 255 98 488 157 270 175 48 
729 0.1016798552217715 -0.023379167335632976 1.015093512380096 0 0 0 0.23 28 256 98 489 175 49 
730 0.23119418219565113 -0.018555683892028312 1.0106983995644876 0 0 0 0.18 28 257 98 490 200 281 
731 0.246214475767057 -0.010238609875145285 1.009914175550411 0 0 0 0.25 28 258 98 491 213 203 
732 -0.09997877508455921 0.04143883830518529 1.019999208253781 0 0 0 0.17 28 259 98 492 124 340 
733 -0.135477735716512 0.047662319389299594 1.0229492035860972 0 0 0 0.15 28 260 136 20 200 282 
734 0.13551645965126724 0.03638182193493562 1.0045377545269303 0 0 0 0.26 28 261 98 493 175 50 
735 -0.02051432589572312 0.04852107175870706 1.0084743746577218 0 0 0 0.23 28 262 98 494 124 341 
736 -0.019689788887242078 0.05019552855396712 1.0071936833098332 0 0 0 0.38 28 263 98 495 124 342 
737 0.1402056529705955 0.04465550023836163 0.9958309548225691 0 0 0 0.08 28 264 98 496 175 51 
738 0.07951262204415799 0.0508982831776909 0.9991080688359103 0 0 0 0.18 28 265 98 497 175 52 176 150 
739 -0.11425518082584078 0.06992189726202674 1.012629811608602 0 0 0 0.23 28 266 98 498 124 343 
740 0.029783789887672406 0.06616399411614168 0.9977656582929247 0 0 0 0.15 28 267 98 499 124 344 175 53 
741 0.03513507167869754 0.06769384220174827 0.9978660371953909 0 0 0 0.23 28 268 98 500 124 345 175 54 
742 0.09630174712898475 0.08829613714836575 0.9945954133955877 0 0 0 0.14 28 269 98 501 124 346 
743 0.2700027262860786 0.09351032523596589 0.9892750823427651 0 0 0 0.31 28 270 124 347 200 283 
744 0.04324610388429318 0.10959874318348922 0.9867512314950777 0 0 0 0.45 28 271 98 502 175 55 
745 0.029675094216003634 0.128000940710041 0.9859109588796994 0 0 0 0.23 28 272 98 503 124 348 
746 -0.13637808385081848 -0.15743751567092681 1.0585857433747838 0 0 0 0.27 93 93 109 47 124 349 200 284 
747 -0.05844591150537103 -0.1561259796212301 1.049666243723726 0 0 0 0.1 28 273 98 504 200 285 
748 -0.1434569211022234 -0.12386386914027442 1.0563281118742711 0 0 0 0.11 28 274 33 175 213 204 
749 0.08186841719152814 -0.16096734810625024 1.039230002404558 0 0 0 0.25 28 275 98 505 124 350 
750 -0.07353670178160054 -0.11726887113153825 1.0464182548474046 0 0 0 0.26 28 276 41 37 98 506 
751 -0.07786726900586555 -0.10076813782922846 1.0328341005014874 0 0 0 0.24 28 277 98 507 124 351 146 224 
752 -4.283555597378642e-05 -0.11538375473149476 1.0334924262737635 0 0 0 0.27 28 278 50 261 98 508 
753 0.020899218702097877 -0.11579025499927507 1.033682247517921 0 0 0 0.22 28 279 50 262 98 509 
754 -0.10550034584083884 -0.09067883915260032 1.0423553628548794 0 0 0 0.32 28 280 33 176 98 510 124 352 
755 -0.09058284203697732 -0.09059354143347004 1.0401664078722859 0 0 0 0.28 28 281 32 75 124 353 200 286 
756 -0.014520232217867609 -0.09691975132761263 1.0317433887093899 0 0 0 0.38 28 282 98 511 213 205 
757 0.051806221669568234 -0.10648644923789977 1.0292569696983902 0 0 0 0.18 28 283 98 512 124 354 
758 0.0298959372394943 -0.10212752837360109 1.029633780594773 0 0 0 0.13 28 284 98 513 146 225 176 151 213 206 
759 -0.010820444577792531 -0.08945610413434227 1.0295761808540655 0 0 0 0.3 28 285 44 238 93 94 98 514 124 355 146 226 
760 0.05868289246501058 -0.10128339283002519 1.028846512623517 0 0 0 0.16 28 286 98 515 176 152 
761 -0.00928712913210327 -0.08220794014944328 1.0276166307958239 0 0 0 0.43 28 287 61 177 98 516 157 271 200 287 213 207 
762 0.03606360730982242 -0.08960032226537787 1.0277079691575628 0 0 0 0.24 28 288 44 239 98 517 124 356 
763 -0.11045286089214552 -0.06406799886290811 1.0392348006127812 0 0 0 0.34 28 289 98 518 200 288 
764 0.04629871305178403 -0.08185024391774541 1.0256523755660958 0 0 0 0.13 28 290 98 519 124 357 
765 0.10694525134224679 -0.09087476697872846 1.024516182572663 0 0 0 0.38 28 291 50 263 61 178 98 520 
766 -0.10970709782434343 -0.05868818257415857 1.0381654308223074 0 0 0 0.26 28 292 50 264 98 521 157 272 
767 0.12562876571979825 -0.0902827110668654 1.0242279485928056 0 0 0 0.12 28 293 98 522 124 358 
768 -0.06337095259584635 -0.059464243056426606 1.0272632655775356 0 0 0 0.23 28 294 98 523 112 85 157 273 
769 0.15350063874244382 -0.08701841348053144 1.0230534552987955 0 0 0 0.21 28 295 98 524 124 359 146 227 
770 0.14116576259352537 -0.08349201252317162 1.0211394224363 0 0 0 0.29 28 296 98 525 124 360 157 274 158 140 175 56 
771 0.15357627813808802 -0.07936608698720335 1.019452517281755 0 0 0 0.28 28 297 98 526 124 361 
772 0.15895040771360525 -0.08020130455017664 1.0215114727900334 0 0 0 0.1 28 298 98 527 124 362 
773 0.032320568527814134 -0.05678195552125073 1.0221880762409976 0 0 0 0.29 28 299 98 528 112 86 157 275 200 289 
774 -0.02911733322608604 -0.04720461542862294 1.0232116736480783 0 0 0 0.4 28 300 92 109 98 529 176 153 
775 0.005394339424874405 -0.0504599974928759 1.0229795874631118 0 0 0 0.27 28 301 98 530 112 87 157 276 
776 0.23356606803513777 -0.07957571265834196 1.0204174058575166 0 0 0 0.2 28 302 98 531 124 363 
777 0.14506984696847627 -0.06233933624059698 1.0180395377203961 0 0 0 0.2 28 303 98 532 176 154 
778 0.1403873150141697 -0.06025878015944788 1.020119430411958 0 0 0 0.07 28 304 98 533 175 57 
779 0.359077614285952 -0.08437810041217413 1.018252069036274 0 0 0 0.41 28 305 32 76 50 265 61 179 98 534 152 64 158 141 176 155 
780 -0.09513740272489682 -0.02470792140874056 1.0305150750314878 0 0 0 0.23 28 306 98 535 200 290 
781 -0.05803245067866174 -0.024594474255036816 1.0224155339915069 0 0 0 0.23 28 307 98 536 112 88 200 291 
782 -0.14047750997977623 -0.016920654066443032 1.0395382972588214 0 0 0 0.34 28 308 98 537 124 364 
783 0.03159383674643158 -0.029969683675780436 1.015932249034364 0 0 0 0.22 28 309 98 538 175 58 
784 -0.07297595679934157 -0.013654889796090988 1.02427499974746 0 0 0 0.17 28 310 98 539 112 89 
785 0.026114776678272344 -0.022791930432929056 1.0172797579637232 0 0 0 0.15 28 311 98 540 112 90 124 365 157 277 
786 0.05344146155927448 -0.02358136208497868 1.0144642337037029 0 0 0 0.21 28 312 98 541 124 366 
787 0.10018468561773078 -0.025069211173841182 1.0161337990461072 0 0 0 0.27 28 313 98 542 124 367 175 59 
788 0.1653747182139684 -0.01798964145033137 1.0113611557029838 0 0 0 0.15 28 314 98 543 157 278 175 60 
789 -0.03740003250160735 0.003979270729597634 1.0137921673354533 0 0 0 0.21 28 315 98 544 112 91 
790 0.17882820707512886 -0.013562279313871642 1.0106383717246699 0 0 0 0.29 28 316 61 180 98 545 175 61 
791 0.22780364023324126 -0.014601896723853104 1.0108209439907851 0 0 0 0.29 28 317 98 546 124 368 
792 0.0352414729788436 0.019207800857543273 1.0082559443735133 0 0 0 0.07 28 318 98 547 175 62 
793 0.04016999884980281 0.02628025996276528 1.0064556585707929 0 0 0 0.5 28 319 98 548 175 63 
794 -0.06756566363043533 0.04427640990079155 1.0011727016783676 0 0 0 0.08 28 320 98 549 112 92 
795 -0.1326269273918334 0.046449485793856625 1.0237769865112676 0 0 0 0.32 28 321 124 369 146 228 
796 -0.13262775711205968 0.046432124865810755 1.0238334180683657 0 0 0 0.26 28 322 124 370 146 229 200 292 
797 -0.06733210507450828 0.04783875604947429 1.0000736128929006 0 0 0 0.25 28 323 98 550 112 93 146 230 
798 -0.03497961085845779 0.046644191818463854 1.0027833726677886 0 0 0 0.16 28 324 98 551 213 208 
799 -0.02695304353761497 0.04674809236860824 1.0047259965529052 0 0 0 0.13 28 325 98 552 146 231 176 156 
800 -0.15396536549783277 0.05599954505617021 1.0169104932006894 0 0 0 0.12 124 371 146 232 157 279 200 293 
801 -0.13838487605336192 0.055447772947272496 1.0254985077818402 0 0 0 0.47 28 326 98 553 124 372 
802 0.03268948909675509 0.04982370108950565 0.9972004796242036 0 0 0 0.09 28 327 98 554 175 64 
803 0.07450264006555356 0.0483673058452897 0.9971223967429445 0 0 0 0.3 28 328 98 555 175 65 
804 0.1049934095214248 0.04740227188609113 0.9950531324082693 0 0 0 0.21 28 329 98 556 175 66 
805 -0.03506718430428658 0.055600960002824516 1.0001305673271794 0 0 0 0.06 28 330 98 557 109 48 
806 0.2825831998499353 0.047248755088148284 0.9927110342747149 0 0 0 0.29 28 331 98 558 124 373 
807 0.031760643528933666 0.06764442602712231 0.9975549194300036 0 0 0 0.15 28 332 98 559 124 374 
808 0.07197901211667332 0.06783299392711965 0.9957342096561811 0 0 0 0.1 28 333 98 560 124 375 175 67 
809 0.03600665847895569 0.08072893658158418 0.9965506010585821 0 0 0 0.37 28 334 93 95 98 561 124 376 175 68 
810 0.043810386959548635 0.11124151888552822 0.9894606478321321 0 0 0 0.3 28 335 38 28 98 562 175 69 
811 -0.06285008826707753 -0.18251899311124695 1.0515712771333674 0 0 0 0.42 28 336 98 563 146 233 
812 -0.06701634744749306 -0.16535260308998556 1.049486823452318 0 0 0 0.38 28 337 98 564 124 377 
813 -0.22947450048478443 -0.08332161759770564 1.0620757496054214 0 0 0 0.24 93 96 157 280 200 294 
814 0.05685193449850104 -0.11663358528805837 1.0307262202116543 0 0 0 0.3 28 338 98 565 124 378 
815 -0.1071909599727788 -0.08797639553521998 1.0428248230657369 0 0 0 0.44 28 339 53 48 92 110 93 97 124 379 159 35 
816 0.015338551939644469 -0.10160948828181474 1.0294387468827269 0 0 0 0.37 28 340 98 566 124 380 
817 0.06994200694347677 -0.10913687815719758 1.0295574189223116 0 0 0 0.41 28 341 98 567 176 157 
818 -0.06677005768475011 -0.08306871286593366 1.0316432914025244 0 0 0 0.16 28 342 50 266 98 568 
819 0.29880384323652553 -0.14872769853851842 1.0301151239384607 0 0 0 0.21 28 343 98 569 124 381 200 295 
820 -0.0282384868895612 -0.08912538838126295 1.0300193958334534 0 0 0 0.24 28 344 33 177 44 240 50 267 61 181 77 97 98 570 109 49 112 94 124 382 128 42 146 234 148 33 157 281 158 142 159 36 164 87 176 158 185 28 196 38 204 54 213 209 220 39 
821 -0.07325462219630456 -0.08220518515269311 1.0347314117698723 0 0 0 0.27 28 345 61 182 98 571 112 95 157 282 
822 -0.002759400860096724 -0.08448986464184123 1.027756005083179 0 0 0 0.2 28 346 32 77 44 241 50 268 61 183 98 572 124 383 146 235 152 65 157 283 158 143 176 159 
823 -0.06948211761329777 -0.06081394477137003 1.0275266966433492 0 0 0 0.13 28 347 61 184 98 573 112 96 
824 0.3916622613623891 -0.12454312222922863 1.0253751794655817 0 0 0 0.44 28 348 60 45 98 574 124 384 128 43 172 42 
825 0.10260607023510067 -0.07312918434049863 1.019315400721271 0 0 0 0.22 28 349 98 575 157 284 175 70 
826 -0.026123613227567066 -0.04832166254617618 1.0246157386923203 0 0 0 0.19 28 350 98 576 157 285 
827 0.2584428928336301 -0.08264240904391881 1.0211414894796038 0 0 0 0.21 28 351 98 577 128 44 
828 0.36417685917820825 -0.09371667598911466 1.0154076945254176 0 0 0 0.16 28 352 44 242 98 578 
829 -0.2095274455311099 -0.014978598926567601 1.0472874683432378 0 0 0 0.08 124 385 157 286 200 296 
830 -0.0015739156330718792 -0.03089887268802327 1.019782380605071 0 0 0 0.15 28 353 98 579 112 97 157 287 
831 -0.055976897500203036 -0.023417162544535977 1.0210099497294005 0 0 0 0.17 28 354 41 38 61 185 98 580 112 98 157 288 176 160 
832 -0.010838915318591467 -0.02854107780735314 1.0218039231466 0 0 0 0.14 28 355 98 581 157 289 
833 0.010950098471667283 -0.022888200806015647 1.0184973116902178 0 0 0 0.27 28 356 98 582 112 99 157 290 158 144 
834 -0.026606884743453872 -0.007335249794805367 1.0190293123201228 0 0 0 0.3 28 357 98 583 204 55 
835 0.2561983824387223 -0.01134265412070669 1.0069432041415336 0 0 0 0.5 28 358 98 584 200 297 
836 -0.038885567432000646 0.03368631740454159 1.006189402651767 0 0 0 0.22 28 359 50 269 61 186 98 585 157 291 
837 -0.11770949117880951 0.04374634456776083 1.0221512838160722 0 0 0 0.23 28 360 98 586 157 292 
838 -0.11159046813946574 0.04526900333058422 1.0139712314673406 0 0 0 0.32 28 361 98 587 146 236 
839 -0.136905593691969 0.05012408520964727 1.024828144687975 0 0 0 0.26 28 362 98 588 124 386 
840 -0.1304940972710323 0.049949653598326524 1.021625841142614 0 0 0 0.2 28 363 124 387 136 21 200 298 
841 -0.1291340121044438 0.05228241223929609 1.0209182459783306 0 0 0 0.15 124 388 157 293 176 161 200 299 213 210 
842 0.14096765500292863 0.04076630361520499 0.9935503639735282 0 0 0 0.32 28 364 98 589 175 71 
843 -0.032937831677594516 0.05028593118929046 0.9986990355603417 0 0 0 0.23 28 365 98 590 157 294 
844 -0.05562454036584868 0.051932579836259575 1.0080558747567403 0 0 0 0.18 28 366 98 591 112 100 
845 -0.0322361340331048 0.05547420281955934 1.0001674748356313 0 0 0 0.2 28 367 98 592 109 50 124 389 146 237 157 295 214 31 
846 0.036139396192914605 0.06938729378803249 0.9979673827628033 0 0 0 0.17 28 368 98 593 175 72 213 211 
847 0.22029046881267172 0.10905895945781814 0.9828990184362968 0 0 0 0.33 28 369 124 390 158 145 
848 0.22475889812975414 0.11406600387883856 0.9814227020500594 0 0 0 0.24 28 370 98 594 124 391 
849 -0.061534713631761065 -0.1862003964553899 1.0515135462586571 0 0 0 0.57 28 371 71 28 98 595 
850 0.15225759078185727 -0.16637687847740087 1.0369223937015053 0 0 0 0.2 28 372 98 596 124 392 146 238 
851 0.15229720331375798 -0.16634593345245566 1.0370071510056766 0 0 0 0.18 28 373 98 597 146 239 
852 0.09331767030173 -0.13472080875908826 1.0251876992387017 0 0 0 0.2 28 374 93 98 98 598 
853 0.14165477838181237 -0.1462711220404124 1.0366672150861087 0 0 0 0.24 28 375 98 599 124 393 
854 -0.06146721999046358 -0.09674344086530529 1.0330676202379478 0 0 0 0.88 28 376 33 178 40 28 44 243 50 270 60 46 109 51 136 22 158 146 196 39 200 300 223 43 
855 -0.01042656514886985 -0.09699624017676507 1.0318430604146225 0 0 0 0.33 28 377 44 244 50 271 93 99 98 600 152 66 172 43 200 301 
856 0.08771140175805828 -0.10815100695854592 1.029721354711478 0 0 0 0.18 28 378 61 187 98 601 152 67 157 296 176 162 
857 0.07082293357195511 -0.10291717178355485 1.028200417692538 0 0 0 0.37 28 379 50 272 98 602 146 240 157 297 158 147 164 88 213 212 221 30 222 24 
858 -0.07121178211204877 -0.07509772207493938 1.028400272982641 0 0 0 0.24 28 380 32 78 36 38 77 98 92 111 112 101 124 394 146 241 
859 0.10285762974067679 -0.10436203259372158 1.0283344194152375 0 0 0 0.36 28 381 53 49 98 603 124 395 157 298 223 44 
860 0.14102604069343297 -0.10118716015787192 1.0203253667489374 0 0 0 0.28 28 382 44 245 61 188 77 99 98 604 124 396 
861 0.030921537759477483 -0.0743588746098776 1.0235562855088889 0 0 0 0.31 28 383 36 39 98 605 157 299 
862 0.2866690146321676 -0.08580422918278384 1.0209373274275102 0 0 0 0.35 28 384 32 79 61 189 98 606 111 56 152 68 162 23 221 31 
863 -0.07169845682993481 -0.024661963175858333 1.0257061928554774 0 0 0 0.29 28 385 61 190 98 607 158 148 176 163 
864 -0.07160546987683573 -0.020433281572346123 1.0258676853844895 0 0 0 0.29 28 386 98 608 176 164 
865 -0.026562705463976176 -0.011921779817047621 1.019428567930299 0 0 0 0.31 28 387 61 191 98 609 176 165 204 56 
866 -0.15862235212347317 0.04722005137130904 1.0218646081330907 0 0 0 0.31 28 388 124 397 176 166 
867 -0.0714868340568825 0.04693414078527153 1.0029305723541995 0 0 0 0.23 28 389 50 273 61 192 98 610 112 102 157 300 
868 0.14888479803906443 0.03534424124742898 0.9965695683794676 0 0 0 0.38 28 390 98 611 158 149 
869 -0.11882113129065368 0.054735499009965716 1.0198117010433019 0 0 0 0.4 28 391 61 193 98 612 176 167 
870 -0.1408079404197867 0.05950762282792106 1.0239861621708524 0 0 0 1.02 28 392 98 613 213 213 
871 0.13938663591358955 0.04882089917614015 0.9939273713938755 0 0 0 0.34 28 393 53 50 92 112 98 614 112 103 146 242 175 73 176 168 204 57 
872 0.20298678824201125 0.0552389239037725 0.9975042503216778 0 0 0 0.26 28 394 98 615 175 74 
873 -0.185170564782696 0.10726720037454118 1.0144730726345477 0 0 0 0.41 60 47 92 113 124 398 135 45 200 302 213 214 
874 0.029913974787991047 -0.1325316338178071 1.0331677301122801 0 0 0 0.42 28 395 40 29 44 246 50 274 77 100 85 37 93 100 96 40 98 616 146 243 148 34 158 150 159 37 164 89 176 169 185 29 200 303 204 58 219 36 
875 0.1284947865818632 -0.10484541615349384 1.02578919890176 0 0 0 0.37 28 396 44 247 50 275 98 617 109 52 124 399 146 244 152 69 157 301 176 170 
876 -0.0599736912520603 -0.05940236385689162 1.027729961923885 0 0 0 0.24 28 397 98 618 213 215 
877 -0.05994752558085532 -0.04316244522427523 1.0260900819373568 0 0 0 0.23 28 398 61 194 98 619 176 171 221 32 
878 -0.11753133690053455 -0.012187528204679528 1.0324088965977722 0 0 0 0.11 28 399 98 620 111 57 
879 0.011223239495073038 -0.012711875651372686 1.0191351173387093 0 0 0 0.27 28 400 98 621 112 104 158 151 
880 0.06713351908320819 0.04766868062002948 0.997991827192153 0 0 0 0.22 28 401 92 114 98 622 112 105 175 75 176 172 204 59 
881 -0.10093650646447855 0.06587752454016015 1.0096691985693214 0 0 0 0.21 61 195 157 302 158 152 204 60 
882 0.022098381216904567 0.11445306605169231 0.9888050603260684 0 0 0 0.57 28 402 98 623 124 400 
883 0.025551696703865256 0.11718304930134582 0.98888233588935 0 0 0 0.24 28 403 98 624 213 216 
884 -0.06045274490315962 -0.17373724505476812 1.0497023893463557 0 0 0 1.01 28 404 98 625 124 401 
885 0.1044085523522322 -0.11368078539849599 1.0279355940240709 0 0 0 0.15 28 405 98 626 124 402 
886 -0.03810962603962923 0.03981614433282238 1.00814210865194 0 0 0 0.11 28 406 61 196 98 627 158 153 
887 0.006382707690538545 0.11803900310338108 0.9900359530434483 0 0 0 0.47 28 407 44 248 53 51 61 197 98 628 124 403 152 70 
888 -0.0647322976708554 -0.15619279023011656 1.049756347065633 0 0 0 0.31 28 408 98 629 200 304 
889 0.06232839592508981 -0.09708519988609804 1.0282786272198976 0 0 0 0.48 28 409 44 249 98 630 200 305 
890 0.03950182835319922 0.07186988002030718 0.9970997998621213 0 0 0 0.32 28 410 77 101 98 631 
891 -0.03069222188651612 -0.11202644726545767 1.0342952093392606 0 0 0 0.44 28 411 32 80 44 250 50 276 61 198 71 29 77 102 96 41 98 632 152 71 157 303 176 173 200 306 204 61 213 217 219 37 223 45 
892 0.016300694083055435 -0.09477519014993402 1.0304268729589088 0 0 0 0.46 28 412 98 633 162 24 
893 -0.07526262981451012 -0.07438338451359067 1.0375638540040182 0 0 0 0.39 28 413 50 277 98 634 128 45 157 304 176 174 
894 -0.07985288197659698 -0.02102720618463883 1.0257882398055524 0 0 0 0.52 28 414 53 52 98 635 112 106 124 404 158 154 172 44 176 175 219 38 
895 -0.09680726725105251 -0.013162337083468414 1.029584537199171 0 0 0 0.48 28 415 50 278 98 636 158 155 
896 -0.16934050014434746 0.09977422102270911 1.0148056344824161 0 0 0 0.23 61 199 158 156 217 25 
897 -0.06404738401014749 -0.18703180708470332 1.0555807012597755 0 0 0 0.45 28 416 98 637 200 307 
898 0.15261153393578186 -0.09322534650986705 1.0232104376901827 0 0 0 0.28 28 417 98 638 124 405 
899 -0.19293832537430913 0.05544581768299504 1.023680682628732 0 0 0 0.28 71 30 111 58 124 406 
900 0.214038359760807 0.0768605474721611 0.9903881098527576 0 0 0 0.59 28 418 98 639 118 73 
901 -0.10689950838885649 -0.050242307485589506 1.037359473191544 0 0 0 0.46 28 419 44 251 61 200 124 407 157 305 158 157 204 62 
902 -0.10689406494199746 -0.05050297077005549 1.0378336293630597 0 0 0 0.6 28 420 61 201 98 640 124 408 157 306 158 158 172 45 204 63 
903 0.09674479259232685 -0.12874265527012693 1.0277528512511198 0 0 0 0.23 32 81 98 641 146 245 
904 0.09674479259232685 -0.12874265527012693 1.0277528512511198 0 0 0 0.23 32 82 98 642 146 246 
905 -0.10150450239172396 -0.09726409330843926 1.039197931633875 0 0 0 0.29 32 83 33 179 124 409 162 25 200 308 
906 -0.17645631111894333 -0.09663319880191022 1.0524005757611588 0 0 0 0.22 32 84 44 252 124 410 224 34 
907 -0.010650814417495031 -0.0896336329493838 1.0300001752410648 0 0 0 0.45 32 85 33 180 44 253 98 643 124 411 146 247 200 309 
908 0.20126186951995098 0.06617574217561603 0.9968082652794071 0 0 0 0.11 32 86 61 202 98 644 
909 -0.1273869649077169 0.061895808967265736 1.0183193228459313 0 0 0 0.17 32 87 50 279 135 46 158 159 200 310 
910 -0.1714692516927215 0.06226548113029649 1.0253791878606202 0 0 0 0.26 32 88 61 203 135 47 200 311 
911 0.09195286371272024 0.09418809850944508 0.995596636393391 0 0 0 0.22 32 89 44 254 98 645 175 76 
912 0.06994420092300901 0.09508416772385092 0.9916455242227946 0 0 0 0.19 32 90 33 181 98 646 124 412 
913 0.13941150089703244 0.10422994252757693 0.9858754967918594 0 0 0 0.29 32 91 40 30 98 647 111 59 124 413 135 48 158 160 200 312 
914 -0.01004487847562478 -0.10088898684566638 1.0322966066435892 0 0 0 0.16 32 92 98 648 124 414 204 64 
915 -0.19047736867317291 -0.0959968802432847 1.052773541694337 0 0 0 0.27 32 93 44 255 157 307 164 90 224 35 
916 0.0002538192800201634 -0.07900876531601692 1.0267004263021002 0 0 0 0.14 32 94 98 649 158 161 
917 0.18357645851185073 0.06268881368422692 0.991384198497011 0 0 0 0.13 32 95 98 650 124 415 
918 -0.1231433854300531 0.08626287404211715 1.0122011792893153 0 0 0 0.27 32 96 41 39 50 280 60 48 61 204 92 115 110 28 157 308 200 313 
919 -0.06706455954735784 0.10125559126688222 0.9977035458952754 0 0 0 0.3 32 97 98 651 222 25 
920 0.29760040592791653 -0.08572438620810942 1.0208668497797357 0 0 0 0.27 32 98 40 31 50 281 61 205 98 652 152 72 200 314 
921 -0.012056272041433034 0.08660440943218112 1.0015664250056915 0 0 0 0.13 32 99 61 206 98 653 
922 0.08236877859340384 -0.12433552206475709 1.0314314181052076 0 0 0 0.5 32 100 44 256 77 103 93 101 98 654 176 176 
923 -0.0004932035770169174 0.10840975053428968 0.992690224692554 0 0 0 0.3 32 101 50 282 61 207 98 655 152 73 217 26 
924 -0.017194520996975417 0.10891521145555173 0.9942376261633413 0 0 0 0.14 32 102 61 208 98 656 
925 -0.017211865679621872 0.10893027038694562 0.9942041827448925 0 0 0 0.15 32 103 61 209 98 657 152 74 
926 -0.1519573237671515 0.11877142485162506 1.011632379071303 0 0 0 0.48 32 104 50 283 158 162 220 40 
927 -0.02165554813826363 -0.1255401224765981 1.0342247714868096 0 0 0 0.47 33 182 50 284 92 116 98 658 112 107 146 248 157 309 
928 -0.14171300150323266 -0.12894993508040276 1.0562385963696281 0 0 0 0.26 33 183 146 249 157 310 200 315 
929 0.19792669210250352 -0.0968202511718849 1.0184623231627083 0 0 0 0.19 33 184 98 659 124 416 200 316 
930 -0.06068753437506072 -0.10020194699938195 1.0314692760953506 0 0 0 0.46 33 185 98 660 146 250 213 218 
931 -0.009626958798362952 -0.0932802936183663 1.0308559549665453 0 0 0 0.28 33 186 98 661 146 251 200 317 213 219 
932 0.07703871568560237 -0.08139680665972997 1.0237919173622985 0 0 0 0.3 33 187 98 662 124 417 146 252 200 318 213 220 
933 -0.2080606899814269 -0.08350008000284309 1.058834757785696 0 0 0 0.16 33 188 124 418 200 319 
934 -0.22026862606244188 0.04151082181391533 1.041496151290161 0 0 0 0.41 33 189 124 419 148 35 164 91 200 320 
935 -0.2203805622483087 0.041517869125440324 1.041628524348258 0 0 0 0.31 33 190 146 253 164 92 
936 0.18219778851314405 0.06535303130282512 0.9912703971386962 0 0 0 0.56 33 191 98 663 157 311 
937 -0.10513512944770749 0.06528515168760356 1.0095671307497733 0 0 0 0.16 33 192 124 420 157 312 200 321 
938 -0.03671568285965543 0.06689821585815464 1.0014350797261184 0 0 0 0.12 33 193 98 664 124 421 157 313 
939 -0.10889231539762918 0.07353071360526864 1.0103119694861193 0 0 0 0.14 33 194 41 40 44 257 50 285 60 49 93 102 124 422 135 49 146 254 158 163 200 322 213 221 
940 -0.19117378641855678 0.07738247421286255 1.0238129007630719 0 0 0 0.38 33 195 124 423 200 323 
941 -0.002114813138175809 0.08811374842538909 0.9965983579845351 0 0 0 0.13 33 196 93 103 98 665 200 324 
942 -0.01707999178636654 0.08897419826882391 1.0011376067213507 0 0 0 0.09 33 197 98 666 200 325 
943 -0.2089147463727846 0.09346471072025328 1.0277234503947876 0 0 0 0.21 33 198 124 424 146 255 213 222 
944 0.03696296783224452 0.10437030951465374 0.9916792136459224 0 0 0 0.23 33 199 98 667 124 425 
945 -0.11062698721301209 0.10854353914548967 1.004343618945521 0 0 0 0.25 33 200 41 41 44 258 50 286 124 426 157 314 200 326 
946 -0.10861248874324486 0.1086939759951896 1.0039699822703183 0 0 0 0.25 33 201 41 42 124 427 157 315 200 327 
947 -0.03192600189912345 0.11056529889389802 0.9940521721962033 0 0 0 0.27 33 202 60 50 93 104 98 668 124 428 146 256 200 328 
948 -0.033788317268638374 0.111168211877041 0.993687320063085 0 0 0 0.27 33 203 44 259 60 51 124 429 200 329 
949 -0.11156282614523151 0.11632464656149148 1.002879056955024 0 0 0 0.46 33 204 124 430 157 316 
950 -0.03547636253483253 0.11891270632924349 0.9922898849051232 0 0 0 0.58 33 205 41 43 93 105 
951 -0.156875130732564 0.1209093433606069 1.0093140234924824 0 0 0 0.21 33 206 124 431 157 317 200 330 
952 -0.15816567988479036 0.1227966856728147 1.009150359901012 0 0 0 0.19 33 207 124 432 157 318 
953 -0.07320746579138701 0.12462422601512753 0.9926314521412637 0 0 0 0.19 33 208 44 260 200 331 
954 -0.15810951534990772 0.1264726600939646 1.0083967038496107 0 0 0 0.22 33 209 50 287 124 433 157 319 200 332 
955 -0.037741998744473315 0.12654104223118295 0.99166048750355 0 0 0 0.24 33 210 98 669 124 434 200 333 
956 -0.1088650422843018 0.13456748047708833 0.9989926949402246 0 0 0 0.18 33 211 41 44 50 288 124 435 157 320 176 177 200 334 
957 -0.13764359677480512 0.061947680820290583 1.0206071574716067 0 0 0 0.41 33 212 124 436 135 50 
958 -0.19150843511004098 0.08818570754231043 1.0214227841567989 0 0 0 0.24 33 213 50 289 60 52 61 210 135 51 157 321 158 164 200 335 
959 -0.19153016023633063 0.0881479194181659 1.0213478362667416 0 0 0 0.22 33 214 50 290 61 211 124 437 135 52 157 322 158 165 200 336 
960 -0.039273629463979685 -0.11352289810170027 1.0332616000429864 0 0 0 0.56 33 215 77 104 92 117 96 42 98 670 111 60 157 323 176 178 
961 -0.1411578470834026 0.09138478703256415 1.0161013117520452 0 0 0 0.45 33 216 44 261 92 118 146 257 157 324 158 166 
962 -0.1572941458043402 0.1117230408591181 1.0111230714978767 0 0 0 0.2 33 217 50 291 200 337 
963 -0.13603428464307155 0.061628342735982576 1.0186251433651297 0 0 0 0.43 33 218 44 262 111 61 124 438 158 167 220 41 
964 0.03150114924872017 -0.08953522302227791 1.0273470665217213 0 0 0 0.29 36 40 61 212 98 671 124 439 176 179 
965 0.09235802024346676 -0.1302731799006267 1.0279563836045746 0 0 0 0.19 36 41 44 263 98 672 146 258 
966 0.023196730666049877 -0.10526035163067339 1.030498216406734 0 0 0 0.47 36 42 92 119 96 43 98 673 172 46 
967 0.11525973164444585 -0.08736932160052717 1.0226852468212762 0 0 0 0.23 36 43 50 292 98 674 146 259 157 325 
968 -0.06304136022968039 -0.0984121808709677 1.0314252949140301 0 0 0 0.14 44 264 61 213 146 260 157 326 213 223 
969 -0.06509874222653296 -0.05747188818317114 1.026163155310871 0 0 0 0.33 38 29 50 293 98 675 112 108 157 327 
970 -0.1129230999853716 0.13848295043892003 0.9995174362561826 0 0 0 0.18 124 440 157 328 200 338 
971 0.19323259309684265 -0.09021472628655366 1.0225438491904413 0 0 0 0.23 40 32 98 676 200 339 
972 -0.039768867846252824 0.08932600689574807 0.9977606668890685 0 0 0 0.2 41 45 98 677 200 340 
973 -0.1090576920322029 0.11339861505388017 1.0025164690074229 0 0 0 0.22 41 46 50 294 157 329 
974 -0.10677182811547895 0.13541021223974994 0.9988899953809817 0 0 0 0.13 41 47 92 120 146 261 
975 0.18202680186766812 -0.06913447863797532 1.0190846099780613 0 0 0 0.19 41 48 98 678 222 26 
976 -0.10934401141784837 0.1281536765982744 1.0005338762812197 0 0 0 0.16 41 49 50 295 157 330 158 168 204 65 
977 -0.008008790996483975 -0.10912239035605147 1.0338955625749566 0 0 0 0.38 44 265 98 679 109 53 176 180 
978 -0.0062629175665733765 -0.09698259806463397 1.0313146265631 0 0 0 0.12 44 266 50 296 98 680 128 46 157 331 
979 -0.028247385161942546 -0.08909162792907019 1.0297597850120552 0 0 0 0.17 44 267 61 214 93 106 98 681 124 441 148 36 158 169 164 93 196 40 200 341 220 42 
980 0.08731469262481142 -0.08163165770094802 1.0229940897064915 0 0 0 0.24 44 268 61 215 98 682 158 170 
981 0.005838811690166499 -0.08168710551608209 1.0258074452766237 0 0 0 0.12 44 269 98 683 124 442 
982 -0.15015592302741873 -0.07172705298765586 1.044787834190515 0 0 0 0.06 44 270 50 297 61 216 
983 0.038183351692646327 0.0364060656525514 1.0023637439178157 0 0 0 0.13 44 271 98 684 175 77 
984 -0.05130476883374914 0.06410847373150272 1.0063685780893308 0 0 0 0.25 44 272 98 685 124 443 200 342 
985 -0.14571695687226252 0.0641073295235988 1.0178279786375244 0 0 0 0.31 44 273 124 444 135 53 157 332 
986 0.03164519252423796 0.07933809980584618 0.9965066895574763 0 0 0 0.16 44 274 50 298 98 686 175 78 200 343 
987 -0.0868353605982128 0.09055904043834195 1.007051124495253 0 0 0 0.18 44 275 50 299 61 217 200 344 
988 0.031110617392967957 0.09660542583125868 0.9937436393110582 0 0 0 0.1 44 276 98 687 175 79 200 345 
989 -0.1289256967335652 -0.15050751372959317 1.0544815942715087 0 0 0 1.05 44 277 93 107 124 445 200 346 223 46 
990 0.09277770894045875 -0.13048616893130882 1.0285818410380947 0 0 0 0.33 44 278 98 688 146 262 200 347 
991 -0.10876792872437546 0.07055618842533998 1.0111052215566732 0 0 0 0.13 44 279 93 108 135 54 
992 0.00024301928469997716 0.07554398333892622 0.998241331965307 0 0 0 0.18 44 280 98 689 135 55 
993 0.10299465230521761 0.11199771038854386 0.9869310583811269 0 0 0 0.25 44 281 98 690 110 29 
994 -0.0001210776480750857 0.06164310619758354 0.9993748338274526 0 0 0 0.33 44 282 98 691 124 446 152 75 158 171 200 348 
995 -0.19306225635883367 -0.06304749586963397 1.0518167056982044 0 0 0 0.55 44 283 92 121 124 447 
996 -0.06576995191568864 -0.08570991019221336 1.032306800190181 0 0 0 0.03 50 300 98 692 112 109 
997 0.0959204267440538 -0.0866402327879694 1.0247383881400396 0 0 0 0.27 50 301 77 105 98 693 124 448 200 349 
998 0.32124088967422065 -0.0814586042083508 1.0182150457809165 0 0 0 0.07 50 302 98 694 124 449 
999 -0.1037468762026138 -0.060307192505567084 1.037576489344122 0 0 0 0.26 50 303 98 695 146 263 
1000 -0.22080536910129706 -0.05394465601108242 1.0593089880023665 0 0 0 0.51 50 304 124 450 148 37 158 172 176 181 200 350 
1001 -0.005691068240829882 -0.030849508666724396 1.0227675440003763 0 0 0 0.23 50 305 98 696 124 451 157 333 
1002 -0.1989731218328777 -0.02131240264314121 1.0468663883279052 0 0 0 0.17 50 306 146 264 157 334 213 224 
1003 -0.07725890310679918 -0.02510144014886641 1.0268711669827606 0 0 0 0.26 50 307 98 697 112 110 176 182 
1004 -0.039771014473329966 -0.01620456383926935 1.0204450043784727 0 0 0 0.16 50 308 61 218 98 698 124 452 157 335 214 32 
1005 -0.07017971908499238 0.04392104792902299 1.0045915788751625 0 0 0 0.17 50 309 61 219 98 699 
1006 -0.11652328345563352 0.0485807296881385 1.0150130538756665 0 0 0 0.33 50 310 124 453 146 265 176 183 
1007 -0.0029243361398013958 0.0474713685141755 1.001444056689827 0 0 0 0.14 50 311 61 220 98 700 112 111 124 454 158 173 
1008 -0.07980730720622475 0.061937806765889405 1.0109899071875335 0 0 0 0.2 50 312 98 701 213 225 
1009 -0.1635823888991936 0.0648724538918597 1.021997334496773 0 0 0 0.16 50 313 61 221 157 336 
1010 0.24386411010502249 0.06632698473177848 0.9915285172270913 0 0 0 0.17 50 314 92 122 98 702 124 455 
1011 -0.04632276177786891 0.09123473862337456 1.0021849587000484 0 0 0 0.2 50 315 98 703 124 456 
1012 -0.01895158831649098 0.09105290565746484 1.0007341270501315 0 0 0 0.34 50 316 93 109 98 704 124 457 200 351 
1013 -0.18561889203651058 0.10021848351060608 1.0143052721397667 0 0 0 0.2 50 317 93 110 135 56 200 352 
1014 0.06995509387092234 0.09865834876579387 0.9910520143817204 0 0 0 0.06 50 318 98 705 124 458 
1015 0.06995509387092234 0.09865834876579387 0.9910520143817204 0 0 0 0.06 50 319 98 706 124 459 
1016 -0.15651707125275 0.10425128543405322 1.0089961494843223 0 0 0 0.12 50 320 61 222 157 337 
1017 0.14443579337328405 0.12546980771980426 0.9818722301900563 0 0 0 0.17 50 321 98 707 124 460 
1018 0.028626145278464375 0.12681055209978576 0.9868242322786255 0 0 0 0.25 50 322 98 708 124 461 158 174 
1019 -0.12747022581885728 -0.15446180503758294 1.0556990971941886 0 0 0 0.66 50 323 146 266 200 353 
1020 0.09140415987484038 -0.12621916486206203 1.0308085432670286 0 0 0 0.11 50 324 98 709 204 66 
1021 -0.1479517595867666 -0.08727830846803754 1.0492378652292087 0 0 0 0.37 50 325 118 74 204 67 213 226 224 36 
1022 0.08399095369036626 -0.09176251710648431 1.02620037330595 0 0 0 0.33 50 326 61 223 77 106 98 710 124 462 146 267 157 338 
1023 0.3079767342103075 -0.0944792498117413 1.0173324502831496 0 0 0 0.25 50 327 98 711 124 463 
1024 -0.18990936971528397 -0.06339675770308417 1.0493417050603493 0 0 0 0.18 50 328 158 175 204 68 219 39 
1025 0.31930145447644953 -0.08436216008055475 1.0188702534756797 0 0 0 0.31 50 329 98 712 158 176 
1026 0.3009661140788572 -0.08149993646775266 1.018432947271087 0 0 0 0.2 50 330 61 224 98 713 200 354 
1027 0.027865901840896108 -0.016212009907009002 1.0172976880572622 0 0 0 0.08 50 331 98 714 157 339 
1028 -0.0403034845200963 -0.013318900216609269 1.0221045352476432 0 0 0 0.2 50 332 98 715 157 340 172 47 176 184 
1029 0.06222263708783626 -0.015134744972581009 1.0160865692502656 0 0 0 0.2 50 333 61 225 98 716 124 464 158 177 
1030 -0.017702663712249052 -0.010341858899616228 1.0225731055914573 0 0 0 0.16 50 334 98 717 124 465 
1031 -0.012302355941598115 -0.010266147313177836 1.0217083744393478 0 0 0 0.05 50 335 98 718 135 57 
1032 -0.10560148054138466 0.06101196308564582 1.0110510079422734 0 0 0 0.37 50 336 53 53 61 226 124 466 158 178 176 185 204 69 
1033 -0.05865083992191675 0.061295236030769855 1.0039630023786383 0 0 0 0.14 50 337 61 227 158 179 
