# 3D point list with one line of data per point:
#   POINT3D_ID, X, Y, Z, R, G, B, ERROR, TRACK[] as (IMAGE_ID, POINT2D_IDX)
# Number of points: 395, mean track length: 6.29
20 0.369564506123028 0.2000061714788305 1.0826103071460291 0 0 0 0.33 128 20 147 5 152 9 182 1 190 6 232 4 
21 0.27195096772924626 0.30553577965683676 1.0088629881379623 0 0 0 0.36 128 21 147 6 158 6 160 19 172 4 181 0 182 2 190 7 197 0 200 4 213 4 221 4 
22 -0.1468520217338531 0.07726977869425254 1.0380057179617697 0 0 0 0.48 128 22 152 10 157 5 160 20 162 1 164 3 176 10 179 2 213 5 224 2 
23 -0.1398469465540743 0.07686416738520317 1.0352388623724975 0 0 0 0.38 128 23 146 3 148 2 152 11 157 6 160 21 162 2 176 11 179 3 181 1 213 6 217 9 220 2 221 5 232 5 
24 0.03193646580228583 0.081041411689838 1.0483185177824148 0 0 0 0.77 128 24 152 12 160 22 176 12 185 3 204 8 219 6 223 2 
25 -0.0015464955735975134 0.08410645997604377 1.043901228465424 0 0 0 0.47 128 25 129 0 146 4 147 7 148 3 152 13 157 7 158 7 159 6 160 23 164 4 172 5 176 13 185 4 190 8 196 3 198 0 199 1 204 9 213 7 217 10 219 7 220 3 221 6 223 3 
26 -0.24425928751592257 0.08389368756280928 1.0303546166509803 0 0 0 0.31 128 26 152 14 157 8 160 24 217 11 
27 -0.24042114726575578 0.08875464527224118 1.0347249642071192 0 0 0 0.47 128 27 152 15 160 25 190 9 198 1 213 8 217 12 220 4 224 3 232 6 
28 -0.20459430426378547 0.0981406998343063 1.0257036341131442 0 0 0 0.29 128 28 152 16 160 26 164 5 181 2 185 5 213 9 219 8 220 5 221 7 232 7 
29 -0.20454423494962795 0.09815782765702465 1.0253892143296368 0 0 0 0.31 128 29 152 17 160 27 176 14 181 3 204 10 213 10 220 6 221 8 224 4 232 8 
30 0.04411464526010604 0.1010412767752232 1.0495291895300447 0 0 0 0.29 128 30 147 8 152 18 157 9 160 28 164 6 198 2 213 11 217 13 222 5 232 9 
31 -0.05344526637462616 0.10535703397445943 1.028056190864297 0 0 0 0.49 128 31 129 1 147 9 152 19 158 8 160 29 172 6 222 6 232 10 
32 0.12475893588656266 0.14217526098204808 1.0491686847490356 0 0 0 0.4 128 32 152 20 157 10 160 30 176 15 198 3 213 12 
33 0.05586956253997061 0.18145401557953114 1.0327853695472407 0 0 0 0.21 128 33 152 21 160 31 
34 0.19901595356507293 0.20547201925044697 1.043205112023182 0 0 0 0.29 128 34 152 22 157 11 160 32 172 7 176 16 182 3 197 1 204 11 213 13 219 9 
35 0.2117508105123534 0.25417759156469966 1.0153599506237672 0 0 0 0.46 128 35 147 10 152 23 157 12 160 33 164 7 181 4 182 4 190 10 213 14 217 14 220 7 222 7 232 11 
36 0.08412842078348534 0.2581988982024836 0.9918905009491997 0 0 0 0.26 128 36 146 5 152 24 158 9 160 34 164 8 172 8 176 17 181 5 190 11 204 12 213 15 217 15 219 10 221 9 232 12 
37 -0.19836886215982147 0.09784133221586894 1.029996305627462 0 0 0 0.39 128 37 152 25 159 7 160 35 172 9 176 18 204 13 219 11 224 5 
38 -0.23856957618242303 0.09835498995956754 1.0271837531378178 0 0 0 0.38 128 38 148 4 152 26 160 36 179 4 204 14 213 16 217 16 219 12 224 6 
39 -0.2106862883793171 0.09748297287443704 1.0233566064037019 0 0 0 0.33 128 39 152 27 159 8 160 37 172 10 176 19 179 5 181 6 204 15 219 13 220 8 224 7 
40 0.24071649897844363 0.10797719697549431 1.0913084126321348 0 0 0 0.35 128 40 129 2 147 11 152 28 160 38 176 20 182 5 190 12 204 16 213 17 221 10 223 4 232 13 
41 -0.17251106196641675 0.10410682326122628 1.0220598772155458 0 0 0 0.9 128 41 152 29 160 39 176 21 190 13 204 17 217 17 219 14 232 14 
42 -0.18630763234620953 0.1305637879421031 1.0108592578753943 0 0 0 0.37 128 42 152 30 157 13 158 10 160 40 162 3 179 6 181 7 196 4 200 5 213 18 217 18 219 15 224 8 232 15 
43 0.05261186306021353 0.13950100988170214 1.033812608682427 0 0 0 0.14 128 43 152 31 157 14 158 11 160 41 221 11 
44 0.10022426118879654 0.1426463349431468 1.0368399818680507 0 0 0 0.39 128 44 129 3 152 32 160 42 213 19 
45 -0.33807327399286946 0.15072513491543757 1.0017259869358988 0 0 0 0.39 157 15 160 43 181 8 217 19 221 12 232 16 
46 -0.337800391521535 0.15059262712161392 1.0010823961548705 0 0 0 0.3 128 45 157 16 160 44 179 7 181 9 199 2 204 18 217 20 219 16 221 13 232 17 
47 0.3705575470652334 0.18366476120466538 1.0996142232275992 0 0 0 0.24 128 46 172 11 182 6 
48 0.2225689261845167 0.2522225501765771 1.019774100924845 0 0 0 0.33 128 47 160 45 172 12 182 7 213 20 
49 0.17634620480241547 0.2576905632132115 1.0057963757832977 0 0 0 0.36 128 48 129 4 158 12 160 46 172 13 181 10 198 4 199 3 219 17 222 8 
50 0.1609720229835003 0.09245783346903651 1.0795822126269892 0 0 0 0.56 128 49 129 5 148 5 152 33 160 47 162 4 176 22 181 11 190 14 204 19 
51 -0.042452949862674574 0.10021990819392328 1.0330974570163258 0 0 0 0.48 128 50 129 6 147 12 160 48 190 15 199 4 221 14 
52 0.16231002166705188 0.10526414877092481 1.0782225475503049 0 0 0 0.37 128 51 152 34 160 49 204 20 232 18 
53 0.11447379655998453 0.14106354461586892 1.0402012406633492 0 0 0 0.61 128 52 147 13 152 35 160 50 172 14 176 23 190 16 196 5 204 21 213 21 219 18 232 19 
54 -0.329525534396168 0.15679268559866816 0.9933500141004848 0 0 0 0.43 148 6 157 17 159 9 160 51 162 5 164 9 172 15 176 24 179 8 181 12 190 17 198 5 199 5 213 22 217 21 219 19 220 9 221 15 224 9 232 20 
55 -0.24758791225348534 0.09831424060891225 1.023096247826543 0 0 0 0.32 128 53 152 36 157 18 160 52 176 25 181 13 190 18 204 22 213 23 219 20 232 21 
56 -0.2480238537180638 0.09855860799179657 1.0244169795991258 0 0 0 0.25 128 54 160 53 181 14 204 23 217 22 220 10 232 22 
57 0.31008866728056084 0.1141643347111091 1.1214050162491358 0 0 0 0.7 128 55 129 7 152 37 160 54 204 24 
58 -0.24446409271843994 0.11331210235213718 1.0164730479437563 0 0 0 0.68 128 56 148 7 157 19 160 55 164 10 176 26 181 15 217 23 219 21 220 11 221 16 224 10 
59 0.1692220351790519 0.12214256256144884 1.0676752548045532 0 0 0 0.66 128 57 147 14 160 56 181 16 190 19 196 6 204 25 217 24 220 12 221 17 232 23 
60 0.14110664789173266 0.1223067400825497 1.0558421731502015 0 0 0 0.48 128 58 129 8 146 6 147 15 148 8 152 38 157 20 160 57 164 11 181 17 185 6 198 6 199 6 204 26 213 24 217 25 219 22 220 13 221 18 222 9 232 24 
61 0.21893653833776353 0.1822116895710103 1.1263306798786905 0 0 0 0.38 128 59 152 39 160 58 172 16 
62 0.28055878502537496 0.2899420688804184 1.017478141127053 0 0 0 0.4 128 60 129 9 147 16 158 13 160 59 182 8 200 6 
63 0.11957399911068559 0.10544417726141737 1.0588455450757006 0 0 0 0.52 128 61 148 9 152 40 160 60 162 6 176 27 196 7 217 26 220 14 221 19 223 5 
64 0.24307524255330493 0.14037361466483841 1.075296643426048 0 0 0 0.48 128 62 147 17 152 41 160 61 164 12 222 10 
65 0.11824692749509458 0.17264591368516186 1.032874016451801 0 0 0 0.49 128 63 129 10 147 18 152 42 160 62 200 7 204 27 217 27 220 15 221 20 232 25 
66 0.11813653833241262 0.172993033552238 1.0339818068405753 0 0 0 0.47 128 64 129 11 147 19 152 43 160 63 204 28 217 28 220 16 221 21 232 26 
67 0.2222808334721136 0.17816530047222187 1.0528393247217802 0 0 0 0.28 128 65 152 44 160 64 222 11 
68 0.12022769070847732 0.20199396193901054 1.026326604503636 0 0 0 0.43 128 66 146 7 152 45 157 21 160 65 172 17 197 2 204 29 213 25 221 22 232 27 
69 0.12023329478223828 0.20181553428432045 1.0259994409704898 0 0 0 0.45 128 67 147 20 152 46 157 22 160 66 172 18 197 3 204 30 213 26 232 28 
70 0.26333451916563155 0.28612731156172827 1.0113311685709865 0 0 0 0.31 128 68 160 67 182 9 190 20 
71 0.12316472655278891 0.09678231436881911 1.0634564339864205 0 0 0 0.48 129 12 147 21 152 47 157 23 160 68 164 13 176 28 190 21 204 31 213 27 223 6 
72 0.24069224710118378 0.10801434678016493 1.0914000869306424 0 0 0 0.3 129 13 147 22 152 48 160 69 176 29 182 10 190 22 197 4 204 32 213 28 223 7 232 29 
73 0.3388556412197327 0.11426279173456143 1.118614391867987 0 0 0 0.1 129 14 152 49 190 23 
74 0.05061816529737011 0.13246542259589647 1.0294303028921932 0 0 0 0.71 129 15 157 24 160 70 164 14 204 33 217 29 
75 0.016926186799446817 0.13719539971898995 1.024968089650882 0 0 0 0.18 129 16 152 50 160 71 
76 0.16193727376635625 0.16842860858891864 1.0534885098330071 0 0 0 0.22 129 17 152 51 160 72 
77 0.07566080346277029 0.19937905769800007 1.015328938190423 0 0 0 0.48 129 18 152 52 160 73 179 9 199 7 
78 0.09084287125470791 0.20160358032646375 1.0241593949266408 0 0 0 0.19 129 19 160 74 179 10 221 23 
79 0.015761556459809492 0.09247976037969045 1.0470300177235756 0 0 0 0.18 129 20 147 23 152 53 157 25 160 75 176 30 213 29 221 24 
80 0.14385800334371582 0.10393949205116142 1.0680589050542808 0 0 0 0.53 129 21 147 24 148 10 152 54 158 14 159 10 160 76 162 7 164 15 176 31 179 11 181 18 185 7 196 8 198 7 204 34 213 30 219 23 220 17 222 12 
81 0.26725433630243295 0.10931751898916978 1.1009776507543831 0 0 0 0.26 129 22 152 55 160 77 176 32 182 11 204 35 222 13 
82 0.1195815384430233 0.1353947715647821 1.0477514159180505 0 0 0 0.32 129 23 146 8 152 56 157 26 158 15 159 11 160 78 162 8 176 33 179 12 196 9 197 5 198 8 200 8 204 36 217 30 219 24 220 18 223 8 
83 0.1884081111906689 0.13827571677546424 1.0617225448058332 0 0 0 0.45 129 24 152 57 160 79 181 19 182 12 199 8 200 9 204 37 217 31 219 25 220 19 
84 0.2983451505348683 0.31252561365500336 1.0085700318569097 0 0 0 0.23 129 25 160 80 182 13 200 10 
85 0.1955377922101449 0.3170846782427187 0.9848841410282984 0 0 0 0.39 129 26 160 81 200 11 
86 0.14390344044923328 0.0902112403523563 1.0724607228576502 0 0 0 0.55 129 27 152 58 158 16 160 82 164 16 181 20 204 38 213 31 219 26 
87 0.2225610991696861 0.12329202596574938 1.0732050232599988 0 0 0 0.44 129 28 147 25 148 11 152 59 159 12 160 83 164 17 182 14 190 24 196 10 197 6 199 9 204 39 213 32 217 32 220 20 223 9 232 30 
88 0.15424064057158896 0.13662225038723938 1.053095175715714 0 0 0 0.46 129 29 147 26 148 12 159 13 160 84 162 9 172 19 179 13 199 10 204 40 217 33 219 27 220 21 232 31 
89 0.16009938960614128 0.14559437335398018 1.0546539506869999 0 0 0 0.18 129 30 152 60 199 11 
90 -0.01971565736221088 0.07931725389555483 1.038392174292145 0 0 0 0.2 129 31 152 61 160 85 221 25 
91 0.17239435504733797 0.10405242400289179 1.0750661715790553 0 0 0 0.32 129 32 152 62 160 86 179 14 181 21 190 25 204 41 213 33 217 34 219 28 232 32 
92 0.27578003435757364 0.10906932751015652 1.0957831943181497 0 0 0 0.28 129 33 147 27 152 63 160 87 182 15 213 34 217 35 
93 0.14048716750061938 0.12289687673149137 1.0568474494274087 0 0 0 0.47 129 34 152 64 158 17 160 88 198 9 199 12 204 42 
94 0.13290921306910455 0.13385342984832008 1.0496060520833006 0 0 0 0.76 129 35 146 9 152 65 157 27 160 89 179 15 190 26 198 10 213 35 223 10 
95 0.13287499695892258 0.1337851571351169 1.049857737622309 0 0 0 0.75 129 36 146 10 152 66 157 28 160 90 190 27 198 11 213 36 223 11 
96 0.18735558799991883 0.10266254339541968 1.077624290537652 0 0 0 0.5 129 37 148 13 152 67 159 14 160 91 176 34 181 22 190 28 197 7 204 43 213 37 217 36 219 29 220 22 221 26 232 33 
97 0.16995089435982808 0.12231425986489194 1.066935043404665 0 0 0 0.61 129 38 152 68 160 92 162 10 196 11 199 13 204 44 217 37 220 23 
98 0.20327842332653176 0.12259326895211652 1.0732961112142236 0 0 0 0.66 129 39 160 93 182 16 197 8 217 38 220 24 
99 0.24499578317187964 0.12385747827912871 1.080186072767357 0 0 0 0.56 129 40 147 28 148 14 152 69 160 94 164 18 176 35 181 23 182 17 190 29 196 12 204 45 213 38 217 39 220 25 223 12 232 34 
100 0.26034920843570186 0.13702930039317254 1.0781457372055094 0 0 0 0.43 129 41 152 70 159 15 160 95 164 19 176 36 182 18 198 12 199 14 200 12 217 40 222 14 223 13 232 35 
101 0.26026879127409197 0.1371568483974284 1.0784601420924054 0 0 0 0.46 129 42 152 71 159 16 160 96 176 37 182 19 198 13 199 15 217 41 223 14 
102 0.17182796818496557 0.13837467539966172 1.0591296679259197 0 0 0 0.45 129 43 147 29 152 72 160 97 162 11 198 14 220 26 232 36 
103 0.177281996715716 0.2833958741264134 0.9960296462473077 0 0 0 0.36 129 44 147 30 158 18 160 98 199 16 200 13 217 42 221 27 
104 0.2799008414940512 0.28846202245381136 1.0141558951322556 0 0 0 0.26 129 45 147 31 160 99 182 20 190 30 
105 0.20698639553100173 0.13869889126392562 1.062427394524225 0 0 0 0.59 129 46 147 32 152 73 181 24 222 15 
106 0.2068771758071624 0.13859326051316184 1.0633486931872331 0 0 0 0.5 129 47 147 33 148 15 152 74 160 100 162 12 196 13 198 15 222 16 
107 0.06474408331205758 0.16369558462614406 1.0313364429362883 0 0 0 0.91 129 48 152 75 160 101 176 38 200 14 223 15 
108 0.10044162200774806 0.1655061690886973 1.0373024390842327 0 0 0 0.27 129 49 152 76 160 102 221 28 
109 0.13610637589856034 0.16681429555988203 1.040039145617492 0 0 0 0.26 129 50 152 77 160 103 162 13 217 43 220 27 
110 0.191168468641612 0.1772673137334993 1.0566752216956168 0 0 0 0.11 129 51 152 78 160 104 
111 0.1537721639484556 0.17701945187196208 1.0384808899386244 0 0 0 0.21 129 52 147 34 152 79 160 105 220 28 
112 0.20914101906322144 0.19470868557537524 1.046763415566888 0 0 0 0.24 129 53 152 80 160 106 172 20 182 21 213 39 217 44 221 29 222 17 232 37 
113 0.2267518396843799 0.22485363511458356 1.0430928880004717 0 0 0 0.35 129 54 152 81 160 107 
114 0.06207377213756884 0.09779739659034348 1.0574773102325117 0 0 0 1.8 129 55 147 35 148 16 152 82 160 108 162 14 164 20 190 31 196 14 198 16 220 29 
115 0.31450035387968733 0.13555630312115252 1.090928054207566 0 0 0 0.15 147 36 152 83 160 109 182 22 217 45 
116 0.007752801639221371 0.10126829422052117 1.0416512986541628 0 0 0 0.39 147 37 148 17 152 84 157 29 160 110 164 21 196 15 213 40 217 46 224 11 232 38 
117 -0.02141195919900778 0.11457306215985509 1.0312677957010241 0 0 0 0.21 152 85 160 111 200 15 217 47 
118 0.3005167090384428 0.13521843281883383 1.0906665667437276 0 0 0 0.11 152 86 160 112 182 23 217 48 
119 -0.2894490290190759 0.12496070521002807 1.0110327400145445 0 0 0 0.22 152 87 157 30 160 113 164 22 190 32 200 16 204 46 213 41 224 12 232 39 
120 -0.2957992147718437 0.12498872500055719 1.009770593676083 0 0 0 0.27 152 88 157 31 159 17 160 114 164 23 176 39 190 33 196 16 204 47 213 42 224 13 
121 0.10484884201468031 0.25833039674729374 0.986558447581115 0 0 0 0.62 146 11 152 89 160 115 175 0 176 40 200 17 213 43 219 30 221 30 
122 0.008887352688720594 0.0820996966592528 1.0484159498686436 0 0 0 0.37 147 38 148 18 158 19 160 116 164 24 219 31 221 31 232 40 
123 0.06409338532558026 0.08811947925890873 1.0549730803463024 0 0 0 0.31 157 32 160 117 176 41 223 16 
124 0.04197520148776824 0.09002218281674909 1.055162131162309 0 0 0 0.15 158 20 160 118 190 34 222 18 
125 -0.2642922561523628 0.08894753473862368 1.0292005615330544 0 0 0 0.2 152 90 157 33 160 119 204 48 213 44 217 49 219 32 232 41 
126 0.21780593961295225 0.1312812604273614 1.0687481633363776 0 0 0 0.08 147 39 152 91 160 120 
127 0.16114292309484476 0.1299171737221006 1.0628366419052147 0 0 0 0.4 152 92 158 21 160 121 217 50 
128 0.19853887906944806 0.19297597253026463 1.0468781316901672 0 0 0 0.28 152 93 160 122 196 17 220 30 221 32 232 42 
129 0.17628124972110606 0.25097595348545554 1.0081445093239076 0 0 0 0.4 147 40 148 19 152 94 159 18 160 123 204 49 213 45 217 51 219 33 232 43 
130 0.14070579933472196 0.25183472544157176 0.9963383681295369 0 0 0 0.16 146 12 152 95 160 124 176 42 190 35 204 50 222 19 232 44 
131 -0.2586079560872801 0.07618079633004084 1.0351491611319619 0 0 0 0.25 160 125 179 16 181 25 190 36 198 17 204 51 213 46 219 34 232 45 
132 0.09322845889508005 0.10101499019388996 1.0574636823831043 0 0 0 0.49 146 13 147 41 148 20 152 96 157 34 158 22 159 19 160 126 164 25 172 21 176 43 185 8 196 18 199 17 204 52 219 35 220 31 221 33 222 20 223 17 
133 0.3433188264930805 0.11115358015714213 1.1126194692413416 0 0 0 0.18 152 97 182 24 190 37 197 9 232 46 
134 -0.046194596708830304 0.10868148885745917 1.0289873939900331 0 0 0 0.39 146 14 148 21 152 98 160 127 162 15 164 26 172 22 196 19 200 18 217 52 223 18 224 14 232 47 
135 0.04189499198435761 0.13314847708972577 1.033012485719505 0 0 0 0.53 146 15 147 42 152 99 160 128 164 27 200 19 213 47 217 53 
136 -0.2643571469437138 0.13290867223839606 1.0056182335026844 0 0 0 0.33 159 20 160 129 176 44 196 20 204 53 219 36 
137 0.2869473353846729 0.3200054017095923 1.0033134656987397 0 0 0 0.33 160 130 172 23 182 25 197 10 222 21 
138 0.1260860399870055 0.12400186993542733 1.0550263766152763 0 0 0 0.35 146 16 147 43 148 22 152 100 157 35 158 23 159 21 160 131 164 28 172 24 176 45 179 17 181 26 185 9 199 18 200 20 204 54 217 54 219 37 220 32 221 34 222 22 232 48 
139 0.1561529531471431 0.20832158145037433 1.0279533200412618 0 0 0 0.51 146 17 152 101 158 24 159 22 160 132 190 38 199 19 200 21 213 48 219 38 223 19 232 49 
140 0.15626762375064754 0.20801732880502322 1.026375352102619 0 0 0 0.63 146 18 152 102 157 36 158 25 159 23 160 133 162 16 164 29 176 46 185 10 190 39 196 21 197 11 199 20 200 22 213 49 219 39 220 33 221 35 222 23 223 20 232 50 
141 0.18823487855758672 0.2516611067647989 1.014911015674399 0 0 0 0.37 152 103 157 37 160 134 172 25 182 26 
142 0.1046654051129533 0.12595140952291256 1.046710243525083 0 0 0 0.97 146 19 158 26 160 135 176 47 199 21 200 23 217 55 219 40 
143 0.3608738694802214 0.14581696528840457 1.0999931188191767 0 0 0 0.34 152 104 217 56 220 34 
144 0.18904919076747084 0.15228154221013104 1.0581955023548741 0 0 0 0.49 147 44 152 105 160 136 162 17 204 55 217 57 220 35 221 36 
145 0.29092027210721516 0.08896004767214284 1.1047910380578947 0 0 0 0.2 160 137 182 27 204 56 
146 -0.25685093561851224 0.09022405356444245 1.0233503669327026 0 0 0 0.28 160 138 179 18 219 41 
147 0.23885549231013084 0.11878100367679144 1.0752546430025183 0 0 0 0.26 152 106 160 139 182 28 190 40 204 57 213 50 
148 0.14251550809670738 0.1286422991199432 1.0574084006871334 0 0 0 0.16 146 20 160 140 176 48 204 58 213 51 217 58 219 42 
149 0.3696778157175959 0.21148155537562377 1.076405261676135 0 0 0 0.42 147 45 182 29 190 41 199 22 213 52 
150 0.03339647434491029 0.08744761654456125 1.051821724206586 0 0 0 0.31 146 21 147 46 157 38 160 141 164 30 176 49 190 42 213 53 217 59 220 36 221 37 
151 0.23702022519888968 0.09944616758010313 1.0913777331073764 0 0 0 0.19 152 107 158 27 160 142 182 30 190 43 213 54 220 37 
152 0.12465620982200017 0.11598918373785701 1.056826460509157 0 0 0 0.47 146 22 157 39 160 143 185 11 200 24 232 51 
153 0.3485125960159204 0.1332650037326063 1.098428051933481 0 0 0 0.39 152 108 182 31 200 25 204 59 217 60 222 24 232 52 
154 -0.21635287510748405 0.1237102992501443 1.0129933201863968 0 0 0 0.31 152 109 157 40 158 28 159 24 160 144 164 31 176 50 213 55 217 61 219 43 220 38 224 15 
155 0.2847175035693806 0.13477206256879837 1.0875431843211245 0 0 0 0.31 152 110 158 29 160 145 164 32 176 51 196 22 197 12 200 26 213 56 217 62 
156 0.34520994415461514 0.1367119804253314 1.0957826729854714 0 0 0 0.23 152 111 182 32 190 44 221 38 
157 0.3543015898319489 0.13852232858333516 1.1049415292438147 0 0 0 0.42 204 60 213 57 222 25 232 53 
158 -0.24497130515048765 0.13282924645463787 1.0075262564775973 0 0 0 0.25 157 41 160 146 162 18 164 33 204 61 219 44 220 39 
159 0.1191284998654292 0.18973933524682424 1.0257312557835079 0 0 0 0.1 146 23 152 112 157 42 160 147 213 58 
160 0.08800901262350823 0.09761066597563524 1.058102343736028 0 0 0 0.74 146 24 147 47 148 23 152 113 157 43 159 25 160 148 164 34 185 12 198 18 204 62 213 59 217 63 220 40 221 39 222 26 223 21 232 54 
161 0.04715169645179732 0.11227649415022464 1.043393755181581 0 0 0 0.29 146 25 147 48 152 114 157 44 160 149 164 35 190 45 213 60 219 45 220 41 222 27 232 55 
162 -0.02605766292818271 0.11275474395970944 1.0309397687475963 0 0 0 0.53 146 26 147 49 152 115 157 45 158 30 160 150 164 36 176 52 190 46 204 63 213 61 217 64 219 46 222 28 223 22 232 56 
163 0.07496257866765736 0.14000123375063556 1.0390579816717416 0 0 0 0.34 146 27 152 116 157 46 160 151 176 53 
164 0.08979825118432959 0.25686213657642454 0.9885763527516114 0 0 0 0.33 146 28 147 50 152 117 158 31 160 152 176 54 200 27 204 64 213 62 217 65 221 40 
165 0.048663024662981585 0.09345530257348804 1.0521673735144137 0 0 0 0.51 146 29 152 118 157 47 160 153 164 37 198 19 199 23 213 63 221 41 
166 0.050787339741228066 0.10773680441944974 1.0478083258856064 0 0 0 0.56 146 30 148 24 152 119 157 48 160 154 164 38 196 23 198 20 213 64 220 42 221 42 232 57 
167 -0.27553266365014234 0.10540331374670671 1.01962320726967 0 0 0 0.22 152 120 160 155 190 47 204 65 217 66 232 58 
168 -0.2179299765744903 0.1308272511290924 1.0076481880005723 0 0 0 0.49 157 49 160 156 164 39 176 55 190 48 204 66 213 65 219 47 221 43 
169 0.3461030008372289 0.15741510632350036 1.0894789062927137 0 0 0 0.41 146 31 152 121 158 32 160 157 182 33 
170 0.10732670936007283 0.194964422938348 1.021574164522163 0 0 0 0.27 146 32 147 51 148 25 152 122 157 50 158 33 160 158 164 40 172 26 190 49 197 13 200 28 204 67 213 66 219 48 220 43 222 29 232 59 
171 0.2299989501684978 0.24042642033900632 0.9713790847699817 0 0 0 0.32 152 123 160 159 172 27 
172 -0.30291552502416863 0.13225857352039253 1.004454208078699 0 0 0 0.37 160 160 172 28 179 19 190 50 199 24 204 68 217 67 219 49 221 44 232 60 
173 0.1491002741870966 0.20140743650415044 1.0282924529712214 0 0 0 0.41 146 33 160 161 172 29 185 13 204 69 213 67 217 68 219 50 
174 0.2775372109773024 0.31429207195675013 1.0030673466838662 0 0 0 1.36 158 34 160 162 172 30 181 27 213 68 
175 0.2716070187096323 0.12424932119067791 1.0906246913957394 0 0 0 0.5 160 163 164 41 176 56 182 34 196 24 197 14 204 70 213 69 221 45 222 30 
176 0.15624910073183135 0.2243154953438924 1.0238645171598313 0 0 0 0.77 146 34 147 52 152 124 157 51 160 164 172 31 204 71 232 61 
177 0.15954263198901666 0.2825834206803226 0.9881941399464632 0 0 0 0.27 160 165 190 51 213 70 217 69 
178 0.11068088728301974 0.04780010117281378 1.142104800588821 0 0 0 0.32 147 53 152 125 160 166 172 32 197 15 204 72 213 71 222 31 232 62 
179 -0.02292427345251995 0.07450602720096113 1.0371962236056527 0 0 0 0.32 147 54 152 126 158 35 159 26 160 167 162 19 164 42 172 33 176 57 185 14 190 52 196 25 204 73 213 72 217 70 219 51 220 44 221 46 222 32 232 63 
180 -0.04156356361171877 0.08161775472127746 1.0313875581418428 0 0 0 0.38 147 55 157 52 158 36 160 168 176 58 217 71 219 52 
181 -0.04687830596611024 0.08443304169159765 1.0307909844102605 0 0 0 0.47 147 56 152 127 160 169 162 20 172 34 190 53 204 74 213 73 219 53 220 45 
182 0.08210936707174979 0.07922025149958352 1.0564188863021888 0 0 0 0.27 147 57 152 128 157 53 158 37 160 170 172 35 220 46 222 33 232 64 
183 0.09101556854023017 0.0829364509355347 1.0576652159343511 0 0 0 0.28 147 58 148 26 159 27 160 171 172 36 185 15 196 26 220 47 
184 0.07399754784988805 0.1026333715674989 1.0541220591662324 0 0 0 0.17 147 59 152 129 160 172 176 59 185 16 232 65 
185 -0.013917319150289037 0.108216282284363 1.0360734897965185 0 0 0 0.23 147 60 152 130 160 173 
186 -0.030486934093912114 0.10944123895815583 1.0292961113275163 0 0 0 0.31 147 61 160 174 217 72 222 34 
187 0.1729185259737939 0.11171160117454272 1.0733341195958197 0 0 0 0.32 147 62 160 175 164 43 172 37 204 75 213 74 219 54 
188 0.01415722058642887 0.11924287971330672 1.0345376279301333 0 0 0 0.41 147 63 159 28 160 176 176 60 217 73 
189 0.1364953391018569 0.1245395062849578 1.0537055997977325 0 0 0 0.39 147 64 148 27 152 131 157 54 158 38 159 29 160 177 164 44 204 76 213 75 217 74 222 35 
190 0.13352420840307608 0.12836899306244753 1.0541946754934637 0 0 0 0.11 147 65 160 178 217 75 219 55 
191 0.15272574489039506 0.12932586573062033 1.0592462645339384 0 0 0 0.81 147 66 152 132 160 179 164 45 185 17 220 48 232 66 
192 0.15114213008433697 0.1325483426609928 1.056974558873513 0 0 0 0.26 147 67 152 133 160 180 222 36 
193 0.10031358782008608 0.13750378599753904 1.0379250328045952 0 0 0 0.49 147 68 160 181 217 76 219 56 
194 0.36378872403580514 0.14025413126766292 1.1113423489987733 0 0 0 0.33 147 69 182 35 197 16 204 77 222 37 232 67 
195 0.05457338788333893 0.14969197295982742 1.0374588896884005 0 0 0 0.17 147 70 160 182 172 38 
196 0.12712824424798164 0.19143984207514445 1.0281792567350851 0 0 0 0.23 147 71 160 183 185 18 
197 0.25239359775405373 0.19921381207531152 1.04984897245689 0 0 0 0.16 147 72 152 134 160 184 
198 0.2685789805284088 0.20765578941142407 1.058091132791732 0 0 0 0.26 147 73 152 135 160 185 172 39 182 36 190 54 204 78 
199 0.3680932457654639 0.246716854488709 1.0750643205337789 0 0 0 0.33 147 74 160 186 176 61 
200 -0.049897377202381556 0.052255213818458136 1.1304281035590928 0 0 0 0.4 147 75 152 136 160 187 222 38 232 68 
201 0.10632747950348298 0.04781609557675657 1.147017340983397 0 0 0 0.32 147 76 152 137 160 188 232 69 
202 -0.0467136008796595 0.06599287277756417 1.1189542522461657 0 0 0 0.7 147 77 152 138 160 189 204 79 213 76 
203 0.11111017843837143 0.05541724088296624 1.1427418807937866 0 0 0 0.29 147 78 152 139 160 190 190 55 213 77 232 70 
204 0.2604938216327173 0.07920682400645508 1.1315289414087213 0 0 0 0.25 147 79 152 140 160 191 222 39 
205 0.21340146000294244 0.08231628288450764 1.0846181611186168 0 0 0 0.44 147 80 152 141 160 192 
206 0.170254778769913 0.09514705246869037 1.0769216881311747 0 0 0 0.32 147 81 152 142 160 193 190 56 213 78 
207 0.1418427795343731 0.1416541584504605 1.0488093420982183 0 0 0 0.17 147 82 160 194 172 40 213 79 232 71 
208 0.1365271033975912 0.15542001918061668 1.0437229806799804 0 0 0 0.49 147 83 160 195 190 57 
209 0.26762607817375594 0.1962321310603145 1.0618285920897228 0 0 0 0.24 147 84 152 143 160 196 172 41 176 62 213 80 222 40 232 72 
210 0.16253997910467283 0.07710642395119517 1.0909787547389111 0 0 0 0.42 147 85 152 144 160 197 190 58 213 81 221 47 
211 0.07104626774027907 0.09099148422323305 1.0566331903537751 0 0 0 0.49 147 86 148 28 159 30 160 198 164 46 176 63 185 19 232 73 
212 0.23761354964249795 0.08775421339934805 1.1255775038677553 0 0 0 0.53 147 87 152 145 160 199 182 37 190 59 213 82 219 57 
213 0.16799481458441634 0.09006819915577816 1.0821588855014506 0 0 0 0.42 147 88 152 146 160 200 176 64 217 77 221 48 
214 0.3091709678798991 0.09576946897324698 1.110698968585719 0 0 0 0.22 147 89 152 147 181 28 222 41 232 74 
215 0.028168652320011898 0.14169717882688065 1.028044793370528 0 0 0 0.26 147 90 152 148 158 39 160 201 190 60 213 83 
216 -0.07922774536432074 0.05126521729926332 1.0476421678872851 0 0 0 0.5 147 91 152 149 160 202 198 21 213 84 217 78 222 42 232 75 
217 0.21526780512081986 0.1157338952768998 1.0790833664976525 0 0 0 0.32 147 92 160 203 182 38 
218 0.298379996887954 0.11755180073223036 1.0974018049122494 0 0 0 0.38 147 93 160 204 197 17 213 85 
219 0.06771973093925564 0.04443634835172801 1.0742034683503945 0 0 0 0.4 147 94 152 150 160 205 198 22 204 80 213 86 219 58 
220 0.14322032600063037 0.06028534241027831 1.0855893580641494 0 0 0 0.66 147 95 160 206 198 23 222 43 
221 -0.03986524686700121 0.07423773353630812 1.042012792588144 0 0 0 0.85 147 96 152 151 157 55 160 207 176 65 190 61 204 81 219 59 
222 0.32510057027766637 0.13769094996996917 1.0857197948471264 0 0 0 0.98 147 97 160 208 213 87 217 79 222 44 
223 0.017227757251883996 0.07905552200461066 1.112789111170072 0 0 0 1.34 147 98 160 209 198 24 
224 0.1863785498143871 0.07814763528033283 1.0899706545633778 0 0 0 0.3 147 99 152 152 160 210 181 29 198 25 204 82 217 80 219 60 222 45 
225 0.22637544837387213 0.2070390277315186 1.0476589869553392 0 0 0 0.41 147 100 160 211 172 42 176 66 198 26 232 76 
226 0.17241318111191264 0.13844023897769495 1.0605901936502524 0 0 0 0.53 147 101 152 153 157 56 160 212 162 21 172 43 185 20 190 62 198 27 204 83 219 61 221 49 232 77 
227 0.15420903081547338 0.17791944609661495 1.0428665177107352 0 0 0 0.15 147 102 152 154 160 213 232 78 
228 0.2594197998782163 0.1803707765160391 1.063787019642937 0 0 0 0.17 147 103 152 155 160 214 
229 0.13774854578090723 0.19003359293863825 1.0294230867206424 0 0 0 0.19 147 104 152 156 160 215 232 79 
230 0.29436477928327615 0.24700349837443336 1.0375422586093985 0 0 0 0.28 147 105 152 157 160 216 221 50 
231 0.29431576890750033 0.24695287746982686 1.0370191619150892 0 0 0 0.31 147 106 160 217 221 51 
232 0.15912961933571781 0.2811627067013224 0.9846650548030933 0 0 0 0.75 147 107 160 218 213 88 221 52 
233 -0.060042578693663515 0.05641554304173873 1.0925702823088106 0 0 0 0.68 147 108 152 158 160 219 204 84 
234 0.014709589920689705 0.09077615469954153 1.044306889758812 0 0 0 0.44 147 109 152 159 160 220 176 67 213 89 221 53 223 23 
235 0.15353812514863896 0.1511341368470706 1.050416441722875 0 0 0 0.48 147 110 152 160 160 221 172 44 204 85 220 49 
236 -0.32304851581668553 0.1294166950973185 1.0105099856094446 0 0 0 0.29 152 161 160 222 172 45 
237 -0.15494980263832747 0.055042549281154665 1.040397803766566 0 0 0 0.37 148 29 160 223 190 63 217 81 
238 -0.21671668277306383 0.08893381131722924 1.0288080391895829 0 0 0 0.38 148 30 160 224 164 47 
239 -0.20179612143941092 0.09002774255816971 1.0291632568277418 0 0 0 0.36 148 31 152 162 160 225 190 64 213 90 232 80 
240 -0.19235173889272883 0.11931150624442831 1.0147458119352828 0 0 0 0.42 148 32 160 226 190 65 217 82 219 62 224 16 
241 -0.25869704888925643 0.12456937116353235 1.0123250085191282 0 0 0 0.5 160 227 164 48 176 68 200 29 204 86 213 91 217 83 219 63 232 81 
242 0.2865060804161689 0.11751054354287944 1.0927522946690376 0 0 0 0.25 148 33 152 163 181 30 190 66 204 87 222 46 232 82 
243 0.2243070145274519 0.13232180996668066 1.073293600510484 0 0 0 0.23 148 34 160 228 196 27 213 92 217 84 220 50 
244 0.23601113674213411 0.2624990375009443 1.0212736191976093 0 0 0 0.21 148 35 152 164 160 229 
245 0.0949786704473023 0.26010682925701595 0.9885373010704214 0 0 0 0.43 148 36 152 165 158 40 160 230 175 1 176 69 181 31 185 21 204 88 219 64 222 47 
246 0.20258823979672455 0.2684017097840705 1.0093845970708037 0 0 0 0.54 148 37 158 41 160 231 164 49 200 30 213 93 217 85 
247 0.19838562365210538 0.07897601148535291 1.092455214050294 0 0 0 0.35 148 38 152 166 160 232 190 67 
248 0.13921554071112088 0.15092950382230755 1.0463802258892112 0 0 0 0.3 148 39 152 167 157 57 159 31 160 233 164 50 172 46 198 28 213 94 217 86 220 51 221 54 232 83 
249 0.219342088560768 0.20496377426744727 1.0431468608949959 0 0 0 0.33 148 40 157 58 160 234 182 39 204 89 232 84 
250 -0.3020782886324788 0.12845407725263397 1.004491134680087 0 0 0 0.35 160 235 164 51 176 70 181 32 190 68 198 29 199 25 204 90 219 65 220 52 221 55 232 85 
251 0.17813900292835408 0.0643792920511416 1.0947094481247683 0 0 0 0.48 148 41 160 236 232 86 
252 0.21285204700313365 0.28736318870324934 1.0049564889161202 0 0 0 0.26 148 42 160 237 196 28 
253 -0.2414543143401537 0.12769076060203277 1.0047633560524654 0 0 0 0.39 148 43 160 238 198 30 217 87 220 53 
254 0.19561140575042163 0.28330024080026994 1.0000696088185197 0 0 0 0.24 148 44 160 239 196 29 
255 0.09494903944711243 0.1215196026106135 1.0425013488349935 0 0 0 1.3 148 45 152 168 160 240 199 26 217 88 219 66 220 54 221 56 232 87 
256 -0.275499437476488 0.05621434204239379 1.0301471347827262 0 0 0 0.16 152 169 160 241 190 69 
257 -0.15590194706428112 0.05896276079623219 1.0410848429663118 0 0 0 0.11 152 170 160 242 217 89 
258 -0.27048705102810794 0.06228021692883469 1.023181672279201 0 0 0 0.13 152 171 160 243 190 70 
259 -0.2702248375951328 0.10308906367550244 1.018764655975872 0 0 0 0.16 152 172 160 244 217 90 
260 0.0221190582555898 0.09454481347319546 1.0464036705095705 0 0 0 0.11 152 173 160 245 220 55 232 88 
261 -0.32340634558844683 0.10766155048757917 1.011485841552634 0 0 0 0.18 152 174 160 246 190 71 
262 0.2405282962825873 0.09663211139847411 1.0957492226770347 0 0 0 0.16 152 175 160 247 197 18 204 91 219 67 221 57 
263 -0.1998393439712954 0.10622526724178272 1.016487296564474 0 0 0 0.22 152 176 160 248 213 95 217 91 219 68 
264 -0.2678507501064867 0.11174834029580838 1.0222748328536193 0 0 0 1.17 152 177 160 249 213 96 224 17 
265 -0.036438326350948604 0.10475617882779496 1.0306886477540642 0 0 0 0.25 152 178 157 59 158 42 159 32 160 250 190 72 217 92 232 89 
266 0.016768926935374205 0.10512589921071312 1.0369324582136552 0 0 0 0.15 152 179 158 43 160 251 
267 0.23599909655164936 0.1051860249297591 1.096147998463 0 0 0 0.21 152 180 160 252 197 19 
268 0.09237522373171424 0.10695882604632527 1.0540516133038453 0 0 0 0.12 152 181 160 253 219 69 
269 0.2554716580964007 0.11670018815780933 1.1360712717748398 0 0 0 0.18 152 182 160 254 204 92 
270 0.2368995701685833 0.11435640856719922 1.0846973945884752 0 0 0 0.19 152 183 160 255 176 71 182 40 204 93 
271 0.2400676858812265 0.11620268017114208 1.0793449530691803 0 0 0 0.27 152 184 160 256 182 41 204 94 213 97 
272 0.20614315784970236 0.1172653529837918 1.0693999817990196 0 0 0 0.14 152 185 160 257 182 42 217 93 
273 0.1303752824596315 0.12068369728658747 1.0580760254090305 0 0 0 0.13 152 186 160 258 176 72 
274 0.34152149975472795 0.12012369996664508 1.1015603599399808 0 0 0 0.06 152 187 197 20 204 95 
275 -0.33099791153647523 0.14073980031428654 1.0147464319266324 0 0 0 0.47 152 188 160 259 179 20 204 96 
276 0.16250933869972742 0.1267761397421586 1.0659851383575152 0 0 0 0.19 152 189 160 260 182 43 
277 0.06796070855050704 0.12956408335546105 1.0415314771249966 0 0 0 0.23 152 190 157 60 159 33 160 261 190 73 196 30 217 94 220 56 
278 -0.00918065615120267 0.1321963707253881 1.0254324775126218 0 0 0 0.31 152 191 160 262 179 21 196 31 224 18 
279 0.3257106024269395 0.1325424811677914 1.0953713903236049 0 0 0 0.09 152 192 160 263 182 44 217 95 
280 0.3158283700542046 0.14841251661945462 1.0827220507262139 0 0 0 0.23 152 193 160 264 204 97 213 98 217 96 232 90 
281 0.2172360153582473 0.1950792768301358 1.0471730368282188 0 0 0 0.31 152 194 160 265 172 47 182 45 190 74 219 70 
282 0.370663780952399 0.2063155116248437 1.0847841337267188 0 0 0 0.31 152 195 182 46 204 98 222 48 232 91 
283 0.07460230534641926 0.2050452009258318 1.005791762996361 0 0 0 0.21 152 196 160 266 179 22 
284 0.24958842712765603 0.26938106616647134 1.0509756707661402 0 0 0 0.14 152 197 160 267 204 99 
285 -0.2564270939350755 0.06729870025012756 1.0371973052908332 0 0 0 0.17 152 198 160 268 217 97 220 57 232 92 
286 -0.3154960694982035 0.08013794819108397 1.0514140240030507 0 0 0 0.17 152 199 160 269 213 99 232 93 
287 -0.26548740807531124 0.07627391428563575 1.0291251372159345 0 0 0 0.33 152 200 160 270 204 100 217 98 219 71 220 58 232 94 
288 -0.1434042606957551 0.07370088081136991 1.0416854485283185 0 0 0 0.31 152 201 160 271 204 101 219 72 
289 -0.01948436593830997 0.06983086979536805 1.0397979829599355 0 0 0 0.18 152 202 160 272 220 59 
290 -0.170535836422421 0.08728056455330432 1.0306610051521496 0 0 0 0.23 152 203 160 273 217 99 
291 -0.170535836422421 0.08728056455330432 1.0306610051521496 0 0 0 0.23 152 204 160 274 217 100 
292 0.16871316881021262 0.08127586594409812 1.0871809005907755 0 0 0 0.04 152 205 160 275 221 58 
293 0.16863248857067584 0.08119326221700243 1.086742435201892 0 0 0 0.09 152 206 160 276 221 59 222 49 
294 -0.26480511442110144 0.0978412535527915 1.0242199908648173 0 0 0 0.09 152 207 160 277 213 100 217 101 232 95 
295 0.2867968806859453 0.0916269968310227 1.1021652047711177 0 0 0 0.16 152 208 160 278 182 47 197 21 
296 -0.24616888034944262 0.10511995120800692 1.0161747300003618 0 0 0 0.13 152 209 160 279 176 73 204 102 213 101 
297 0.11710672571425834 0.11080550883049833 1.0579982653086057 0 0 0 0.35 152 210 157 61 158 44 160 280 196 32 200 31 217 102 221 60 222 50 223 24 
298 -0.32409458568408905 0.12518418920345636 1.0055382300918059 0 0 0 0.31 152 211 160 281 190 75 204 103 
299 0.35862804966056705 0.12381441381485016 1.096165380135307 0 0 0 0.33 152 212 182 48 217 103 
300 0.19706878752468998 0.13147860368071146 1.0682737220326584 0 0 0 0.34 152 213 160 282 182 49 200 32 217 104 
301 0.24036531712544876 0.13301307592536016 1.0773645301358215 0 0 0 0.27 152 214 158 45 160 283 162 22 182 50 185 22 204 104 217 105 220 60 
302 0.2733678511190839 0.13445032075506605 1.0859811780515067 0 0 0 0.38 152 215 158 46 160 284 162 23 164 52 182 51 196 33 217 106 
303 0.02199157460549379 0.1367559097443841 1.0277412872186646 0 0 0 0.17 152 216 160 285 181 33 213 102 217 107 232 96 
304 0.3005423682392608 0.1353029981849158 1.0908322488109075 0 0 0 0.1 152 217 160 286 217 108 
305 0.11068552503567558 0.14073820985975827 1.0423741809624623 0 0 0 0.24 152 218 157 62 160 287 190 76 213 103 232 97 
306 0.14586462258566418 0.15817831755331507 1.0468730139186158 0 0 0 0.28 152 219 160 288 198 31 
307 0.18214951082311548 0.19074750188194478 1.037183086468017 0 0 0 0.2 152 220 160 289 213 104 219 73 
308 0.31545560310936444 0.2613476394350695 1.0417664963305284 0 0 0 0.27 152 221 160 290 164 53 176 74 182 52 204 105 
309 0.13488018381592898 0.2601847543373803 0.9994014636300373 0 0 0 0.25 152 222 160 291 176 75 200 33 
310 0.19857531211029733 0.26480307492062777 1.0095062301144402 0 0 0 0.22 152 223 160 292 172 48 200 34 
311 0.37070960741675657 0.26764299622761195 1.0507273196114393 0 0 0 0.15 152 224 190 77 204 106 
312 -0.07919744728691994 0.04552409398228963 1.050352331641832 0 0 0 0.22 152 225 160 293 219 74 232 98 
313 -0.014767915372170618 0.04632666592238522 1.0373696258118736 0 0 0 0.14 152 226 160 294 204 107 
314 -0.2733383040480849 0.07596904832961376 1.032752087212332 0 0 0 0.1 152 227 160 295 217 109 
315 -0.14679038209686135 0.07722738506995516 1.0374970047473486 0 0 0 0.44 152 228 157 63 160 296 162 24 164 54 176 76 179 23 190 78 204 108 213 105 219 75 
316 -0.1399967751844919 0.07687217697206214 1.0356294821806895 0 0 0 0.36 152 229 160 297 162 25 164 55 172 49 176 77 179 24 199 27 204 109 213 106 217 110 219 76 220 61 221 61 232 99 
317 -0.28551056955633336 0.08379968126670287 1.0272078978340338 0 0 0 0.1 152 230 160 298 213 107 232 100 
318 0.24907949780366703 0.07512696146581285 1.1506247993222753 0 0 0 0.1 152 231 160 299 182 53 
319 -0.16543769199716427 0.08166754454181681 1.0329373230531789 0 0 0 0.12 152 232 160 300 179 25 213 108 217 111 
320 -0.14283449494766753 0.08141361783554486 1.0340102597722076 0 0 0 0.23 152 233 160 301 217 112 
321 0.21066715892321544 0.07779833560164692 1.092150636502711 0 0 0 0.45 152 234 160 302 190 79 213 109 217 113 
322 0.1787038719337589 0.084549119536243 1.088287909984662 0 0 0 0.15 152 235 160 303 213 110 219 77 232 101 
323 0.30199465707480294 0.08320694571544716 1.1149520529286792 0 0 0 0.26 152 236 160 304 197 22 204 110 217 114 221 62 222 51 
324 0.2285614426888323 0.08891660862458495 1.1222900774444278 0 0 0 0.16 152 237 160 305 190 80 204 111 232 102 
325 0.2081387443985876 0.0973506616825068 1.0882604136951517 0 0 0 0.13 152 238 160 306 164 56 182 54 232 103 
326 0.20857953631862777 0.15285784483005482 1.061807528374577 0 0 0 0.47 152 239 157 64 158 47 160 307 162 26 164 57 182 55 190 81 213 111 
327 0.23269074681085597 0.16378004683403757 1.072507012681718 0 0 0 0.18 152 240 160 308 182 56 221 63 232 104 
328 0.09873928641627154 0.24745687550157314 0.9898058304325895 0 0 0 0.29 152 241 160 309 175 2 179 26 
329 -0.04564766929406274 0.06646565559305809 1.1777827472594753 0 0 0 0.76 152 242 160 310 204 112 
330 -0.25238472378389004 0.07196031780792639 1.0345691058380377 0 0 0 0.2 152 243 160 311 213 112 232 105 
331 -0.15803074271796475 0.07100543721177492 1.040012968486622 0 0 0 0.32 152 244 160 312 190 82 198 32 204 113 219 78 220 62 224 19 
332 -0.032288300054786084 0.06516160044758201 1.0426578051309576 0 0 0 0.59 152 245 160 313 172 50 
333 -0.23088444556274296 0.08110614600054121 1.0582635421002358 0 0 0 0.31 152 246 160 314 204 114 219 79 
334 -0.018476978262548353 0.0889201671039127 1.0413323316031577 0 0 0 0.51 152 247 157 65 159 34 160 315 176 78 185 23 190 83 204 115 219 80 220 63 221 64 222 52 
335 -0.1703494200950221 0.09634683618606049 1.0240530230075484 0 0 0 0.39 152 248 160 316 190 84 217 115 
336 -0.2528501060176482 0.1046138050272654 1.0164338422854362 0 0 0 0.41 152 249 157 66 160 317 176 79 198 33 204 116 213 113 217 116 219 81 220 64 232 106 
337 0.05032883532612236 0.10776132112818372 1.0486306927056994 0 0 0 0.44 152 250 160 318 196 34 198 34 213 114 217 117 220 65 221 65 232 107 
338 -0.17542760318603945 0.12990660627349118 1.0114462723071127 0 0 0 0.18 152 251 160 319 219 82 
339 0.2482390278282061 0.26618177260550946 1.0121735176943614 0 0 0 0.39 152 252 190 85 221 66 
340 0.19469322049275387 0.27162895431154177 1.0032382392976742 0 0 0 0.66 152 253 160 320 200 35 
341 -0.08635565009708043 0.04148104884804492 1.0597649993475238 0 0 0 0.45 152 254 160 321 219 83 
342 -0.07364906679392036 0.04328741771367236 1.0830705237446292 0 0 0 0.13 152 255 160 322 204 117 
343 0.05445637205014056 0.04608457997597701 1.0866615714335044 0 0 0 0.38 152 256 160 323 204 118 213 115 232 108 
344 -0.31993580994393106 0.07510776539075519 1.0480033840356662 0 0 0 0.64 152 257 160 324 232 109 
345 -0.29208127881817236 0.09851393874698199 1.0212517968963997 0 0 0 0.12 152 258 160 325 213 116 
346 -0.2961428966024553 0.10693828413573808 1.0200465536164887 0 0 0 0.46 152 259 160 326 181 34 185 24 198 35 199 28 204 119 217 118 219 84 232 110 
347 -0.021919007208876084 0.119364437261508 1.0211915922275001 0 0 0 0.3 152 260 160 327 217 119 
348 0.07800557103247675 0.08539808773041621 1.2055125464262801 0 0 0 0.14 152 261 160 328 204 120 
349 0.2899656404804673 0.08189984262270633 1.111801522647859 0 0 0 0.47 152 262 181 35 182 57 190 86 197 23 204 121 217 120 221 67 232 111 
350 -0.3026847330550502 0.0978218738810468 1.0121153812790369 0 0 0 0.2 152 263 160 329 190 87 232 112 
351 0.12428217538120538 0.04957429894165946 1.1305752924216772 0 0 0 0.71 152 264 160 330 179 27 
352 -0.2641330560434642 0.06968886109325442 1.0302605605532005 0 0 0 0.45 152 265 160 331 190 88 204 122 213 117 219 85 221 68 
353 0.003835833121455755 0.05937509136453308 1.0629134291260411 0 0 0 1.48 152 266 159 35 160 332 213 118 219 86 
354 0.2920409045743639 0.10682843030840983 1.1060420089739968 0 0 0 0.43 152 267 160 333 197 24 204 123 232 113 
355 0.21873049043801807 0.18208894774389509 1.125848905379202 0 0 0 0.43 152 268 160 334 172 51 
356 0.15596469010311753 0.20183174223347505 1.028875791139618 0 0 0 0.22 152 269 160 335 217 121 232 114 
357 0.15596469010311753 0.20183174223347505 1.028875791139618 0 0 0 0.22 152 270 160 336 217 122 232 115 
358 0.10580278135581675 0.281538840483486 0.9843525499788603 0 0 0 0.26 152 271 158 48 160 337 196 35 198 36 
359 -0.26437367017588126 0.09579405533076098 1.0226937657435868 0 0 0 0.08 152 272 160 338 213 119 232 116 
360 -0.2639655327848407 0.09566799628562353 1.0213656991650308 0 0 0 0.44 152 273 160 339 204 124 213 120 217 123 219 87 220 66 221 69 232 117 
361 0.1892167182428152 0.15215009114494843 1.0589120995437868 0 0 0 0.44 152 274 160 340 222 53 232 118 
362 0.22464408470622 0.15229262088988657 1.0644065508446057 0 0 0 0.3 152 275 160 341 217 124 
363 0.26035704966048934 0.15637565506887918 1.0799648444956171 0 0 0 0.41 152 276 160 342 197 25 204 125 
364 0.19031024470616162 0.17612734727659146 1.0515110383970783 0 0 0 0.05 152 277 160 343 232 119 
365 0.2476008171385769 0.2060281924554889 1.1870606494534148 0 0 0 0.2 152 278 160 344 204 126 
366 0.15376709108773323 0.08181813507986103 1.0846428284142708 0 0 0 1.04 152 279 160 345 176 80 221 70 
367 0.12593335969351171 0.08520886213999075 1.070444789209279 0 0 0 0.53 152 280 160 346 204 127 222 54 
368 0.25035040299739353 0.08333747033631746 1.1169712800606435 0 0 0 1.13 152 281 160 347 221 71 222 55 
369 -0.038844027103144975 0.06547032613683491 1.03502003821236 0 0 0 0.68 157 67 160 348 204 128 
370 -0.20413184019561592 0.08058630271474296 1.0280081408826622 0 0 0 0.18 157 68 160 349 204 129 219 88 
371 -0.16723663964960728 0.12692880973979143 1.0027054312265984 0 0 0 0.37 157 69 160 350 179 28 
372 0.14213813102904707 0.13190753089122947 1.054856174553145 0 0 0 0.15 157 70 160 351 213 121 
373 -0.26451993829435916 0.08428014316112098 1.0261044494657714 0 0 0 0.15 157 71 160 352 204 130 217 125 219 89 
374 -0.05681459974149976 0.0897465819225376 1.0253344674524953 0 0 0 0.19 157 72 160 353 172 52 176 81 204 131 213 122 219 90 222 56 232 120 
375 -0.3127300184757398 0.12104162734429691 1.0092517708657287 0 0 0 0.2 157 73 160 354 200 36 219 91 
376 0.21168176395794908 0.2802271815493365 1.0059553581538596 0 0 0 0.21 157 74 158 49 160 355 181 36 
377 -0.26391794864980084 0.1051090155981086 1.0236904593160927 0 0 0 0.3 157 75 160 356 172 53 204 132 217 126 232 121 
378 -0.29359827201420396 0.13907134676481173 1.0050989035241096 0 0 0 0.31 157 76 160 357 219 92 
379 -0.310105502587094 0.13905965205091944 1.0021666357905243 0 0 0 0.32 157 77 160 358 190 89 217 127 221 72 
380 -0.268516782947079 0.13727860197082206 0.9963190920316399 0 0 0 0.27 157 78 160 359 204 133 
381 -0.0011648662671970647 0.12377297482969278 1.026070627191389 0 0 0 0.03 157 79 158 50 160 360 
382 -0.01936728010596212 0.07863071285249014 1.0342381420972615 0 0 0 0.11 157 80 160 361 232 122 
383 0.3244162913589937 0.13624980782168358 1.0914839290820966 0 0 0 0.15 160 362 164 58 182 58 213 123 
384 -0.015367162064761785 0.07251569616849549 1.0412949488173282 0 0 0 0.14 158 51 160 363 172 54 
385 0.028745054889888405 0.1354411405477582 1.024552781017517 0 0 0 0.37 158 52 160 364 213 124 
386 0.043981416976450693 0.10096523190718434 1.0490341085347932 0 0 0 0.19 158 53 160 365 164 59 172 55 222 57 232 123 
387 -0.32256613260886124 0.1353979592769965 1.008872099802171 0 0 0 0.39 160 366 213 125 232 124 
388 -0.3146495569991984 0.14743694892769324 1.0021769098748048 0 0 0 0.43 158 54 160 367 220 67 221 73 
389 0.17065947583222607 0.2609760098291476 1.0033251084000396 0 0 0 0.87 158 55 160 368 200 37 217 128 
390 0.04863641993370932 0.09393368746166464 1.0551921846541639 0 0 0 0.3 158 56 160 369 190 90 
391 0.09417525180356771 0.29732940025026594 0.9860335220143894 0 0 0 2.59 160 370 175 3 
392 0.32476761601982645 0.13787759527833993 1.087087350044399 0 0 0 0.96 160 371 197 26 217 129 
393 0.14217739898446483 0.2830476141685013 0.9875137875358033 0 0 0 0.38 158 57 160 372 199 29 217 130 
394 -0.3091607943424697 0.12890597236330117 1.007048198358444 0 0 0 0.5 159 36 160 373 164 60 179 29 196 36 219 93 223 25 
395 0.008241190241271278 0.11138295566488436 1.0376721058928136 0 0 0 0.27 159 37 160 374 172 56 217 131 222 58 223 26 
396 0.009235094422844483 0.13151580844447955 1.0269072692557346 0 0 0 0.29 159 38 160 375 172 57 176 82 200 38 204 134 217 132 219 94 220 68 
397 0.10138430377635506 0.05119160691306319 1.149809106993447 0 0 0 0.2 160 376 179 30 232 125 
398 0.11551266639113957 0.053646856173913786 1.1577748944177906 0 0 0 0.18 160 377 219 95 232 126 
399 0.14332681531082178 0.07151977424270947 1.0802410389033485 0 0 0 0.67 160 378 213 126 221 74 
400 0.06658072226828773 0.07099674922056373 1.0597538224661704 0 0 0 0.18 160 379 219 96 232 127 
401 0.07189827923892718 0.07703137963140308 1.0655877800894042 0 0 0 0.2 160 380 213 127 232 128 
402 0.1881372752737098 0.08518124685422669 1.083626148357835 0 0 0 0.46 160 381 182 59 222 59 
403 -0.014877242098705714 0.0820641455985814 1.0368534026978258 0 0 0 0.36 160 382 172 58 204 135 219 97 
404 0.24022682449709376 0.09117045140764 1.0970471059031257 0 0 0 0.33 160 383 204 136 219 98 221 75 232 129 
405 0.07821064836184016 0.08810384582132873 1.0518649705375684 0 0 0 0.35 160 384 204 137 232 130 
406 -0.2073069861905204 0.08933182872354932 1.0248595689411693 0 0 0 0.24 160 385 176 83 190 91 
407 0.031289723457893506 0.09679374463160685 1.046632960619045 0 0 0 0.22 160 386 204 138 232 131 
408 0.10078441144106953 0.09908647644420113 1.057174590817589 0 0 0 0.6 160 387 176 84 219 99 223 27 232 132 
409 0.10794784738325668 0.10334634981995862 1.0576581932048938 0 0 0 0.31 160 388 176 85 197 27 
410 -0.04070753165063317 0.1040508409351676 1.0311666890026754 0 0 0 0.17 160 389 176 86 220 69 222 60 224 20 
411 -0.2058219536743619 0.10758525137477823 1.0237825118120607 0 0 0 0.58 160 390 213 128 219 100 
412 0.24513001290244027 0.1142854173619275 1.0835529218906232 0 0 0 0.24 160 391 196 37 204 139 220 70 
413 0.168285198304973 0.1134684812489794 1.0706151470882248 0 0 0 0.23 160 392 172 59 204 140 219 101 222 61 232 133 
414 0.28005651827338507 0.1178996182086093 1.0926621023165657 0 0 0 0.14 172 60 204 141 232 134 
