# 3D point list with one line of data per point:
#   POINT3D_ID, X, Y, Z, R, G, B, ERROR, TRACK[] as (IMAGE_ID, POINT2D_IDX)
# Number of points: 379, mean track length: 6.42
175 0.034922595845445284 -0.01540028344081788 1.012120664469427 0 0 0 0.09 4 110 11 66 16 113 33 54 44 91 112 75 187 109 
176 -0.03289812639977202 -0.015181750907947182 1.0156593064367008 0 0 0 0.14 4 111 9 55 16 114 33 55 44 92 50 88 92 63 93 47 109 37 112 76 
177 -0.06614508633223096 0.03841883961174943 1.002421936402082 0 0 0 0.12 4 112 16 115 44 93 
178 0.029797602562509396 0.04668948863900087 0.9977265740608446 0 0 0 0.31 4 113 11 67 16 116 17 49 50 89 92 64 96 18 112 77 118 54 
179 -0.0038160478041053044 0.0468266232909826 0.9993753440581498 0 0 0 0.19 4 114 50 90 92 65 98 89 187 110 9 56 38 52 61 56 112 78 
180 -0.006060900962963315 0.0480361940108729 0.9996291813829309 0 0 0 0.27 4 115 38 53 44 94 187 111 39 40 124 79 176 22 
181 0.05754824788638829 0.05211895891170472 1.0015053775411473 0 0 0 0.1 4 116 11 68 112 79 187 112 
182 -0.13287926485757925 0.05120484555239548 1.0200547597874734 0 0 0 0.34 4 117 16 117 33 56 98 90 124 80 
183 -0.033124188713047 0.054791562465306254 0.9977888207055935 0 0 0 0.13 4 118 33 57 38 54 98 91 109 38 
184 0.03168063700436785 0.06100887176935619 0.9953286337509889 0 0 0 0.29 4 119 11 69 16 118 38 55 50 91 77 70 85 47 92 66 93 48 110 23 124 81 2 141 32 27 39 41 44 95 98 92 157 24 164 15 175 16 200 16 28 28 146 34 148 10 201 25 213 26 214 4 231 13 
185 -0.0054230360619111455 0.06062770834933143 0.9969549524761657 0 0 0 0.19 4 120 16 119 187 113 
186 -0.012383100794154042 0.06091402743089302 1.001047162298198 0 0 0 0.27 4 121 11 70 16 120 44 96 92 67 
187 0.019150862790597353 0.06162244430130015 1.0000746427618223 0 0 0 0.37 4 122 16 121 33 58 44 97 50 92 92 68 93 49 187 114 
188 0.20191997025163128 0.0655587132480062 0.992812413162564 0 0 0 0.33 4 123 11 71 13 44 27 33 38 56 187 115 201 26 213 27 
189 -0.09017450759266073 0.06099312713682721 1.0087834576435202 0 0 0 0.32 4 124 33 59 38 57 77 71 110 24 
190 0.10127177606975214 0.06423526530129009 0.9918606088512626 0 0 0 0.17 4 125 38 58 109 39 187 116 11 72 16 122 36 25 50 93 85 48 146 35 201 27 214 5 
191 0.10855983865655901 0.0641932335043961 0.9911230193675319 0 0 0 0.21 4 126 13 45 109 40 187 117 38 59 77 72 85 49 91 12 110 25 146 36 176 23 197 4 201 28 213 28 214 6 223 18 
192 0.13890841045008195 0.0647173838754348 0.988794573945326 0 0 0 0.26 4 127 11 73 13 46 16 123 36 26 85 50 91 13 92 69 93 50 109 41 110 26 187 118 38 60 148 11 176 24 194 1 201 29 213 29 214 7 234 14 
193 0.030361523655112414 0.0636373393498696 0.9961923758751924 0 0 0 0.07 4 128 16 124 38 61 85 51 146 37 187 119 201 30 
194 0.03324105300779439 0.06350075590006628 0.9958516613515981 0 0 0 0.28 4 129 9 57 16 125 33 60 38 62 50 94 93 51 98 93 110 27 124 82 187 120 28 29 44 98 92 70 146 38 157 25 175 17 188 1 201 31 213 30 214 8 
195 -0.031565317576376005 0.06285058044004203 0.9988605061828583 0 0 0 0.24 4 130 38 63 85 52 92 71 93 52 124 83 11 74 16 126 33 61 50 95 
196 -0.06557342905514947 0.06287535770790031 1.002056208071195 0 0 0 0.21 4 131 11 75 16 127 33 62 
197 -0.061745867183488214 0.06278694127774052 1.000882800945373 0 0 0 0.2 4 132 16 128 33 63 92 72 
198 -0.1078810883973167 0.06277887380999081 1.009060763923129 0 0 0 0.21 4 133 13 47 16 129 38 64 44 99 50 96 92 73 93 53 110 28 124 84 
199 -0.09815478727344391 0.06330796121767243 1.009640234364703 0 0 0 0.09 4 134 11 76 16 130 38 65 
200 -0.10371668267763468 0.06720410666869296 1.0082549694535319 0 0 0 0.19 4 135 11 77 16 131 38 66 50 97 77 73 110 29 113 0 
201 -0.028209063565018205 0.07493547191240685 0.9978387977406404 0 0 0 0.1 4 136 16 132 38 67 
202 -0.0031205022852572326 0.07590280211612489 0.9958043577191832 0 0 0 0.09 4 137 11 78 187 121 
203 0.07148499083585517 0.07734215869728403 0.9918661438564838 0 0 0 0.37 4 138 9 58 38 68 187 122 28 30 164 16 201 32 
204 0.07086394584167695 0.0795171960944021 0.9910986625443603 0 0 0 0.22 4 139 92 74 187 123 
205 0.13972149769885708 0.08207794297467425 0.9863105478198542 0 0 0 0.18 4 140 85 53 187 124 
206 0.10097059544419028 0.08402282573392668 0.9886380529719041 0 0 0 0.29 4 141 77 74 118 55 187 125 28 31 110 30 146 39 194 2 201 33 
207 -0.03165314404260858 0.082338011831322 0.9969792370782711 0 0 0 0.22 4 142 11 79 16 133 38 69 
208 0.10351781045291435 0.08534079668895808 0.9879420616158906 0 0 0 0.25 4 143 38 70 187 126 
209 0.06634277971376609 0.08820144111796989 0.9900376795231042 0 0 0 0.25 4 144 11 80 16 134 38 71 110 31 118 56 187 127 27 34 28 32 201 34 213 31 214 9 
210 0.02253518452438031 0.09012775838647599 0.9983424235113935 0 0 0 0.12 4 145 50 98 61 57 92 75 124 85 187 128 
211 0.10786417238006409 0.09115599746300941 0.986569639229621 0 0 0 0.23 4 146 16 135 38 72 187 129 
212 -0.01685450584041107 0.08986668471090253 0.9968216419522173 0 0 0 0.16 4 147 16 136 187 130 
213 -0.10221367191518099 0.0895262466551529 1.0063440331556424 0 0 0 0.33 4 148 11 81 16 137 27 35 38 73 44 100 50 99 85 54 92 76 113 1 
214 -0.03191287477203145 0.09023113846433528 0.997397749415878 0 0 0 0.24 4 149 38 74 92 77 
215 -0.03541800219755539 0.09038976548290732 0.9936846811786256 0 0 0 0.24 4 150 11 82 16 138 38 75 92 78 
216 0.10032471315370921 0.09322505887580279 0.9868934311850645 0 0 0 0.36 4 151 11 83 16 139 38 76 52 7 13 48 110 32 146 40 148 12 164 17 187 131 201 35 214 10 
217 -0.10446826206121783 0.09240178437922707 1.0028822472637577 0 0 0 0.26 4 152 11 84 38 77 
218 -0.07260245052304144 0.09269790742897531 0.9947527716844908 0 0 0 0.4 4 153 33 64 44 101 93 54 
219 -0.03549448393275397 0.09402908322335067 0.9938516298362552 0 0 0 0.22 4 154 11 85 16 140 38 78 92 79 
220 -0.09743981316862287 0.0957709837895438 1.0064647335911556 0 0 0 0.3 4 155 11 86 16 141 17 50 38 79 52 8 92 80 110 33 113 2 
221 0.14280654206473817 0.1017397886246046 0.982458864714611 0 0 0 0.22 4 156 16 142 85 55 110 34 187 132 28 33 109 42 146 41 194 3 201 36 213 32 214 11 
222 0.10035441872764216 0.10107315923490123 0.9857224288216333 0 0 0 0.22 4 157 13 49 38 80 52 9 110 35 187 133 28 34 201 37 
223 -0.023860824034265288 0.09943799452026758 0.9962860766942939 0 0 0 0.18 4 158 16 143 17 51 38 81 
224 -0.011908330944034625 0.09999734486380392 0.9971497154759351 0 0 0 0.17 4 159 16 144 17 52 38 82 
225 -0.10423731922494002 0.10040655466714804 1.0025234193956554 0 0 0 0.23 4 160 11 87 16 145 38 83 50 100 77 75 92 81 113 3 
226 -0.002201776969916869 0.10181459468247717 0.9913636283589362 0 0 0 0.2 4 161 38 84 92 82 93 55 110 36 13 50 61 58 
227 -0.03571833080490309 0.10130743852426956 0.9922315118549235 0 0 0 0.17 4 162 38 85 110 37 
228 -0.11244444523738432 0.10413524708632697 1.0041903085120825 0 0 0 0.19 4 163 11 88 16 146 38 86 
229 0.07108881373912955 0.10644535919317782 0.9860937204603177 0 0 0 0.2 4 164 11 89 16 147 92 83 187 134 
230 0.10438614619004391 0.10956480945145193 0.9840625322756783 0 0 0 0.29 4 165 16 148 36 27 85 56 98 94 110 38 124 86 187 135 13 51 17 53 52 10 92 84 
231 0.13808918401978526 0.10963006972332737 0.9812494056138028 0 0 0 0.28 4 166 109 43 110 39 187 136 
232 0.00462579449647315 0.109068287664456 0.989697889308887 0 0 0 0.27 4 167 11 90 13 52 38 87 77 76 103 4 110 40 118 57 
233 -0.03845293675198608 0.11157537133843984 0.9915103685259743 0 0 0 0.16 4 168 11 91 16 149 38 88 110 41 
234 0.014963471304273192 0.11255532133274426 0.9855490816273536 0 0 0 0.11 4 169 11 92 16 150 38 89 92 85 
235 -0.109482537614006 0.11246229795340226 1.0010683228125723 0 0 0 0.27 4 170 16 151 38 90 113 4 
236 0.3504835245656784 0.12480414997628907 0.9753814100139651 0 0 0 0.34 4 171 44 102 85 57 91 14 187 137 
237 -0.038248167059971354 0.1198496170310897 0.9899452148007869 0 0 0 0.3 4 172 11 93 13 53 33 65 38 91 52 11 92 86 93 56 98 95 110 42 
238 -0.03645954388831489 0.12128801031902182 0.9898862079770406 0 0 0 0.24 4 173 13 54 16 152 33 66 38 92 92 87 110 43 
239 -0.032741096544826334 0.12157752614580634 0.9918365244856049 0 0 0 0.07 4 174 13 55 16 153 
240 0.10627440940107516 0.12386351848813686 0.9813092751624453 0 0 0 0.29 4 175 11 94 16 154 38 93 50 101 52 12 92 88 93 57 109 44 110 44 187 138 
241 -0.10919173463676698 0.12254584227612264 1.000353268484146 0 0 0 0.08 4 176 16 155 113 5 
242 -0.03685537469453421 0.12346939952650303 0.989137044990334 0 0 0 0.24 4 177 13 56 16 156 50 102 52 13 92 89 93 58 
243 0.08267681230568365 -0.13259222155029832 1.0252778088853804 0 0 0 0.32 4 178 9 59 16 157 17 54 32 28 36 28 61 59 77 77 92 90 93 59 109 45 110 45 112 80 124 87 187 139 11 95 27 36 33 67 39 42 44 103 146 42 157 26 164 18 185 11 196 8 213 33 223 19 201 38 
244 0.07850856209637885 -0.12926616973921343 1.028090302256433 0 0 0 0.27 4 179 9 60 11 96 16 158 17 55 27 37 32 29 33 68 38 94 44 104 50 103 77 78 85 58 93 60 96 19 98 96 109 46 110 46 112 81 118 58 124 88 187 140 2 142 28 35 29 9 36 29 39 43 60 5 61 60 92 91 146 43 148 13 157 27 159 8 164 19 172 6 176 25 185 12 196 9 200 17 204 13 213 34 223 20 
245 0.10707339927351987 -0.12285469234127991 1.0224526782257364 0 0 0 0.2 4 180 9 61 44 105 50 104 77 79 92 92 93 61 98 97 112 82 187 141 28 36 39 44 146 44 157 28 176 26 201 39 
246 -0.05874973596004075 -0.12155412182845243 1.0342326978355478 0 0 0 0.2 4 181 38 95 77 80 
247 0.10306534711132344 -0.1109020752394582 1.024382376182901 0 0 0 0.46 4 182 11 97 17 56 33 69 38 96 61 61 187 142 
248 0.14787315234002363 -0.09533484795772428 1.015275045321402 0 0 0 0.25 4 183 15 22 16 159 27 38 38 97 77 81 85 59 187 143 
249 -0.06828864091340589 -0.0974710043656136 1.0279861930596863 0 0 0 0.44 4 184 11 98 16 160 27 39 38 98 44 106 77 82 85 60 112 83 118 59 
250 -0.0665772659014305 -0.09238613755833044 1.029123189920002 0 0 0 0.36 4 185 9 62 16 161 17 57 36 30 98 98 112 84 
251 0.07919265180206614 -0.08649212974017295 1.0220147832743847 0 0 0 0.21 4 186 11 99 13 57 16 162 33 70 44 107 50 105 61 62 77 83 92 93 98 99 124 89 187 144 2 143 9 63 27 40 36 31 38 99 85 61 93 62 146 45 148 14 157 29 164 20 175 18 176 27 201 40 213 35 223 21 
252 0.18077651146144297 -0.08258294482545195 1.018391255643791 0 0 0 0.54 4 187 13 58 92 94 118 60 187 145 27 41 29 10 39 45 124 90 172 7 201 41 223 22 
253 0.0002666331410781927 -0.08396892187552277 1.0240026989763464 0 0 0 0.23 4 188 16 163 17 58 77 84 96 20 124 91 187 146 
254 0.13569737680574628 -0.08079731941827525 1.0177139747180812 0 0 0 0.34 4 189 16 164 61 63 92 95 112 85 187 147 2 144 28 37 39 46 124 92 158 14 197 5 201 42 234 15 13 59 
255 0.12570900588868653 -0.0808355688095654 1.0179262397743263 0 0 0 0.2 4 190 9 64 11 100 13 60 16 165 36 32 44 108 50 106 52 14 77 85 85 62 92 96 93 63 98 100 109 47 112 86 124 93 187 148 2 145 28 38 33 71 39 47 146 46 148 15 157 30 175 19 176 28 200 18 234 16 201 43 213 36 
256 -0.05387084294036585 -0.08263258350018365 1.0274222858106243 0 0 0 0.08 4 191 44 109 92 97 124 94 
257 -0.09332136303183594 -0.08230261451581732 1.0356722154857207 0 0 0 0.31 4 192 9 65 16 166 27 42 77 86 98 101 124 95 2 146 33 72 39 48 50 107 92 98 93 64 148 16 157 31 164 21 176 29 196 10 200 19 
258 -0.031034938833562623 -0.026195351658409603 1.018203883395133 0 0 0 0.24 4 193 11 101 44 110 50 108 92 99 187 149 
259 0.1534049417223635 -0.02116957145157326 1.0079956685311968 0 0 0 0.24 4 194 98 102 187 150 
260 -0.04122614197835936 -0.01344137274814046 1.01864555024745 0 0 0 0.1 4 195 11 102 16 167 17 59 118 61 
261 -0.03619657961852328 0.03558106127794937 1.0036193230823105 0 0 0 0.23 4 196 16 168 19 24 77 87 98 103 112 87 
262 -0.03933954342198265 0.039209877803289724 1.004660568397123 0 0 0 0.24 4 197 16 169 17 60 50 109 61 64 98 104 118 62 
263 -0.05422123533364662 0.04283308846589391 1.0050404046765478 0 0 0 0.11 4 198 11 103 17 61 50 110 103 5 
264 -0.050403837320479254 0.0430493384420105 1.0054882378651653 0 0 0 0.37 4 199 11 104 27 43 
265 -0.03179952309692583 0.052333825224745625 0.9981598016653682 0 0 0 0.25 4 200 16 170 50 111 77 88 98 105 11 105 61 65 187 151 
266 -0.028039647123463164 0.053961311863179116 1.0000725008063958 0 0 0 0.19 4 201 50 112 124 96 187 152 38 100 98 106 
267 0.06871390158812998 0.06084954436981463 0.993171221679632 0 0 0 0.31 4 202 11 106 15 23 16 171 17 62 38 101 44 111 53 27 77 89 93 65 96 21 118 63 124 97 9 66 61 66 28 39 85 63 146 47 148 17 176 30 187 153 197 6 201 44 213 37 214 12 231 14 232 8 
268 0.06375704858888055 0.060929919252547336 0.9941912157927875 0 0 0 0.3 4 203 44 112 112 88 124 98 187 154 11 107 28 40 146 48 157 32 175 20 201 45 213 38 231 15 
269 -0.06435392025374785 0.05967843502390669 0.9971057792948702 0 0 0 0.17 4 204 16 172 77 90 92 100 
270 -0.02983236944814744 0.060376769157081664 0.9983050684329056 0 0 0 0.2 4 205 11 108 33 73 38 102 50 113 77 91 92 101 124 99 
271 -0.10613002440053011 0.0601140413398811 1.0080428941578015 0 0 0 0.27 4 206 11 109 16 173 33 74 38 103 53 28 61 67 77 92 92 102 110 47 113 6 118 64 
272 -0.09546301162194955 0.06071159193734999 1.0093554927544317 0 0 0 0.17 4 207 16 174 38 104 92 103 93 66 
273 -0.11972522983853133 0.06138889625609346 1.011311918128654 0 0 0 0.22 4 208 11 110 16 175 17 63 27 44 38 105 50 114 77 93 118 65 
274 -0.032341832478245625 0.06986880213319817 0.9992934352500428 0 0 0 0.25 4 209 15 24 16 176 27 45 38 106 77 94 
275 -0.09832399436242874 0.07685871478652996 1.013901191257715 0 0 0 0.38 4 210 53 29 92 104 96 22 
276 -0.03755914317922766 0.07734519915484037 0.9972191940355228 0 0 0 0.27 4 211 11 111 13 61 16 177 17 64 27 46 52 15 77 95 85 64 118 66 
277 0.10158196003818583 0.08084760590150446 0.9894346646521439 0 0 0 0.43 4 212 16 178 77 96 110 48 187 155 11 112 28 41 36 33 85 65 92 105 176 31 201 46 213 39 214 13 223 23 234 17 
278 -0.10123837995758446 0.08296357620868676 1.0113634226712196 0 0 0 0.23 4 213 11 113 16 179 113 7 
279 -0.03754721655719248 0.08394083021640311 0.9955191769755913 0 0 0 0.27 4 214 11 114 16 180 38 107 77 97 85 66 92 106 96 23 
280 0.10808692072759567 0.08630817609155136 0.9875878277226834 0 0 0 0.1 4 215 13 62 16 181 187 156 
281 0.06888676953102195 0.08612499911586734 0.9904529353191159 0 0 0 0.18 4 216 11 115 13 63 16 182 17 65 38 108 53 30 77 98 85 67 92 107 110 49 118 67 28 42 146 49 148 18 214 14 223 24 232 9 
282 0.10090785322314397 0.0869481526249782 0.988885225770912 0 0 0 0.42 4 217 16 183 187 157 11 116 17 66 38 109 53 31 77 99 92 108 110 50 118 68 164 22 204 14 223 25 
283 -0.1261169373371859 0.08791827958377457 1.0125757605143382 0 0 0 0.22 4 218 11 117 16 184 17 67 118 69 
284 0.17837345121920395 0.09198424845147675 0.983924918077229 0 0 0 0.22 4 219 17 68 77 100 187 158 
285 0.07132820115524605 0.09060225701974478 0.9893382780213209 0 0 0 0.36 4 220 16 185 17 69 77 101 92 109 98 107 187 159 28 43 38 110 110 51 146 50 148 19 201 47 213 40 214 15 223 26 
286 -0.03776042247364257 0.09088095870180417 0.995098772992953 0 0 0 0.25 4 221 11 118 16 186 17 70 77 102 85 68 92 110 118 70 
287 0.09357236858401603 0.1008592764199764 0.989502789841927 0 0 0 0.18 4 222 11 119 16 187 27 47 38 111 50 115 96 24 118 71 187 160 
288 0.0022185960183941636 0.10533735116504801 0.9900454230174963 0 0 0 0.32 4 223 11 120 38 112 77 103 
289 -0.10438625770334863 0.10509532432952029 1.0023371305454802 0 0 0 0.25 4 224 11 121 16 188 38 113 43 6 77 104 92 111 96 25 110 52 
290 0.04176053150507691 0.107667096369883 0.9889277756294045 0 0 0 0.42 4 225 11 122 16 189 36 34 53 32 
291 -0.11252236628452691 0.11219149350670728 1.0007304811052273 0 0 0 0.29 4 226 11 123 16 190 38 114 53 33 77 105 92 112 110 53 113 8 118 72 
292 -0.03658244962899321 0.11389741110774756 0.9908887309526685 0 0 0 0.25 4 227 11 124 16 191 17 71 27 48 38 115 77 106 85 69 92 113 93 67 103 6 110 54 118 73 
293 -0.11297869032409409 0.1236420465324285 0.9993200127823871 0 0 0 0.31 4 228 16 192 17 72 43 7 77 107 92 114 113 9 118 74 
294 0.044748484622640645 -0.1261992886450715 1.0304124992093442 0 0 0 0.31 4 229 16 193 17 73 50 116 98 108 111 14 187 161 
295 0.3234872244876295 -0.08421139866516424 1.0137213308259296 0 0 0 0.4 4 230 77 108 92 115 187 162 
296 0.14374770814468807 -0.08072153034148467 1.0172158789299623 0 0 0 0.29 4 231 33 75 50 117 85 70 91 15 187 163 
297 -0.08237565711589227 -0.019317250100638707 1.0238020097730718 0 0 0 0.34 4 232 44 113 50 118 53 34 61 68 92 116 98 109 103 7 110 55 111 15 112 89 16 194 28 44 32 30 39 49 71 7 77 109 146 51 148 20 157 33 158 15 162 3 172 8 214 16 231 16 232 10 9 67 93 68 185 13 
298 -0.027764724181210253 -0.012156154047646715 1.0159823438202993 0 0 0 0.21 4 233 17 74 50 119 61 69 118 75 124 100 
299 0.09683334188720225 0.04813092414990201 0.9977275019353399 0 0 0 0.25 4 234 15 25 16 195 50 120 61 70 98 110 111 16 112 90 124 101 187 164 97 6 157 34 175 21 176 32 219 8 231 17 234 18 13 64 146 52 158 16 201 48 204 15 
300 -0.062005584497504734 0.0487107816459593 1.0010133925238351 0 0 0 0.4 4 235 15 26 17 75 27 49 33 76 43 8 44 114 50 121 61 71 77 110 96 26 103 8 112 91 
301 -0.1093009567249813 0.05029478048076333 1.0078008340229088 0 0 0 0.13 4 236 38 116 77 111 118 76 
302 0.21256034062825255 0.06244061035860149 0.9874923137775165 0 0 0 0.23 4 237 11 125 53 35 77 112 85 71 91 16 92 117 93 69 109 48 110 56 118 77 187 165 13 65 17 76 27 50 28 45 146 53 165 1 201 49 204 16 213 41 223 27 232 11 234 19 235 1 148 21 164 23 176 33 194 4 
303 -0.059856057401340035 0.05978666965956427 0.9985889805741502 0 0 0 0.21 4 238 11 126 15 27 16 196 38 117 77 113 92 118 
304 -0.00187275528411767 0.0607880725518125 0.9963966310771685 0 0 0 0.18 4 239 16 197 38 118 53 36 77 114 92 119 96 27 118 78 
305 0.21257755436255804 0.07523648836563096 0.9873527280804496 0 0 0 0.31 4 240 11 127 13 66 15 28 17 77 53 37 77 115 85 72 91 17 93 70 103 9 109 49 118 79 187 166 
306 0.058064349985299635 0.08822244574708991 0.9945807540172575 0 0 0 0.4 4 241 11 128 15 29 16 198 33 77 118 80 187 167 
307 -0.09205548192105178 0.08771500520506553 1.006076612408708 0 0 0 0.2 4 242 11 129 16 199 17 78 27 51 38 119 77 116 118 81 43 9 113 10 
308 0.28100032206752523 0.09532270148881167 0.9821690899422856 0 0 0 0.36 4 243 11 130 17 79 27 52 43 10 52 16 77 117 96 28 118 82 187 168 85 73 91 18 28 46 234 20 
309 0.13153617908367915 0.09729453398552693 0.9861678063481191 0 0 0 0.31 4 244 11 131 16 200 27 53 43 11 77 118 92 120 96 29 187 169 
310 0.021297293811830896 0.0999713640262944 0.9989292962973707 0 0 0 0.31 4 245 11 132 13 67 15 30 43 12 50 122 92 121 103 10 
311 0.05578435253837675 0.09996338300309227 0.9921680970301692 0 0 0 0.19 4 246 11 133 15 31 16 201 17 80 27 54 38 120 50 123 61 72 118 83 
312 -0.12014950439859472 0.10284578873474515 1.0073034553402642 0 0 0 0.32 4 247 17 81 38 121 98 111 113 11 
313 0.025413679843682653 0.11293170926167333 0.9857590524220866 0 0 0 0.22 4 248 13 68 15 32 16 202 17 82 50 124 96 30 98 112 118 84 124 102 
314 0.00021995540943291658 0.1132816482719599 0.98843790778959 0 0 0 0.36 4 249 11 134 13 69 16 203 17 83 50 125 53 38 61 73 92 122 96 31 98 113 118 85 
315 0.005200739305510524 0.11725326792826476 0.9877956024698886 0 0 0 0.57 4 250 17 84 44 115 50 126 53 39 61 74 98 114 124 103 
316 -0.03358558526345453 -0.09237227582167477 1.0272808845332828 0 0 0 0.4 4 251 50 127 98 115 112 92 118 86 187 170 
317 0.03151234300586475 -0.017744461917563712 1.0122173522685292 0 0 0 0.42 4 252 16 204 44 116 112 93 187 171 
318 -0.06149017795679871 -0.013581724204551247 1.0162636131804685 0 0 0 0.17 4 253 11 135 16 205 17 85 38 122 77 119 103 11 118 87 
319 -0.0050135021065753635 0.040734800025533396 1.0023528532556611 0 0 0 0.2 4 254 17 86 50 128 61 75 
320 0.09080823051918596 0.049715764097010555 0.9969045705144588 0 0 0 0.36 4 255 11 136 15 33 16 206 17 87 38 123 50 129 61 76 98 116 110 57 112 94 118 88 187 172 19 25 111 17 97 7 124 104 146 54 28 47 128 0 152 1 158 17 175 22 176 34 201 50 204 17 234 21 13 70 172 9 
321 0.0967420455354813 0.05251114227560322 0.9968630836205523 0 0 0 0.44 4 256 43 13 61 77 98 117 112 95 187 173 9 68 11 137 16 207 17 88 27 55 44 117 50 130 77 120 93 71 118 89 128 1 164 24 201 51 204 18 232 12 53 40 152 2 158 18 
322 -0.06550660240051327 0.09669558657477129 0.9922657419012157 0 0 0 0.27 4 257 11 138 15 34 17 89 27 56 38 124 43 14 53 41 77 121 96 32 103 12 118 90 
323 -0.04885290332954117 0.0976087698254345 0.9969446886766159 0 0 0 0.18 4 258 11 139 16 208 17 90 38 125 43 15 92 123 103 13 118 91 
324 0.04846124005291321 0.09970863230172464 0.9911784219581826 0 0 0 0.15 4 259 11 140 53 42 96 33 98 118 103 14 118 92 
325 -0.04444495122360806 0.10174956165531385 0.993557198685771 0 0 0 0.2 4 260 11 141 15 35 16 209 17 91 43 16 96 34 118 93 
326 0.21007344441060477 0.10661932920430245 0.9800807718667784 0 0 0 0.36 4 261 11 142 13 71 17 92 27 57 44 118 50 131 53 43 61 78 77 122 98 119 103 15 124 105 187 174 
327 -0.10029983679921033 0.10286603593468029 1.002600789660602 0 0 0 0.2 17 93 38 126 43 17 53 44 
328 -0.005924821760840723 0.103426562684454 0.9910568271858811 0 0 0 0.31 4 262 11 143 15 36 16 210 17 94 27 58 38 127 44 119 92 124 96 35 111 18 118 94 
329 -0.11598834803231342 0.11556033614423364 1.0016774605877459 0 0 0 0.2 4 263 38 128 77 123 118 95 
330 0.1096767949668793 0.11913728434749334 0.9800625573237617 0 0 0 0.28 4 264 11 144 16 211 17 95 27 59 96 36 
331 0.03837346003721284 0.0713151668035352 0.9942730848135043 0 0 0 0.27 4 265 11 145 15 37 33 78 98 120 187 175 
332 -0.0852279961191896 0.09786087507950253 1.0009878089513875 0 0 0 0.21 4 266 11 146 15 38 16 212 17 96 38 129 103 16 113 12 118 96 
333 -0.08308025659504518 0.10301241499167461 1.0008654404585067 0 0 0 0.2 4 267 11 147 16 213 17 97 53 45 77 124 92 125 110 58 
334 -0.09999722547645451 0.11529000545281803 1.0038559838536274 0 0 0 0.29 4 268 16 214 38 130 43 18 92 126 96 37 
335 -0.0703442989079605 0.09274185895410894 0.9928193006227574 0 0 0 0.35 4 269 11 148 17 98 27 60 38 131 77 125 118 97 
336 -0.012903586009330123 -0.09008529661266286 1.0253810376917867 0 0 0 0.41 4 270 16 215 44 120 50 132 53 46 77 126 96 38 111 19 112 96 118 98 
337 0.0014426109996056506 0.053274993665026846 0.9941131646178433 0 0 0 0.4 4 271 16 216 50 133 53 47 61 79 
338 0.014894735873389678 0.06022971266252481 0.9995874378202163 0 0 0 0.58 4 272 16 217 17 99 43 19 53 48 118 99 
339 0.11329798856367904 -0.10233447446489873 1.023475532666857 0 0 0 0.45 4 273 15 39 50 134 85 74 98 121 187 176 
340 -0.06131256924293279 -0.0846330563069226 1.0293421895879304 0 0 0 0.49 4 274 11 149 16 218 17 100 27 61 38 132 77 127 118 100 
341 0.10473920706135992 0.07415504024918619 0.9915138802727838 0 0 0 0.25 4 275 15 40 16 219 17 101 77 128 118 101 187 177 
342 -0.0008033795463211423 0.10801103039277214 0.9888499570747304 0 0 0 0.43 4 276 11 150 16 220 17 102 27 62 32 31 36 35 43 20 53 49 77 129 92 127 96 39 110 59 
343 0.13936161933544386 -0.14674781277357607 1.0293330988552745 0 0 0 0.41 9 69 50 135 93 72 112 97 124 106 187 178 11 151 13 72 28 48 33 79 39 50 110 60 136 3 157 35 213 42 201 52 
344 0.061055567100390576 -0.11182459479524451 1.0276537905587149 0 0 0 0.15 9 70 93 73 98 122 124 107 187 179 
345 0.14148159315302253 -0.09516689564288815 1.0172746617214479 0 0 0 0.32 9 71 16 221 50 136 112 98 187 180 
346 0.14598452080540825 -0.09256733194599899 1.0162471752196804 0 0 0 0.25 9 72 93 74 187 181 
347 0.034890553508121196 -0.09728885936718035 1.026006124688265 0 0 0 0.33 9 73 93 75 187 182 
348 0.07324445323625875 -0.09166716616178852 1.0227285556834098 0 0 0 0.35 9 74 50 137 61 80 92 128 98 123 187 183 
349 0.10643774608670462 -0.08367006522150235 1.0191492790778243 0 0 0 0.36 9 75 13 73 16 222 44 121 92 129 93 76 110 61 187 184 28 49 39 51 200 20 109 50 201 53 
350 -0.0067786939300049755 -0.08636282017776703 1.0245926113728898 0 0 0 0.25 9 76 16 223 85 75 93 77 112 99 
351 0.2163639200825767 -0.05595534853073613 1.0129995860716683 0 0 0 0.3 9 77 112 100 187 185 
352 0.1788751101174686 -0.056351503500628584 1.0140732583732441 0 0 0 0.17 9 78 112 101 187 186 
353 0.12110782274762276 -0.02104433761511985 1.0089696926430038 0 0 0 0.21 9 79 13 74 16 224 33 80 38 133 91 19 93 78 98 124 112 102 187 187 39 52 124 108 28 50 146 55 157 36 164 25 175 23 176 35 201 54 
354 0.10278560333097966 -0.018482847513412906 1.0088358810033788 0 0 0 0.41 9 80 38 134 98 125 112 103 187 188 
355 -0.0699230363074188 0.054461463995194505 0.998086727678301 0 0 0 0.31 9 81 16 225 33 81 93 79 98 126 112 104 
356 -0.10801802359163018 0.07549034551457268 1.006967756201042 0 0 0 0.31 9 82 11 152 16 226 33 82 44 122 50 138 61 81 92 130 113 13 124 109 
357 0.19180678116259503 -0.150374786231729 1.0260605953779245 0 0 0 0.39 9 83 36 36 187 189 39 53 44 123 234 22 
358 0.31950623220562363 -0.08856662448930593 1.0137629239520127 0 0 0 0.31 9 84 77 130 187 190 
359 0.08173023532558343 -0.09650442472043823 1.024533692904494 0 0 0 0.23 9 85 50 139 187 191 93 80 
360 0.07043558240883296 -0.08338785593904674 1.019706316985216 0 0 0 0.44 9 86 13 75 16 227 32 32 36 37 44 124 50 140 124 110 187 192 201 55 213 43 
361 0.2405085727419327 -0.07430007486717226 1.0145985950084795 0 0 0 0.15 9 87 93 81 124 111 187 193 
362 -0.03907696442094439 -0.08237519977880017 1.026212377058143 0 0 0 0.31 9 88 11 153 33 83 38 135 61 82 77 131 98 127 112 105 16 228 187 194 
363 0.06463451036937948 -0.09291754135046286 1.0234321190927098 0 0 0 0.35 9 89 15 41 16 229 44 125 50 141 61 83 77 132 98 128 187 195 
364 -0.011431339957792911 -0.0964461084535489 1.0284263720275988 0 0 0 0.31 9 90 15 42 44 126 50 142 77 133 98 129 
365 0.03181780258480897 -0.09274127244106091 1.0256064406786465 0 0 0 0.44 9 91 16 230 19 26 36 38 44 127 50 143 53 50 61 84 77 134 85 76 92 131 93 82 109 51 124 112 187 196 39 54 112 106 118 102 157 37 232 13 
366 -0.07520828225954188 -0.09715772888441011 1.0295209006523405 0 0 0 0.62 9 92 11 154 16 231 17 103 27 63 44 128 92 132 112 107 61 85 96 40 98 130 
367 0.39237093146543206 -0.09690430714345169 1.0082573849746623 0 0 0 0.33 9 93 36 39 187 197 11 155 17 104 44 129 50 144 53 51 103 17 
368 0.053972914272316624 -0.11269093235894678 1.027069768228313 0 0 0 0.5 9 94 16 232 44 130 50 145 53 52 98 131 112 108 187 198 124 113 
369 0.3577794454224321 -0.08789589456205914 1.012825909085501 0 0 0 0.5 9 95 44 131 98 132 187 199 
370 -0.006942505206177483 -0.12386418314803595 1.0317659091856748 0 0 0 0.91 9 96 19 27 44 132 53 53 92 133 98 133 109 52 39 55 172 10 
371 0.0014378465633497867 -0.10366140271312053 1.0266498371826729 0 0 0 0.36 9 97 16 233 44 133 50 146 77 135 92 134 111 20 
372 0.21674039310319754 0.0886856242908732 0.9840411197284089 0 0 0 0.26 9 98 44 134 53 54 98 134 124 114 187 200 
373 -0.053547032165753544 -0.07327913228906645 1.0263617391624635 0 0 0 1.0 9 99 77 136 98 135 
374 0.04641184138508039 -0.12374782924733099 1.029853288964487 0 0 0 0.18 11 156 33 84 112 109 187 201 
375 0.01207975737890263 -0.11520915717253587 1.0296931731431176 0 0 0 0.24 11 157 16 234 33 85 98 136 112 110 187 202 
376 0.09542292000688864 -0.11527066710189457 1.026391962398566 0 0 0 0.35 11 158 16 235 27 64 33 86 38 136 92 135 98 137 109 53 112 111 187 203 19 28 28 51 39 56 61 86 146 56 148 22 159 9 176 36 213 44 
377 -0.0066848557387523206 -0.10258593345196418 1.0295235074026952 0 0 0 0.26 11 159 16 236 98 138 112 112 187 204 
378 0.013421539434033132 -0.08152113606457292 1.0234512669471458 0 0 0 0.19 11 160 16 237 110 62 124 115 187 205 
379 0.053917311404264576 -0.08149086183123702 1.022103382208723 0 0 0 0.43 11 161 77 137 109 54 187 206 27 65 148 23 201 56 
380 0.0342480225622742 -0.01326177452224284 1.011405135668506 0 0 0 0.22 11 162 16 238 33 87 112 113 187 207 
381 0.2422303952096793 -0.013797977499964037 1.0056115576538944 0 0 0 0.3 11 163 50 147 91 20 112 114 187 208 
382 0.03310644148723167 -0.0104430313178105 1.012107437505347 0 0 0 0.34 11 164 16 239 38 137 93 83 109 55 187 209 
383 -0.11196383575725898 0.0423668259721331 1.0117882052956975 0 0 0 0.08 11 165 16 240 38 138 50 148 
384 0.015260148690713383 0.05925617417904699 0.9998123493951079 0 0 0 0.46 11 166 44 135 77 138 109 56 
385 0.09963516137437595 0.06133230583097808 0.9910844173984961 0 0 0 0.14 11 167 16 241 187 210 
386 0.10219497228391403 0.06928780825781054 0.9911999938641952 0 0 0 0.17 11 168 16 242 187 211 
387 0.036477862993769684 0.07025947154699554 0.9949892231929944 0 0 0 0.22 11 169 38 139 50 149 187 212 
388 -0.10609598112371448 0.07679457474248765 1.0066770406925132 0 0 0 0.23 11 170 16 243 38 140 98 139 
389 0.1435080204214751 0.07721537650624449 0.9866905491815378 0 0 0 0.32 11 171 33 88 50 150 187 213 
390 0.03590235783598793 0.08856582686992166 0.9923481362480646 0 0 0 0.37 11 172 13 76 187 214 28 52 146 57 201 57 214 17 
391 0.2850378035766609 0.09114942303729755 0.9824643477963495 0 0 0 0.73 11 173 77 139 187 215 28 53 201 58 223 28 
392 -0.035867333283540845 0.09746054605069318 0.9927186100705708 0 0 0 0.19 11 174 16 244 38 141 92 136 
393 0.21170321327686037 0.09695684246046953 0.9830336244084051 0 0 0 0.24 11 175 13 77 187 216 28 54 201 59 213 45 
394 0.06588017575826957 0.09924640036394405 0.9878402642482548 0 0 0 0.11 11 176 16 245 187 217 201 60 213 46 
395 0.14265371749063754 0.09907649051560989 0.9827668114190945 0 0 0 0.36 11 177 16 246 38 142 52 17 77 140 93 84 109 57 187 218 28 55 110 63 194 5 201 61 213 47 214 18 223 29 
396 -0.03615867958906873 0.10414765122737832 0.9926402572219125 0 0 0 0.08 11 178 16 247 110 64 
397 0.10003721442563984 0.1062014096941427 0.9845489959129934 0 0 0 0.16 11 179 16 248 187 219 
398 -0.034702752233550946 0.11011369354663213 0.9904427224123595 0 0 0 0.17 11 180 16 249 92 137 
399 0.023218871769653145 0.11563039792270327 0.9846129697748498 0 0 0 0.38 11 181 17 105 50 151 61 87 98 140 124 116 
400 -0.036214623454040154 0.11726593275340691 0.9898988368009725 0 0 0 0.3 11 182 13 78 16 250 36 40 38 143 52 18 92 138 110 65 
401 0.14012986938386457 0.12658773419667615 0.9784629057638907 0 0 0 0.19 11 183 13 79 187 220 
402 -0.1051428166725293 0.14056440834330752 0.998550294759364 0 0 0 0.42 11 184 16 251 38 144 77 141 98 141 
403 0.09071751373759397 -0.12971249011498864 1.024409324884346 0 0 0 0.2 11 185 36 41 44 136 98 142 187 221 146 58 201 62 
404 -0.09542892041626114 -0.08475148098501602 1.036164868004386 0 0 0 0.24 11 186 13 80 16 252 38 145 44 137 50 152 61 88 77 142 124 117 
405 0.2793605202544099 -0.0816539453231184 1.0159836257606163 0 0 0 0.68 11 187 13 81 19 29 112 115 187 222 28 56 201 63 
406 -0.057342388848862835 -0.013610130696399013 1.0184752350960098 0 0 0 0.37 11 188 16 253 27 66 77 143 
407 0.13089609461728025 -0.01608013859627632 1.00878015053022 0 0 0 0.3 11 189 91 21 112 116 187 223 16 254 
408 0.08832728408537671 -0.0149855872044159 1.0112334838042871 0 0 0 0.13 11 190 61 89 112 117 187 224 
409 0.10116150367771477 0.04701987323508559 0.9932346985067791 0 0 0 0.13 11 191 50 153 112 118 187 225 
410 0.029741897890718093 0.05124380454654079 0.9976667573343679 0 0 0 0.41 11 192 16 255 50 154 61 90 187 226 
411 0.20717286785692415 0.05171206808671857 0.99110668081622 0 0 0 0.28 11 193 50 155 61 91 112 119 118 103 187 227 28 57 44 138 77 144 157 38 158 19 176 37 197 7 201 64 213 48 
412 -0.131270574616387 0.06127073339944785 1.0174006002157596 0 0 0 0.17 11 194 16 256 38 146 110 66 
413 -0.01651409291476539 0.06073434551384528 1.0001276193980009 0 0 0 0.3 11 195 16 257 187 228 
414 0.17605377849713436 0.06207453412524235 0.9879408092219761 0 0 0 0.28 11 196 13 82 17 106 93 85 124 118 187 229 2 147 4 277 27 67 28 58 44 139 77 145 85 77 91 22 92 139 109 58 110 67 118 104 146 59 157 39 164 26 165 2 176 38 194 6 197 8 201 65 204 19 213 49 223 30 234 23 235 2 
415 0.38155323914669326 0.07494244675748697 0.9872310684758177 0 0 0 0.33 11 197 98 143 187 230 2 148 44 140 50 156 61 92 77 146 82 0 91 23 148 24 197 9 201 66 235 3 
416 0.06854586052400415 0.09035851806806941 0.9893114608214214 0 0 0 0.2 11 198 77 147 92 140 187 231 
417 -0.01746757935267154 0.0931536139515156 0.9973348360276787 0 0 0 0.28 11 199 16 258 17 107 38 147 77 148 92 141 118 105 
418 0.13413226400794576 0.09168011707475891 0.984326150526128 0 0 0 0.25 11 200 15 43 16 259 85 78 187 232 28 59 53 55 110 68 128 2 172 11 197 10 201 67 214 19 232 14 234 24 
419 0.00021235022626741896 0.09490501847569535 0.991751351269266 0 0 0 0.11 11 201 16 260 38 148 52 19 77 149 92 142 
420 -0.025713921802476513 0.09546737420296371 0.9929906105563127 0 0 0 0.27 11 202 17 108 38 149 50 157 61 93 
421 -0.059349260967924054 0.09600459574408546 0.9961683137175831 0 0 0 0.3 11 203 16 261 85 79 
422 0.1339505347227933 0.09622790178109122 0.9836035998045275 0 0 0 0.31 11 204 16 262 36 42 96 41 187 233 28 60 110 69 146 60 172 12 197 11 201 68 213 50 232 15 234 25 
423 0.10099854427784229 0.09840387085121736 0.9858055048511787 0 0 0 0.41 11 205 92 143 187 234 
424 0.2723224606478486 0.09959924433306082 0.9850575912501567 0 0 0 0.35 11 206 50 158 98 144 124 119 187 235 
425 0.27517336022341776 0.09921060446970732 0.9815033391717514 0 0 0 0.35 11 207 17 109 187 236 
426 -0.04071470255931991 0.10066680946605117 0.9933172490763273 0 0 0 0.22 11 208 77 150 92 144 110 70 
427 -0.007333287924882936 0.1100176964627131 0.9889544896658132 0 0 0 0.3 11 209 38 150 53 56 118 106 
428 0.1005776845458454 0.11131991411244767 0.9844093000958201 0 0 0 0.27 11 210 16 263 38 151 77 151 187 237 
429 0.13759971562664716 0.11504734204893163 0.9804402546619481 0 0 0 0.17 11 211 52 20 85 80 109 59 187 238 
430 0.10040846424542417 0.12061542576312505 0.9824290014956484 0 0 0 0.25 11 212 13 83 16 264 33 89 50 159 92 145 98 145 124 120 187 239 
431 0.13752181653227402 0.12274127803359479 0.9794363636620792 0 0 0 0.31 11 213 13 84 17 110 85 81 118 107 187 240 
432 -0.11056227823828756 0.13874007427317714 0.9954554698726655 0 0 0 0.27 11 214 16 265 17 111 
433 0.07350477645604758 -0.12227847498617596 1.028895850068155 0 0 0 0.35 11 215 43 21 44 141 77 152 85 82 109 60 112 120 118 108 187 241 9 100 
434 -0.09118333823037508 -0.022315700847746946 1.0266404226684107 0 0 0 0.25 11 216 16 266 17 112 38 152 50 160 61 94 111 21 118 109 44 142 53 57 98 146 103 18 112 121 124 121 2 149 4 278 9 101 19 30 27 68 29 11 33 90 39 57 71 8 77 153 92 146 93 86 110 71 146 61 148 25 158 20 159 10 164 27 176 39 185 14 200 21 204 20 213 51 231 18 232 16 
435 -0.07617092428333452 -0.01328048168208423 1.0214948721794932 0 0 0 0.29 11 217 53 58 112 122 
436 -0.00744535028317128 -0.012970872939954334 1.0173367006693785 0 0 0 0.19 11 218 16 267 43 22 53 59 92 147 98 147 112 123 118 110 187 242 
437 -0.04220772274312213 0.040010381350362514 1.0081855938812019 0 0 0 0.16 11 219 16 268 17 113 50 161 118 111 
438 0.01676473907567169 0.04051826200392274 1.0081185266274428 0 0 0 0.31 11 220 16 269 17 114 118 112 124 122 187 243 39 58 175 24 
439 0.09659203774276834 0.06224392530491111 0.9944342333237292 0 0 0 0.26 11 221 16 270 17 115 187 244 
440 0.14060527938575237 0.06178411758665099 0.9886128747668533 0 0 0 0.3 11 222 27 69 96 42 118 113 187 245 4 279 17 116 28 61 53 60 77 154 109 61 128 3 146 62 164 28 176 40 194 7 197 12 201 69 204 21 213 52 232 17 
441 -0.07770931973178533 0.06609977402502197 1.0030533461268465 0 0 0 0.06 11 223 16 271 17 117 
442 0.21263990241364347 0.08015298616956781 0.9865757398262719 0 0 0 0.11 11 224 43 23 103 19 118 114 187 246 
443 -0.1237494754239599 0.08509110435370777 1.010541308546056 0 0 0 0.27 11 225 16 272 17 118 77 155 92 148 
444 0.21278787473874197 0.0902059717808378 0.984739597403974 0 0 0 0.13 11 226 111 22 187 247 
445 0.11039600635659091 0.11446123718666243 0.9825101565230754 0 0 0 0.32 11 227 16 273 96 43 187 248 
446 0.012408032566997278 0.1149672785112348 0.9856393740973414 0 0 0 0.39 11 228 16 274 43 24 53 61 118 115 
447 -0.106347809259988 -0.09132193934158418 1.0386313437735821 0 0 0 0.45 11 229 16 275 17 119 32 33 33 91 38 153 50 162 77 156 
448 -0.08176990840509465 0.08755783028816418 1.0036170801125257 0 0 0 0.31 11 230 15 44 16 276 17 120 77 157 118 116 
449 -0.09755170883917356 0.09896408986767403 1.005599481785307 0 0 0 0.28 11 231 38 154 43 25 53 62 77 158 92 149 96 44 103 20 110 72 113 14 118 117 
450 0.00814352098653639 0.10256767807298825 0.9912013648173087 0 0 0 0.28 11 232 16 277 17 121 53 63 96 45 118 118 
451 0.022932605150151723 0.10284891076099599 0.9903239274593881 0 0 0 0.3 11 233 15 45 16 278 17 122 27 70 43 26 53 64 96 46 103 21 
452 0.0642678712005697 0.042265207980395056 0.9987749063411103 0 0 0 0.17 11 234 15 46 112 124 118 119 187 249 
453 0.10514779232619041 0.06804840911030348 0.9915597689275583 0 0 0 0.38 11 235 15 47 17 123 187 250 
454 -0.08794771387926503 0.08534128607345952 1.0045951865017952 0 0 0 0.28 11 236 15 48 16 279 38 155 77 159 113 15 118 120 
455 -0.01491740850031897 0.0990403330161112 1.0063648770203988 0 0 0 0.28 11 237 16 280 96 47 
456 0.07348246398205598 0.10613528846919977 0.9861879448186534 0 0 0 0.41 11 238 16 281 17 124 27 71 43 27 61 95 92 150 93 87 96 48 118 121 
457 0.10300514844404181 0.12754987535375273 0.9810894407224978 0 0 0 0.34 11 239 13 85 27 72 33 92 43 28 50 163 92 151 96 49 118 122 187 251 
458 0.07030244556754736 0.07430271360418783 0.9941339659369082 0 0 0 0.34 11 240 15 49 98 148 118 123 187 252 
459 0.03395493763168332 0.11059483746794374 0.9896179341822875 0 0 0 0.22 11 241 53 65 77 160 118 124 15 50 
460 0.08643096731290097 0.07389708075866103 0.9889336338646632 0 0 0 0.28 11 242 16 282 17 125 38 156 
461 0.12376423831079951 0.07438185569109666 0.9908535275902093 0 0 0 0.45 11 243 16 283 77 161 187 253 
462 -0.046069420800708145 -0.09077294830478298 1.029326164184734 0 0 0 0.15 13 86 33 93 112 125 
463 -0.04883679370116739 -0.08822951055455576 1.0286694822206783 0 0 0 0.23 13 87 16 284 33 94 38 157 98 149 112 126 124 123 39 59 109 62 146 63 
464 -0.06655593290259224 -0.08536317092171382 1.0290530925249044 0 0 0 0.21 13 88 112 127 124 124 16 285 33 95 98 150 
465 0.03538453578826895 -0.056694200545625635 1.0188299279186748 0 0 0 0.2 13 89 16 286 98 151 187 254 
466 0.07925893903770101 -0.02632200507717626 1.0143892732153896 0 0 0 0.27 13 90 112 128 187 255 
467 -0.05426787345663395 0.04629097809765374 1.0068984917707302 0 0 0 0.17 13 91 98 152 187 256 
468 0.24095034057326348 0.03697885076575926 1.000093553737086 0 0 0 0.15 13 92 112 129 187 257 146 64 157 40 175 25 201 70 
469 0.10549429374719153 0.04421382532488083 0.9924945527294288 0 0 0 0.26 13 93 112 130 187 258 
470 0.2882405832932893 0.04105287100356929 0.9911747022603482 0 0 0 0.53 13 94 124 125 187 259 175 26 201 71 
471 -0.06648039495150662 0.06568129004052732 0.9984256109499928 0 0 0 0.11 13 95 93 88 98 153 
472 -0.030015459813581353 0.06471353220882212 0.9976204772655165 0 0 0 0.19 13 96 33 96 93 89 124 126 
473 0.21509647789157396 0.060242184810922784 0.9866781801995957 0 0 0 0.24 13 97 112 131 187 260 28 62 201 72 213 53 
474 0.10652634588706532 0.06595652181944901 0.9906411491769156 0 0 0 0.19 13 98 109 63 187 261 28 63 38 158 146 65 201 73 213 54 214 20 
475 0.18340416589829323 0.06489926149922605 0.9886638478966173 0 0 0 0.31 13 99 98 154 124 127 187 262 
476 0.1377418289643446 0.06658410794131446 0.989108226632993 0 0 0 0.3 13 100 91 24 124 128 187 263 28 64 201 74 
477 0.17175207221594418 0.06627708717791914 0.9869441019582557 0 0 0 0.19 13 101 98 155 124 129 187 264 175 27 201 75 
478 0.2503333822548197 0.0659563634720508 0.9871752569469433 0 0 0 0.32 13 102 124 130 187 265 28 65 85 83 175 28 201 76 223 31 
479 0.24575368694580899 0.06740749041437186 0.9870344473295454 0 0 0 0.25 13 103 124 131 187 266 
480 0.24900912740973427 0.06749643183256912 0.9869523411038178 0 0 0 0.15 13 104 124 132 187 267 28 66 175 29 201 77 
481 0.21375898391823184 0.0683755021213105 0.9867619421700051 0 0 0 0.17 13 105 33 97 187 268 
482 0.27889446489905756 0.0689896463323565 0.9857650316855469 0 0 0 0.36 13 106 33 98 124 133 187 269 
483 0.24413408430136982 0.07051141131464098 0.987004831094394 0 0 0 0.19 13 107 98 156 124 134 187 270 4 280 11 244 28 67 148 26 157 41 165 3 175 30 201 78 213 55 
484 0.28813748173926884 0.07156506942841996 0.9859961616757339 0 0 0 0.29 13 108 98 157 124 135 187 271 
485 0.10793779151724088 0.08386838541217925 0.9878825435696613 0 0 0 0.26 13 109 33 99 187 272 
486 0.03426187421220995 0.09111392734427305 0.9910443368148878 0 0 0 0.19 13 110 124 136 187 273 28 68 175 31 201 79 
487 0.21473456746232356 0.09066452806505103 0.984324290903962 0 0 0 0.25 13 111 124 137 187 274 
488 0.07101492684848289 0.09488076003819662 0.9887673673423507 0 0 0 0.41 13 112 38 159 85 84 187 275 
489 0.2144990995396694 0.09284027128578307 0.9832002205296629 0 0 0 0.16 13 113 33 100 187 276 
490 -0.0022672319832873255 0.09914855345760255 0.9916046907443268 0 0 0 0.43 13 114 93 90 187 277 
491 0.2136791872094433 0.09815786652402746 0.9831810276139991 0 0 0 0.2 13 115 124 138 187 278 175 32 201 80 
492 0.21531755364467067 0.09842950598283275 0.9826378584340031 0 0 0 0.24 13 116 124 139 187 279 28 69 201 81 
493 0.11085323458606314 0.10060955362103377 0.9834828691272322 0 0 0 0.19 13 117 124 140 187 280 
494 0.2092252714909147 0.10420360208135865 0.9807230702692707 0 0 0 0.31 13 118 98 158 187 281 
495 0.002825294279973336 0.11024094085727584 0.9892801313205635 0 0 0 0.29 13 119 98 159 187 282 
496 0.0023235715953170513 0.1135631676332154 0.9854115918638484 0 0 0 0.2 13 120 124 141 187 283 
497 0.03308419449641228 0.11659933252596429 0.9864544244719576 0 0 0 0.24 13 121 16 287 33 101 124 142 187 284 
498 0.03452468257982755 0.11665508201238423 0.9848601959866271 0 0 0 0.26 13 122 98 160 124 143 187 285 
499 0.06570895068582291 0.11918067919484947 0.9834407665785709 0 0 0 0.32 13 123 124 144 187 286 
500 0.03619861931730626 0.1204369948243225 0.9840916562115823 0 0 0 0.12 13 124 124 145 187 287 
501 0.10184230204623589 0.12987231835465715 0.9808897070930862 0 0 0 0.2 13 125 16 288 109 64 187 288 
502 -0.08736292962276887 -0.08696956599605203 1.0361206550194864 0 0 0 0.25 13 126 93 91 98 161 112 132 39 60 124 146 200 22 
503 0.0323805816778244 -0.08171366451535589 1.0226149754091365 0 0 0 0.25 13 127 16 289 93 92 98 162 124 147 187 289 201 82 
504 0.34802015802003283 -0.07848947110457305 1.0135616360372952 0 0 0 0.2 13 128 98 163 187 290 
505 -0.05529067321551412 -0.015683961484160982 1.0181113984159693 0 0 0 0.2 13 129 93 93 98 164 109 65 124 148 
506 0.07968868186164046 -0.01950650412152047 1.0138141711665243 0 0 0 0.16 13 130 124 149 187 291 
507 0.24196426680459238 0.03378643331596377 0.9986948969136291 0 0 0 0.28 13 131 98 165 112 133 187 292 124 150 201 83 
508 -0.05234843650451568 0.04470554227463139 1.007232558375746 0 0 0 0.15 13 132 16 290 33 102 
509 0.0853972685581379 0.04787483264210261 0.9994061865743723 0 0 0 0.08 13 133 112 134 124 151 187 293 
510 0.07534415206957472 0.05321736434786874 0.9944051976032754 0 0 0 0.22 13 134 112 135 187 294 
511 -0.06857078706052544 0.06572245981185403 0.9989644355972245 0 0 0 0.19 13 135 16 291 33 103 93 94 98 166 124 152 39 61 146 66 200 23 
512 0.24537603203999134 0.06091669520022932 0.986132946992919 0 0 0 0.37 13 136 33 104 92 152 98 167 187 295 85 85 91 25 112 136 157 42 165 4 194 8 201 84 213 56 223 32 235 4 
513 0.21504533193706823 0.06515166116461663 0.9875387296172757 0 0 0 0.34 13 137 36 43 92 153 187 296 
514 0.21801194391695886 0.0688621673497141 0.9876876306655857 0 0 0 0.26 13 138 44 143 187 297 
515 0.24665719852408763 0.06916143931435308 0.9871287772373365 0 0 0 0.2 13 139 98 168 109 66 124 153 187 298 28 70 157 43 175 33 194 9 201 85 213 57 
516 0.069366644791213 0.07681175130403096 0.9919478449113405 0 0 0 0.25 13 140 93 95 110 73 187 299 4 281 11 245 28 71 38 160 146 67 194 10 201 86 223 33 
517 0.3199064392506034 0.07256708344255793 0.9864204817978288 0 0 0 0.47 13 141 124 154 187 300 
518 0.023235083163168392 0.08548381193916967 0.9975616513145633 0 0 0 0.1 13 142 16 292 98 169 187 301 
519 0.02168417034214733 0.08714115882670108 0.9978302353281684 0 0 0 0.26 13 143 16 293 124 155 187 302 
520 0.22009320500167853 0.08891916407990048 0.9844771498806588 0 0 0 0.23 13 144 124 156 187 303 28 72 175 34 201 87 
521 0.23423351346511392 0.09256813040015525 0.9884983820874129 0 0 0 0.33 13 145 98 170 187 304 
522 0.035724093720482596 0.0959149967063905 0.9906441006873612 0 0 0 0.22 13 146 16 294 38 161 187 305 11 246 28 73 93 96 146 68 175 35 201 88 213 58 214 21 
523 0.22058253034201977 0.10249236160113981 0.9803681938211063 0 0 0 0.15 13 147 44 144 124 157 187 306 
524 0.21150981101048427 0.10865190580894854 0.9801797191394501 0 0 0 0.27 13 148 98 171 187 307 
525 0.1404481637490737 0.10970495265614107 0.9812519226209763 0 0 0 0.15 13 149 85 86 187 308 
526 0.22138538717269868 0.11095328477613142 0.9798850369028157 0 0 0 0.35 13 150 50 164 98 172 187 309 
527 0.1400676764867129 0.11557603542498224 0.9800183445253875 0 0 0 0.25 13 151 33 105 85 87 187 310 
528 -0.032676607760642094 0.11784004443810388 0.9898989058422615 0 0 0 0.09 13 152 16 295 93 97 
529 -0.0347652944900073 0.11961051630460602 0.9898864382296176 0 0 0 0.27 13 153 92 154 93 98 124 158 
530 0.14016393109116812 0.1201167565180884 0.9795059199394299 0 0 0 0.1 13 154 50 165 85 88 187 311 
531 0.07080551884419096 0.12309859765080007 0.982630018114356 0 0 0 0.15 13 155 38 162 187 312 
532 0.14244163167937723 0.12425726704894163 0.9788398778495592 0 0 0 0.14 13 156 52 21 187 313 
533 0.02739599989261613 0.12560669605997382 0.9841672886083438 0 0 0 0.23 13 157 50 166 98 173 124 159 187 314 
534 -0.03677795957488518 0.12677406387089835 0.9887687817452158 0 0 0 0.31 13 158 16 296 93 99 
535 0.14418568591914596 0.126623908688744 0.9782826392044279 0 0 0 0.19 13 159 52 22 187 315 
536 -0.09128459530230229 -0.0843500465185415 1.0357492746348484 0 0 0 0.19 13 160 16 297 17 126 77 162 98 174 112 137 124 160 2 150 4 282 9 102 11 247 27 73 28 74 32 34 33 106 39 62 44 145 50 167 61 96 85 89 92 155 93 100 109 67 110 74 136 4 148 27 157 44 159 11 164 29 185 15 196 11 200 24 213 59 
537 -0.0890481592906293 -0.08198081838755382 1.0345936865208336 0 0 0 0.31 13 161 38 163 92 156 98 175 112 138 124 161 27 74 28 75 39 63 44 146 136 5 146 69 148 28 185 16 
538 0.09090418134070019 -0.08151595820607054 1.0203772751329492 0 0 0 0.24 13 162 16 298 27 75 61 97 110 75 112 139 124 162 187 316 77 163 118 125 148 29 176 41 201 89 234 26 
539 0.16061225526716771 -0.08282727426766842 1.0184882921757514 0 0 0 0.35 13 163 17 127 38 164 44 147 91 26 92 157 93 101 98 176 109 68 118 126 124 163 187 317 4 283 9 103 28 76 33 107 39 64 61 98 71 9 85 90 146 70 157 45 164 30 175 36 176 42 196 12 200 25 213 60 223 34 234 27 201 90 
540 0.3108464352220247 -0.08113175753894707 1.0137421141917193 0 0 0 0.09 13 164 98 177 187 318 
541 0.24252670839980617 0.02970886630459365 0.9993860280014436 0 0 0 0.32 13 165 98 178 187 319 28 77 112 140 146 71 157 46 175 37 201 91 
542 0.0729949745813825 0.06376937235372006 0.9929877854235064 0 0 0 0.23 13 166 36 44 187 320 
543 0.2821854777708312 0.06352346934559942 0.9864020319505419 0 0 0 0.25 13 167 61 99 85 91 98 179 124 164 187 321 28 78 110 76 148 30 164 31 201 92 
544 0.1710277194573428 0.06876674539219217 0.9877216077658183 0 0 0 0.26 13 168 36 45 124 165 187 322 128 4 146 72 165 5 201 93 213 61 235 5 
545 0.24218466000401748 0.07226461333027882 0.9874343278660578 0 0 0 0.26 13 169 98 180 187 323 
546 0.2877516104751675 0.0882055274327835 0.9826779310556778 0 0 0 0.45 13 170 17 128 61 100 98 181 187 324 
547 0.21230194814982 0.09342674261318484 0.9837308871195233 0 0 0 0.27 13 171 33 108 44 148 53 66 61 101 187 325 
548 0.26157420491782984 0.10572773841482486 0.9801519884565448 0 0 0 0.27 13 172 124 166 187 326 
549 0.06802508909979513 0.12151559233172834 0.9839466576925691 0 0 0 0.28 13 173 16 299 93 102 187 327 
550 0.1400536211744576 0.1242735040692418 0.978970953670837 0 0 0 0.33 13 174 50 168 85 92 124 167 187 328 
551 0.13951760450837145 0.13807070209089978 0.9764826258865157 0 0 0 0.33 13 175 118 127 187 329 
552 -0.03894721231095287 0.1408088132671692 0.9880525422941502 0 0 0 0.49 13 176 44 149 85 93 92 158 
553 0.06568870347663669 0.11408361128958705 0.9836698511222737 0 0 0 0.07 13 177 17 129 187 330 
