# 3D point list with one line of data per point:
#   POINT3D_ID, X, Y, Z, R, G, B, ERROR, TRACK[] as (IMAGE_ID, POINT2D_IDX)
# Number of points: 355, mean track length: 7.12
290 0.1587804240382041 0.29647330111347403 1.1257638160048102 0 0 0 0.24 2 206 26 106 126 195 
291 0.8391977822082285 0.22138820693080136 1.0768189984174885 0 0 0 0.38 2 207 3 73 4 141 11 105 15 61 17 91 29 43 43 52 54 53 63 172 67 37 71 115 77 126 89 45 97 45 103 31 105 33 111 52 126 196 129 12 
292 0.42036121738521887 0.17366329350740725 1.2212031634174167 0 0 0 0.43 2 208 25 81 63 173 118 81 
293 0.3844498773072377 0.2054000217029393 1.228906922030866 0 0 0 0.33 2 209 9 59 12 17 17 92 25 82 26 107 33 103 40 62 44 90 50 75 53 76 63 174 65 30 67 38 77 127 81 30 88 22 89 46 96 74 97 46 103 32 109 25 110 19 126 197 
294 0.5155130801626494 0.1575883992037738 1.1929131739912227 0 0 0 0.83 2 210 3 74 17 93 33 104 63 175 81 31 88 23 
295 0.4265633808986434 0.22127602928089002 1.1989670967040806 0 0 0 0.86 2 211 3 75 4 142 11 106 16 49 17 94 19 64 25 83 26 108 27 128 36 13 38 53 40 63 43 53 44 91 50 76 52 42 61 59 63 176 65 31 67 39 71 116 77 128 81 32 85 93 97 47 103 33 109 26 111 53 118 82 126 198 128 36 129 13 146 28 147 60 
296 0.5086268262686389 0.23567125113441298 1.1612807989042484 0 0 0 0.37 2 212 32 15 44 92 50 77 63 177 89 47 118 83 147 61 
297 0.6601158823101385 0.2119121502658354 1.1209902275523698 0 0 0 0.53 2 213 15 62 19 65 27 129 29 44 33 105 63 178 73 59 81 33 92 50 126 199 
298 0.747786053023408 0.19898095497193194 1.0987983735562012 0 0 0 0.41 2 214 3 76 17 95 33 106 50 78 52 43 53 77 54 54 63 179 71 117 89 48 97 48 110 20 126 200 
299 0.23308019550929834 0.29501439466539275 1.2694196921642162 0 0 0 0.31 2 215 3 77 4 143 17 96 25 84 26 109 27 130 65 32 71 118 73 60 77 129 96 75 126 201 
300 0.7800508455366484 0.2955714892165417 1.0460459219382292 0 0 0 0.4 2 216 3 78 4 144 12 18 19 66 43 54 52 44 53 78 54 55 61 60 63 180 71 119 85 94 91 17 103 34 105 34 107 13 110 21 111 54 120 13 129 14 141 9 
301 0.7941140162967599 0.3205223881351092 1.0302476268714809 0 0 0 0.42 2 217 3 79 4 145 17 97 33 107 36 14 40 64 43 55 53 79 54 56 63 181 65 33 71 120 73 61 77 130 85 95 97 49 105 35 111 55 129 15 
302 0.7947276627211307 0.32072652542415064 1.0310053488240067 0 0 0 0.37 2 218 3 80 4 146 17 98 19 67 36 15 40 65 44 93 53 80 54 57 63 182 65 34 71 121 73 62 77 131 85 96 97 50 111 56 129 16 
303 0.2974565413344631 0.4171876115911608 1.1859112551063413 0 0 0 0.53 2 219 77 132 126 202 
304 0.49600314071774854 0.1777266640501779 1.1886610908452409 0 0 0 0.47 2 220 4 147 25 85 26 110 28 17 33 108 38 54 50 79 63 183 85 97 118 84 
305 0.5380639836216816 0.2316399079227784 1.150546209055725 0 0 0 0.65 2 221 9 60 19 68 26 111 29 45 38 55 43 56 63 184 111 57 126 203 147 62 
306 0.5685020891973115 0.22810916881346713 1.1430135062970566 0 0 0 0.39 2 222 4 148 11 107 38 56 77 133 93 23 126 204 
307 0.6157686973498168 0.22746924511692435 1.1318602492819636 0 0 0 0.57 2 223 17 99 33 109 40 66 50 80 73 63 126 205 
308 0.8087092952137558 0.266697087472242 1.053832288045134 0 0 0 0.65 2 224 4 149 19 69 27 131 43 57 54 58 63 185 103 35 105 36 107 14 111 58 
309 0.8249531771182023 0.295750874973498 1.0413862579499709 0 0 0 0.31 2 225 9 61 11 108 17 100 35 10 44 94 53 81 63 186 118 85 120 14 129 17 
310 0.8042846487423281 0.30599259922014155 1.0338149300003643 0 0 0 0.39 2 226 3 81 4 150 9 62 11 109 17 101 27 132 33 110 36 16 40 67 43 58 44 95 50 81 53 82 54 59 61 61 63 187 65 35 71 122 73 64 105 37 107 15 111 59 118 86 129 18 141 10 147 63 
311 0.5390907345073837 0.12289462214457035 1.1975380301469627 0 0 0 0.21 3 82 11 110 126 206 
312 0.3575725032435498 0.17824903569130318 1.248871705013072 0 0 0 0.22 3 83 63 188 89 49 
313 0.3574920811937057 0.17821488851305473 1.2490203139142497 0 0 0 0.26 3 84 53 83 63 189 71 123 110 22 
314 0.5893001647449372 0.14256240036580048 1.1707947149454399 0 0 0 0.17 3 85 11 111 26 112 50 82 61 62 63 190 93 24 96 76 107 16 118 87 147 64 
315 0.4645474296493764 0.16499462811616414 1.1970913750459689 0 0 0 0.28 3 86 17 102 63 191 96 77 118 88 147 65 
316 0.7289992934948253 0.12840458059428042 1.1297935225051414 0 0 0 0.39 3 87 4 151 11 112 25 86 43 59 52 45 60 57 63 192 71 124 73 65 77 134 105 38 126 207 
317 0.5398870736098716 0.16356260918217835 1.1797963066410944 0 0 0 0.25 3 88 19 70 85 98 126 208 
318 0.48138623815669135 0.17950332517325998 1.194193953354361 0 0 0 0.28 1 108 3 89 15 63 26 113 27 133 54 60 63 193 71 125 96 78 126 209 128 37 147 66 
319 0.5029946992959426 0.17957676415522214 1.1888597952245812 0 0 0 0.12 3 90 53 84 126 210 
320 0.5430483687341835 0.1717320660248537 1.1748725655540586 0 0 0 0.24 3 91 17 103 50 83 63 194 69 13 118 89 
321 0.6354259308705268 0.16010010105585057 1.1515520093142668 0 0 0 0.35 3 92 4 152 11 113 19 71 40 68 63 195 71 126 85 99 89 50 110 23 126 211 
322 0.4424659445114476 0.19477539016278428 1.2038245409455186 0 0 0 0.53 3 93 63 196 96 79 111 60 
323 0.556604822002138 0.17438333069724063 1.1692354767102648 0 0 0 0.26 3 94 11 114 15 64 16 50 17 104 26 114 32 16 33 111 40 69 50 84 53 85 61 63 63 197 77 135 96 80 97 51 118 90 128 38 146 29 
324 0.3652009209318042 0.21501218949571047 1.2363308305437712 0 0 0 0.32 3 95 27 134 63 198 96 81 126 212 
325 0.49133710782988177 0.19071605661527952 1.1857067742932434 0 0 0 0.29 3 96 15 65 25 87 38 57 52 46 53 86 61 64 77 136 85 100 89 51 92 51 126 213 
326 0.5174220456574472 0.18585830513968657 1.1773161461345254 0 0 0 0.14 3 97 63 199 96 82 
327 0.3662660911883752 0.21793721935871754 1.2317036043464378 0 0 0 0.16 3 98 96 83 126 214 
328 0.4913822483365313 0.19623897611364974 1.1849492094205034 0 0 0 0.22 3 99 53 87 71 127 96 84 126 215 
329 0.4055062636674534 0.21577826855312673 1.2113350913537362 0 0 0 0.15 3 100 60 58 126 216 
330 0.47641545660848333 0.21011314790936536 1.1826553602448395 0 0 0 0.31 3 101 11 115 14 6 17 105 19 72 27 135 38 58 52 47 96 85 126 217 
331 0.5210015922653219 0.2029228695045519 1.1710681124896334 0 0 0 0.07 3 102 60 59 126 218 
332 0.5257749551960375 0.20216056877182942 1.1693677265524076 0 0 0 0.3 3 103 11 116 14 7 43 60 60 60 126 219 
333 0.5384511633671296 0.1994817992275773 1.1657388128729032 0 0 0 0.44 3 104 4 153 9 63 12 19 14 8 17 106 19 73 25 88 27 136 28 18 36 17 40 70 43 61 44 96 52 48 53 88 60 61 61 65 63 200 77 137 85 101 96 86 103 36 107 17 109 27 111 61 118 91 126 220 127 27 128 39 146 30 
334 0.40841985531845026 0.22497762599507098 1.2058859561131023 0 0 0 0.16 3 105 110 24 126 221 
335 0.41565401999376594 0.22286378847631189 1.1983560098065023 0 0 0 0.34 3 106 52 49 96 87 126 222 
336 0.603431421089266 0.19112848774310778 1.1460919622413555 0 0 0 0.38 3 107 9 64 60 62 63 201 92 52 96 88 126 223 
337 0.6032977471048907 0.19100647442377158 1.1453656780991115 0 0 0 0.41 3 108 25 89 26 115 27 137 40 71 60 63 126 224 
338 0.6173630808758177 0.18922502899552884 1.1454442477419808 0 0 0 0.17 3 109 29 46 126 225 
339 0.624807580029676 0.187611803180241 1.1416357241319006 0 0 0 0.34 3 110 4 154 11 117 12 20 26 116 27 138 29 47 52 50 53 89 63 202 77 138 96 89 118 92 126 226 
340 0.3943236549485531 0.23036164329135878 1.211150761680452 0 0 0 0.31 3 111 4 155 67 40 126 227 
341 0.6295405040064241 0.18738487976267068 1.1409657907078323 0 0 0 0.62 3 112 4 156 15 66 27 139 29 48 40 72 54 61 61 66 63 203 92 53 107 18 118 93 126 228 
342 0.7281089953505255 0.17122255522203342 1.1140413817643666 0 0 0 0.22 3 113 4 157 54 62 63 204 71 128 77 139 92 54 
343 0.3047568780262021 0.25068371101800135 1.247839788496567 0 0 0 0.35 3 114 19 74 27 140 33 112 40 73 92 55 93 25 126 229 
344 0.39141068833802967 0.23359982548724179 1.2107202199922467 0 0 0 0.28 3 115 16 51 17 107 27 141 50 85 63 205 77 140 96 90 97 52 110 25 118 94 126 230 146 31 
345 0.6134562516338449 0.1922047767622516 1.1436350190182378 0 0 0 0.47 3 116 4 158 11 118 29 49 43 62 77 141 126 231 
346 0.46178414111670824 0.22052447458362376 1.184998463609737 0 0 0 0.23 3 117 11 119 40 74 63 206 85 102 126 232 146 32 
347 0.708527563922465 0.1764863893433392 1.1166225184944636 0 0 0 0.3 3 118 4 159 11 120 27 142 63 207 85 103 96 91 126 233 
348 0.7781673530240268 0.1654106759056089 1.100100693164637 0 0 0 0.41 3 119 4 160 19 75 27 143 33 113 40 75 44 97 50 86 63 208 105 39 126 234 
349 0.5386419630211057 0.2236386944447563 1.1565783490448756 0 0 0 0.2 3 120 17 108 19 76 63 209 
350 0.5385628175104229 0.22359138816471874 1.1564415841908766 0 0 0 0.25 3 121 17 109 19 77 26 117 43 63 60 64 63 210 77 142 126 235 
351 0.863509038217059 0.17982217164834188 1.0984245460929778 0 0 0 0.4 3 122 4 161 11 121 15 67 17 110 29 50 35 11 54 63 63 211 71 129 73 66 77 143 91 18 105 40 147 67 
352 0.8327545425866378 0.1908393946810575 1.0860721438800052 0 0 0 0.33 3 123 4 162 9 65 11 122 12 21 15 68 17 111 29 51 35 12 44 98 50 87 61 67 63 212 71 130 73 67 77 144 91 19 92 56 105 41 111 62 118 95 120 15 141 11 
353 0.8662990954283389 0.19361507363810565 1.0948442578734658 0 0 0 0.27 3 124 12 22 53 90 54 64 63 213 73 68 103 37 
354 0.7521921971577993 0.2107503262534327 1.0916137606757086 0 0 0 0.11 43 64 63 214 69 14 71 131 
355 0.33183354980205737 0.29580465193418687 1.2204642373626393 0 0 0 0.16 3 125 60 65 126 236 
356 0.5918731352620193 0.24479850890055257 1.1301566774833856 0 0 0 0.3 3 126 15 69 16 52 40 76 63 215 96 92 103 38 128 40 
357 0.8424582725089415 0.20863617423973377 1.0826343368143247 0 0 0 0.3 3 127 63 216 118 96 128 41 
358 0.43371667418310406 0.2801837261774824 1.1738295400093643 0 0 0 0.31 3 128 25 90 27 144 126 237 
359 0.45051660192077614 0.27644298637609543 1.167348934725503 0 0 0 0.18 2 227 3 129 9 66 60 66 63 217 71 132 111 63 126 238 
360 0.3001865555800485 0.3111167098885541 1.2305508908136518 0 0 0 0.28 3 130 9 67 11 123 50 88 67 41 96 93 126 239 
361 0.8161705046089357 0.23217307354079597 1.0665684400884146 0 0 0 0.49 3 131 4 163 15 70 27 145 54 65 63 218 71 133 73 69 126 240 
362 0.8082179951692643 0.23669505903193272 1.0622804660745864 0 0 0 0.21 3 132 4 164 11 124 17 112 27 146 33 114 43 65 65 36 77 145 91 20 126 241 
363 0.8854559648335272 0.23371733288745605 1.078351224112699 0 0 0 0.33 3 133 4 165 32 17 36 18 44 99 54 66 63 219 66 2 67 42 71 134 77 146 105 42 107 19 111 64 118 97 147 68 
364 0.8311325652062788 0.242269312153917 1.066634769629408 0 0 0 0.32 3 134 4 166 9 68 11 125 15 71 17 113 27 147 35 13 43 66 53 91 54 67 63 220 67 43 71 135 85 104 91 21 105 43 107 20 118 98 126 242 147 69 
365 0.32747582808473275 0.3527697389084729 1.1916919485144926 0 0 0 0.07 3 135 53 92 126 243 
366 0.8125303793113757 0.2790560742585368 1.0428055056541643 0 0 0 0.17 3 136 9 69 44 100 61 68 63 221 71 136 73 70 77 147 
367 0.7817046043377195 0.2845175021379007 1.044394260501949 0 0 0 0.42 3 137 17 114 43 67 63 222 
368 0.4903233294111357 0.35017263828297307 1.1215220786120783 0 0 0 0.39 3 138 27 148 33 115 52 51 53 93 126 244 
369 0.40274551584030016 0.37718697985699634 1.1477195842159245 0 0 0 0.45 3 139 11 126 25 91 26 118 27 149 52 52 53 94 63 223 93 26 96 94 147 70 
370 0.7148258916019092 0.3327193246262036 1.0491723534184474 0 0 0 0.39 3 140 11 127 12 23 17 115 19 78 27 150 33 116 52 53 53 95 54 68 63 224 96 95 107 21 110 26 111 65 
371 0.7936801089710724 0.3253347403172867 1.0270907219215102 0 0 0 0.46 3 141 17 116 27 151 63 225 118 99 141 12 
372 0.5129988337322153 0.37377807079563036 1.1018558077096055 0 0 0 0.32 3 142 11 128 15 72 19 79 52 54 53 96 85 105 93 27 97 53 126 245 
373 0.4808666496398605 0.1586811733499454 1.2000317562094343 0 0 0 0.53 3 143 89 52 126 246 
374 0.5095921871049595 0.16601088475192455 1.1890006284668069 0 0 0 0.49 3 144 9 70 19 80 52 55 53 97 60 67 71 137 85 106 96 96 109 28 126 247 
375 0.43836388695035594 0.18515887771465014 1.2005551229814435 0 0 0 0.28 3 145 4 167 16 53 17 117 25 92 27 152 71 138 89 53 96 97 126 248 
376 0.45331544532888185 0.19823544695725961 1.196077589808435 0 0 0 0.31 3 146 4 168 11 129 15 73 19 81 25 93 27 153 33 117 38 59 40 77 53 98 54 69 63 226 65 37 71 139 77 148 85 107 96 98 97 54 109 29 118 100 126 249 128 42 146 33 
377 0.4066173156095577 0.2121323947570078 1.2079409791832452 0 0 0 0.18 3 147 26 119 96 99 126 250 
378 0.7235833446024472 0.15651753292159895 1.1188490492578498 0 0 0 0.17 3 148 53 99 126 251 
379 0.8609870520014324 0.1398587362438384 1.114815113323259 0 0 0 0.2 3 149 4 169 15 74 17 118 54 70 63 227 66 3 71 140 111 66 120 16 
380 0.2508418751750607 0.258331805669411 1.273532092494473 0 0 0 0.29 3 150 41 9 85 108 126 252 
381 0.2652132470733368 0.2546393712692638 1.2668505926187443 0 0 0 0.29 3 151 19 82 97 55 126 253 
382 0.2726894831589274 0.252615809123309 1.2618995412725964 0 0 0 0.06 3 152 96 100 126 254 
383 0.6216021712114983 0.1859313466299702 1.146209479120112 0 0 0 0.2 3 153 29 52 126 255 
384 0.6789694251070761 0.17601213866570245 1.1294412358577484 0 0 0 0.41 3 154 9 71 12 24 15 75 17 119 43 68 52 56 53 100 54 71 63 228 77 149 85 109 126 256 141 13 146 34 
385 0.7152128749401621 0.1702460034469475 1.118482223765381 0 0 0 0.31 3 155 14 9 19 83 27 154 29 53 44 101 60 68 61 69 92 57 96 101 126 257 
386 0.6916141696904116 0.17643289145145857 1.122659051345405 0 0 0 0.24 3 156 53 101 97 56 126 258 
387 0.7804301552558778 0.1711810179873501 1.0969029172192781 0 0 0 0.29 3 157 25 94 63 229 71 141 85 110 
388 0.8677185973394297 0.16301288746340006 1.1028190762915975 0 0 0 0.23 3 158 63 230 66 4 67 44 97 57 105 44 
389 0.5401708281789769 0.265394187637792 1.1381549652755203 0 0 0 0.38 3 159 29 54 43 69 63 231 
390 0.5400727561141404 0.2650261844861166 1.1379508262202611 0 0 0 0.45 3 160 4 170 29 55 43 70 63 232 92 58 93 28 97 58 147 71 
391 0.8305966506390345 0.2238770331253616 1.0732513573151161 0 0 0 0.36 3 161 11 130 27 155 67 45 71 142 126 259 
392 0.8655954485400464 0.2282349209106532 1.076182767447327 0 0 0 0.28 3 162 4 171 11 131 15 76 17 120 35 14 44 102 54 72 63 233 67 46 71 143 73 71 77 150 85 111 92 59 105 45 118 101 147 72 
393 0.8728276947262815 0.23312558294439206 1.0749742179409472 0 0 0 0.32 3 163 4 172 11 132 15 77 43 71 54 73 63 234 71 144 85 112 
394 0.7860466021508398 0.264584494418351 1.053909025886111 0 0 0 0.37 3 164 17 121 43 72 63 235 
395 0.3285254112841713 0.3692029349794866 1.1878447774002259 0 0 0 0.37 3 165 17 122 25 95 27 156 85 113 110 27 126 260 
396 0.33240435480958574 0.36946425927613685 1.1875778924536977 0 0 0 0.17 3 166 85 114 92 60 126 261 
397 0.7837780292753374 0.3004691783716517 1.0401919344101247 0 0 0 0.3 3 167 17 123 27 157 33 118 40 78 53 102 54 74 63 236 77 151 85 115 89 54 103 39 105 46 111 67 120 17 
398 0.7157119675517336 0.3202360210925327 1.0570043396148328 0 0 0 0.33 3 168 4 173 11 133 15 78 17 124 27 158 33 119 43 73 50 89 53 103 54 75 61 70 63 237 65 38 71 145 73 72 77 152 91 22 96 102 103 40 105 47 111 68 118 102 120 18 128 43 147 73 
399 0.7224414299026539 0.31876413682003124 1.0534526718842272 0 0 0 0.3 3 169 4 174 11 134 15 79 27 159 54 76 63 238 71 146 77 153 91 23 110 28 147 74 
400 0.8195516092507538 0.31202702849210545 1.0348227421813783 0 0 0 0.25 3 170 11 135 12 25 17 125 44 103 63 239 97 59 118 103 
401 0.7638736402005349 0.3183882796306272 1.0405565320284123 0 0 0 0.35 3 171 17 126 36 19 40 79 63 240 
402 0.5974240908476063 0.11831839400372361 1.175168413808005 0 0 0 0.33 3 172 15 80 63 241 89 55 110 29 
403 0.6353096176816286 0.1430197301414728 1.158750664183398 0 0 0 0.31 3 173 29 56 41 10 126 262 
404 0.4969602133643184 0.17845074989343676 1.188473707538376 0 0 0 0.44 3 174 19 84 25 96 26 120 27 160 40 80 43 74 44 104 52 57 53 104 60 69 63 242 65 39 85 116 93 29 96 103 103 41 109 30 111 69 126 263 128 44 
405 0.5232406910619007 0.19016744767395888 1.1730197665447282 0 0 0 0.4 3 175 19 85 27 161 63 243 88 24 96 104 
406 0.8674607599846098 0.13860907716482102 1.1149101610276826 0 0 0 0.38 3 176 4 175 11 136 29 57 54 77 63 244 66 5 71 147 73 73 89 56 97 60 111 70 120 19 
407 0.6402834864109508 0.24648419877143343 1.114531183316399 0 0 0 0.37 3 177 4 176 26 121 27 162 38 60 40 81 52 58 54 78 61 71 63 245 71 148 77 154 103 42 
408 0.813244487298272 0.24206998136276134 1.0629180082069165 0 0 0 0.34 3 178 9 72 27 163 54 79 63 246 91 24 105 48 
409 0.5563722077676406 0.3109813525753314 1.115961602052268 0 0 0 0.25 3 179 9 73 19 86 38 61 40 82 43 75 44 105 53 105 63 247 81 34 89 57 92 61 96 105 109 31 111 71 126 264 
410 0.5639572384275915 0.3108040680314636 1.1092658512429274 0 0 0 0.38 1 109 3 180 4 177 11 137 19 87 25 97 26 122 27 164 40 83 43 76 53 106 63 248 85 117 89 58 96 106 97 61 126 265 
411 0.6314771312145349 0.13940655374456798 1.1610187866910624 0 0 0 0.38 3 181 15 81 26 123 53 107 61 72 63 249 89 59 96 107 126 266 
412 0.4757769707017731 0.1774873006099951 1.195807575599991 0 0 0 0.4 3 182 9 74 12 26 17 127 19 88 36 20 43 77 44 106 54 80 60 70 61 73 63 250 71 149 81 35 85 118 92 62 93 30 97 62 107 22 109 32 111 72 129 19 
413 0.6868515822616039 0.1523636566374421 1.1353316124824258 0 0 0 0.29 3 183 61 74 63 251 96 108 
414 0.6869385462223294 0.1526408948619546 1.135370767570455 0 0 0 0.37 3 184 9 75 27 165 54 81 61 75 63 252 71 150 147 75 
415 0.710136396952909 0.14904654016083194 1.1308241518967053 0 0 0 0.3 3 185 15 82 43 78 60 71 61 76 63 253 85 119 89 60 96 109 126 267 
416 0.6424713244590218 0.18861163188737146 1.1342523517011291 0 0 0 0.35 3 186 11 138 27 166 43 79 44 107 53 108 54 82 60 72 63 254 71 151 77 155 85 120 89 61 118 104 126 268 
417 0.40861494436157414 0.2771131816161178 1.1873274298499603 0 0 0 0.25 9 76 26 124 27 167 33 120 43 80 67 47 71 152 77 156 85 121 97 63 110 30 126 269 
418 0.5615758353969682 0.25912963071253114 1.1347708385801518 0 0 0 0.25 3 187 29 58 43 81 60 73 63 255 89 62 111 73 126 270 
419 0.21805112507612803 0.33403941252823965 1.2626084410350156 0 0 0 0.54 3 188 4 178 26 125 77 157 85 122 92 63 126 271 
420 0.8206932434442505 0.25656270080439436 1.0576858794396733 0 0 0 0.31 3 189 4 179 11 139 12 27 15 83 17 128 27 168 36 21 43 82 53 109 54 83 63 256 71 153 77 158 147 76 
421 0.3574301779328467 0.3876988609741905 1.1646545771813708 0 0 0 0.35 3 190 4 180 11 140 26 126 52 59 53 110 77 159 85 123 92 64 96 110 126 272 
422 0.3346430678177263 0.2232436918114754 1.2487827302361887 0 0 0 0.5 3 191 4 181 63 257 67 48 96 111 
423 0.6151899447564086 0.19369218560247933 1.144549349810995 0 0 0 0.45 3 192 11 141 17 129 53 111 54 84 63 258 96 112 97 64 118 105 147 77 
424 0.8239700592244934 0.28204314995173585 1.0430084799963035 0 0 0 0.53 3 193 4 182 11 142 12 28 27 169 43 83 54 85 63 259 71 154 73 74 103 43 111 74 
425 0.4870555367532141 0.15031032125572463 1.203906921341071 0 0 0 0.78 3 194 17 130 65 40 126 273 
426 0.35861407755545327 0.22485922843171197 1.2313878963740355 0 0 0 0.87 3 195 4 183 9 77 26 127 32 18 33 121 40 84 44 108 61 77 63 260 67 49 71 155 77 160 85 124 89 63 96 113 109 33 118 106 126 274 128 45 146 35 
427 0.8633971724518802 0.16007863334817576 1.1091443106094518 0 0 0 0.45 3 196 4 184 11 143 15 84 17 131 44 109 54 86 63 261 67 50 71 156 73 75 77 161 85 125 89 64 105 49 111 75 118 107 129 20 147 78 
428 0.8041188438471253 0.22319946060861226 1.0699216540639813 0 0 0 0.38 3 197 4 185 9 78 15 85 17 132 27 170 32 19 33 122 35 15 40 85 43 84 52 60 53 112 54 87 61 78 63 262 65 41 67 51 71 157 73 76 85 126 89 65 91 25 92 65 105 50 111 76 126 275 147 79 
429 0.8035908315767737 0.23302093477414487 1.0653518894101182 0 0 0 0.28 3 198 4 186 29 59 33 123 40 86 52 61 54 88 63 263 71 158 73 77 85 127 103 44 105 51 111 77 147 80 
430 0.4435664589386832 0.18631314462036908 1.200927379238289 0 0 0 0.61 3 199 12 29 38 62 43 85 53 113 60 74 61 79 63 264 67 52 71 159 92 66 111 78 147 81 
431 0.6426619097577894 0.15761633886948712 1.149375381668442 0 0 0 0.63 3 200 4 187 11 144 12 30 44 110 50 90 53 114 54 89 61 80 63 265 65 42 69 15 71 160 89 66 96 114 110 31 126 276 
432 0.774108199351041 0.16971845380309125 1.0969729803656376 0 0 0 0.71 3 201 29 60 50 91 54 90 63 266 71 161 105 52 110 32 120 20 
433 0.7514595764082745 0.29939335034177966 1.0539400287730203 0 0 0 0.25 3 202 12 31 29 61 43 86 53 115 54 91 63 267 71 162 73 78 105 53 129 21 
434 0.7513220194574175 0.2992204270102787 1.053678177081011 0 0 0 0.29 3 203 4 188 12 32 29 62 43 87 53 116 54 92 63 268 71 163 73 79 81 36 89 67 91 26 105 54 110 33 111 79 129 22 
435 0.46517655907760197 0.2282951823930988 1.180448850490004 0 0 0 0.8 3 204 17 133 19 89 33 124 52 62 60 75 85 128 89 68 126 277 
436 0.7902944554537497 0.178308532769312 1.0940289682320454 0 0 0 0.67 3 205 4 189 11 145 12 33 17 134 29 63 33 125 44 111 50 92 53 117 63 269 65 43 69 16 77 162 91 27 105 55 118 108 120 21 126 278 128 46 129 23 147 82 
437 0.6298926627090647 0.21692123295448493 1.1282608036929576 0 0 0 0.48 3 206 17 135 26 128 44 112 60 76 63 270 73 80 81 37 89 69 
438 0.6902661189878284 0.20798995917506197 1.1138469308754553 0 0 0 0.72 3 207 4 190 15 86 19 90 27 171 33 126 52 63 53 118 54 93 63 271 65 44 71 164 73 81 89 70 96 115 110 34 111 80 118 109 126 279 127 28 147 83 
439 0.7476728867456416 0.19887224463376815 1.098472724291164 0 0 0 0.41 3 208 17 136 29 64 32 20 33 127 44 113 50 93 52 64 53 119 54 94 60 77 63 272 71 165 73 82 89 71 97 65 110 35 120 22 126 280 
440 0.7897231923262041 0.1987293133568049 1.0841899273796247 0 0 0 0.46 3 209 9 79 15 87 27 172 29 65 33 128 35 16 43 88 50 94 53 120 54 95 63 273 65 45 67 53 71 166 73 83 77 163 89 72 103 45 105 56 111 81 128 47 129 24 141 14 
441 0.6132070023126652 0.13973928050699574 1.1621167422906726 0 0 0 0.63 1 110 3 210 12 34 15 88 43 89 63 274 81 38 88 25 96 116 120 23 126 281 147 84 
442 0.56064273617716 0.19139665957239813 1.1601037181085543 0 0 0 0.65 3 211 26 129 29 66 85 129 97 66 126 282 
443 0.5385769324809544 0.15198019390153805 1.1828751598553668 0 0 0 0.52 4 191 11 146 15 89 26 130 40 87 63 275 71 167 96 117 110 36 111 82 126 283 
444 0.8600645496555682 0.13810047762007419 1.1172774896612725 0 0 0 0.25 4 192 44 114 63 276 
445 0.8774101487031999 0.14622251528067062 1.1095977976511013 0 0 0 0.74 4 193 63 277 77 164 128 48 
446 0.8056264775993213 0.16112213727178296 1.095455221506742 0 0 0 0.3 4 194 71 168 126 284 
447 0.8428123512923644 0.2023411335072158 1.0872325601438677 0 0 0 0.67 4 195 12 35 54 96 63 278 97 67 
448 0.8067656453071543 0.20770276220697004 1.075929898278381 0 0 0 0.38 4 196 33 129 40 88 105 57 126 285 
449 0.821027479578739 0.22444605206280632 1.070560352394151 0 0 0 0.27 4 197 29 67 40 89 63 279 71 169 85 130 
450 0.3637727396549048 0.305267200432659 1.199803223987026 0 0 0 0.13 4 198 85 131 126 286 
451 0.8650063544268441 0.24897341777075055 1.0667888933263125 0 0 0 0.17 4 199 63 280 71 170 
452 0.8232495091069875 0.25025810825278905 1.0612108090409105 0 0 0 0.7 29 68 33 130 44 115 63 281 105 58 126 287 
453 0.508103733836824 0.3429808877757373 1.1170231929033803 0 0 0 0.25 4 200 53 121 126 288 
454 0.4388620564207342 0.37316785679613806 1.1355450056245262 0 0 0 0.61 4 201 92 67 126 289 
455 0.6395412077699194 0.12460980398310562 1.159097037758649 0 0 0 0.22 4 202 17 137 63 282 96 118 118 110 126 290 
456 0.7361271029237415 0.11822181143765907 1.132681516361936 0 0 0 0.34 4 203 15 90 105 59 126 291 
457 0.6396400937982368 0.14639740869871373 1.1529394204128243 0 0 0 0.24 4 204 17 138 33 131 40 90 41 11 50 95 92 68 126 292 
458 0.46599238130884924 0.17762870622355692 1.1975465485605061 0 0 0 0.36 4 205 17 139 109 34 126 293 
459 0.5117587635188052 0.1742430126537049 1.1853367448582812 0 0 0 0.24 4 206 11 147 15 91 16 54 17 140 19 91 25 98 26 131 27 173 28 19 44 116 54 97 61 81 63 283 85 132 96 119 111 83 118 111 126 294 146 36 
460 0.5400519018719292 0.18170528071964692 1.1727251887707413 0 0 0 0.25 4 207 63 284 85 133 
461 0.6714271377453286 0.1646071480871669 1.1274248133758495 0 0 0 0.19 4 208 11 148 25 99 54 98 63 285 118 112 
462 0.41862321215368375 0.2116899998198696 1.2032989023668128 0 0 0 0.62 4 209 27 174 77 165 96 120 126 295 
463 0.5476813367213357 0.1923034160385026 1.1667446575797253 0 0 0 0.3 4 210 11 149 16 55 33 132 40 91 44 117 50 96 61 82 77 166 126 296 
464 0.5925040481197708 0.1871503771261474 1.1513737035286788 0 0 0 0.54 4 211 19 92 27 175 71 171 77 167 85 134 109 35 126 297 
465 0.7060921484509836 0.17473218532314666 1.118955912879998 0 0 0 0.19 4 212 52 65 85 135 126 298 
466 0.7061279873194345 0.1747143605578937 1.119130066097918 0 0 0 0.21 4 213 15 92 52 66 85 136 126 299 
467 0.6626029963398518 0.18186257746727275 1.1304800191764928 0 0 0 0.26 4 214 11 150 17 141 53 122 60 78 63 286 85 137 118 113 126 300 
468 0.8027361871793491 0.16206259973313714 1.0946932106568004 0 0 0 0.31 4 215 11 151 50 97 63 287 77 168 91 28 92 69 118 114 
469 0.648821029163186 0.18612402362134828 1.1332679691853147 0 0 0 0.23 4 216 33 133 38 63 85 138 110 37 126 301 
470 0.6805569899599392 0.18114246483916452 1.1242406328293695 0 0 0 0.37 4 217 11 152 19 93 27 176 29 69 52 67 77 169 85 139 126 302 
471 0.6864933961711035 0.1803737352998165 1.1239266788042224 0 0 0 0.4 4 218 27 177 29 70 63 288 77 170 96 121 103 46 128 49 
472 0.7022643680895676 0.1769376837999482 1.1162265061919452 0 0 0 0.58 4 219 11 153 29 71 60 79 96 122 126 303 
473 0.7194824927963237 0.17746871226943828 1.1145619187313531 0 0 0 0.37 4 220 29 72 60 80 63 289 71 172 118 115 126 304 
474 0.7175858604729415 0.1887277630661532 1.1104699661513806 0 0 0 0.23 4 221 29 73 50 98 63 290 71 173 141 15 
475 0.6296055067253545 0.20461433594440753 1.1334430728807279 0 0 0 0.19 4 222 16 56 63 291 77 171 146 37 
476 0.8550951675234227 0.18873536738928257 1.0930387072211376 0 0 0 0.58 4 223 12 36 32 21 36 22 63 292 91 29 105 60 
477 0.4853145157402569 0.256078610203516 1.1639242595972001 0 0 0 0.35 4 224 27 178 38 64 71 174 77 172 126 305 
478 0.642011508955958 0.23285871382187107 1.119484720841536 0 0 0 0.11 4 225 77 173 126 306 
479 0.8144105080318634 0.20948854945994308 1.0765161287685516 0 0 0 0.32 4 226 19 94 33 134 43 90 52 68 54 99 63 293 71 175 73 84 85 140 126 307 
480 0.6827051542564642 0.23031216038015176 1.1057660929337259 0 0 0 0.24 4 227 54 100 63 294 91 30 
481 0.8072471331951849 0.2172433458754938 1.0715786870809116 0 0 0 0.42 4 228 40 92 52 69 85 141 126 308 
482 0.7416270570989052 0.22908692534434277 1.0880495027763162 0 0 0 0.26 4 229 29 74 52 70 71 176 126 309 
483 0.7703846434722202 0.22472301676838546 1.0809908567145163 0 0 0 0.31 4 230 52 71 77 174 91 31 126 310 
484 0.46144138041988114 0.2754686477623461 1.1661877554803646 0 0 0 0.21 4 231 11 154 17 142 38 65 43 91 52 72 109 36 126 311 
485 0.8231096094439534 0.23717684722945115 1.0651993575670664 0 0 0 0.46 4 232 32 22 44 118 63 295 107 23 
486 0.8900016768689638 0.2365969834150961 1.0778853787256306 0 0 0 0.34 4 233 17 143 44 119 50 99 53 123 54 101 61 83 63 296 77 175 85 142 111 84 
487 0.4524857439123132 0.31636384235894893 1.1462910620705382 0 0 0 0.32 4 234 11 155 16 57 17 144 25 100 29 75 126 312 
488 0.782080359021816 0.265376963469029 1.0535536971492812 0 0 0 0.26 4 235 12 37 54 102 63 297 71 177 77 176 
489 0.5513350452567216 0.3100095066507854 1.1192196067319333 0 0 0 0.37 4 236 9 80 27 179 33 135 38 66 44 120 77 177 92 70 126 313 
490 0.6444508377980799 0.2994761875416623 1.0879101626753032 0 0 0 0.59 4 237 11 156 15 93 17 145 26 132 33 136 50 100 63 298 85 143 126 314 127 29 
491 0.6448356484041949 0.2997587654238286 1.0884396175387916 0 0 0 0.21 4 238 15 94 26 133 63 299 96 123 
492 0.460290989986137 0.3300483296049976 1.1378486219340858 0 0 0 0.26 4 239 16 58 17 146 44 121 50 101 63 300 146 38 
493 0.8048141443905653 0.280330277319269 1.0446233838307672 0 0 0 0.26 4 240 11 157 35 17 63 301 91 32 110 38 118 116 
494 0.8044688110027448 0.28029883297120856 1.0443306282047036 0 0 0 0.24 4 241 9 81 11 158 33 137 35 18 40 93 44 122 50 102 61 84 63 302 71 178 85 144 91 33 92 71 105 61 107 24 110 39 118 117 
495 0.8009971262748331 0.2813208352402777 1.0466322956446543 0 0 0 0.16 4 242 63 303 71 179 
496 0.6316056212920721 0.30610999333241784 1.0858083304234027 0 0 0 0.35 4 243 11 159 38 67 63 304 77 178 85 145 91 34 96 124 110 40 118 118 146 39 
497 0.5418432785573666 0.32111366278767234 1.112070135859589 0 0 0 0.24 4 244 38 68 77 179 93 31 126 315 
498 0.5417256942320396 0.32118931937804124 1.1121070025491933 0 0 0 0.29 4 245 9 82 11 160 15 95 16 59 17 147 38 69 44 123 63 305 77 180 92 72 93 32 96 125 118 119 146 40 
499 0.5204799188601099 0.3266944022241129 1.121345889424778 0 0 0 0.23 4 246 63 306 77 181 92 73 
500 0.40121171084422647 0.34791254279708084 1.15911298913028 0 0 0 0.35 4 247 11 161 17 148 27 180 52 73 93 33 126 316 
501 0.43115005566589587 0.35005662425443185 1.1404623776005607 0 0 0 0.42 4 248 11 162 17 149 19 95 52 74 77 182 126 317 
502 0.810073155770979 0.3036846354604065 1.0355414749607006 0 0 0 0.36 4 249 9 83 19 96 27 181 33 138 40 94 63 307 73 85 85 146 105 62 110 41 
503 0.7974578382753876 0.30679181811280964 1.0380096556609986 0 0 0 0.45 4 250 19 97 33 139 63 308 91 35 105 63 
504 0.5677982896389444 0.3423146873700532 1.094738824753053 0 0 0 0.56 4 251 11 163 25 101 27 182 43 92 126 318 
505 0.48668307678246103 0.36034854902790786 1.1177108948976502 0 0 0 0.47 4 252 11 164 17 150 25 102 26 134 126 319 
506 0.8189186940092481 0.31570478927418805 1.0316343274352153 0 0 0 0.24 4 253 9 84 54 103 63 309 77 183 85 147 
507 0.5228319077105985 0.3642070968718743 1.105233122497015 0 0 0 0.29 4 254 11 165 17 151 38 70 53 124 61 85 126 320 
508 0.5415172993165374 0.36850215714653317 1.0935900838131898 0 0 0 0.38 4 255 26 135 126 321 
509 0.5455659760245054 0.3766473395798296 1.090036541426369 0 0 0 0.61 4 256 27 183 38 71 53 125 126 322 
510 0.59866988275288 0.12363840407106501 1.1746172631536074 0 0 0 0.32 4 257 63 310 73 86 
511 0.6485188414655839 0.12355343079680738 1.1575087800696202 0 0 0 0.19 4 258 11 166 17 152 26 136 29 76 71 180 126 323 
512 0.5438314493209728 0.1526398162367568 1.1822447575254642 0 0 0 0.39 4 259 11 167 25 103 26 137 27 184 40 95 63 311 71 181 126 324 
513 0.36257535587568546 0.18927408104295937 1.2452758419281686 0 0 0 0.35 4 260 11 168 17 153 25 104 27 185 32 23 33 140 43 93 44 124 53 126 63 312 89 73 92 74 96 126 107 25 110 42 118 120 127 30 128 50 146 41 
514 0.4503722040430983 0.17665737663288297 1.200486267575012 0 0 0 0.52 4 261 11 169 63 313 96 127 126 325 
515 0.38388576182729794 0.19245936504265543 1.2350655601223095 0 0 0 0.52 4 262 25 105 26 138 27 186 33 141 44 125 60 81 77 184 92 75 126 326 
516 0.44568267059585637 0.1797937037264985 1.2004113758206338 0 0 0 0.37 4 263 12 38 27 187 38 72 61 86 63 314 
517 0.32125819188605564 0.21029560850088475 1.2581463210270547 0 0 0 0.25 3 212 4 264 33 142 41 12 60 82 63 315 96 128 126 327 
518 0.4744480418180226 0.186724710125986 1.1924022935473275 0 0 0 0.28 4 265 16 60 54 104 63 316 85 148 
519 0.7340389222408128 0.15226398719595224 1.1193296953331424 0 0 0 0.34 4 266 11 170 27 188 29 77 63 317 91 36 
520 0.7334255506045236 0.15216808520485417 1.1182647666658112 0 0 0 0.25 4 267 15 96 63 318 77 185 118 121 126 328 
521 0.6053513133629733 0.17382742077903907 1.154642317509196 0 0 0 0.22 4 268 38 73 54 105 63 319 71 182 103 47 118 122 126 329 147 85 
522 0.8020632530307339 0.14281016073397887 1.1037690302866716 0 0 0 0.91 4 269 11 171 15 97 29 78 33 143 54 106 63 320 71 183 120 24 128 51 147 86 
523 0.5983154335624885 0.17551875746862175 1.1468094163977152 0 0 0 0.78 4 270 15 98 54 107 63 321 127 31 
524 0.7461174989562868 0.15258597739677388 1.1101309937157666 0 0 0 0.47 4 271 15 99 29 79 54 108 63 322 77 186 118 123 147 87 
525 0.3597046409128951 0.2194586287895814 1.235868950100826 0 0 0 0.61 4 272 11 172 25 106 33 144 89 74 126 330 
526 0.5771957461655537 0.18899562210375911 1.1566096350919295 0 0 0 0.24 4 273 17 154 25 107 26 139 38 74 50 103 63 323 77 187 118 124 147 88 
527 0.6207824322549362 0.1857099407818619 1.1446002942756766 0 0 0 0.46 4 274 12 39 15 100 25 108 26 140 28 20 43 94 53 127 63 324 71 184 73 87 97 68 107 26 146 42 147 89 
528 0.4826551409719378 0.21605683346037977 1.1780821062247484 0 0 0 0.31 4 275 11 173 15 101 16 61 17 155 19 98 27 189 38 75 44 126 50 104 52 75 53 128 54 109 61 87 63 325 77 188 85 149 92 76 96 129 109 37 111 85 118 125 126 331 128 52 146 43 
529 0.38263548831872923 0.2340722935742284 1.20822204956947 0 0 0 0.47 4 276 63 326 110 43 
530 0.3583339309603345 0.24104488118177397 1.2257543332989658 0 0 0 0.55 4 277 11 174 27 190 63 327 
531 0.8702205493306565 0.1751790017776848 1.10129812848468 0 0 0 0.46 4 278 29 80 63 328 85 150 111 86 
532 0.8100079040214263 0.2036064107986459 1.078869720751196 0 0 0 0.17 4 279 9 85 43 95 54 110 63 329 71 185 91 37 
533 0.5850029026636884 0.24567601835069916 1.1314622239274341 0 0 0 0.22 4 280 9 86 14 10 38 76 43 96 44 127 50 105 53 129 60 83 61 88 63 330 77 189 85 151 92 77 96 130 103 48 111 87 126 332 
534 0.3411575040345109 0.2900670733225873 1.2168831215431253 0 0 0 0.21 4 281 63 331 77 190 107 27 
535 0.3446542991390163 0.2922352541727732 1.2146957688082887 0 0 0 0.39 4 282 11 175 17 156 19 99 25 109 28 21 32 24 44 128 50 106 52 76 61 89 63 332 71 186 77 191 85 152 92 78 93 34 103 49 111 88 118 126 128 53 146 44 
536 0.3515893070313677 0.2908407041702954 1.2093237938492714 0 0 0 0.29 4 283 60 84 61 90 71 187 126 333 
537 0.48843834948062215 0.266014201752782 1.1598647508539597 0 0 0 0.41 4 284 63 333 118 127 
538 0.257069903977115 0.3117021876734496 1.2491672118188657 0 0 0 0.25 4 285 9 87 17 157 25 110 27 191 50 107 71 188 92 79 126 334 
539 0.3553052403650195 0.2921562318548372 1.2072845566001564 0 0 0 0.37 4 286 9 88 17 158 41 13 43 97 50 108 53 130 61 91 63 334 97 69 126 335 146 45 
540 0.4581326520484671 0.27673732637191806 1.1659339744187542 0 0 0 0.21 4 287 9 89 17 159 63 335 71 189 103 50 147 90 
541 0.39385746880078426 0.2919551883146329 1.1877991017825493 0 0 0 0.36 4 288 9 90 11 176 63 336 71 190 77 192 85 153 92 80 96 131 110 44 126 336 
542 0.3632168730043647 0.3011165057646625 1.20229883752884 0 0 0 0.2 3 213 4 289 53 131 63 337 126 337 
543 0.8264787628659934 0.25286014483406377 1.0600865611016963 0 0 0 0.2 4 290 9 91 11 177 63 338 126 338 
544 0.8264235995135134 0.25279710436234387 1.0600568458979331 0 0 0 0.22 2 228 4 291 9 92 11 178 12 40 15 102 17 160 35 19 44 129 53 132 63 339 92 81 126 339 147 91 
545 0.636948413830769 0.2895260771921616 1.094313157273213 0 0 0 0.38 4 292 25 111 26 141 33 145 43 98 52 77 63 340 77 193 126 340 
546 0.8631603294186357 0.275584217770118 1.0565535114778255 0 0 0 0.38 4 293 63 341 71 191 77 194 85 154 
547 0.6626702328618373 0.30123862047271377 1.0784926838768383 0 0 0 0.24 4 294 27 192 28 22 38 77 53 133 54 111 63 342 71 192 77 195 85 155 91 38 92 82 110 45 118 128 146 46 147 92 
548 0.6398683159532594 0.30589166418010166 1.0859392624934452 0 0 0 0.43 4 295 25 112 26 142 27 193 29 81 33 146 63 343 73 88 96 132 110 46 126 341 
549 0.664041534596851 0.316236554319694 1.074068038262709 0 0 0 0.24 4 296 27 194 43 99 52 78 53 134 54 112 63 344 71 193 91 39 96 133 103 51 110 47 
550 0.31127284353947704 0.3920388844062547 1.1887758912223882 0 0 0 0.53 4 297 27 195 53 135 96 134 126 342 
551 0.47902546711513727 0.3626167323479685 1.121878564402185 0 0 0 0.61 4 298 11 179 43 100 52 79 53 136 96 135 126 343 
552 0.8303050056208848 0.31246902264725895 1.0335803458719897 0 0 0 0.27 4 299 43 101 63 345 73 89 77 196 85 156 105 64 118 129 
553 0.496112703738066 0.36269589151103265 1.1173370239645088 0 0 0 0.26 4 300 38 78 52 80 77 197 92 83 110 48 126 344 
554 0.6934359940292467 0.33046949748167603 1.056138416052206 0 0 0 0.32 4 301 11 180 17 161 19 100 33 147 40 96 43 102 53 137 54 113 60 85 63 346 71 194 77 198 85 157 91 40 96 136 103 52 105 65 110 49 118 130 147 93 
555 0.536509306062021 0.3574487129983307 1.1013795141732532 0 0 0 0.4 4 302 11 181 38 79 53 138 126 345 
556 0.6598972451612848 0.3381933650745059 1.0665634608172514 0 0 0 0.42 4 303 11 182 17 162 19 101 27 196 40 97 50 109 91 41 126 346 
557 0.387003734628111 0.38511968431768767 1.1483805844699158 0 0 0 0.41 4 304 17 163 43 103 92 84 126 347 
558 0.4316101087405579 0.375950582438296 1.129671782646054 0 0 0 0.31 4 305 11 183 17 164 25 113 53 139 60 86 77 199 92 85 93 35 110 50 126 348 
559 0.7021023305350176 0.3346494032910616 1.0523253059874527 0 0 0 0.3 4 306 11 184 17 165 19 102 27 197 33 148 40 98 52 81 53 140 54 114 63 347 69 17 77 200 91 42 105 66 107 28 110 51 118 131 120 25 141 16 147 94 
560 0.36231249942456384 0.39300119415680346 1.1602052276069519 0 0 0 0.26 4 307 11 185 25 114 53 141 77 201 96 137 97 70 126 349 
561 0.7958818554029273 0.33238740400364597 1.02514635001712 0 0 0 0.58 4 308 11 186 17 166 27 198 43 104 50 110 61 92 63 348 77 202 141 17 
562 0.3664723794656852 0.19242685037440005 1.2414408104983428 0 0 0 0.14 4 309 25 115 65 46 71 195 96 138 126 350 
563 0.581509037921147 0.17719647142266387 1.1582410970090908 0 0 0 0.37 4 310 11 187 17 167 19 103 25 116 26 143 29 82 38 80 60 87 63 349 71 196 77 203 85 158 96 139 97 71 110 52 111 89 127 32 
564 0.8798211815577542 0.14858800686426454 1.109192184685037 0 0 0 0.43 4 311 17 168 29 83 53 142 63 350 67 54 77 204 147 95 
565 0.8800639636829881 0.1486120059466659 1.1094572589470235 0 0 0 0.54 4 312 17 169 63 351 67 55 71 197 77 205 147 96 
566 0.6966414098279596 0.17336857373068587 1.1231698502207987 0 0 0 0.33 4 313 27 199 32 25 40 99 53 143 63 352 71 198 85 159 92 86 120 26 128 54 147 97 
567 0.5892324583254989 0.20232811537631137 1.1463291086300107 0 0 0 0.26 4 314 25 117 29 84 60 88 71 199 73 90 126 351 
568 0.747289502445787 0.18885585323457807 1.1014414587144592 0 0 0 0.27 4 315 11 188 17 170 25 118 27 200 43 105 53 144 54 115 63 353 67 56 71 200 73 91 147 98 
569 0.6394069115220603 0.23604756984422146 1.1193419856873141 0 0 0 0.28 4 316 19 104 26 144 27 201 33 149 38 81 54 116 63 354 71 201 73 92 77 206 85 160 111 90 126 352 147 99 
570 0.8110262822724206 0.22318521417828116 1.0710274793289951 0 0 0 0.27 2 229 3 214 4 317 9 93 11 189 12 41 27 202 32 26 33 150 36 23 43 106 44 130 54 117 63 355 67 57 71 202 77 207 85 161 89 75 91 43 92 87 105 67 111 91 126 353 129 25 147 100 
571 0.8120921835368424 0.2334044962081192 1.0668690173474051 0 0 0 0.24 4 318 19 105 29 85 32 27 33 151 36 24 40 100 52 82 54 118 63 356 71 203 73 93 85 162 91 44 103 53 105 68 107 29 
572 0.8582795650628279 0.2436601932077408 1.0705293286306072 0 0 0 0.31 4 319 54 119 63 357 67 58 71 204 73 94 85 163 97 72 103 54 
573 0.8618982025897872 0.24628673649731653 1.0677105841714318 0 0 0 0.05 4 320 63 358 71 205 
574 0.8164405475095702 0.27251449968177277 1.0510839432622394 0 0 0 0.3 4 321 11 190 15 103 17 171 27 203 35 20 43 107 53 145 54 120 63 359 71 206 91 45 118 132 
575 0.6658693924310901 0.2928601953032726 1.0794589215443844 0 0 0 0.62 4 322 11 191 15 104 25 119 44 131 63 360 77 208 
576 0.7002024659321671 0.3000118648374656 1.0667021353412571 0 0 0 0.33 4 323 54 121 63 361 
577 0.3326453355284924 0.3750801927015418 1.1834004587253377 0 0 0 0.56 4 324 11 192 52 83 85 164 93 36 96 140 126 354 
578 0.6897818277899206 0.3269379741012054 1.061934442479564 0 0 0 0.4 4 325 11 193 12 42 43 108 53 146 63 362 71 207 77 209 85 165 110 53 118 133 147 101 
579 0.30575212558640374 0.39830640945884166 1.1913830752152725 0 0 0 0.5 4 326 11 194 17 172 27 204 52 84 71 208 96 141 126 355 
580 0.4312580683076516 0.37093281731055866 1.131710301377525 0 0 0 0.44 4 327 11 195 15 105 17 173 25 120 26 145 27 205 43 109 60 89 77 210 85 166 89 76 93 37 96 142 126 356 
581 0.6718321290417724 0.33550522802886 1.0624578584954296 0 0 0 0.27 4 328 19 106 33 152 63 363 91 46 111 92 
582 0.4383498416104492 0.3754696909973471 1.1330849925643605 0 0 0 0.24 4 329 25 121 77 211 96 143 126 357 
583 0.30653530896432024 0.40536397451803463 1.1836326847827974 0 0 0 0.42 4 330 11 196 17 174 25 122 50 111 71 209 96 144 126 358 
584 0.39612879268582674 0.3985781082630361 1.143300676877098 0 0 0 0.64 4 331 27 206 77 212 92 88 126 359 
585 0.5351279743843045 0.1254395514168964 1.1995927517927185 0 0 0 0.16 4 332 26 146 81 39 126 360 
586 0.6377562027029364 0.14574363650041278 1.1532732270891883 0 0 0 0.21 3 215 4 333 26 147 27 207 54 122 63 364 71 210 77 213 126 361 
587 0.19101214385806725 0.2273224074087142 1.3202001079694297 0 0 0 0.28 4 334 43 110 126 362 
588 0.3936692446700817 0.19549371124398762 1.235958542887244 0 0 0 0.47 4 335 26 148 27 208 63 365 71 211 111 93 126 363 
589 0.6504660391229088 0.16446879042041668 1.1426397353914326 0 0 0 0.51 4 336 44 132 85 167 126 364 
590 0.4513745633658879 0.22779516016569068 1.186063077698367 0 0 0 0.32 4 337 33 153 71 212 126 365 
591 0.847664516475869 0.17951074982114723 1.092127497804364 0 0 0 0.32 4 338 54 123 63 366 67 59 71 213 89 77 103 55 111 94 
592 0.8701422079898463 0.18769518688616854 1.0945011798323039 0 0 0 0.41 4 339 29 86 43 111 53 147 54 124 63 367 67 60 71 214 73 95 77 214 85 168 89 78 105 69 
593 0.8721785025605548 0.19323284927277898 1.0937508471254564 0 0 0 0.47 4 340 29 87 63 368 67 61 73 96 
594 0.2559684253618349 0.30358255326645234 1.2552733756250145 0 0 0 0.39 4 341 27 209 88 26 110 54 126 366 
595 0.22273390237566354 0.33604434826767454 1.2582595177343021 0 0 0 0.46 4 342 19 107 26 149 27 210 65 47 67 62 73 97 77 215 85 169 88 27 96 145 97 73 109 38 126 367 
596 0.820306556721367 0.24804185026335349 1.061357697916003 0 0 0 0.32 4 343 27 211 29 88 44 133 71 215 73 98 85 170 91 47 92 89 105 70 126 368 
597 0.8475290081800879 0.25689236162770657 1.0615020031359415 0 0 0 0.41 4 344 12 43 17 175 43 112 54 125 63 369 65 48 71 216 73 99 105 71 
598 0.45464559336063054 0.32015299615231624 1.143979627019171 0 0 0 0.18 4 345 25 123 26 150 38 82 63 370 71 217 77 216 126 369 
599 0.41775209925624596 0.32957546483091904 1.1535616291731547 0 0 0 0.24 4 346 15 106 63 371 81 40 126 370 
600 0.5182192679045347 0.3471599617109519 1.111014820228291 0 0 0 0.37 4 347 29 89 52 85 126 371 
601 0.47389479199435747 0.3656103483534068 1.124531983823848 0 0 0 0.25 4 348 38 83 77 217 126 372 
602 0.418461710946368 0.3796618061949915 1.139204111214402 0 0 0 0.24 4 349 11 197 26 151 77 218 92 90 97 74 110 55 126 373 
603 0.3869516245274618 0.3948469143524191 1.1452194922476586 0 0 0 0.56 4 350 26 152 92 91 126 374 
604 0.621942973329899 0.16335994540840645 1.1536674292026234 0 0 0 0.47 3 216 4 351 15 107 26 153 27 212 54 126 63 372 65 49 73 100 77 219 85 171 96 146 126 375 127 33 
605 0.32823399135368503 0.21899008549301835 1.2569793224706218 0 0 0 0.41 4 352 11 198 25 124 26 154 63 373 67 63 126 376 128 55 
606 0.32173928262006257 0.22020204298168308 1.2543703907882424 0 0 0 0.22 2 230 4 353 11 199 26 155 33 154 63 374 71 218 126 377 127 34 
607 0.7023026930706435 0.17900510744416057 1.1184586376294012 0 0 0 0.29 4 354 9 94 12 44 14 11 17 176 19 108 27 213 29 90 43 113 52 86 54 127 60 90 61 93 63 375 71 219 73 101 77 220 96 147 111 95 126 378 141 18 147 102 
608 0.3645871476202169 0.24489878723869374 1.2237976895101015 0 0 0 0.31 4 355 63 376 65 50 126 379 
609 0.3494502866519091 0.2995383816533697 1.209796552604226 0 0 0 0.37 4 356 17 177 26 156 27 214 36 25 63 377 77 221 92 92 146 47 
610 0.5474348757589764 0.3438748767561327 1.1029882624717078 0 0 0 0.48 4 357 15 108 25 125 27 215 43 114 65 51 126 380 
611 0.669624149880655 0.3346356447529012 1.0628960910298728 0 0 0 0.47 4 358 25 126 33 155 54 128 63 378 65 52 71 220 77 222 91 48 96 148 107 30 110 56 
612 0.7886155050862366 0.31817475531819067 1.0302242422808 0 0 0 0.38 4 359 11 200 40 101 53 148 63 379 66 6 85 172 91 49 110 57 118 134 120 27 
613 0.524149185817966 0.36152699963859775 1.105826293175641 0 0 0 0.5 4 360 11 201 15 109 25 127 26 157 27 216 38 84 52 87 53 149 61 94 96 149 110 58 126 381 
614 0.5396429704181186 0.3641395124587197 1.0962062835789057 0 0 0 0.65 4 361 27 217 38 85 52 88 77 223 85 173 110 59 126 382 
615 0.7444254467004021 0.1553210691699998 1.1158195074974635 0 0 0 0.76 4 362 11 202 15 110 27 218 53 150 54 129 63 380 67 64 71 221 89 79 118 135 126 383 128 56 
616 0.8664584436295116 0.26152180255174184 1.06337290332326 0 0 0 0.25 4 363 29 91 63 381 85 174 
617 0.8397710803474296 0.2709667823543191 1.0545811305070953 0 0 0 0.3 4 364 54 130 63 382 71 222 73 102 77 224 85 175 
618 0.35715750168928306 0.35149617590326376 1.181271664159308 0 0 0 0.26 4 365 26 158 63 383 
619 0.6169566182487655 0.30628445657744297 1.0893333748419656 0 0 0 0.78 4 366 91 50 126 384 
620 0.8536155513353838 0.28395661188652704 1.051478416580312 0 0 0 0.24 4 367 54 131 63 384 71 223 105 72 
621 0.7291520549358949 0.12212326542465886 1.1352157447075328 0 0 0 0.25 4 368 27 219 54 132 61 95 63 385 71 224 105 73 118 136 147 103 
622 0.5964812255970016 0.14421772593837032 1.1683885247519565 0 0 0 0.5 4 369 33 156 60 91 63 386 71 225 73 103 81 41 96 150 
623 0.6297267019504099 0.1619979803624264 1.151454102235591 0 0 0 0.53 1 111 2 231 3 217 4 370 11 203 26 159 27 220 41 14 44 134 50 112 53 151 54 133 61 96 63 387 65 53 69 18 73 104 77 225 85 176 89 80 96 151 110 60 118 137 126 385 
624 0.7171959107069658 0.14756372531841 1.1280241932834973 0 0 0 0.4 3 218 4 371 15 111 27 221 50 113 54 134 63 388 67 65 71 226 81 42 85 177 89 81 126 386 127 35 147 104 
625 0.7672608361703267 0.31479405432729063 1.0418633991285238 0 0 0 0.42 4 372 19 109 27 222 33 157 43 115 52 89 54 135 63 389 65 54 73 105 107 31 
626 0.5269493128192283 0.14678916804855457 1.2033057522502522 0 0 0 1.42 4 373 15 112 25 128 33 158 40 102 63 390 71 227 73 106 81 43 127 36 
627 0.7299157580259424 0.14346596813512477 1.1255107651918814 0 0 0 0.36 4 374 27 223 63 391 67 66 71 228 
628 0.3866148118840086 0.2187046530682677 1.2206932072096266 0 0 0 1.21 4 375 16 62 25 129 33 159 53 152 67 67 71 229 88 28 89 82 110 61 126 387 
629 0.7545563900990647 0.1643214530501483 1.0990676467626073 0 0 0 0.91 4 376 15 113 54 136 63 392 71 230 97 75 147 105 
630 0.7027639655004189 0.174454136747641 1.1176643320225395 0 0 0 0.7 4 377 9 95 14 12 19 110 29 92 52 90 54 137 61 97 63 393 67 68 71 231 73 107 85 178 89 83 92 93 96 152 97 76 118 138 126 388 127 37 129 26 141 19 
631 0.7759922003181355 0.19267016369468537 1.0911545018404885 0 0 0 0.75 4 378 9 96 15 114 17 178 19 111 27 224 32 28 44 135 52 91 53 153 54 138 63 394 65 55 67 69 71 232 73 108 77 226 85 179 89 84 91 51 105 74 110 62 111 96 126 389 141 20 
632 0.7762341209660314 0.1927847702642575 1.0917294615515634 0 0 0 0.74 4 379 15 115 19 112 27 225 40 103 52 92 53 154 54 139 63 395 65 56 67 70 71 233 73 109 77 227 85 180 89 85 97 77 105 75 110 63 111 97 126 390 128 57 
633 0.6601027853480521 0.211988122167307 1.121091735361037 0 0 0 0.58 2 232 4 380 15 116 19 113 27 226 33 160 40 104 60 92 63 396 65 57 73 110 81 44 89 86 111 98 126 391 
634 0.8079388477221224 0.2475803130975835 1.0615688004075576 0 0 0 0.67 4 381 43 116 54 140 63 397 67 71 71 234 73 111 92 94 103 56 105 76 
635 0.42726072649641145 0.3316042449079123 1.1493382252281674 0 0 0 0.88 4 382 27 227 63 398 146 48 
636 0.7221677850045799 0.30450688832024947 1.0604123604747047 0 0 0 0.32 4 383 43 117 53 155 54 141 63 399 71 235 91 52 110 64 
637 0.544638253546897 0.36367877970419665 1.095836582455494 0 0 0 0.64 4 384 33 161 53 156 77 228 85 181 126 392 
638 0.7809356940722089 0.3285033876479962 1.0315328004987268 0 0 0 0.2 19 114 38 86 53 157 54 142 66 7 69 19 77 229 107 32 129 27 
639 0.7807468003008993 0.3282879955135787 1.031524699448417 0 0 0 0.3 4 385 19 115 29 93 33 162 36 26 43 118 53 158 54 143 63 400 65 58 69 20 71 236 73 112 77 230 85 182 97 78 107 33 118 139 129 28 141 21 
640 0.6568216657876581 0.1860325030890381 1.1255886842390226 0 0 0 0.62 4 386 27 228 54 144 63 401 65 59 71 237 73 113 118 140 
641 0.6891991001724881 0.18136661257195352 1.122098175922253 0 0 0 0.53 4 387 27 229 63 402 71 238 73 114 77 231 127 38 
642 0.6883686038927428 0.181126478159263 1.1210515539031896 0 0 0 0.44 4 388 15 117 50 114 54 145 63 403 71 239 73 115 77 232 89 87 92 95 118 141 146 49 
643 0.35754617127398325 0.28571814279857044 1.2103434933256556 0 0 0 0.29 4 389 26 160 38 87 63 404 81 45 97 79 126 393 
644 0.499063655661483 0.34065747590936846 1.1230736438758973 0 0 0 0.5 4 390 19 116 85 183 126 394 
