# 3D point list with one line of data per point:
#   POINT3D_ID, X, Y, Z, R, G, B, ERROR, TRACK[] as (IMAGE_ID, POINT2D_IDX)
# Number of points: 259, mean track length: 10.08
3795 0.031982459380330286 0.20496466603700308 1.070187233675704 0 0 0 0.49 2 2257 9 1063 19 913 32 675 33 1281 40 625 44 1419 60 1089 61 1127 69 329 107 349 111 748 124 541 127 614 135 153 152 483 175 157 200 660 217 621 162 689 98 307 
3796 -0.33357333239107195 0.19668094086825835 1.0240180476566165 0 0 0 0.44 2 2258 9 1064 11 1555 17 1283 32 676 44 1420 111 749 148 1109 157 778 162 690 172 676 217 622 220 625 
3797 -0.3546967082566254 0.19698040234945066 1.0183551886884452 0 0 0 0.5 2 2259 4 1649 9 1065 19 914 27 1305 36 548 43 644 71 696 77 1274 85 766 92 1012 109 487 111 750 3 845 17 1284 148 1110 164 1289 176 901 213 1445 217 623 220 626 221 771 232 1360 
3798 -0.042317026413677745 0.20556987079526437 1.058032972677029 0 0 0 0.15 2 2260 3 846 44 1421 111 751 
3799 0.15941780147406273 0.21392064707857547 1.0999634481979064 0 0 0 0.62 2 2261 11 1556 17 1285 27 1306 44 1422 50 1547 73 429 77 1275 111 752 118 1213 213 1446 227 833 
3800 0.17208599054693302 0.21473165708633826 1.1034722611482295 0 0 0 0.62 2 2262 19 915 44 1423 73 430 107 350 111 753 
3801 -0.2078465776320808 0.20348551603766504 1.036354988852086 0 0 0 0.57 2 2263 3 847 33 1282 44 1424 50 1548 61 1128 81 340 
3802 0.2576327175060395 0.22393747904151098 1.1360940053258173 0 0 0 0.61 2 2264 11 1557 19 916 40 626 111 754 9 1066 17 1286 27 1307 50 1549 54 359 61 1129 77 1276 85 767 105 314 107 351 164 1290 165 519 148 1111 196 791 221 772 
3803 0.005854090667131071 0.21129274006553364 1.0645593181654682 0 0 0 0.41 2 2265 9 1067 17 1287 28 274 44 1425 69 330 175 158 213 1447 187 263 234 324 
3804 -0.17514487340458415 0.2068183642025628 1.0319520850233743 0 0 0 0.33 2 2266 33 1283 44 1426 124 542 179 286 19 917 196 792 224 494 
3805 -0.1387846668678357 0.21105857739600806 1.0325916069891503 0 0 0 0.46 2 2267 3 848 4 1650 12 548 19 918 25 526 27 1308 33 1284 43 645 44 1427 52 478 60 1090 77 1277 92 1013 93 368 96 740 110 517 111 755 136 527 148 1112 126 559 164 1291 214 484 223 370 196 793 142 336 181 230 220 627 224 495 227 834 
3806 0.07446253819562479 0.2190840791932155 1.0731894548385124 0 0 0 0.33 2 2268 12 549 17 1288 43 646 50 1550 146 973 232 1361 
3807 -0.20770818806681884 0.21254497843975104 1.0331209992588863 0 0 0 0.1 2 2269 50 1551 61 1130 
3808 -0.03226466488465822 0.21721908662720452 1.0507525726325837 0 0 0 0.54 2 2270 4 1651 11 1558 12 550 16 550 27 1309 38 446 44 1428 50 1552 53 1764 61 1131 69 331 77 1278 118 1214 124 543 146 974 152 484 213 1448 232 1362 13 414 
3809 0.13331999517426282 0.22142969806356846 1.0451154338023856 0 0 0 0.43 2 2271 11 1559 27 1310 77 1279 213 1449 3 849 120 440 190 952 
3810 0.21775175785286915 0.23669158889185807 1.1064228500620106 0 0 0 0.63 2 2272 4 1652 17 1289 27 1311 29 400 33 1285 44 1429 50 1553 54 360 71 697 105 315 127 615 164 1292 165 520 197 675 221 773 223 371 
3811 0.21469039421941524 0.23775615086552293 1.1065797746415775 0 0 0 0.45 2 2273 3 850 4 1653 11 1560 17 1290 19 919 29 401 32 677 33 1286 36 549 40 627 43 647 44 1430 50 1554 61 1132 62 163 71 698 77 1280 85 768 105 316 107 352 111 756 118 1215 148 1113 63 511 165 521 196 794 197 676 213 1450 220 628 235 801 158 549 223 372 234 325 98 308 
3812 0.07952217057319992 0.23628342806502337 1.092162820399372 0 0 0 0.3 2 2274 32 678 92 1014 135 154 
3813 -0.13909504891606841 0.22553531063259702 1.0295696545811688 0 0 0 0.45 2 2275 19 920 25 527 27 1312 44 1431 52 479 77 1281 107 353 148 1114 220 629 224 496 
3814 0.26501186953997347 0.24569614805350762 1.1367105435871252 0 0 0 0.6 2 2276 4 1654 9 1068 11 1561 17 1291 27 1313 71 699 73 431 111 757 165 522 235 802 
3815 0.009158022235926126 0.2323446435431681 1.0590306715502729 0 0 0 0.33 2 2277 3 851 4 1655 50 1555 77 1282 96 741 111 758 135 155 146 975 227 835 234 326 16 551 187 264 
3816 0.24126274820809132 0.2434713410201903 1.1192285007151896 0 0 0 0.5 2 2278 9 1069 11 1562 17 1292 36 550 43 648 107 354 111 759 12 551 19 921 148 1115 162 691 208 161 213 1451 220 630 223 373 
3817 -0.2828371816694931 0.22584827431771778 1.0100156134931395 0 0 0 0.45 25 528 27 1314 43 649 
3818 -0.27604441707883215 0.22651775949275096 1.0107242929155291 0 0 0 0.14 2 2279 25 529 146 976 
3819 -0.24912708050350327 0.22375212540018208 0.9942767038115143 0 0 0 0.44 2 2280 25 530 27 1315 
3820 -0.2160731101527916 0.2299453955482768 1.0219103045240117 0 0 0 0.6 2 2281 32 679 33 1287 36 551 44 1432 92 1015 124 544 162 692 221 774 
3821 -0.23935374315455973 0.22860793174098934 1.0028127328473377 0 0 0 0.3 2 2282 25 531 33 1288 44 1433 77 1283 92 1016 162 693 164 1293 
3822 0.0990514730847502 0.24135764210717336 1.0702849064835862 0 0 0 0.38 2 2283 4 1656 11 1563 27 1316 77 1284 
3823 0.06862605400423102 0.2462830515151284 1.068955344807995 0 0 0 0.4 2 2284 4 1657 9 1070 43 650 50 1556 60 1091 77 1285 148 1116 172 677 13 415 
3824 -0.19202674797365624 0.24087049470613245 1.0032976001984542 0 0 0 0.65 2 2285 27 1317 77 1286 92 1017 
3825 0.03474784949329267 0.25252619954969663 1.0607510892163485 0 0 0 0.25 2 2286 124 545 135 156 
3826 -0.34168165443809223 -0.053280408170662624 0.9017555708911814 0 0 0 0.7 2 2287 43 651 73 432 96 742 19 922 142 337 126 560 224 497 229 120 
3827 -0.33581316272386297 -0.03213527746878698 0.8641286594580962 0 0 0 0.2 2 2288 73 433 96 743 
3828 -0.1441104840180924 -0.03168057612351256 1.1009992374921738 0 0 0 0.38 2 2289 9 1071 19 923 27 1318 28 275 40 628 44 1434 50 1557 52 480 77 1287 85 769 109 488 146 977 148 1117 32 680 36 552 92 1018 93 369 124 546 126 561 63 512 157 779 158 550 164 1294 176 902 185 492 199 238 224 498 196 795 142 338 159 602 162 694 221 775 200 661 39 148 
3829 0.03771912349644713 -0.01905302504165034 1.1338529464961529 0 0 0 0.45 2 2290 9 1072 27 1319 32 681 50 1558 53 1765 61 1133 69 332 73 434 77 1288 81 341 89 377 92 1019 93 370 96 744 103 507 118 1216 146 978 3 852 4 1658 11 1564 12 552 14 206 15 564 17 1293 43 652 71 700 97 456 110 518 63 513 152 485 232 1363 0 561 138 130 157 780 176 903 213 1452 219 737 221 776 179 287 
3830 -0.14669632383789608 -0.02807017796209914 1.0983131243934405 0 0 0 0.68 2 2291 9 1073 19 924 32 682 36 553 40 629 44 1435 50 1559 52 481 77 1289 85 770 92 1020 109 489 128 746 146 979 42 170 159 603 196 796 229 121 157 781 176 904 13 416 
3831 0.16507940862100784 -0.0038812060952559137 1.1603667016314123 0 0 0 0.44 2 2292 3 853 4 1659 11 1565 15 565 17 1294 61 1134 65 382 67 340 69 333 73 435 89 378 96 745 97 457 103 508 111 760 118 1217 0 562 14 207 53 1766 164 1295 184 522 204 914 234 327 120 441 190 953 197 677 213 1453 217 624 232 1364 
3832 0.08758513648123444 -0.0033011837299438845 1.140078582168746 0 0 0 0.31 2 2293 27 1320 50 1560 
3833 -0.05736430676924622 -0.003438712062108194 1.1005189289447448 0 0 0 0.66 2 2294 16 552 27 1321 53 1767 61 1135 77 1290 217 625 232 1365 
3834 -0.04703060034721729 -0.0023039609430941348 1.1021897106694276 0 0 0 0.42 2 2295 27 1322 32 683 44 1436 85 771 159 604 213 1454 214 485 
3835 0.08187266850525993 0.017434813647474998 1.1339423684307983 0 0 0 0.32 1 616 2 2296 3 854 4 1660 11 1566 25 532 26 438 29 402 32 684 33 1289 54 361 71 701 73 436 81 342 89 379 97 458 103 509 127 616 128 747 63 514 85 772 109 490 126 562 148 1118 159 605 196 797 52 482 136 528 120 442 164 1296 176 905 190 954 213 1455 217 626 219 738 227 836 232 1366 
3836 0.07111440459621972 0.01854921303870815 1.130740473778677 0 0 0 0.48 2 2297 33 1290 73 437 40 630 142 339 147 548 220 631 222 807 162 695 217 627 164 1297 227 837 235 803 
3837 -0.17902808820670804 0.006581956534314808 1.0893251785535865 0 0 0 0.55 2 2298 9 1074 32 685 44 1437 50 1561 77 1291 128 748 146 980 179 288 190 955 164 1298 224 499 27 1323 
3838 -0.3157673198678099 0.004372931983965984 1.0744116840997224 0 0 0 0.26 2 2299 11 1567 27 1324 50 1562 61 1136 118 1218 
3839 -0.3416791073001532 0.014428555575761635 0.8874337959138813 0 0 0 0.49 2 2300 43 653 73 438 96 746 40 631 126 563 21 219 25 533 159 606 142 340 196 798 229 122 
3840 -0.39818167897196216 0.009103215915831034 1.065636699631555 0 0 0 0.51 2 2301 25 534 26 439 27 1325 36 554 43 654 71 702 73 439 96 747 111 761 114 204 162 696 164 1299 209 188 9 1075 220 632 221 777 
3841 -0.3901580127097299 0.009370376177243345 1.0648821354909823 0 0 0 0.42 2 2302 25 535 27 1326 44 1438 71 703 77 1292 92 1021 96 748 127 617 217 628 221 778 232 1367 
3842 -0.4052523746426346 0.012569440102373526 1.0652066878815882 0 0 0 0.45 2 2303 27 1327 40 632 43 655 44 1439 71 704 73 440 77 1293 111 762 21 220 159 607 224 500 92 1022 148 1119 164 1300 220 633 209 189 127 618 26 440 142 341 19 925 196 799 229 123 162 697 
3843 0.001466310402504598 0.0421189866449123 1.1092216091566593 0 0 0 0.39 2 2304 15 566 16 553 17 1295 19 926 27 1328 33 1291 38 447 44 1440 50 1563 52 483 73 441 77 1294 85 773 109 491 118 1219 148 1120 93 371 142 342 127 619 196 800 157 782 213 1456 217 629 221 779 
3844 -0.03291311267233791 0.04391027240923789 1.100826950968077 0 0 0 0.63 2 2305 9 1076 11 1568 12 553 15 567 16 554 17 1296 25 536 27 1329 28 276 32 686 36 555 38 448 44 1441 50 1564 61 1137 77 1295 85 774 92 1023 109 492 118 1220 124 547 127 620 146 981 148 1121 120 443 147 549 152 486 157 783 164 1301 213 1457 221 780 98 309 187 265 234 328 
3845 0.2229165293142015 0.05975265531103698 1.1578165395649882 0 0 0 0.39 2 2306 17 1297 32 687 44 1442 69 334 77 1296 118 1221 127 621 176 906 196 801 213 1458 221 781 232 1368 
3846 0.13993719929125362 0.057638826220771766 1.1374849947269916 0 0 0 0.47 2 2307 4 1661 11 1569 15 568 27 1330 33 1292 61 1138 110 519 146 982 148 1122 42 171 220 634 227 838 157 784 158 551 98 310 201 162 
3847 -0.40703536504794835 0.034763717026445526 1.0596083616853553 0 0 0 0.46 2 2308 9 1077 19 927 25 537 26 441 40 633 44 1443 71 705 73 442 77 1297 85 775 109 493 126 564 159 608 164 1302 181 231 21 221 60 1092 148 1123 220 635 224 501 142 343 196 802 
3848 -0.122337602751734 0.05565520098332625 1.078427512681733 0 0 0 0.39 2 2309 4 1662 11 1570 16 555 17 1298 26 442 27 1331 32 688 33 1293 36 556 38 449 50 1565 67 341 71 706 89 380 92 1024 100 82 103 510 111 763 118 1222 136 529 63 515 162 698 214 486 0 563 61 1139 152 487 172 678 221 782 147 550 164 1303 185 493 190 956 213 1459 232 1369 
3849 -0.40254403440832737 0.04832861851639347 1.0573786109458614 0 0 0 0.49 2 2310 9 1078 19 928 25 538 26 443 27 1332 40 634 44 1444 52 484 71 707 73 443 77 1298 85 776 107 355 109 494 111 764 21 222 60 1093 148 1124 196 803 220 636 224 502 142 344 159 609 229 124 
3850 0.14629538171155423 0.07719749732763423 1.1369277977718137 0 0 0 0.65 2 2311 3 855 4 1663 15 569 17 1299 19 929 27 1333 29 403 33 1294 40 635 50 1566 62 164 71 708 73 444 96 749 148 1125 120 444 152 488 159 610 165 523 184 523 185 494 190 957 213 1460 222 808 235 804 162 699 
3851 -0.04292907292800883 0.07358463045814083 1.0978713286860158 0 0 0 0.17 17 1300 25 539 103 511 118 1223 16 556 38 450 50 1567 147 551 219 739 
3852 0.017557253351174557 0.07655948140115473 1.108780132220639 0 0 0 0.15 2 2312 4 1664 38 451 11 1571 103 512 118 1224 17 1301 232 1370 
3853 0.04805579641077507 0.07815924238242905 1.1155565149625504 0 0 0 0.28 2 2313 4 1665 26 444 27 1334 33 1295 38 452 60 1094 73 445 77 1299 81 343 91 373 111 765 127 622 136 530 19 930 126 565 220 637 142 345 164 1304 9 1079 176 907 231 228 159 611 185 495 196 804 223 374 
3854 -0.35083609279787287 0.058965558411624396 0.9339167166829009 0 0 0 0.74 71 709 73 446 77 1300 96 750 109 495 21 223 159 612 196 805 220 638 26 445 142 346 42 172 52 485 229 125 164 1305 181 232 
3855 0.18672394620335156 0.0863365657685401 1.142488711476451 0 0 0 0.32 2 2314 50 1568 61 1140 73 447 91 374 0 564 
3856 -0.4036492870276362 0.06280711262224428 1.0527878672071098 0 0 0 0.55 2 2315 19 931 26 446 27 1335 40 636 44 1445 52 486 73 448 107 356 109 496 126 566 148 1126 164 1306 220 639 21 224 60 1095 142 347 159 613 42 173 196 806 229 126 
3857 -0.13764817020883474 0.0813188632693005 1.070532982071887 0 0 0 0.44 2 2316 3 856 4 1666 11 1572 26 447 28 277 38 453 44 1446 50 1569 60 1096 61 1141 67 342 71 710 85 777 88 163 109 497 111 766 128 749 0 565 152 489 176 908 157 785 219 740 232 1371 98 311 221 783 
3858 -0.0014149442602416859 0.08837346544715649 1.1004262992593912 0 0 0 0.21 2 2317 38 454 77 1301 
3859 -0.08886158013302614 0.08628114501349117 1.0790498791760748 0 0 0 0.36 2 2318 38 455 71 711 77 1302 93 372 103 513 109 498 
3860 0.04184659172247499 0.0994233688592463 1.1060775401389835 0 0 0 0.48 2 2319 50 1570 91 375 111 767 142 348 38 456 103 514 109 499 
3861 0.1584575408885538 0.10598268736179838 1.1307318755111704 0 0 0 0.17 2 2320 17 1302 50 1571 69 335 118 1225 
3862 0.2036419173832958 0.11624053332037648 1.1386579302299606 0 0 0 0.27 2 2321 3 857 4 1667 118 1226 0 566 213 1461 234 329 
3863 -0.24103111858788442 0.10491671880551663 1.057524030024962 0 0 0 0.08 2 2322 19 932 61 1142 
3864 0.028743755916759445 0.11950419605239179 1.0960450907871735 0 0 0 0.48 2 2323 11 1573 19 933 38 457 91 376 103 515 127 623 128 750 63 516 126 567 159 614 185 496 142 349 220 640 152 490 
3865 0.03803684898098651 0.12021712220037067 1.096099526224854 0 0 0 0.38 2 2324 3 858 41 335 43 656 53 1768 103 516 158 552 172 679 
3866 -0.22324231160985766 0.1117337839353376 1.0568280682916114 0 0 0 0.67 2 2325 9 1080 32 689 33 1296 44 1447 
3867 -0.052841157598913426 0.11774921956362121 1.0784040503776526 0 0 0 0.32 2 2326 4 1668 11 1574 16 557 17 1303 26 448 29 404 38 458 44 1448 50 1572 77 1303 81 344 89 381 111 768 118 1227 152 491 157 786 164 1307 190 958 221 784 
3868 -0.35004443066139596 0.12019186379710085 1.0407309062875396 0 0 0 0.59 2 2327 11 1575 25 540 40 637 43 657 50 1573 73 449 81 345 96 751 146 983 148 1127 126 568 221 785 224 503 21 225 114 205 209 190 157 787 172 680 220 641 
3869 0.24086345504602177 0.15498678123426637 1.141141016766446 0 0 0 0.43 2 2328 11 1576 17 1304 27 1336 50 1574 53 1769 54 362 61 1143 73 450 77 1304 92 1025 118 1228 128 751 152 492 213 1462 
3870 0.01836579464752358 0.14522612713833483 1.0861024294568247 0 0 0 0.76 2 2329 4 1669 73 451 11 1577 16 558 17 1305 26 449 29 405 32 690 33 1297 44 1449 77 1305 118 1229 127 624 136 531 146 984 15 570 25 541 0 567 152 493 164 1308 198 362 213 1463 220 642 120 445 
3871 0.07751054174668358 0.14947785543400233 1.1039014227132786 0 0 0 0.32 26 450 73 452 88 164 11 1578 17 1306 33 1298 50 1575 61 1144 71 712 77 1306 97 459 110 520 118 1230 27 1337 29 406 0 568 120 446 152 494 157 788 69 336 2 2330 9 1081 164 1309 200 662 196 807 220 643 146 985 
3872 0.14589843085557264 0.1547810154554651 1.1163426543612742 0 0 0 0.11 2 2331 11 1579 146 986 120 447 
3873 0.20300233773552093 0.15757189911656516 1.1292828251785931 0 0 0 0.52 2 2332 3 859 4 1670 11 1580 12 554 27 1338 35 107 43 658 50 1576 53 1770 71 713 73 453 77 1307 89 382 91 377 111 769 118 1231 152 495 165 524 184 524 190 959 213 1464 232 1372 
3874 -0.22230098435638093 0.1468928312803621 1.0416242097746478 0 0 0 0.33 2 2333 11 1581 17 1307 19 934 25 542 33 1299 44 1450 50 1577 61 1145 96 752 118 1232 127 625 0 569 204 915 213 1465 16 559 158 553 220 644 
3875 -0.17358557797457458 0.15088223465253925 1.0480092668810221 0 0 0 0.35 1 617 2 2334 3 860 4 1671 11 1582 16 560 25 543 26 451 27 1339 33 1300 41 336 44 1451 50 1578 64 119 77 1308 111 770 118 1233 127 626 128 752 136 532 146 987 63 517 126 569 159 615 164 1310 181 233 185 497 214 487 219 741 142 350 179 289 176 909 213 1466 217 630 221 786 232 1373 
3876 -0.02204470313786529 0.1571963164637681 1.0734969075960428 0 0 0 0.6 2 2335 9 1082 11 1583 16 561 17 1308 19 935 26 452 38 459 43 659 44 1452 77 1309 93 373 111 771 127 627 136 533 126 570 148 1128 190 960 200 663 213 1467 214 488 221 787 
3877 0.10588816233301972 0.16402377979772917 1.106129904085003 0 0 0 0.38 2 2336 9 1083 25 544 33 1301 44 1453 73 454 96 753 111 772 
3878 0.2276521999510588 0.1701898239298514 1.1323006519261085 0 0 0 0.51 2 2337 3 861 17 1309 40 638 73 455 92 1026 107 357 111 773 0 570 14 208 120 448 147 552 152 496 56 422 69 337 129 186 15 571 50 1579 165 525 190 961 227 839 235 805 12 555 198 363 199 239 
3879 0.18541337416185605 0.17069847041224467 1.116712111145722 0 0 0 0.29 2 2338 9 1084 12 556 17 1310 44 1454 77 1310 89 383 92 1027 128 753 152 497 176 910 184 525 197 678 204 916 213 1468 
3880 -0.37397501375270387 0.15767505940328522 1.030993090336819 0 0 0 0.61 2 2339 3 862 12 557 25 545 32 691 43 660 53 1771 71 714 118 1234 232 1374 
3881 -0.1792096472480106 0.17246728165290237 1.0401688904286708 0 0 0 0.31 1 618 2 2340 17 1311 25 546 27 1340 32 692 118 1235 157 789 176 911 213 1469 135 157 
3882 0.14318761031436547 0.18766156773892986 1.1038187620480824 0 0 0 0.28 2 2341 12 558 71 715 73 456 81 346 111 774 164 1311 
3883 -0.37395272560056325 0.17401493127211645 1.0287285140673295 0 0 0 0.53 2 2342 3 863 17 1312 19 936 25 547 27 1341 50 1580 73 457 77 1311 107 358 111 775 118 1236 1 619 4 1672 9 1085 12 559 26 453 32 693 43 661 44 1455 53 1772 61 1146 71 716 81 347 85 778 92 1028 96 754 109 500 113 166 148 1129 0 571 220 645 221 788 232 1375 157 790 164 1312 172 681 209 191 224 504 40 639 52 487 142 351 159 616 196 808 229 127 190 962 162 700 176 912 219 742 
3884 -0.3399314879568095 0.17617506353550694 1.024193593304922 0 0 0 0.33 2 2343 25 548 73 458 111 776 0 572 96 755 
3885 -0.37845786389602165 0.18054157801806558 1.0180208470143168 0 0 0 0.48 2 2344 4 1673 50 1581 73 459 118 1237 176 913 232 1376 
3886 -0.011506632055394034 0.19175400423373187 1.0644313911282974 0 0 0 0.44 2 2345 77 1312 110 521 
3887 0.2535016291779026 0.20541561126696428 1.1401618023586948 0 0 0 0.63 2 2346 9 1086 11 1584 17 1313 27 1342 36 557 44 1456 50 1582 61 1147 77 1313 82 113 118 1238 164 1313 165 526 197 679 217 631 222 809 235 806 
3888 -0.12439619754479653 0.19035972381017754 1.0429993160196849 0 0 0 0.86 2 2347 3 864 19 937 33 1302 41 337 44 1457 50 1583 60 1097 64 120 89 384 93 374 111 777 4 1674 15 572 27 1343 147 553 164 1314 185 498 190 963 219 743 220 646 222 810 224 505 227 840 
3889 0.1948502819533713 0.2050817688562692 1.1221379489911854 0 0 0 0.27 2 2348 17 1314 118 1239 213 1470 
3890 0.25306269282343014 0.21276170180904347 1.136803169291076 0 0 0 0.61 2 2349 3 865 9 1087 44 1458 50 1584 105 317 120 449 147 554 
3891 0.19092177946151112 0.21179244501236585 1.1091734176031862 0 0 0 0.42 2 2350 11 1585 33 1303 40 640 43 662 105 318 107 359 127 628 221 789 
3892 -0.39982201095440584 0.2026399610169218 1.019261572301918 0 0 0 0.73 2 2351 9 1088 19 938 36 558 44 1459 71 717 92 1029 109 501 21 226 220 647 148 1130 164 1315 196 809 224 506 
3893 -0.0885242799987423 0.20702432484230718 1.0452568991642393 0 0 0 0.42 2 2352 32 694 33 1304 44 1460 50 1585 69 338 81 348 88 165 124 548 135 158 152 498 158 554 196 810 217 632 220 648 224 507 13 417 227 841 231 229 
3894 0.001762510423168907 0.21219694429602468 1.0596313484721513 0 0 0 1.35 2 2353 3 866 36 559 61 1148 69 339 111 778 135 159 11 1586 27 1344 32 695 96 756 4 1675 16 562 33 1305 38 460 92 1030 110 522 146 988 152 499 231 230 164 1316 194 158 213 1471 
3895 0.19942178511491176 0.22264213048148457 1.1095369765595438 0 0 0 0.43 2 2354 4 1676 11 1587 17 1315 19 939 27 1345 40 641 52 488 77 1314 91 378 103 517 110 523 118 1240 
3896 -0.2529248484318247 0.20627120438722352 1.013856656906366 0 0 0 0.38 2 2355 25 549 27 1346 43 663 71 718 88 166 113 167 217 633 
3897 -0.31803679573516513 0.2097449937184807 1.0172839030702632 0 0 0 0.4 2 2356 19 940 50 1586 103 518 107 360 111 779 21 227 162 701 
3898 0.17895889292619077 0.2245827111754722 1.1016354644546253 0 0 0 0.47 2 2357 33 1306 111 780 12 560 17 1316 36 560 44 1461 50 1587 69 340 73 460 197 680 
3899 0.21264969728957317 0.22711612256069214 1.1078818115504403 0 0 0 0.54 2 2358 4 1677 17 1317 27 1347 29 407 36 561 43 664 44 1462 52 489 61 1149 62 165 65 383 77 1315 85 779 103 519 110 524 136 534 56 423 158 555 163 215 164 1317 165 527 172 682 234 330 235 807 213 1472 42 174 12 561 221 790 223 375 
3900 0.056376578448402256 0.22217800715707758 1.0754720849693455 0 0 0 0.3 2 2359 19 941 81 349 
3901 0.15935957067998008 0.22518458692110935 1.0954390646992118 0 0 0 0.13 2 2360 44 1463 118 1241 
3902 0.11053119123144915 0.23287605141115586 1.07795617278083 0 0 0 0.87 2 2361 36 562 54 363 111 781 
3903 0.253075434025168 0.24319315198748195 1.1312179999299294 0 0 0 0.59 2 2362 3 867 4 1678 9 1089 11 1588 17 1318 27 1348 29 408 43 665 44 1464 50 1588 54 364 61 1150 62 166 71 719 97 460 148 1131 196 811 147 555 164 1318 165 528 184 526 222 811 235 808 
3904 -0.3409978818314045 0.22967324378499482 1.0132439234060682 0 0 0 0.15 2 2363 43 666 50 1589 96 757 
3905 0.17890492854618953 0.2429768228844278 1.0968044597866844 0 0 0 0.41 2 2364 32 696 33 1307 61 1151 69 341 73 461 107 361 111 782 200 664 234 331 
3906 -0.2409129486020122 0.23057896639354908 0.9975165328444565 0 0 0 0.36 2 2365 36 563 44 1465 77 1316 92 1031 
3907 0.05595698070930914 0.2447515167954998 1.0684137139619316 0 0 0 0.64 2 2366 4 1679 9 1090 11 1589 27 1349 43 667 50 1590 77 1317 85 780 25 550 148 1132 
3908 0.22781970096485085 0.2532436848261175 1.1169151404098723 0 0 0 0.44 2 2367 3 868 4 1680 19 942 27 1350 36 564 43 668 53 1773 61 1152 69 342 77 1318 85 781 107 362 110 525 111 783 162 702 163 216 164 1319 223 376 235 809 
3909 0.07970494893231471 0.24824961350365699 1.0791017359479527 0 0 0 0.12 2 2368 50 1591 69 343 
3910 0.08405648158623862 0.2517709161386151 1.0756853638029762 0 0 0 0.42 2 2369 4 1681 43 669 77 1319 92 1032 
3911 0.25948155069755624 0.26245458065870314 1.1286518010814495 0 0 0 0.29 3 869 11 1590 36 565 43 670 44 1466 61 1153 73 462 2 2370 29 409 77 1320 12 562 
3912 0.18093261217411188 0.24808170662821877 1.048370246510009 0 0 0 0.4 2 2371 27 1351 77 1321 
3913 -0.14476582136073787 -0.023918884589649986 1.099272528841756 0 0 0 0.57 2 2372 27 1352 50 1592 103 520 128 754 
3914 -0.13905988684119017 -0.022122657197614057 1.0992676742740914 0 0 0 0.57 2 2373 16 563 61 1154 152 500 221 791 
3915 -0.19679813910449218 -0.026464361103214117 1.1018538397644682 0 0 0 1.35 2 2374 128 755 17 1319 41 338 60 1098 61 1155 103 521 118 1242 0 573 152 501 179 290 164 1320 185 499 
3916 0.09590097661757525 -0.006699846246768679 1.189952628946311 0 0 0 0.76 2 2375 4 1682 27 1353 81 350 147 556 222 812 
3917 -0.34439987881242057 -0.016092743907246968 0.9216790232445917 0 0 0 0.53 2 2376 25 551 26 454 40 642 43 671 73 463 77 1322 42 175 126 571 196 812 142 352 164 1321 181 234 198 364 199 240 159 617 224 508 229 128 232 1377 
3918 -0.3366007919914189 -0.0016476125421790175 0.8732638533427192 0 0 0 0.32 2 2377 71 720 73 464 103 522 
3919 0.04737969754574015 0.010713088502225626 1.148435468120937 0 0 0 0.72 2 2378 4 1683 9 1091 11 1591 27 1354 44 1467 73 465 77 1323 96 758 152 502 213 1473 217 634 221 792 
3920 -0.27064302038511834 -3.7556524065437874e-05 1.1014827033310493 0 0 0 0.36 2 2379 11 1592 27 1355 33 1308 44 1468 50 1593 61 1156 71 721 77 1324 127 629 146 989 152 503 213 1474 232 1378 
3921 -0.05627115111192141 0.01725583437002412 1.1019982955106011 0 0 0 0.38 2 2380 16 564 28 278 
3922 0.18040184374921694 0.030020527571268166 1.1521171455927781 0 0 0 0.45 2 2381 9 1092 25 552 44 1469 61 1157 73 466 92 1033 4 1684 11 1593 15 573 33 1309 40 643 50 1594 69 344 77 1325 81 351 89 385 105 319 118 1243 0 574 120 450 160 288 56 424 190 964 197 681 182 131 3 870 19 943 60 1099 111 784 213 1475 232 1379 148 1133 162 703 163 217 217 635 227 842 
3923 -0.22273250219312168 0.02535888272768437 1.0790687695568213 0 0 0 0.93 2 2382 27 1356 36 566 50 1595 61 1158 118 1244 128 756 146 990 152 504 160 289 176 914 190 965 204 917 217 636 219 744 232 1380 56 425 3 871 220 649 
3924 -0.3509169180571799 0.030408750754150907 0.9366808521271603 0 0 0 0.4 2 2383 43 672 73 467 96 759 
3925 -0.3852863220432223 0.032557743885291236 1.0673470116352348 0 0 0 0.82 43 673 44 1470 77 1326 92 1034 
3926 -0.18872448745497117 0.054108736628081314 1.0712098166823723 0 0 0 0.41 2 2384 4 1685 11 1594 27 1357 44 1471 50 1596 77 1327 81 352 111 785 158 556 190 966 
3927 0.042498666683372335 0.06609622308548628 1.1131886703791243 0 0 0 0.48 2 2385 9 1093 44 1472 109 502 196 813 220 650 222 813 
3928 0.2563894456193324 0.0885991678755372 1.1705053064681645 0 0 0 0.36 2 2386 9 1094 27 1358 32 697 44 1473 77 1328 92 1035 118 1245 11 1595 15 574 17 1320 50 1597 61 1159 82 114 128 757 0 575 120 451 152 505 165 529 232 1381 235 810 
3929 -0.3064293465913571 0.06547432010233946 1.0635598001635298 0 0 0 0.29 2 2387 3 872 61 1160 73 468 164 1322 224 509 
3930 -0.3433521610706173 0.06490677747219542 0.8907668295047002 0 0 0 0.37 2 2388 3 873 17 1321 43 674 67 343 71 722 73 469 96 760 12 563 65 384 118 1246 181 235 199 241 219 745 221 793 232 1382 157 791 227 843 
3931 -0.10642859267878838 0.0819809611341619 1.079778027550155 0 0 0 0.31 2 2389 44 1474 50 1598 60 1100 
3932 -0.07720178266226796 0.09311809410449721 1.0792789581637416 0 0 0 0.52 2 2390 50 1599 69 345 77 1329 124 549 
3933 0.10128214624001086 0.10221291301493203 1.1170642669881399 0 0 0 0.2 2 2391 17 1322 118 1247 213 1476 219 746 
3934 0.2156716798587779 0.10884174436941657 1.1434549234011615 0 0 0 0.36 2 2392 19 944 27 1359 50 1600 62 167 221 794 232 1383 
3935 0.24635535014030663 0.11656559259640902 1.1555651569153742 0 0 0 0.66 2 2393 9 1095 44 1475 50 1601 61 1161 69 346 77 1330 82 115 128 758 152 506 221 795 
3936 -0.2690982067283621 0.09838053985348275 1.0551991370847706 0 0 0 0.47 2 2394 4 1686 11 1596 17 1323 27 1360 50 1602 77 1331 81 353 88 167 111 786 118 1248 114 206 190 967 199 242 56 426 220 651 157 792 232 1384 
3937 0.059578591596495124 0.11350838239324036 1.1055103984682366 0 0 0 0.38 2 2395 17 1324 19 945 26 455 27 1361 33 1310 40 644 64 121 71 723 73 470 77 1332 85 782 88 168 118 1249 136 535 148 1134 38 461 52 490 63 518 126 572 159 618 147 557 164 1323 190 968 199 243 213 1477 214 489 217 637 220 652 221 796 222 814 223 377 235 811 0 576 16 565 142 353 165 530 138 131 162 704 185 500 200 665 
3938 -0.20667014182621363 0.11312461286790024 1.0601598406474386 0 0 0 0.36 2 2396 41 339 127 630 19 946 224 510 
3939 0.10957803864929773 0.12534901743958968 1.1139541850392072 0 0 0 0.72 2 2397 50 1603 53 1774 118 1250 146 991 0 577 69 347 96 761 152 507 160 290 172 683 
3940 -0.24096223955454898 0.11286779334046482 1.0560829496533732 0 0 0 0.29 2 2398 44 1476 50 1604 179 291 
3941 -0.3172306298036888 0.11709385660526134 1.0447919793827396 0 0 0 0.44 2 2399 4 1687 33 1311 81 354 97 461 118 1251 114 207 198 365 56 427 232 1385 190 969 
3942 -0.2409018366377614 0.12263169681248089 1.0544358942680019 0 0 0 0.42 2 2400 41 340 50 1605 81 355 
3943 -0.029935471987568716 0.13041521294840144 1.0798655228937346 0 0 0 0.53 2 2401 9 1096 29 410 33 1312 148 1135 
3944 -0.2446294862897608 0.12600531762088565 1.0518706606784562 0 0 0 0.21 2 2402 17 1325 50 1606 
3945 -0.030058882083285113 0.14016991647804017 1.0784447867295555 0 0 0 0.29 1 620 2 2403 4 1688 11 1597 15 575 16 566 17 1326 27 1362 29 411 44 1477 73 471 77 1333 118 1252 148 1136 0 578 147 558 164 1324 213 1478 221 797 222 815 232 1386 
3946 -0.32376762965752826 0.1363326704648628 1.0407820719531347 0 0 0 0.55 2 2404 71 724 113 168 118 1253 146 992 
3947 -0.25816608681579284 0.14647851749935567 1.042164554324439 0 0 0 0.62 17 1327 25 553 27 1363 33 1313 41 341 67 344 77 1334 11 1598 
3948 -0.3644277015034865 0.14379383349568736 1.0357635594341421 0 0 0 0.09 2 2405 9 1097 44 1478 73 472 
3949 0.14643773324540432 0.16658135085160067 1.1088277352193436 0 0 0 0.14 2 2406 3 874 44 1479 
3950 0.17511688442603987 0.1679623646815761 1.1162515190818738 0 0 0 0.37 2 2407 4 1689 9 1098 11 1599 15 576 17 1328 25 554 27 1364 43 675 53 1775 73 473 77 1335 92 1036 110 526 118 1254 148 1137 164 1325 165 531 120 452 147 559 184 527 213 1479 222 816 
3951 -0.34164796720819324 0.15698685489288192 1.031430069540649 0 0 0 0.63 2 2408 3 875 4 1690 17 1329 25 555 27 1365 33 1314 43 676 50 1607 61 1162 71 725 73 474 77 1336 96 762 118 1255 128 759 21 228 127 631 164 1326 176 915 190 970 198 366 213 1480 217 638 227 844 
3952 -0.2978346369969601 0.1588653691551046 1.0358580732289093 0 0 0 0.11 2 2409 9 1099 44 1480 81 356 
3953 -0.3379081876948923 0.13667748570440008 0.8487452459891752 0 0 0 0.61 2 2410 25 556 26 456 43 677 53 1776 71 726 73 475 96 763 128 760 
3954 0.253712928349376 0.18840823179218144 1.1511047036493778 0 0 0 0.58 3 876 12 564 65 385 
3955 -0.342867642899528 0.14148507031049323 0.8713342549724904 0 0 0 0.8 2 2411 25 557 73 476 12 565 17 1330 43 678 53 1777 96 764 118 1256 181 236 199 244 208 162 219 747 221 798 232 1387 
3956 0.1707415211391489 0.18940401942027288 1.1110963801295508 0 0 0 0.32 2 2412 4 1691 27 1366 
3957 0.21209728587337387 0.1951472366859783 1.115969199083547 0 0 0 0.51 2 2413 12 566 17 1331 44 1481 50 1608 61 1163 105 320 120 453 127 632 213 1481 
3958 0.008580564795426184 0.19423228401576745 1.0693286365334347 0 0 0 0.35 2 2414 15 577 16 567 17 1332 50 1609 120 454 175 159 199 245 13 418 
3959 -0.05171033313030165 0.19408515897040124 1.0564821052342726 0 0 0 0.5 2 2415 4 1692 11 1600 16 568 27 1367 28 279 29 412 38 462 43 679 44 1482 53 1778 77 1337 111 787 127 633 52 491 126 573 158 557 172 684 
3960 -0.29025623128235517 0.20011499870047864 1.0227319918505335 0 0 0 0.58 2 2416 19 947 33 1315 44 1483 52 492 21 229 126 574 224 511 0 579 4 1693 50 1610 71 727 97 462 157 793 176 916 111 788 209 192 217 639 85 783 96 765 142 354 118 1257 164 1327 220 653 232 1388 229 129 200 666 
3961 -0.0715368620346463 0.2078008721134479 1.0539521340508313 0 0 0 0.41 1 621 2 2417 17 1333 25 558 27 1368 43 680 92 1037 96 766 97 463 103 523 118 1258 146 993 222 817 
3962 0.08127187672306675 0.2211999345672272 1.085169544213431 0 0 0 0.13 2 2418 43 681 81 357 
3963 -0.2228542989874299 0.22690701578448538 1.0197717164690254 0 0 0 0.39 2 2419 32 698 81 358 124 550 
3964 0.07611200112050352 0.2419393214607988 1.071747864287638 0 0 0 0.58 2 2420 4 1694 25 559 43 682 92 1038 
3965 0.1553381592166208 0.23844979464529392 1.0541312423388163 0 0 0 0.62 2 2421 27 1369 77 1338 
3966 0.060399387469392905 0.24493173698907542 1.0682677822016657 0 0 0 0.45 1 622 2 2422 4 1695 9 1100 25 560 43 683 50 1611 77 1339 85 784 120 455 175 160 13 419 93 375 
3967 0.241148265927614 0.2548088021412187 1.1162303891010572 0 0 0 0.48 2 2423 3 877 4 1696 9 1101 36 567 43 684 44 1484 54 365 61 1164 71 728 77 1340 12 567 164 1328 165 532 213 1482 223 378 235 812 
3968 -0.3411641223509332 -0.07482554887043369 0.9048273214844488 0 0 0 0.56 2 2424 3 878 17 1334 26 457 40 645 67 345 73 477 96 767 103 524 118 1259 65 386 21 230 71 729 81 359 221 799 232 1389 1 623 88 169 142 355 198 367 199 246 219 748 148 1138 229 130 181 237 196 814 
3969 0.07830165338263707 -0.005913695023969744 1.1386640876845986 0 0 0 0.71 2 2425 15 578 27 1370 61 1165 63 519 96 768 162 705 197 682 204 918 219 749 0 580 69 348 164 1329 185 501 221 800 
3970 -0.30491846770824454 -0.026041864248395205 1.0855914837071854 0 0 0 0.1 2 2426 33 1316 73 478 
3971 -0.18832057460316073 0.009374693271033114 1.085496596179095 0 0 0 0.36 2 2427 3 879 11 1601 27 1371 33 1317 41 342 43 685 64 122 65 387 81 360 136 536 26 458 63 520 126 575 148 1139 159 619 196 815 220 654 0 581 138 132 198 368 179 292 217 640 114 208 56 428 199 247 142 356 127 634 164 1330 224 512 
3972 0.23488222977762435 0.033972802752591326 1.1684614476907398 0 0 0 0.46 2 2428 9 1102 11 1602 15 579 17 1335 19 948 29 413 44 1485 50 1612 52 493 54 366 62 168 69 349 71 730 73 479 77 1341 81 361 82 116 85 785 97 464 110 527 111 789 118 1260 3 880 4 1697 14 209 65 388 67 346 103 525 105 321 146 994 33 1318 127 635 63 521 163 218 199 248 0 582 27 1372 120 456 129 187 162 706 172 685 190 971 204 919 232 1390 87 47 114 209 128 761 134 37 158 558 164 1331 165 533 182 132 197 683 56 429 152 508 184 528 234 332 235 813 147 560 221 801 
3973 0.20863652869296725 0.03853180195537947 1.1594808954185645 0 0 0 0.46 2 2429 3 881 4 1698 11 1603 15 580 27 1373 44 1486 50 1613 53 1779 61 1166 67 347 71 731 73 480 89 386 103 526 118 1261 128 762 19 949 69 350 63 522 217 641 222 818 0 583 120 457 152 509 160 291 182 133 190 972 197 684 232 1391 56 430 129 188 164 1332 105 322 221 802 213 1483 
3974 0.19573140034865516 0.04456525883093827 1.1531614859803638 0 0 0 1.0 2 2430 11 1604 15 581 50 1614 160 292 152 510 164 1333 197 685 213 1484 235 814 
3975 -0.4114868116862155 0.018227375846164066 1.066982791244304 0 0 0 0.48 2 2431 27 1374 44 1487 71 732 73 481 88 170 92 1039 111 790 25 561 19 950 26 459 40 646 52 494 77 1342 85 786 109 503 21 231 110 528 164 1334 199 249 148 1140 196 816 224 513 142 357 181 238 229 131 
3976 -0.3362344629749251 0.023849333343150484 1.0679723798573022 0 0 0 0.88 2 2432 11 1605 25 562 50 1615 56 431 217 642 220 655 164 1335 185 502 204 920 213 1485 219 750 
3977 -0.3942719623219323 0.021607401512517388 1.0643886178412143 0 0 0 0.47 2 2433 9 1103 12 568 27 1375 36 568 43 686 44 1488 67 348 71 733 73 482 77 1343 81 362 85 787 88 171 92 1040 96 769 19 951 25 563 26 460 111 791 148 1141 21 232 199 250 220 656 52 495 60 1101 164 1336 181 239 196 817 224 514 114 210 198 369 209 193 126 576 142 358 229 132 221 803 127 636 159 620 162 707 
3978 -0.035897435260362785 0.04102190768971482 1.1009724335012567 0 0 0 0.82 2 2434 4 1699 15 582 44 1489 50 1616 69 351 73 483 111 792 147 561 152 511 157 794 214 490 13 420 98 312 124 551 28 280 200 667 
3979 -0.08072613633820365 0.04680638685204846 1.0895008877170853 0 0 0 0.28 2 2435 50 1617 69 352 81 363 88 172 160 293 157 795 158 559 199 251 224 515 
3980 -0.24532875896281117 0.048821031139492814 1.0687856382324075 0 0 0 0.52 2 2436 19 952 40 647 44 1490 61 1167 81 364 88 173 111 793 0 584 97 465 162 708 200 668 220 657 224 516 124 552 
3981 -0.3490918602556837 0.08577674461520991 0.9220297533538949 0 0 0 0.5 2 2437 71 734 73 484 103 527 181 240 198 370 
3982 -0.3809300358073668 0.09364490993778443 1.0477827549678773 0 0 0 0.37 2 2438 25 564 26 461 27 1376 50 1618 73 485 81 365 88 174 113 169 148 1142 19 953 21 233 110 529 60 1102 164 1337 224 517 
3983 0.02394553589479954 0.11508842132020872 1.0952784256216823 0 0 0 0.52 2 2439 14 210 17 1336 33 1319 41 343 50 1619 52 496 73 486 146 995 12 569 15 583 19 954 147 562 152 512 172 686 213 1486 220 658 232 1392 
3984 -0.18931763378385508 0.11412596450573485 1.0604545120604727 0 0 0 0.57 2 2440 26 462 33 1320 19 955 224 518 
3985 -0.2229021764911845 0.1128372149507764 1.0535932809421786 0 0 0 0.25 2 2441 50 1620 81 366 88 175 56 432 111 794 217 643 
3986 -0.34189302179098047 0.09781388407043018 0.8728120563334694 0 0 0 0.34 2 2442 73 487 103 528 
3987 -0.34481813955502766 0.10377521872986284 0.8922818847525015 0 0 0 0.67 2 2443 25 565 71 735 73 488 103 529 26 463 21 234 148 1143 181 241 199 252 221 804 
3988 -0.25766444935196914 0.13492695880706432 1.0449892622010442 0 0 0 0.49 2 2444 53 1780 81 367 
3989 -0.3500953862239775 0.1357041585015434 0.9193802925563308 0 0 0 0.26 2 2445 26 464 43 687 71 736 73 489 96 770 25 566 88 176 21 235 181 242 198 371 199 253 
3990 -0.3502866703089468 0.1464943444796499 0.923790192652771 0 0 0 0.26 2 2446 26 465 71 737 
3991 -0.3404649348660865 0.13811407433118367 0.8604801240441153 0 0 0 0.63 2 2447 12 570 17 1337 25 567 43 688 53 1781 73 490 96 771 118 1262 198 372 199 254 209 194 219 751 221 805 232 1393 
3992 -0.3012422394196372 0.16515808697726075 1.0330766794228023 0 0 0 0.41 2 2448 44 1491 50 1621 61 1168 81 368 88 177 111 795 21 236 172 687 227 845 209 195 0 585 129 189 162 709 56 433 158 560 198 373 176 917 213 1487 219 752 
3993 0.07584893430276436 0.17914263422035415 1.0890745190343005 0 0 0 0.99 2 2449 9 1104 17 1338 19 956 33 1321 40 648 43 689 44 1492 52 497 60 1103 73 491 81 369 91 379 96 772 110 530 111 796 118 1263 136 537 63 523 147 563 163 219 165 534 182 134 185 503 190 973 198 374 199 255 208 163 222 819 142 359 162 710 217 644 
3994 -0.3545267749347425 0.15846511679156455 0.9269670795573182 0 0 0 0.23 2 2450 71 738 73 492 
3995 -0.06612340370564133 0.18728999412770214 1.0576925754832665 0 0 0 0.48 2 2451 12 571 16 569 19 957 25 568 26 466 27 1377 61 1169 77 1344 103 530 118 1264 56 434 172 688 217 645 222 820 232 1394 98 313 
3996 0.25888793910894925 0.20868353572411938 1.1408475657952124 0 0 0 0.55 2 2452 50 1622 82 117 100 83 61 1170 118 1265 
3997 -0.0066988438149571325 0.20078020487807677 1.0674261255625244 0 0 0 0.27 2 2453 50 1623 89 387 111 797 120 458 160 294 
3998 -0.2762581274924585 0.1986109828031723 1.0243887225380541 0 0 0 0.62 2 2454 25 569 26 467 33 1322 52 498 65 389 77 1345 81 370 88 178 126 577 162 711 199 256 164 1338 181 243 224 519 
3999 0.11471595168998278 0.21441282954080748 1.0893465933968232 0 0 0 0.5 1 624 2 2455 12 572 25 570 36 569 50 1624 61 1171 77 1346 89 388 118 1266 56 435 158 561 182 135 11 1606 135 160 213 1488 232 1395 200 669 
4000 -0.18188119959017235 0.21446887304669549 1.029737160255415 0 0 0 0.34 2 2456 19 958 33 1323 41 344 50 1625 64 123 81 371 157 796 158 562 162 712 224 520 
4001 -0.08798615716684431 0.22299809041829388 1.0421941655345308 0 0 0 0.58 2 2457 44 1493 61 1172 81 372 124 553 
4002 0.21245511484322585 0.2334572713981026 1.10547228968426 0 0 0 0.41 2 2458 3 882 4 1700 11 1607 17 1339 36 570 40 649 44 1494 50 1626 61 1173 73 493 77 1347 81 373 87 48 100 84 107 363 118 1267 19 959 69 353 111 798 164 1339 172 689 196 818 127 637 158 563 163 220 
4003 0.06773648286045143 0.2330935505723647 1.071740325249819 0 0 0 0.44 2 2459 9 1105 19 960 33 1324 50 1627 60 1104 61 1174 69 354 81 374 111 799 135 161 158 564 162 713 163 221 200 670 217 646 13 421 
4004 0.2323534187302913 0.24241534236626958 1.1151778066761315 0 0 0 0.36 2 2460 9 1106 11 1608 19 961 32 699 36 571 44 1495 50 1628 61 1175 71 739 77 1348 85 788 97 466 100 85 111 800 147 564 162 714 165 535 222 821 235 815 
4005 -0.30397018688816546 0.23021017367197769 1.0179051965854733 0 0 0 0.31 2 2461 43 690 96 773 
4006 -0.1983864148977476 0.23566840930736768 1.006202321099577 0 0 0 0.3 2 2462 11 1609 27 1378 81 375 
4007 -0.33630295324983445 -0.019335248900824203 0.8808289095422565 0 0 0 0.22 2 2463 43 691 67 349 96 774 
4008 -0.3390250552261141 0.02207162484683666 0.8785402344573462 0 0 0 0.24 2 2464 25 571 96 775 103 531 
4009 -0.38991947055410353 0.029614781499442213 1.0652204952056286 0 0 0 0.84 2 2465 3 883 4 1701 9 1107 17 1340 25 572 26 468 27 1379 40 650 43 692 44 1496 65 390 67 350 71 740 73 494 77 1349 81 376 85 789 88 179 92 1041 103 532 109 504 118 1268 148 1144 50 1629 126 578 159 621 164 1340 21 237 220 659 221 806 232 1396 224 521 
4010 -0.3653255374494522 0.03470160820787477 1.0690072208171153 0 0 0 0.97 2 2466 32 700 71 741 88 180 3 884 4 1702 12 573 17 1341 36 572 50 1630 53 1782 61 1176 64 124 65 391 67 351 81 377 103 533 111 801 118 1269 128 763 146 996 43 693 0 586 157 797 172 690 176 918 190 974 217 647 227 846 209 196 56 436 164 1341 221 807 232 1397 213 1489 
4011 -0.3941381233255587 0.040836450803591426 1.0588466524808133 0 0 0 0.68 2 2467 9 1108 25 573 26 469 27 1380 36 573 44 1497 67 352 71 742 73 495 77 1350 81 378 88 181 92 1042 111 802 148 1145 43 694 96 776 21 238 60 1105 164 1342 220 660 209 197 
4012 -0.0432199064321234 0.06071364518335928 1.103387821096918 0 0 0 0.65 2 2468 9 1109 19 962 25 574 33 1325 40 651 50 1631 60 1106 61 1177 77 1351 128 764 126 579 148 1146 159 622 162 715 164 1343 220 661 4 1703 11 1610 12 574 120 459 172 691 213 1490 219 753 221 808 15 584 27 1381 222 822 227 847 
4013 -0.3939025933556256 0.05136312554626459 1.0559131250686171 0 0 0 0.81 2 2469 9 1110 19 963 25 575 26 470 27 1382 40 652 44 1498 71 743 73 496 77 1352 85 790 88 182 92 1043 107 364 109 505 36 574 43 695 96 777 126 580 148 1147 164 1344 196 819 199 257 220 662 224 522 221 809 198 375 
4014 -0.30757802350187974 0.06703374528284252 1.0696792627884337 0 0 0 0.26 1 625 43 696 81 379 96 778 
4015 -0.34964844923374805 0.07726487307707931 0.9249664835443231 0 0 0 0.54 2 2470 25 576 26 471 71 744 73 497 88 183 111 803 126 581 148 1148 159 623 164 1345 196 820 220 663 77 1353 142 360 198 376 199 258 209 198 181 244 
4016 -0.3456573592079806 0.08546308188681828 0.8978176315707984 0 0 0 0.61 2 2471 73 498 26 472 126 582 148 1149 220 664 224 523 21 239 199 259 142 361 196 821 198 377 
4017 0.2326450323628996 0.12237576156255094 1.1445655646749207 0 0 0 0.43 2 2472 32 701 44 1499 50 1632 69 355 97 467 100 86 128 765 
4018 -0.3371144196918153 0.10414261585261352 1.0499368752889437 0 0 0 0.49 2 2473 3 885 4 1704 11 1611 17 1342 25 577 27 1383 44 1500 50 1633 73 499 81 380 92 1044 96 779 103 534 128 766 114 211 
4019 0.08405899993700461 0.13174432099758607 1.1022917368071494 0 0 0 0.86 2 2474 36 575 38 463 77 1354 103 535 12 575 198 378 217 648 
4020 -0.22469065739759167 0.12471948765123786 1.0528905358383085 0 0 0 0.47 2 2475 50 1634 81 381 
4021 0.03795409477821184 0.15555487691304737 1.0825100054180241 0 0 0 0.51 2 2476 14 211 17 1343 41 345 50 1635 61 1178 64 125 73 500 128 767 146 997 0 587 120 460 152 513 176 919 204 921 219 754 138 133 
4022 -0.3160688482972026 0.1587239865089871 1.0307023151425863 0 0 0 0.58 2 2477 4 1705 27 1384 33 1326 44 1501 50 1636 71 745 73 501 81 382 118 1270 164 1346 217 649 220 665 221 810 
4023 -0.09894256686538999 0.16929741452474134 1.0529771076790633 0 0 0 0.57 2 2478 4 1706 15 585 17 1344 19 964 25 578 27 1385 29 414 33 1327 43 697 44 1502 50 1637 81 383 88 184 96 780 111 804 118 1271 127 638 146 998 56 437 198 379 217 650 220 666 221 811 52 499 93 376 142 362 196 822 120 461 147 565 157 798 190 975 204 922 224 524 232 1398 
4024 -0.011512699203713943 0.17278560321044148 1.0704866220221432 0 0 0 0.34 2 2479 16 570 50 1638 118 1272 
4025 0.019230899916548888 0.17452815520950515 1.074846242880068 0 0 0 0.64 2 2480 33 1328 136 538 
4026 0.2705225658533455 0.1984496308165273 1.1545532517837214 0 0 0 0.69 2 2481 9 1111 27 1386 
4027 0.13925584200771873 0.20980026553863632 1.0975130113698501 0 0 0 0.96 2 2482 12 576 19 965 27 1387 33 1329 40 653 71 746 77 1355 91 380 105 323 110 531 148 1150 63 524 141 20 165 536 194 159 196 823 220 667 222 823 235 816 56 438 97 468 232 1399 
4028 -0.18770898731163552 0.2041550220265732 1.02985419284422 0 0 0 0.58 2 2483 33 1330 44 1503 50 1639 89 389 0 588 157 799 220 668 227 848 162 716 
4029 0.09179718792026219 0.24290784939798357 1.0715576418852926 0 0 0 0.74 2 2484 4 1707 27 1388 43 698 65 392 77 1356 92 1045 71 747 111 805 
4030 -0.1419519464981333 -0.0036021830616070312 1.0904453588620642 0 0 0 0.78 2 2485 25 579 27 1389 33 1331 118 1273 63 525 217 651 222 824 224 525 232 1400 148 1151 196 824 
4031 0.1975436090203342 0.05165446590903364 1.1465266550005007 0 0 0 1.29 2 2486 9 1112 40 654 44 1504 50 1640 61 1179 67 353 69 356 73 502 105 324 3 886 4 1708 25 580 27 1390 71 748 77 1357 89 390 91 381 118 1274 0 589 176 920 129 190 152 514 56 439 182 136 217 652 165 537 204 923 235 817 
4032 -0.26139164725328484 0.03268442395074071 1.0681107881538308 0 0 0 0.79 2 2487 4 1709 9 1113 11 1612 17 1345 25 581 26 473 27 1391 32 702 33 1332 44 1505 50 1641 61 1180 71 749 81 384 88 185 96 781 110 532 127 639 0 590 160 295 204 924 217 653 220 669 56 440 190 976 196 825 221 812 
4033 -0.27006069455863907 0.04476257096590398 1.0673618961807 0 0 0 0.76 2 2488 9 1114 32 703 33 1333 41 346 44 1506 77 1358 81 385 92 1046 93 377 109 506 128 768 146 999 
4034 -0.3482587319182202 0.05289928859024625 0.9237645814613845 0 0 0 0.42 2 2489 25 582 71 750 21 240 164 1347 181 245 
4035 -0.025552730926702658 0.16635381186135098 1.0666147368740921 0 0 0 0.47 2 2490 3 887 17 1346 38 464 81 386 148 1152 
4036 0.004324615407871264 0.1672662649986728 1.0747758970185035 0 0 0 0.76 2 2491 16 571 33 1334 77 1359 136 539 11 1613 26 474 27 1392 38 465 52 500 73 503 148 1153 17 1347 19 966 25 583 40 655 44 1507 50 1642 60 1107 61 1181 69 357 93 378 111 806 135 162 146 1000 63 526 164 1348 185 504 213 1491 221 813 220 670 152 515 160 296 176 921 200 671 219 755 142 363 126 583 159 624 196 826 217 654 120 462 147 566 175 161 232 1401 234 333 214 491 162 717 28 281 92 1047 112 67 124 554 157 800 201 163 204 925 231 231 
4037 0.24865781846179405 0.18395636678698318 1.1396141648225058 0 0 0 0.65 2 2492 9 1115 14 212 44 1508 50 1643 
4038 -0.3335914159087334 0.19080638172291287 1.0235433077569724 0 0 0 0.77 2 2493 17 1348 33 1335 81 387 96 782 111 807 21 241 27 1393 50 1644 77 1360 118 1275 128 769 146 1001 172 692 221 814 0 591 209 199 217 655 43 699 224 526 19 967 
4039 0.04988486615944127 0.2055836817467695 1.0752817940427795 0 0 0 0.77 1 626 2 2494 4 1710 11 1614 17 1349 25 584 26 475 27 1394 33 1336 40 656 43 700 65 393 69 358 77 1361 91 382 107 365 118 1276 127 640 146 1002 19 968 120 463 148 1154 164 1349 172 693 196 827 199 260 213 1492 220 671 222 825 13 422 53 1783 109 507 190 977 
4040 0.24955245785203772 0.23544066665321026 1.1293676839861377 0 0 0 0.6 2 2495 3 888 4 1711 9 1116 11 1615 17 1350 29 415 43 701 44 1509 50 1645 62 169 69 359 82 118 97 469 100 87 107 366 111 808 12 577 147 567 164 1350 165 538 184 529 222 826 235 818 
4041 -0.18823221466112317 0.2307287018964991 1.022632704731442 0 0 0 0.42 2 2496 33 1337 50 1646 
4042 0.2385333206262763 0.25038140020141314 1.1157556174206418 0 0 0 0.53 2 2497 3 889 4 1712 19 969 36 576 40 657 43 702 53 1784 54 367 61 1182 71 751 77 1362 107 367 111 809 100 88 164 1351 165 539 184 530 196 828 198 380 217 656 222 827 235 819 
4043 0.24931401392356836 0.2517117659981662 1.1251177256331228 0 0 0 0.58 2 2498 3 890 11 1616 29 416 36 577 43 703 54 368 61 1183 62 170 71 752 4 1713 12 578 164 1352 165 540 235 820 17 1351 198 381 
4044 -0.04694131450935142 0.0018277213543147356 1.1094324714371129 0 0 0 0.84 2 2499 3 891 17 1352 26 476 33 1338 53 1785 73 504 81 388 111 810 127 641 63 527 88 186 181 246 198 382 199 261 217 657 0 592 172 694 196 829 160 297 
4045 0.16498186731437953 0.03395482321823672 1.149635762806198 0 0 0 0.48 2 2500 3 892 4 1714 11 1617 12 579 15 586 27 1395 32 704 33 1339 40 658 50 1647 53 1786 54 369 60 1108 67 354 69 360 71 753 73 505 77 1363 81 389 89 391 97 470 105 325 118 1277 127 642 148 1155 63 528 184 531 126 584 181 247 182 137 196 830 217 658 0 593 120 464 147 568 152 516 204 926 227 849 160 298 197 686 232 1402 56 441 164 1353 19 970 162 718 176 922 190 978 221 815 222 828 163 222 
4046 -0.2170554369701964 0.047615729602409014 1.07032293598887 0 0 0 0.72 2 2501 9 1117 17 1353 40 659 44 1510 50 1648 65 394 77 1364 109 508 124 555 11 1618 111 811 4 1715 27 1396 127 643 128 770 146 1003 152 517 157 801 158 565 159 625 162 719 164 1354 172 695 176 923 185 505 190 979 200 672 204 927 213 1493 219 756 221 816 232 1403 196 831 224 527 29 417 39 149 53 1787 71 754 85 791 97 471 
4047 -0.3957647805349875 0.1014442512154138 1.0476385452606773 0 0 0 0.75 2 2502 71 755 73 506 81 390 27 1397 
4048 0.03382578499301051 0.11918311413128496 1.0964127464712246 0 0 0 0.26 2 2503 17 1354 33 1340 
4049 -0.2819201381834211 0.10965578647375028 1.0513425164149255 0 0 0 0.42 2 2504 17 1355 33 1341 88 187 127 644 157 802 190 980 199 262 
4050 -0.11291718773332102 0.11476619683214292 1.0657179438164597 0 0 0 0.65 1 627 2 2505 3 893 4 1716 11 1619 15 587 16 572 17 1356 26 477 27 1398 29 418 32 705 38 466 50 1649 61 1184 65 395 71 756 77 1365 89 392 111 812 127 645 148 1156 0 594 221 817 222 829 56 442 118 1278 129 191 232 1404 100 89 157 803 181 248 196 832 164 1355 213 1494 
4051 -0.05595585452865739 0.13268543008108669 1.073033309682132 0 0 0 0.52 2 2506 33 1342 44 1511 50 1650 
4052 -0.08423102838593004 0.14367001044094715 1.0614649987239257 0 0 0 0.34 2 2507 50 1651 97 472 
4053 -0.02619146065597925 0.14846133382886154 1.0726038250837353 0 0 0 0.48 2 2508 33 1343 50 1652 127 646 0 595 120 465 147 569 152 518 146 1004 56 443 204 928 214 492 4 1717 16 573 17 1357 213 1495 221 818 15 588 164 1356 232 1405 
