# 3D point list with one line of data per point:
#   POINT3D_ID, X, Y, Z, R, G, B, ERROR, TRACK[] as (IMAGE_ID, POINT2D_IDX)
# Number of points: 348, mean track length: 8.66
1587 0.08738983295679648 -0.29890446087027384 1.1890529153411407 0 0 0 0.32 7 1582 46 178 149 740 186 34 
1588 0.17555657803781133 -0.2857684488306481 1.1477134048878261 0 0 0 0.63 7 1583 46 179 116 313 125 157 144 17 151 156 
1589 -0.27971431890947257 -0.2034767042168853 0.8244719708735817 0 0 0 0.33 7 1584 46 180 58 87 218 98 
1590 0.24067476822023143 -0.2960707925517005 1.1963479343188754 0 0 0 0.28 7 1585 72 45 86 88 94 545 116 314 125 158 186 35 226 128 
1591 0.07394390071058907 -0.28782541229026354 1.1714850078224393 0 0 0 0.26 7 1586 86 89 94 546 116 315 125 159 139 22 149 741 166 109 202 5 
1592 -0.2871555618585004 -0.19630861869857857 0.8169902835469507 0 0 0 0.28 7 1587 86 90 151 157 154 206 
1593 -0.30166725702443387 -0.19620914858771757 0.8179840477793776 0 0 0 0.37 7 1588 34 50 58 88 
1594 0.09035439291740875 -0.2841448239192224 1.1841938769527982 0 0 0 0.46 7 1589 46 181 47 84 57 15 58 89 94 547 125 160 151 158 186 36 211 71 
1595 0.0902074614437739 -0.28406181133275576 1.1833451614857649 0 0 0 0.37 7 1590 34 51 37 171 46 182 47 85 57 16 58 90 94 548 125 161 151 159 161 207 205 156 211 72 
1596 0.08377812280617686 -0.2757651944899509 1.1666451656708787 0 0 0 0.61 7 1591 47 86 116 316 149 742 161 208 189 5 191 3 211 73 
1597 0.18338025110074602 -0.2682664014948032 1.1402695129354228 0 0 0 0.25 7 1592 46 183 59 11 90 105 122 334 139 23 186 37 211 74 
1598 0.2368654965886035 -0.27822905350984656 1.1861629994728637 0 0 0 0.68 7 1593 86 91 94 549 171 143 177 92 
1599 0.17710490488986233 -0.26700692508053586 1.1452105253301266 0 0 0 0.4 7 1594 34 52 86 92 94 550 116 317 202 6 
1600 0.21833562106519205 -0.28106372652797523 1.206972946099631 0 0 0 0.19 7 1595 122 335 139 24 149 743 161 209 
1601 0.2258845568987595 -0.27410474034717086 1.2032617613226966 0 0 0 0.35 7 1596 34 53 37 172 47 87 55 18 94 551 116 318 125 162 139 25 149 744 183 98 193 359 216 273 226 129 
1602 0.07983604741931198 -0.2620024659284802 1.1659521937339568 0 0 0 0.36 7 1597 18 156 34 54 37 173 45 48 46 184 86 93 94 552 116 319 125 163 149 745 151 160 161 210 166 110 180 164 205 157 211 75 218 99 
1603 0.035758417891891534 -0.2742504591504016 1.245119021669453 0 0 0 0.19 7 1598 86 94 102 16 212 19 
1604 0.07704053849333965 -0.2571437530996058 1.1649773702532356 0 0 0 0.55 7 1599 46 185 47 88 149 746 151 161 186 38 211 76 
1605 0.07743379790286681 -0.25724366137002636 1.16412765453568 0 0 0 0.27 7 1600 90 106 149 747 
1606 0.12474231659294757 -0.2389669969412152 1.0861798612177784 0 0 0 0.07 7 1601 34 55 211 77 
1607 0.23537275577657146 -0.25305906388012916 1.1693300361681613 0 0 0 0.56 7 1602 23 72 55 19 86 95 94 553 102 17 116 320 119 3 122 336 149 748 151 162 154 207 171 144 173 53 177 93 180 165 189 6 212 20 226 130 
1608 0.25010675212138345 -0.2519381455838086 1.1624107800161414 0 0 0 0.2 7 1603 149 749 216 274 
1609 0.24296137102368706 -0.24952682235611465 1.1676238285095775 0 0 0 0.26 7 1604 116 321 125 164 166 111 218 100 
1610 0.2529753910219861 -0.24827374187826523 1.1713488474211329 0 0 0 0.33 7 1605 46 186 55 20 151 163 161 211 193 360 205 158 211 78 
1611 0.25879795964950714 -0.24708623291112689 1.1747218781324362 0 0 0 0.4 7 1606 55 21 149 750 226 131 
1612 0.2232719943628147 -0.2425139481232164 1.1799790040476843 0 0 0 0.25 7 1607 23 73 55 22 144 18 149 751 154 208 180 166 193 361 
1613 0.2280710482485102 -0.2392271489233499 1.1808383964157583 0 0 0 0.53 7 1608 23 74 102 18 116 322 149 752 161 212 215 8 
1614 0.1040036168610188 -0.23466266058511734 1.1726789948617233 0 0 0 0.26 7 1609 46 187 94 554 125 165 139 26 186 39 
1615 0.10401349996029725 -0.22713775396700434 1.1710777527618803 0 0 0 0.2 7 1610 94 555 186 40 
1616 0.06010766215584551 -0.23353062799104302 1.2233863375522758 0 0 0 0.41 7 1611 23 75 34 56 55 23 58 91 86 96 116 323 125 166 139 27 153 20 189 7 205 159 216 275 
1617 0.22405902269158595 -0.23750823361184623 1.2448299851199143 0 0 0 0.42 37 174 125 167 161 213 
1618 0.24141266376019122 -0.21809105268891285 1.1624403150141434 0 0 0 0.35 7 1612 46 188 149 753 193 362 
1619 -0.2875484493859919 -0.1442899054625268 0.7787515816571119 0 0 0 0.51 7 1613 18 157 34 57 57 17 94 556 102 19 116 324 139 28 180 167 211 79 
1620 0.0634524240301445 -0.22621779706000636 1.2181197600382836 0 0 0 0.27 7 1614 23 76 37 175 94 557 116 325 139 29 149 754 180 168 211 80 
1621 0.060534146379946814 -0.22287735687778834 1.2281015170811875 0 0 0 0.28 7 1615 34 58 149 755 205 160 211 81 216 276 
1622 0.11260726796529848 -0.19061631503902474 1.0569918741394446 0 0 0 0.32 7 1616 94 558 149 756 212 21 
1623 0.10417505641993516 -0.1865836281786951 1.0557446829479489 0 0 0 0.43 7 1617 45 49 161 214 
1624 0.1281258280747996 -0.18049964535478233 1.053626735221235 0 0 0 0.36 7 1618 94 559 116 326 119 4 132 5 145 31 186 41 211 82 
1625 0.04283234351899472 -0.1981885340917313 1.20288960514123 0 0 0 0.57 7 1619 37 176 86 97 116 327 144 19 161 215 166 112 189 8 202 7 212 22 
1626 0.1839546700600466 -0.17630647601431473 1.0915328907011805 0 0 0 0.3 7 1620 30 139 37 177 46 189 59 12 86 98 94 560 125 168 140 314 149 757 150 97 151 164 193 363 205 161 215 9 216 277 
1627 0.12021251011190423 -0.1676312373030623 1.046619911405893 0 0 0 0.32 7 1621 18 158 23 77 30 140 45 50 46 190 55 24 72 46 94 561 116 328 122 337 125 169 131 2 139 30 140 315 144 20 149 758 154 209 161 216 166 113 171 145 173 54 180 169 186 42 193 364 226 132 
1628 0.18919305237284087 -0.17316052575301966 1.093555443280382 0 0 0 0.41 7 1622 46 191 94 562 125 170 149 759 150 98 161 217 166 114 186 43 211 83 
1629 -0.2916558674323587 -0.11999698502149625 0.7742898538676893 0 0 0 0.38 7 1623 18 159 34 59 37 178 45 51 51 0 57 18 116 329 145 32 151 165 154 210 161 218 180 170 193 365 
1630 -0.27137454377955494 -0.1179641869389216 0.7867843015195398 0 0 0 0.56 7 1624 94 563 228 257 
1631 0.22151917751411382 -0.1680326761389805 1.1234416458719967 0 0 0 0.83 7 1625 139 31 149 760 211 84 
1632 0.10611991065887287 -0.15665903744298862 1.0566977799975807 0 0 0 0.32 7 1626 86 99 125 171 149 761 
1633 0.07436086629618471 -0.16521664731348976 1.1176398853374123 0 0 0 0.18 7 1627 37 179 46 192 58 92 116 330 149 762 154 211 205 162 211 85 
1634 0.07826616554773604 -0.16481569830040846 1.1172137568235112 0 0 0 0.49 7 1628 47 89 58 93 86 100 94 564 125 172 161 219 205 163 212 23 216 278 
1635 0.07904106079210636 -0.16493839013824751 1.1177461354553133 0 0 0 0.28 7 1629 186 44 212 24 
1636 0.21270361857018857 -0.16564765850639376 1.1182528956516784 0 0 0 0.53 7 1630 37 180 46 193 47 90 149 763 150 99 161 220 211 86 
1637 -0.2706846814043449 -0.11451876055199277 0.7871298715428551 0 0 0 0.45 7 1631 34 60 94 565 161 221 211 87 
1638 0.1881593569947509 -0.1595319166668043 1.0837079065216944 0 0 0 0.15 7 1632 30 141 37 181 94 566 116 331 149 764 173 55 177 94 212 25 
1639 0.23540460176274525 -0.16654575820346618 1.1278865121762083 0 0 0 0.39 7 1633 59 13 86 101 94 567 116 332 122 338 125 173 139 32 140 316 144 21 149 765 151 166 189 9 191 4 193 366 205 164 212 26 216 279 218 101 
1640 0.19409102668169156 -0.15787035542568534 1.0880132263037392 0 0 0 0.28 7 1634 23 78 30 142 37 182 46 194 55 25 86 102 94 568 116 333 125 174 139 33 140 317 144 22 149 766 150 100 151 167 161 222 173 56 177 95 180 171 191 5 193 367 216 280 218 102 
1641 0.047733545911389036 -0.1702793220388754 1.196569217223109 0 0 0 0.2 7 1635 59 14 125 175 
1642 0.23440177775042487 -0.16175884606167146 1.1272853587379457 0 0 0 0.33 7 1636 37 183 94 569 116 334 122 339 140 318 151 168 186 45 
1643 0.23448588426306588 -0.16154480182134268 1.127573870045668 0 0 0 0.65 7 1637 47 91 94 570 151 169 
1644 0.19398452726115065 -0.15337440791090862 1.0899080803509542 0 0 0 0.54 7 1638 23 79 30 143 116 335 
1645 0.08305908646933184 -0.15560618329980683 1.1106305917814352 0 0 0 0.48 7 1639 46 195 47 92 86 103 94 571 125 176 144 23 149 767 205 165 
1646 0.26249303397001256 -0.15947152597295164 1.135418330782072 0 0 0 0.28 7 1640 34 61 37 184 46 196 47 93 55 26 86 104 94 572 116 336 125 177 139 34 140 319 144 24 149 768 150 101 161 223 186 46 191 6 193 368 205 166 211 88 212 27 216 281 
1647 0.2301267269556604 -0.1572972040350814 1.1261242854665607 0 0 0 0.18 7 1641 37 185 94 573 116 337 122 340 125 178 140 320 149 769 150 102 151 170 212 28 
1648 -0.30127749588490427 -0.10469837614187365 0.7739667225975113 0 0 0 0.39 7 1642 58 94 125 179 
1649 0.24639034571417248 -0.15152026618739203 1.1207038168262895 0 0 0 0.31 7 1643 94 574 210 249 
1650 0.15882424587975338 -0.14271114103240562 1.079806412815461 0 0 0 0.52 7 1644 34 62 46 197 47 94 139 35 149 770 186 47 
1651 0.24280937702561814 -0.14910630077222603 1.1225298963584995 0 0 0 0.34 7 1645 30 144 34 63 37 186 47 95 72 47 86 105 94 575 102 20 116 338 139 36 140 321 143 14 144 25 149 771 151 171 166 115 171 146 177 96 186 48 193 369 205 167 210 250 211 89 212 29 215 10 218 103 226 133 
1652 0.12135904916139023 -0.13774030506899435 1.0474431927366208 0 0 0 0.35 7 1646 18 160 86 106 211 90 
1653 0.11377596823183886 -0.13679975657661872 1.0502831881309695 0 0 0 0.32 7 1647 90 107 180 172 
1654 0.25800663746646646 -0.14702386273646156 1.1245400850564078 0 0 0 0.15 7 1648 86 107 149 772 226 134 
1655 0.1638150775038823 -0.1396825967706094 1.0824930594987332 0 0 0 0.37 7 1649 34 64 37 187 45 52 47 96 57 19 59 15 86 108 90 108 94 576 116 339 132 6 139 37 149 773 150 103 166 116 212 30 
1656 0.14444879674302932 -0.13713067173407198 1.0652230092769406 0 0 0 0.28 7 1650 30 145 94 577 116 340 122 341 125 180 132 7 149 774 151 172 177 97 193 370 
1657 0.14429359437923323 -0.13698171558721098 1.0650361169082372 0 0 0 0.29 7 1651 45 53 116 341 122 342 125 181 149 775 
1658 0.2310260175763971 -0.1440071274542887 1.1217516281845907 0 0 0 0.62 7 1652 34 65 37 188 86 109 90 109 94 578 116 342 119 5 122 343 139 38 144 26 150 104 151 173 177 98 202 8 205 168 212 31 216 282 218 104 
1659 0.12105080510333067 -0.13221910765559988 1.0439085929691208 0 0 0 0.29 7 1653 94 579 116 343 139 39 166 117 211 91 
1660 0.12951210441386124 -0.13121850045208155 1.0452826614645527 0 0 0 0.39 7 1654 140 322 211 92 
1661 0.15930740138022595 -0.13494356127320578 1.0760515795273935 0 0 0 0.37 7 1655 45 54 90 110 132 8 144 27 150 105 186 49 
1662 0.15905263458449395 -0.13500434323048935 1.0751715293417903 0 0 0 0.34 7 1656 45 55 150 106 177 99 
1663 0.03140265674019578 -0.14528129397184036 1.173012214856528 0 0 0 0.15 7 1657 205 169 211 93 
1664 0.1450080816480457 -0.13124345659032696 1.063819594094358 0 0 0 0.24 7 1658 23 80 34 66 37 189 45 56 55 27 90 111 94 580 116 344 140 323 145 33 149 776 151 174 177 100 183 99 
1665 0.17504378458610712 -0.13053909985739495 1.0855935790151772 0 0 0 0.4 7 1659 86 110 116 345 122 344 149 777 180 173 
1666 0.18395877482723305 -0.13007691946072117 1.0871918893471482 0 0 0 0.31 7 1660 37 190 149 778 150 107 212 32 
1667 0.1445119818267597 -0.1250470000606896 1.0594074236218425 0 0 0 0.24 7 1661 23 81 37 191 72 48 86 111 94 581 116 346 125 182 132 9 140 324 150 108 151 175 154 212 193 371 226 135 
1668 0.2689928105052399 -0.13454482176494922 1.1347377381678954 0 0 0 0.45 7 1662 94 582 116 347 151 176 205 170 211 94 216 283 
1669 -0.17072995388332238 -0.11734231899218978 1.007505428720293 0 0 0 0.43 7 1663 34 67 46 198 57 20 116 348 125 183 149 779 
1670 0.24611951401202764 -0.13250672409714795 1.1202176947063487 0 0 0 0.41 7 1664 37 192 72 49 94 583 140 325 151 177 210 251 218 105 226 136 
1671 0.20810763130816753 -0.12970590493361903 1.1097973156753198 0 0 0 0.23 7 1665 34 68 37 193 45 57 46 199 47 97 86 112 90 112 94 584 116 349 125 184 145 34 149 780 150 109 151 178 154 213 177 101 186 50 193 372 
1672 0.20801520983582064 -0.12982092701596767 1.1094327479845902 0 0 0 0.14 7 1666 34 69 46 200 57 21 86 113 116 350 149 781 151 179 177 102 186 51 216 284 
1673 0.02559416619817497 -0.1365417164507248 1.1900530649753722 0 0 0 0.18 7 1667 149 782 161 224 205 171 211 95 
1674 0.11491053964876582 -0.11791763588619025 1.0452778758477446 0 0 0 0.3 7 1668 149 783 211 96 
1675 0.11432992575362767 -0.11757747416568858 1.0405827004182786 0 0 0 0.45 7 1669 34 70 57 22 86 114 94 585 116 351 125 185 144 28 149 784 180 174 228 258 
1676 0.23961929451031277 -0.12716251777635737 1.1205696658877295 0 0 0 0.4 7 1670 18 161 34 71 37 194 47 98 86 115 122 345 125 186 140 326 149 785 150 110 151 180 161 225 166 118 211 97 
1677 -0.17069436911285243 -0.1124116182309796 1.005018684123345 0 0 0 0.68 7 1671 34 72 46 201 140 327 149 786 151 181 180 175 210 252 228 259 
1678 -0.2751902270523075 -0.08500248877029888 0.7717932821776619 0 0 0 0.39 7 1672 45 58 161 226 
1679 0.03819532192149956 -0.12821345416749153 1.1704576790164316 0 0 0 0.42 7 1673 18 162 166 119 210 253 
1680 0.18231891364727312 -0.11750628264824389 1.079633534158333 0 0 0 0.42 7 1674 30 146 34 73 45 59 47 99 59 16 94 586 116 352 122 346 125 187 140 328 144 29 149 787 150 111 151 182 173 57 180 176 211 98 215 11 
1681 0.027025947138288743 -0.1240003393762518 1.1797696040859633 0 0 0 0.37 7 1675 34 74 90 113 166 120 212 33 
1682 0.1624022272250542 -0.11439068504411981 1.0759290130697854 0 0 0 0.3 7 1676 30 147 45 60 46 202 90 114 94 587 116 353 149 788 150 112 151 183 154 214 166 121 186 52 193 373 205 172 210 254 211 99 
1683 0.22661724315612328 -0.11692104485575237 1.1149649835748816 0 0 0 0.51 7 1677 37 195 45 61 94 588 122 347 125 188 149 789 150 113 180 177 193 374 228 260 
1684 0.09214660734873117 -0.10980715949164996 1.0905181245269844 0 0 0 0.31 7 1678 18 163 34 75 37 196 45 62 46 203 47 100 59 17 86 116 90 115 94 589 116 354 125 189 131 3 139 40 149 790 151 184 154 215 166 122 180 178 186 53 202 9 210 255 211 100 216 285 228 261 
1685 0.09200314549956183 -0.109915089235146 1.089675905721411 0 0 0 0.39 7 1679 34 76 37 197 45 63 46 204 47 101 59 18 144 30 149 791 151 185 154 216 171 147 180 179 210 256 228 262 
1686 0.0965451796784025 -0.10712918077135213 1.080530218620645 0 0 0 0.39 7 1680 23 82 30 148 34 77 37 198 59 19 72 50 90 116 94 590 116 355 125 190 139 41 144 31 149 792 151 186 166 123 171 148 180 180 186 54 202 10 210 257 212 34 226 137 228 263 
1687 0.5298364497997298 -0.13377555815258949 1.374132024089051 0 0 0 0.33 7 1681 94 591 125 191 166 124 
1688 0.026749687114993998 -0.11231376544552722 1.1766909628143447 0 0 0 0.42 7 1682 37 199 161 227 166 125 205 173 211 101 228 264 
1689 0.11452791669696939 -0.09854846783010439 1.0338403452472351 0 0 0 0.28 7 1683 23 83 30 149 34 78 46 205 57 23 59 20 86 117 94 592 116 356 122 348 125 192 132 10 149 793 151 187 154 217 161 228 166 126 173 58 180 181 186 55 228 265 
1690 -0.2749482137305013 -0.07112566930087441 0.7670167037211798 0 0 0 0.24 7 1684 55 28 58 95 
1691 0.21428484553916388 -0.10345014858161748 1.1001096378500148 0 0 0 0.27 7 1685 140 329 149 794 151 188 161 229 228 266 
1692 0.1321817440308541 -0.09485765642423083 1.0312120020898636 0 0 0 0.31 7 1686 57 24 116 357 140 330 149 795 154 218 211 102 228 267 
1693 0.11248441935033521 -0.09348666506028477 1.0353272426143059 0 0 0 0.19 7 1687 46 206 94 593 116 358 149 796 154 219 166 127 186 56 211 103 
1694 0.1221284378914154 -0.09019952826573864 1.0268810552867769 0 0 0 0.46 7 1688 94 594 122 349 150 114 
1695 -0.4047091680832382 -0.08429635147677038 0.9831031384327512 0 0 0 0.69 7 1689 153 21 202 11 
1696 -0.06912924182860423 -0.09229492605793883 1.0631573830424512 0 0 0 0.1 7 1690 34 79 57 25 
1697 0.11481955615324992 -0.08984476855008433 1.0288378818228294 0 0 0 0.26 7 1691 125 193 149 797 151 189 154 220 166 128 211 104 
1698 0.1833498577310508 -0.09048061206977116 1.0705803865674672 0 0 0 0.16 7 1692 72 51 140 331 149 798 150 115 228 268 
1699 -0.0011840455119609245 -0.09192855919712918 1.1388907032468196 0 0 0 0.34 7 1693 34 80 193 375 202 12 
1700 0.060848223180739285 -0.09231224112406501 1.142898784497144 0 0 0 0.34 7 1694 46 207 57 26 59 21 90 117 116 359 125 194 144 32 154 221 166 129 171 149 189 10 212 35 225 0 228 269 
1701 -0.11864211995725685 -0.08116529116608018 1.0110590909400308 0 0 0 0.33 7 1695 51 1 125 195 151 190 228 270 
1702 0.14496342988931832 -0.08463542225588286 1.0438680441262296 0 0 0 0.34 7 1696 46 208 94 595 140 332 149 799 151 191 154 222 177 103 193 376 205 174 
1703 -0.2218812364934303 -0.07172715939649525 0.911978209139943 0 0 0 0.66 7 1697 149 800 228 271 
1704 -0.2823678146386948 -0.056662705911969306 0.7383897880061879 0 0 0 0.53 7 1698 151 192 161 230 216 286 
1705 -0.18329991259294795 -0.06844761624300871 0.9341951863020236 0 0 0 0.33 7 1699 58 96 125 196 149 801 151 193 154 223 211 105 228 272 
1706 -0.29235228493823834 -0.05325429548037838 0.7404318014143814 0 0 0 0.33 7 1700 34 81 46 209 57 27 183 100 186 57 
1707 0.12646696161351798 -0.0739009684129029 1.0207296882634422 0 0 0 0.25 7 1701 23 84 34 82 45 64 90 118 94 596 116 360 125 197 132 11 140 333 149 802 150 116 151 194 154 224 166 130 193 377 228 273 
1708 -0.11819157119356648 -0.07105778041638319 1.0032907342562158 0 0 0 0.29 7 1702 55 29 58 97 149 803 161 231 205 175 
1709 0.09914092305197916 -0.07579184600384853 1.0657925087293194 0 0 0 0.13 7 1703 59 22 212 36 
1710 0.11677938029989422 -0.07191206578233518 1.0217315775452158 0 0 0 0.28 7 1704 18 164 23 85 30 150 116 361 125 198 139 42 145 35 149 804 151 195 154 225 161 232 171 150 173 59 205 176 211 106 228 274 
1711 0.2214128023649867 -0.07768465408218002 1.094049306642232 0 0 0 0.45 7 1705 55 30 94 597 140 334 149 805 150 117 151 196 173 60 193 378 210 258 215 12 226 138 228 275 
1712 0.11012903919967001 -0.07000170031516678 1.0336288417364239 0 0 0 0.35 7 1706 30 151 34 83 46 210 149 806 150 118 151 197 154 226 161 233 186 58 205 177 211 107 216 287 228 276 
1713 0.21689164485491672 -0.07374614809951816 1.0942305772834218 0 0 0 0.32 7 1707 45 65 46 211 47 102 86 118 94 598 125 199 149 807 151 198 161 234 166 131 183 101 205 178 212 37 228 277 
1714 0.17323498000047655 -0.06962040721468005 1.0640168951020295 0 0 0 0.32 7 1708 23 86 37 200 46 212 47 103 59 23 94 599 116 362 122 350 125 200 149 808 151 199 193 379 202 13 226 139 228 278 
1715 -0.08360055480329162 -0.06574373569475157 1.02649907557899 0 0 0 0.36 7 1709 125 201 149 809 153 22 
1716 -0.0432457950772898 -0.06389682792105536 1.0572579023391053 0 0 0 0.32 7 1710 18 165 125 202 
1717 0.21768463433362234 -0.06586154524071249 1.0927147484708286 0 0 0 0.4 7 1711 30 152 37 201 46 213 47 104 90 119 119 6 125 203 137 2 139 43 140 335 149 810 150 119 151 200 161 235 183 102 193 380 205 179 211 108 216 288 226 140 
1718 0.04887612349901143 -0.06577488989078802 1.1403184056855487 0 0 0 0.3 7 1712 139 44 166 132 
1719 -0.04958409749464748 -0.059750527341691506 1.0505941616795855 0 0 0 0.13 7 1713 151 201 228 279 
1720 0.09484569621434129 -0.061129035993304374 1.0687871238928022 0 0 0 0.3 7 1714 18 166 37 202 57 28 59 24 90 120 94 600 102 21 116 363 125 204 140 336 145 36 149 811 154 227 166 133 186 59 193 381 211 109 216 289 228 280 
1721 1.6607094084188386e-05 -0.05949651083607375 1.083399469755639 0 0 0 0.27 7 1715 145 37 193 382 228 281 
1722 -0.2769794186645365 -0.03708695903938574 0.7337443638372355 0 0 0 0.38 7 1716 46 214 171 151 
1723 0.09522188398751794 -0.054884043099467296 1.062975806640703 0 0 0 0.36 7 1717 30 153 59 25 86 119 90 121 139 45 151 202 186 60 228 282 
1724 -0.25815411398111987 -0.03756054775095488 0.7587880299313865 0 0 0 0.28 7 1718 45 66 161 236 
1725 0.21699601155474543 -0.05264688970690582 1.086176654260397 0 0 0 0.37 7 1719 34 84 46 215 47 105 57 29 90 122 94 601 125 205 140 337 145 38 149 812 150 120 151 203 154 228 161 237 166 134 193 383 218 106 226 141 
1726 0.5306898892990173 -0.06351705283371277 1.3397485559929447 0 0 0 0.49 7 1720 18 167 34 85 171 152 
1727 0.2169856578830333 -0.047741795064999766 1.084180320501114 0 0 0 0.33 7 1721 30 154 34 86 46 216 47 106 90 123 94 602 116 364 125 206 140 338 149 813 150 121 151 204 161 238 166 135 177 104 191 7 193 384 212 38 216 290 218 107 226 142 228 283 
1728 0.13134155190961494 -0.04346048619828321 1.0070532601998798 0 0 0 0.18 7 1722 94 603 116 365 140 339 145 39 149 814 193 385 216 291 228 284 
1729 0.5318226780793294 -0.05267815441337796 1.3309862095846363 0 0 0 1.2 7 1723 45 67 151 205 
1730 0.1474004071672109 -0.03923415900211743 1.0242788212710014 0 0 0 0.37 7 1724 23 87 30 155 37 203 45 68 46 217 59 26 86 120 90 124 94 604 116 366 119 7 122 351 139 46 149 815 150 122 151 206 154 229 161 239 166 136 173 61 177 105 180 182 186 61 193 386 211 110 226 143 228 285 
1731 -0.23199442827672678 -0.02606255013862505 0.8036462312727863 0 0 0 0.35 7 1725 57 30 116 367 
1732 0.12757191288606567 -0.03339540678014634 1.0034968846943073 0 0 0 0.24 7 1726 86 121 154 230 211 111 
1733 0.20910296280462023 -0.03571633847922882 1.0622960839654627 0 0 0 0.29 7 1727 139 47 205 180 
1734 -0.27081677187549263 -0.023021914249655807 0.7337305705994105 0 0 0 0.54 7 1728 74 12 154 231 193 387 216 292 
1735 -0.27094456608424494 -0.023059253940960533 0.7339119331646611 0 0 0 0.61 7 1729 74 13 193 388 216 293 
1736 0.1453426519373742 -0.03295055764362266 1.0227084775106825 0 0 0 0.32 7 1730 37 204 125 207 139 48 149 816 150 123 177 106 211 112 228 286 
1737 0.19294291517320705 -0.031713006627808384 1.0441141410446713 0 0 0 0.26 7 1731 149 817 233 478 
1738 0.13206199206955924 -0.02974226883582608 1.0049416355601437 0 0 0 0.34 7 1732 86 122 140 340 151 207 211 113 
1739 0.16910557911636978 -0.029066394395793168 1.0392540150190153 0 0 0 0.46 7 1733 37 205 90 125 149 818 228 287 233 479 
1740 -0.2349102105171439 -0.020844430927534525 0.7980124922065079 0 0 0 0.13 7 1734 116 368 125 208 
1741 -0.2745000465864528 -0.017155172955072028 0.7349556800719721 0 0 0 0.35 7 1735 18 168 94 605 154 232 171 153 193 389 228 288 
1742 -0.26545129684990243 -0.0174455660246136 0.7391879276353357 0 0 0 0.27 7 1736 161 240 171 154 216 294 
1743 0.1189274884075956 -0.024368507426942063 0.9990355490568797 0 0 0 0.38 7 1737 30 156 139 49 144 33 
1744 0.18378801874869452 -0.0254268063765494 1.0415413245107406 0 0 0 0.19 7 1738 94 606 149 819 150 124 193 390 210 259 233 480 
1745 0.526528470836104 -0.02968750348342848 1.3248827185296572 0 0 0 0.41 7 1739 90 126 116 369 125 209 139 50 151 208 166 137 
1746 0.1452267827163292 -0.019044460520844294 1.0166178273142947 0 0 0 0.37 7 1740 30 157 34 87 37 206 45 69 46 218 72 52 90 127 94 607 116 370 122 352 125 210 132 12 140 341 145 40 149 820 150 125 151 209 154 233 161 241 177 107 183 103 186 62 193 391 205 181 210 260 211 114 216 295 226 144 228 289 233 481 
1747 -0.3013285240136663 -0.01152496299940946 0.7288538625914086 0 0 0 0.38 7 1741 18 169 37 207 46 219 51 2 58 98 86 123 139 51 143 15 171 155 180 183 183 104 218 108 
1748 -0.27471017095627753 -0.010161138567183639 0.7334065762162981 0 0 0 0.44 7 1742 18 170 34 88 57 31 58 99 116 371 145 41 151 210 171 156 180 184 183 105 193 392 216 296 
1749 0.3698816057910181 -0.020905274996072316 1.3825944068597056 0 0 0 0.72 7 1743 45 70 59 27 144 34 228 290 
1750 0.20800578993142577 -0.015889459690878023 1.0610035645843254 0 0 0 0.25 7 1744 161 242 233 482 
1751 0.5115618022970699 -0.01782498423823797 1.2936008991311392 0 0 0 0.36 7 1745 94 608 116 372 
1752 0.14549018982183431 -0.01083026386353925 1.0124505831496213 0 0 0 0.24 7 1746 23 88 30 158 34 89 55 31 72 53 150 126 161 243 177 108 180 185 205 182 210 261 218 109 228 291 
1753 0.24029887579299916 -0.01088741410716501 1.0781087999793035 0 0 0 0.29 7 1747 144 35 166 138 211 115 218 110 233 483 
1754 0.09997554113061456 -0.008633938440838086 1.0349246948834137 0 0 0 0.24 7 1748 125 211 166 139 210 262 211 116 228 292 
1755 0.22818332173508754 -0.006971867270616541 1.070977328997234 0 0 0 0.43 7 1749 30 159 34 90 47 107 94 609 116 373 122 353 125 212 139 52 140 342 149 821 150 127 151 211 154 234 166 140 183 106 193 393 211 117 216 297 228 293 233 484 
1756 0.21698175078846046 -0.006516995262243797 1.0614918176536996 0 0 0 0.28 7 1750 139 53 143 16 
1757 -0.12584083939898158 -0.004100354230609924 0.8667830683198879 0 0 0 0.45 7 1751 18 171 30 160 102 22 150 128 
1758 -0.12921318639643348 -0.003103891062887105 0.8648425384876554 0 0 0 0.26 7 1752 18 172 149 822 
1759 -0.20059813200507895 0.000701837699643214 0.8115083837502659 0 0 0 0.2 7 1753 58 100 94 610 116 374 125 213 
1760 0.5312543078777248 0.002121136037716813 1.2969195880859898 0 0 0 0.38 7 1754 45 71 140 343 149 823 151 212 177 109 216 298 
1761 0.171580194323921 0.0024538761263935057 1.0314024908373116 0 0 0 0.54 7 1755 125 214 151 213 193 394 
1762 0.09558362608092674 0.005142118184087308 1.0393593891261534 0 0 0 0.36 7 1756 18 173 94 611 125 215 
1763 0.09565689106196486 0.005474000136833389 1.041949913908422 0 0 0 0.17 7 1757 125 216 189 11 
1764 -0.024115880088119348 0.00568848370861469 0.9765626727932427 0 0 0 0.34 7 1758 94 612 125 217 186 63 
1765 0.07845967615411167 0.008833906065490688 1.0692620031768652 0 0 0 0.14 7 1759 149 824 228 294 
1766 0.5222354546418531 0.011584819775191189 1.2928150189188898 0 0 0 0.44 7 1760 37 208 45 72 46 220 59 28 90 128 99 260 149 825 166 141 180 186 
1767 -0.19080599520188554 0.01158524893474689 0.8083682280105949 0 0 0 0.49 7 1761 116 375 149 826 154 235 
1768 -0.06913698046246126 0.012416373982084035 0.8999119921347344 0 0 0 0.32 7 1762 30 161 58 101 94 613 116 376 233 485 
1769 -0.061850298775478166 0.012592368935021362 0.9040499214495311 0 0 0 0.43 7 1763 30 162 58 102 116 377 
1770 0.03202205399392904 0.015771831482053314 1.0099980589086333 0 0 0 0.38 7 1764 46 221 153 23 
1771 -0.28283902224476287 0.012604785413141714 0.7132074748781273 0 0 0 0.23 7 1765 45 73 116 378 
1772 -0.05531426534094244 0.01604490330427349 0.907627835021833 0 0 0 0.27 7 1766 55 32 58 103 140 344 228 295 233 486 
1773 0.13196196776932137 0.018005987703201217 0.9828887252675153 0 0 0 0.2 7 1767 140 345 216 299 
1774 0.4199577948243373 0.02552631274263264 1.3463476973844577 0 0 0 0.41 7 1768 116 379 125 218 193 395 
1775 0.11271312207438944 0.019640928854717004 0.988006524385061 0 0 0 0.16 7 1769 46 222 57 32 119 8 125 219 140 346 149 827 183 107 186 64 193 396 233 487 
1776 0.1126824535504626 0.019538421062153116 0.9871009791670289 0 0 0 0.23 7 1770 57 33 94 614 116 380 125 220 149 828 166 142 215 13 
1777 0.21712014450748007 0.021104776521184525 1.055859235159775 0 0 0 0.45 7 1771 30 163 47 108 55 33 86 124 94 615 122 354 125 221 140 347 150 129 151 214 193 397 205 183 211 118 216 300 228 296 233 488 
1778 -0.24285022038879223 0.01699992907020883 0.7811313952215655 0 0 0 0.46 7 1772 37 209 46 223 116 381 139 54 151 215 166 143 193 398 211 119 
1779 -0.17990847699803972 0.01792954631004403 0.8247544410844815 0 0 0 0.54 7 1773 116 382 149 829 193 399 
1780 0.14494276110199994 0.020832121386517556 0.9977698704123136 0 0 0 0.24 7 1774 37 210 46 224 151 216 154 236 180 187 183 108 193 400 228 297 233 489 
1781 -0.12670302160628444 0.018804197964170974 0.8573787170721423 0 0 0 0.11 7 1775 30 164 216 301 
1782 -0.030061109938176567 0.020227942799745255 0.9251646426832322 0 0 0 0.18 7 1776 58 104 94 616 116 383 125 222 166 144 177 110 218 111 233 490 
1783 -0.0299334530609299 0.020172401414009646 0.9254619032675525 0 0 0 0.15 7 1777 116 384 166 145 228 298 
1784 -0.2140746099744931 0.01975123368773849 0.7957075355219569 0 0 0 0.14 7 1778 125 223 161 244 166 146 180 188 205 184 
1785 -0.01636880973190948 0.023597670126997112 0.9333300107331605 0 0 0 0.43 7 1779 18 174 116 385 
1786 -0.11217994297567241 0.02197552012352946 0.8648347076937628 0 0 0 0.15 7 1780 58 105 150 130 216 302 
1787 0.21432345622109086 0.02491172674406734 1.0423239161942546 0 0 0 0.9 7 1781 47 109 150 131 151 217 193 401 233 491 
1788 -0.005956678826401546 0.025793225853401314 0.9369049989749919 0 0 0 0.17 7 1782 125 224 183 109 
1789 -0.08257396117281585 0.02491360368725221 0.8773461038242433 0 0 0 0.19 7 1783 30 165 233 492 
1790 0.5286479693603007 0.0369696541106151 1.2832448093075928 0 0 0 0.1 7 1784 122 355 137 3 
1791 0.09672726995981897 0.03142418641084389 1.026132836887596 0 0 0 0.18 7 1785 86 125 102 23 116 386 137 4 151 218 216 303 228 299 
1792 0.21646015376819328 0.031886226984536914 1.046876744735419 0 0 0 0.69 7 1786 46 225 94 617 151 219 233 493 
1793 0.026756797067169488 0.03008260149610532 0.9571201250375603 0 0 0 0.1 7 1787 30 166 125 225 149 830 
1794 -0.2365984838642865 0.026171675324122585 0.7776154736930003 0 0 0 0.28 7 1788 18 175 37 211 171 157 
1795 -0.0775144441975292 0.030965148571895376 0.8908712538895285 0 0 0 0.4 7 1789 94 618 116 387 233 494 
1796 -0.22265878524821034 0.029028969456603496 0.7925943239529353 0 0 0 0.42 7 1790 45 74 46 226 
1797 -0.05509930241182126 0.03217183307925775 0.9041468952736167 0 0 0 0.14 7 1791 57 34 58 106 116 388 149 831 177 111 
1798 -0.10582080343490549 0.03199331215990119 0.8699392231771282 0 0 0 0.26 7 1792 34 91 37 212 46 227 116 389 151 220 228 300 
1799 0.465341219295595 0.049255594099432566 1.349376618611657 0 0 0 0.17 7 1793 116 390 125 226 151 221 228 301 
1800 0.03661805482993641 0.03658415284684642 0.9627278171054752 0 0 0 0.48 7 1794 30 167 34 92 46 228 55 34 57 35 58 107 94 619 99 261 116 391 150 132 151 222 154 237 161 245 193 402 205 185 211 120 216 304 228 302 
1801 -0.03723729852114469 0.036511043510651535 0.9139016251575346 0 0 0 0.23 7 1795 30 168 58 108 94 620 116 392 125 227 
1802 -0.16877581261561736 0.034251308682217256 0.8232583707697878 0 0 0 0.49 7 1796 37 213 58 109 72 54 74 14 149 832 
1803 0.12634511109520255 0.03987250416534336 0.973385149695581 0 0 0 0.22 7 1797 18 176 34 93 55 35 94 621 102 24 116 393 125 228 131 4 139 55 140 348 144 36 149 833 151 223 161 246 177 112 183 110 193 403 205 186 211 121 215 14 216 305 218 112 228 303 233 495 
1804 -0.023350407524930776 0.03957064325311205 0.9209146862788857 0 0 0 0.2 7 1798 23 89 46 229 140 349 149 834 
1805 -0.02341622155350965 0.03963997624372605 0.9203674324591018 0 0 0 0.15 7 1799 23 90 58 110 216 306 
1806 0.044196928702498764 0.04133443046681299 0.9674208316104044 0 0 0 0.38 7 1800 57 36 177 113 218 113 233 496 
1807 -0.016328283178707527 0.04073371776461137 0.9256833936915552 0 0 0 0.14 7 1801 216 307 228 304 
1808 -0.016295262925136673 0.04077755795939491 0.9264087191244 0 0 0 0.21 7 1802 30 169 211 122 216 308 228 305 
1809 0.058366331599968464 0.04350778897031748 0.9771881304011727 0 0 0 0.31 7 1803 30 170 90 129 99 262 216 309 228 306 
1810 0.05801238652285109 0.0434976990512925 0.9749798829635306 0 0 0 0.42 7 1804 99 263 125 229 205 187 228 307 
1811 0.13078771113814536 0.04404605364082403 0.9730539356601006 0 0 0 0.28 7 1805 18 177 34 94 55 36 86 126 90 130 94 622 116 394 139 56 140 350 144 37 145 42 149 835 151 224 154 238 161 247 166 147 177 114 183 111 193 404 211 123 216 310 218 114 233 497 
1812 0.13035535622898076 0.04396654342562041 0.9718805953863134 0 0 0 0.22 7 1806 30 171 140 351 154 239 183 112 186 65 193 405 211 124 233 498 
1813 0.11407443071520726 0.04533770608626575 0.9778430116892548 0 0 0 0.21 7 1807 55 37 116 395 144 38 149 836 151 225 
1814 0.08661066597262151 0.047023524128248596 0.9917536455316602 0 0 0 0.25 7 1808 140 352 149 837 151 226 186 66 216 311 228 308 
1815 -0.09715326458514578 0.041754911279064895 0.8708972897577939 0 0 0 0.3 7 1809 22 25 37 214 46 230 94 623 140 353 151 227 210 263 228 309 
1816 0.10030731670481649 0.04776179992250592 1.0003879737051216 0 0 0 0.16 7 1810 34 95 55 38 86 127 94 624 177 115 180 189 211 125 228 310 
1817 0.09948847282371294 0.04720847258629856 0.9966250215490874 0 0 0 0.35 7 1811 23 91 30 172 47 110 55 39 86 128 116 396 125 230 139 57 140 354 151 228 154 240 166 148 173 62 186 67 205 188 216 312 228 311 
1818 -0.28421213620121644 0.03537104386550291 0.7009107327795163 0 0 0 0.42 7 1812 58 111 94 625 116 397 161 248 183 113 
1819 -0.2821695623204095 0.03546364124316574 0.7026575482146707 0 0 0 0.4 7 1813 94 626 161 249 171 158 193 406 216 313 
1820 0.5083987683442746 0.06361230485493749 1.2828706841001265 0 0 0 0.52 7 1814 144 39 151 229 173 63 233 499 
1821 -0.12653093745920507 0.042935890681651386 0.8492794120017556 0 0 0 0.33 7 1815 58 112 86 129 116 398 149 838 154 241 210 264 
1822 0.012300083757435073 0.047672039284994625 0.9449732408932949 0 0 0 0.09 7 1816 37 215 205 189 
1823 -0.08359338183611208 0.045106482661315776 0.8766455759262979 0 0 0 0.21 7 1817 149 839 233 500 
1824 -0.006891006026475512 0.0471601553897511 0.9265266937253429 0 0 0 0.42 7 1818 58 113 116 399 233 501 
1825 0.019380577267084573 0.04962599493593859 0.9488670223162143 0 0 0 0.21 7 1819 58 114 94 627 116 400 125 231 140 355 149 840 150 133 151 230 154 242 193 407 205 190 233 502 
1826 0.08671294546791805 0.051768285201271996 0.9953412845737702 0 0 0 0.32 7 1820 140 356 177 116 183 114 193 408 228 312 
1827 0.0900974159681667 0.051572091706558444 0.9899165694169119 0 0 0 0.11 7 1821 34 96 119 9 
1828 0.03674407715144562 0.05031544868762701 0.9586790526423761 0 0 0 0.22 7 1822 34 97 45 75 
1829 0.0026706998852671963 0.05015764276460979 0.9371666652628925 0 0 0 0.44 7 1823 30 173 57 37 116 401 149 841 151 231 211 126 
1830 0.0797418613644663 0.05460359467373761 0.9868651938591096 0 0 0 0.33 7 1824 90 131 94 628 116 402 125 232 149 842 151 232 154 243 166 149 177 117 218 115 228 313 233 503 
1831 -0.2909352851589729 0.04020165664322763 0.7014911777471194 0 0 0 0.36 7 1825 58 115 119 10 139 58 211 127 
1832 0.01688062558874246 0.053118117218149026 0.9441464595460927 0 0 0 0.5 7 1826 23 92 59 29 99 264 149 843 173 64 180 190 218 116 
1833 0.09394154839184517 0.056935026466668794 0.9957685065295829 0 0 0 0.18 7 1827 46 231 94 629 166 150 
1834 -0.03132050412852671 0.053250596775441195 0.9152215277801907 0 0 0 0.23 7 1828 46 232 131 5 228 314 233 504 
1835 -0.09041179510331981 0.05183457861344677 0.8688358882956118 0 0 0 0.36 7 1829 23 93 34 98 37 216 46 233 140 357 150 134 154 244 161 250 211 128 218 117 228 315 
1836 0.1719981488657195 0.059453454083066445 1.0020416812489508 0 0 0 0.74 7 1830 139 59 149 844 154 245 
1837 -0.05054084895007194 0.05446384532963515 0.8948644904111388 0 0 0 0.36 7 1831 125 233 132 13 143 17 
1838 0.11956967333328927 0.058775456477252505 0.9661876780594167 0 0 0 0.4 7 1832 94 630 116 403 125 234 140 358 149 845 173 65 177 118 193 409 215 15 218 118 228 316 
1839 -0.06536206721947736 0.05555678205828572 0.8849763083190426 0 0 0 0.32 7 1833 46 234 125 235 140 359 183 115 210 265 
1840 -0.03249067083913975 0.058683302370277676 0.9117531885728744 0 0 0 0.48 7 1834 37 217 55 40 139 60 140 360 177 119 210 266 
1841 0.5276870193357853 0.08348059209915944 1.258520490093606 0 0 0 0.31 7 1835 46 235 86 130 90 132 122 356 125 236 151 233 193 410 228 317 233 505 
1842 0.5430091471763464 0.08501132824583855 1.2616090922182126 0 0 0 0.33 7 1836 122 357 125 237 143 18 150 135 151 234 228 318 233 506 
1843 0.5410970237760951 0.08432957553283663 1.2562474237839327 0 0 0 0.25 7 1837 46 236 228 319 
1844 0.17389647559527951 0.06917804515149978 1.0060613024959273 0 0 0 0.31 7 1838 37 218 45 76 46 237 86 131 94 631 116 404 149 846 151 235 183 116 193 411 211 129 216 314 218 119 226 145 228 320 233 507 
1845 -0.30791537950535 0.05038080271627992 0.7031680039746305 0 0 0 0.18 7 1839 151 236 154 246 
1846 -0.12614559643075995 0.05943403844145869 0.8416885300979896 0 0 0 0.13 7 1840 57 38 191 8 
1847 0.5046055820657454 0.0889972007562644 1.2624901821083823 0 0 0 0.2 7 1841 55 41 57 39 151 237 186 68 
1848 0.022700231403402372 0.06718811260276303 0.9435869962251316 0 0 0 0.22 7 1842 154 247 180 191 193 412 211 130 228 321 
1849 0.022608828437478697 0.06683348903059495 0.9414328970045925 0 0 0 0.23 7 1843 57 40 94 632 154 248 211 131 228 322 
1850 0.3032305940235832 0.08287427109935082 1.150714428372658 0 0 0 0.44 7 1844 46 238 150 136 216 315 
1851 0.15047451978205198 0.0711322953380739 0.9791678083696663 0 0 0 0.19 7 1845 37 219 94 633 116 405 
1852 0.15131113816426767 0.07159881502234659 0.982957604864954 0 0 0 0.31 7 1846 30 174 37 220 45 77 72 55 94 634 116 406 125 238 
1853 0.5320100734859685 0.09315394272549347 1.2554543508110148 0 0 0 0.38 7 1847 37 221 46 239 86 132 94 635 99 265 122 358 143 19 149 847 166 151 228 323 
1854 0.15672069719639906 0.07365776677161008 0.9870643273146763 0 0 0 0.4 7 1848 34 99 86 133 139 61 151 238 180 192 186 69 
1855 0.15686526409442766 0.07373865610770228 0.9877973291424543 0 0 0 0.32 7 1849 30 175 34 100 45 78 47 111 57 41 86 134 94 636 116 407 139 62 140 361 149 848 151 239 193 413 205 191 211 132 216 316 233 508 
1856 0.031744063527845166 0.07120422752255558 0.9410708631561371 0 0 0 0.2 7 1850 58 116 149 849 228 324 233 509 
1857 0.5132169850498068 0.0943814878336822 1.2571672155430007 0 0 0 0.23 7 1851 34 101 37 222 46 240 55 42 57 42 94 637 125 239 140 362 144 40 150 137 186 70 193 414 216 317 233 510 
1858 -0.14116544599608077 0.06550148915334772 0.838368192294157 0 0 0 0.52 7 1852 45 79 149 850 233 511 
1859 0.34694157244715884 0.09109137140179607 1.179037703944347 0 0 0 0.24 7 1853 139 63 140 363 145 43 
1860 0.34800647400919593 0.09147737531262312 1.1819173804824132 0 0 0 0.31 7 1854 116 408 125 240 139 64 140 364 211 133 216 318 
1861 0.06500911018197533 0.07493957757112729 0.96995368380782 0 0 0 0.17 7 1855 154 249 177 120 
1862 0.18364425446918453 0.07795278987378287 1.0008628415703478 0 0 0 0.32 7 1856 23 94 37 223 45 80 72 56 94 638 125 241 144 41 145 44 154 250 173 66 180 193 193 415 202 14 212 39 228 325 
1863 -0.07801983684829496 0.06916069758440929 0.8743190442470756 0 0 0 0.49 7 1857 149 851 233 512 
1864 0.15544840058664763 0.07714820051089906 0.9840215093575408 0 0 0 0.29 7 1858 23 95 30 176 37 224 45 81 47 112 86 135 94 639 140 365 149 852 154 251 193 416 205 192 218 120 233 513 
1865 0.15541193693317265 0.07710621282725041 0.9836302669729368 0 0 0 0.26 7 1859 23 96 30 177 45 82 46 241 47 113 57 43 72 57 140 366 149 853 154 252 193 417 205 193 216 319 226 146 233 514 
1866 -0.18723840093459165 0.06399844056499544 0.7851410357824481 0 0 0 0.25 7 1860 34 102 37 225 57 44 58 117 72 58 94 640 116 409 139 65 145 45 149 854 151 240 171 159 183 117 216 320 226 147 
1867 -0.07464089904027191 0.07243782533214323 0.8773523881991309 0 0 0 0.34 7 1861 37 226 58 118 132 14 205 194 
1868 -0.19467087095694052 0.0650230196349619 0.7783607549746827 0 0 0 0.31 7 1862 34 103 57 45 72 59 94 641 145 46 149 855 151 241 161 251 166 152 216 321 228 326 
1869 0.15477942335377606 0.08118261597058188 0.9841649128122871 0 0 0 0.26 7 1863 30 178 37 227 47 114 86 136 94 642 116 410 125 242 140 367 149 856 151 242 166 153 180 194 193 418 205 195 228 327 233 515 
1870 0.19381081267576092 0.08246235986330501 1.0007614056231142 0 0 0 0.25 7 1864 46 242 116 411 216 322 226 148 
1871 -0.11388174937889177 0.07068669678191435 0.839758633062552 0 0 0 0.19 7 1865 161 252 233 516 
1872 -0.1845503363361971 0.06654168556373387 0.7883450400153657 0 0 0 0.33 7 1866 149 857 216 323 
1873 0.06133944739781348 0.08215679409675931 0.9705270908883522 0 0 0 0.62 7 1867 154 253 183 118 
1874 0.16768756546176833 0.08370447383579147 0.9902262776937889 0 0 0 0.35 7 1868 23 97 47 115 94 643 140 368 149 858 154 254 173 67 193 419 205 196 
1875 0.19129164130401374 0.0870228698114658 0.9969355524997385 0 0 0 0.28 7 1869 125 243 149 859 228 328 233 517 
1876 -0.19500966158778227 0.06931803654000915 0.7775169620487395 0 0 0 0.47 7 1870 48 0 149 860 
1877 -0.12026432779120567 0.07625745373001158 0.8299529843896303 0 0 0 0.27 7 1871 23 98 37 228 45 83 46 243 51 3 55 43 57 46 58 119 94 644 116 412 140 369 149 861 150 138 151 243 154 255 161 253 166 154 171 160 180 195 183 119 193 420 205 197 210 267 212 40 216 324 218 121 226 149 228 329 
1878 -0.0002238803328887081 0.08723128252311045 0.9276009310721293 0 0 0 0.23 7 1872 151 244 205 198 233 518 
1879 -0.09310205626369719 0.08453397066035707 0.8612286764353789 0 0 0 0.45 7 1873 30 179 140 370 149 862 193 421 205 199 210 268 233 519 
1880 0.12410275632206291 0.09237794797869976 0.9517915003451686 0 0 0 0.24 7 1874 94 645 116 413 125 244 149 863 154 256 216 325 
1881 0.12350342498999607 0.09203928924384099 0.9488486402424807 0 0 0 0.38 7 1875 34 104 46 244 94 646 125 245 149 864 154 257 171 161 177 121 183 120 193 422 
1882 -0.04474098365987181 0.08604202226157052 0.875969565966501 0 0 0 0.21 7 1876 34 105 37 229 99 266 116 414 149 865 210 269 216 326 233 520 
1883 -0.04477836837355247 0.08600324531013144 0.876074690820105 0 0 0 0.15 7 1877 140 371 149 866 161 254 177 122 183 121 193 423 233 521 
1884 0.10611874620732559 0.09508226664920932 0.9747304320052681 0 0 0 0.36 7 1878 30 180 94 647 125 246 139 66 151 245 154 258 161 255 193 424 205 200 211 134 228 330 
1885 -0.048205803148212156 0.08645842839308365 0.8767923976020746 0 0 0 0.21 7 1879 37 230 86 137 99 267 116 415 125 247 149 867 210 270 216 327 228 331 
1886 -0.04820174820435039 0.0864582346770889 0.8764813045535458 0 0 0 0.19 7 1880 57 47 72 60 99 268 116 416 149 868 154 259 161 256 210 271 226 150 
1887 0.22304625496259606 0.10205847194952507 1.022828106588335 0 0 0 0.4 7 1881 18 178 34 106 47 116 99 269 102 25 122 359 139 67 140 372 149 869 150 139 151 246 180 196 193 425 210 272 211 135 228 332 233 522 
1888 0.5120497084583329 0.1275060242648808 1.250028600440969 0 0 0 0.27 7 1882 122 360 149 870 151 247 180 197 228 333 
1889 0.11089160070603202 0.09817093157299926 0.9538463309502302 0 0 0 0.44 7 1883 23 99 34 107 55 44 125 248 183 122 193 426 216 328 228 334 233 523 
1890 -0.054721083341326686 0.09251558523153915 0.8822902859095044 0 0 0 0.42 7 1884 161 257 233 524 
1891 0.42612384603025016 0.12447679218746747 1.1921690319576803 0 0 0 0.18 7 1885 99 270 149 871 
1892 0.28691369895952235 0.11749200125644184 1.1022203968425874 0 0 0 0.29 7 1886 30 181 46 245 55 45 125 249 140 373 151 248 211 136 216 329 233 525 
1893 0.2927125258491905 0.11880124203123779 1.1050450139537564 0 0 0 0.34 7 1887 37 231 45 84 186 71 193 427 211 137 216 330 226 151 
1894 -0.1232914695872989 0.08926547042128509 0.8239819457482975 0 0 0 0.4 7 1888 58 120 149 872 166 155 183 123 210 273 228 335 
1895 -0.28425221293620556 0.07591800030161162 0.6887219675629207 0 0 0 0.23 7 1889 74 15 216 331 
1896 -0.01901508182630154 0.09889572892417453 0.9080679367781863 0 0 0 0.32 7 1890 30 182 72 61 99 271 116 417 125 250 140 374 149 873 171 162 191 9 193 428 205 201 211 138 218 122 228 336 233 526 
1897 0.5119073815371233 0.1369654647911265 1.2366411199406502 0 0 0 0.33 7 1891 34 108 37 232 94 648 125 251 144 42 150 140 173 68 193 429 211 139 228 337 
1898 0.3152446749141017 0.12417863693243404 1.1183357960293183 0 0 0 0.16 7 1892 99 272 154 260 211 140 233 527 
1899 -0.23076503055255732 0.08549104736773896 0.7573957499244083 0 0 0 0.18 7 1893 37 233 46 246 58 121 74 16 94 649 116 418 166 156 180 198 186 72 189 12 193 430 
1900 0.20704632698157735 0.11157895561309351 1.005234941133644 0 0 0 0.49 7 1894 47 117 139 68 149 874 150 141 193 431 216 332 228 338 
1901 0.25807442533184766 0.11671301201440949 1.0360410605629073 0 0 0 0.83 7 1895 99 273 149 875 186 73 233 528 
1902 0.4421551462937396 0.1352212186959574 1.193535480008993 0 0 0 0.43 7 1896 37 234 86 138 94 650 125 252 149 876 154 261 216 333 
1903 0.5394537181338642 0.13898206795028167 1.2262104435281695 0 0 0 0.26 7 1897 23 100 34 109 37 235 86 139 119 11 122 361 125 253 140 375 149 877 151 249 166 157 177 123 191 10 193 432 212 41 218 123 
1904 0.22352608544669095 0.11534733670374711 1.01617593582646 0 0 0 0.37 7 1898 23 101 34 110 37 236 46 247 47 118 57 48 86 140 90 133 94 651 99 274 116 419 119 12 122 362 125 254 140 376 144 43 145 47 149 878 150 142 154 262 161 258 166 158 173 69 177 124 180 199 191 11 193 433 205 202 211 141 212 42 218 124 228 339 233 529 
1905 0.22351317611977684 0.11544710603040521 1.015929962507365 0 0 0 0.33 7 1899 23 102 34 111 37 237 46 248 47 119 55 46 72 62 90 134 94 652 99 275 102 26 116 420 119 13 122 363 125 255 140 377 149 879 150 143 154 263 161 259 166 159 173 70 177 125 180 200 193 434 205 203 210 274 211 142 216 334 218 125 226 152 228 340 233 530 
1906 -0.2537608425647861 0.08587590764457083 0.7428786390370702 0 0 0 0.13 7 1900 37 238 94 653 116 421 
1907 -0.06922707536266422 0.10082867242612438 0.8743339684723802 0 0 0 0.11 7 1901 149 880 161 260 233 531 
1908 -0.0689993439537649 0.10045497349829725 0.8702636516929337 0 0 0 0.25 7 1902 30 183 161 261 205 204 233 532 
1909 -0.019236422541709305 0.1040338756113845 0.9056974874925037 0 0 0 0.23 7 1903 23 103 37 239 58 122 86 141 99 276 116 422 125 256 140 378 149 881 161 262 193 435 216 335 228 341 233 533 
1910 -0.2810671056907083 0.08064625942195339 0.688350351435598 0 0 0 0.19 7 1904 74 17 171 163 
1911 -0.193831146888091 0.09179044617422778 0.7738108587206375 0 0 0 0.21 7 1905 37 240 46 249 48 1 51 4 58 123 72 63 86 142 94 654 102 27 119 14 125 257 131 6 143 20 144 44 149 882 151 250 166 160 171 164 178 2 189 13 193 436 202 15 211 143 212 43 216 336 218 126 226 153 228 342 
1912 0.5057356434892452 0.14426893040668284 1.2297675792451808 0 0 0 0.24 7 1906 23 104 46 250 86 143 94 655 99 277 102 28 122 364 125 258 139 69 140 379 149 883 151 251 186 74 193 437 216 337 228 343 233 534 
1913 0.36558938187666845 0.13551985193683658 1.1471543628109986 0 0 0 0.23 7 1907 94 656 125 259 211 144 218 127 228 344 
1914 -0.28258566249233563 0.08284686096350022 0.6867994008780641 0 0 0 0.24 7 1908 74 18 94 657 102 29 161 263 171 165 193 438 216 338 
1915 -0.15259044245267836 0.09663990930785023 0.8085637352183686 0 0 0 0.26 7 1909 45 85 58 124 149 884 216 339 
1916 0.13250220229998919 0.11177982672317259 0.9426026155134145 0 0 0 0.25 7 1910 45 86 94 658 116 423 122 365 125 260 131 7 140 380 145 48 149 885 151 252 177 126 205 205 212 44 228 345 
1917 0.29297848497747536 0.1320830776792802 1.1050043966595002 0 0 0 0.32 7 1911 46 251 94 659 122 366 125 261 166 161 211 145 
1918 0.020371892710575924 0.11179476173220208 0.9269341087367343 0 0 0 0.51 7 1912 37 241 125 262 143 21 151 253 171 166 228 346 233 535 
1919 0.03921276663491805 0.1126055620602154 0.9288551940663472 0 0 0 0.37 7 1913 30 184 37 242 149 886 183 124 205 206 211 146 233 536 
1920 0.0652509044582697 0.11501544105717523 0.9494509667770084 0 0 0 0.31 7 1914 94 660 149 887 154 264 226 154 
1921 0.06507736881946168 0.11515300596697563 0.9493523063810477 0 0 0 0.21 7 1915 149 888 226 155 
1922 0.13930785150933353 0.11523027269457689 0.9493682818891087 0 0 0 0.38 7 1916 47 120 86 144 90 135 94 661 116 424 122 367 140 381 149 889 151 254 154 265 180 201 205 207 210 275 226 156 228 347 
1923 0.13927980719253294 0.11527197885222126 0.9490854779955796 0 0 0 0.44 7 1917 47 121 90 136 116 425 122 368 140 382 149 890 151 255 154 266 183 125 205 208 210 276 
1924 0.27817881386000437 0.13289739203908948 1.0868206325197527 0 0 0 0.37 7 1918 216 340 233 537 
1925 0.3989664452533 0.1430979464985132 1.1668651559563452 0 0 0 0.28 7 1919 122 369 125 263 140 383 149 891 150 144 151 256 154 267 186 75 193 439 233 538 
1926 -0.26895115116790685 0.08621828736631265 0.6947546512618659 0 0 0 0.13 7 1920 74 19 216 341 
1927 0.28671130766515557 0.13440574277598932 1.095468504509281 0 0 0 0.25 7 1921 34 112 94 662 145 49 
1928 0.2889574591224945 0.13555937578764096 1.1028955121844704 0 0 0 0.3 7 1922 45 87 94 663 
1929 -0.019022725529471804 0.11210364766743915 0.9030589187471464 0 0 0 0.29 7 1923 30 185 37 243 99 278 116 426 125 264 139 70 149 892 193 440 228 348 233 539 
1930 0.32791355435012703 0.1381072974448349 1.1210132196370017 0 0 0 0.3 7 1924 94 664 99 279 125 265 149 893 151 257 211 147 228 349 
1931 -0.2821994888291245 0.08629747018404 0.685359406759107 0 0 0 0.25 7 1925 74 20 94 665 116 427 171 167 180 202 193 441 216 342 228 350 
1932 0.3058933726159351 0.13965309827547054 1.11521423925739 0 0 0 0.24 7 1926 46 252 86 145 94 666 122 370 125 266 211 148 
1933 -0.27968935754125657 0.08693035864433446 0.6869845088577935 0 0 0 0.21 7 1927 74 21 94 667 116 428 171 168 180 203 
1934 -0.22292315048049985 0.09543330920189211 0.7595441256640204 0 0 0 0.27 7 1928 86 146 125 267 228 351 
