# 3D point list with one line of data per point:
#   POINT3D_ID, X, Y, Z, R, G, B, ERROR, TRACK[] as (IMAGE_ID, POINT2D_IDX)
# Number of points: 171, mean track length: 10.16
2773 -0.22139230664145726 -0.0036903188081489633 0.8083587545213737 0 0 0 0.34 7 2759 37 745 57 477 116 1091 189 206 46 773 58 356 59 301 86 574 151 908 154 766 167 376 186 278 193 1052 202 176 212 336 216 877 228 970 8 292 18 485 24 212 94 1173 125 894 180 656 55 378 119 273 
2774 -0.24483027653380884 0.003125106992608721 0.7916473051311598 0 0 0 0.24 7 2760 34 551 37 746 51 54 59 302 116 1092 125 895 144 505 145 400 171 480 189 207 202 177 216 878 228 971 48 36 57 478 86 575 94 1174 151 909 154 767 167 377 178 129 186 279 193 1053 46 774 139 390 212 337 18 486 24 213 58 357 143 278 218 714 
2775 -0.25073446740619737 0.004243004435311357 0.7859032081019196 0 0 0 0.31 7 2761 34 552 45 284 58 358 94 1175 116 1093 139 391 144 506 211 647 216 879 228 972 37 747 46 775 51 55 57 479 59 303 74 29 86 576 90 333 125 896 151 910 186 280 189 208 55 379 137 147 166 639 167 378 178 130 183 492 191 242 193 1054 8 293 18 487 24 214 48 37 102 312 119 274 143 279 145 401 153 159 180 657 202 178 212 338 218 715 226 573 72 473 131 185 154 768 161 655 171 481 
2776 0.5165883742036033 0.010519170559825108 1.3635268794847961 0 0 0 0.57 7 2762 116 1094 216 880 18 488 23 548 24 215 31 405 173 525 180 658 106 453 212 339 
2777 -0.21006833061953606 0.011157460118202484 0.8121530856003425 0 0 0 0.38 7 2763 37 748 57 480 58 359 94 1176 116 1095 139 392 144 507 149 1385 154 769 166 640 191 243 193 1055 211 648 212 340 216 881 228 973 46 776 125 897 167 379 202 179 8 294 18 489 24 216 59 304 86 577 137 148 151 911 171 482 189 209 55 380 119 275 133 8 143 280 183 493 218 716 226 574 
2778 0.08238806999726055 0.014764312076884112 1.0667225877829867 0 0 0 0.66 7 2764 30 424 37 749 149 1386 183 494 233 931 86 578 205 541 228 974 34 553 46 777 68 162 90 334 119 276 137 149 139 393 140 868 161 656 
2779 -0.21616282602969925 0.012809901450812297 0.8074490299638533 0 0 0 0.22 7 2765 34 554 37 750 45 285 58 360 90 335 94 1177 189 210 211 649 212 341 216 882 228 975 8 295 18 490 23 549 24 217 48 38 57 481 59 305 116 1096 125 898 143 281 145 402 151 912 166 641 180 659 183 495 191 244 202 180 218 717 
2780 -0.13904917015547 0.016004050199361426 0.856286609201197 0 0 0 0.24 7 2766 86 579 94 1178 212 342 37 751 167 380 228 976 8 296 140 869 216 883 23 550 145 403 193 1056 205 542 
2781 -0.13245298144399584 0.017685565287337647 0.8620378699633291 0 0 0 0.42 7 2767 58 361 94 1179 228 977 37 752 46 778 59 306 166 642 167 381 8 297 90 336 125 899 140 870 149 1387 150 357 225 62 23 551 151 913 202 181 211 650 154 770 174 83 178 131 180 660 
2782 -0.17624305095637294 0.02229782209163394 0.8317141890823416 0 0 0 0.41 7 2768 59 307 94 1180 116 1097 8 298 48 39 125 900 166 643 180 661 218 718 228 978 18 491 23 552 161 657 193 1057 205 543 216 884 55 381 72 474 102 313 115 16 226 575 168 7 173 526 
2783 -0.12050385655148468 0.023084123935128955 0.8634345812432023 0 0 0 0.29 7 2769 57 482 94 1181 116 1098 45 286 125 901 166 644 
2784 0.523002009671656 0.035851472179994966 1.3179081005006137 0 0 0 0.41 7 2770 34 555 37 753 86 580 94 1182 144 508 149 1388 151 914 166 645 173 527 178 132 180 662 211 651 212 343 24 218 116 1099 122 588 145 404 154 771 216 885 23 553 106 454 131 186 68 163 174 84 
2785 0.5168664974262848 0.044290815067944286 1.3901705942467315 0 0 0 0.59 7 2771 18 492 45 287 99 619 149 1389 31 406 59 308 23 554 46 779 106 455 125 902 151 915 173 528 180 663 186 281 212 344 228 979 233 932 
2786 -0.14158969908707772 0.030667582275719786 0.8528837657966624 0 0 0 0.25 7 2772 45 288 58 362 59 309 86 581 90 337 94 1183 202 182 212 345 37 754 116 1100 125 903 144 509 167 382 228 980 57 483 139 394 149 1390 151 916 154 772 166 646 171 483 189 211 8 299 119 277 143 282 193 1058 218 719 18 493 23 555 140 871 145 405 191 245 216 886 
2787 -0.24311207687425432 0.02870571301161384 0.7863078528314735 0 0 0 0.23 7 2773 37 755 116 1101 
2788 -0.21036975156065127 0.030825070065534095 0.8048034422721247 0 0 0 0.33 7 2774 58 363 116 1102 125 904 191 246 211 652 212 346 24 219 
2789 0.5249753576064738 0.058965100534962775 1.3256611845473398 0 0 0 0.76 125 905 202 183 24 220 86 582 116 1103 180 664 233 933 
2790 -0.10684758807825555 0.036385855139526184 0.8764659646028847 0 0 0 0.35 7 2775 58 364 94 1184 116 1104 149 1391 59 310 125 906 151 917 166 647 167 383 211 653 212 347 225 63 228 981 86 583 202 184 
2791 0.21681760631537356 0.04887721181746572 1.061588614154739 0 0 0 0.26 7 2776 30 425 139 395 
2792 0.5199647184575928 0.0638568840063971 1.3280456782396273 0 0 0 0.81 7 2777 144 510 151 918 34 556 86 584 94 1185 116 1105 145 406 166 648 212 348 216 887 225 64 24 221 55 382 57 484 149 1392 173 529 180 665 23 556 106 456 102 314 68 164 174 85 
2793 -0.12099655670920345 0.040527118650926244 0.8532210982750752 0 0 0 0.65 7 2778 30 426 233 934 
2794 -0.06654396522016096 0.04841949028902828 0.8980321604916436 0 0 0 0.29 7 2779 59 311 86 585 116 1106 132 52 144 511 177 605 186 282 37 756 46 780 57 485 94 1186 125 907 139 396 149 1393 151 919 154 773 166 649 167 384 189 212 191 247 202 185 211 654 225 65 228 982 233 935 212 349 8 300 23 557 55 383 72 475 102 315 119 278 131 187 140 872 143 283 145 407 153 160 161 658 173 530 180 666 183 496 193 1059 210 517 218 720 226 576 205 544 216 888 45 289 90 338 174 86 34 557 
2795 0.15750239529219404 0.05447259749142598 0.9994937609323191 0 0 0 0.84 7 2780 57 486 90 339 183 497 117 233 125 908 161 659 191 248 
2796 -0.30696490899837414 0.042429145372734796 0.708974540710924 0 0 0 0.37 7 2781 144 512 151 920 173 531 193 1060 216 889 46 781 58 365 86 586 154 774 171 484 24 222 51 56 125 909 139 397 
2797 -0.25777870100680256 0.04516843236937446 0.7461778192260042 0 0 0 0.41 7 2782 45 290 90 340 
2798 0.02951740775183698 0.058512766089517505 0.9505049854501875 0 0 0 0.49 7 2783 23 558 59 312 94 1187 125 910 139 398 153 161 166 650 202 186 211 655 233 936 46 782 149 1394 167 385 177 606 186 283 
2799 0.019794535659146496 0.060397321474771386 0.9553452024987402 0 0 0 0.47 7 2784 154 775 189 213 34 558 167 386 186 284 
2800 0.30747424167432863 0.0753537664836075 1.1699028271616339 0 0 0 0.09 7 2785 205 545 233 937 
2801 -0.20654506326264788 0.05479511085198795 0.80155774957469 0 0 0 0.57 7 2786 90 341 189 214 
2802 0.03987747525661019 0.06523592049550314 0.9622319747016952 0 0 0 0.66 7 2787 45 291 57 487 59 313 90 342 116 1107 119 279 122 589 132 53 144 513 149 1395 189 215 205 546 228 983 34 559 37 757 55 384 125 911 131 188 151 921 154 776 166 651 167 387 193 1061 202 187 212 350 216 890 46 783 183 498 233 938 23 559 115 17 174 87 203 462 
2803 0.014029780193317283 0.0651945369015405 0.9494309980128 0 0 0 0.35 7 2788 34 560 45 292 94 1188 116 1108 140 873 149 1396 151 922 205 547 233 939 167 388 8 301 143 284 153 162 177 607 183 499 
2804 0.059876481752492466 0.06968323130899573 0.9729962122778268 0 0 0 0.51 7 2789 116 1109 149 1397 189 216 211 656 8 302 23 560 57 488 59 314 86 587 94 1189 125 912 140 874 145 408 166 652 177 608 193 1062 202 188 218 721 228 984 151 923 154 777 178 133 203 463 212 351 
2805 0.12367523821436761 0.06933590188413158 0.9694840541870512 0 0 0 0.38 7 2790 18 494 23 561 30 427 45 293 55 385 57 489 59 315 86 588 94 1190 102 316 116 1110 121 53 122 590 125 913 139 399 140 875 144 514 149 1398 154 778 173 532 178 134 193 1063 211 657 212 352 215 29 216 891 228 985 233 940 8 303 31 407 34 561 145 409 151 924 161 660 205 548 171 485 203 464 
2806 -0.06808617656352925 0.0685296250741792 0.8936328125220696 0 0 0 0.32 7 2791 30 428 58 366 149 1399 210 518 233 941 8 304 94 1191 116 1111 125 914 166 653 202 189 228 986 23 562 55 386 72 476 102 317 115 18 137 150 153 163 193 1064 218 722 226 577 57 490 131 189 144 515 168 8 173 533 177 609 178 135 180 667 34 562 119 280 139 400 140 876 151 925 154 779 161 661 174 88 183 500 191 249 205 549 211 658 216 892 99 620 203 465 
2807 0.5143137160261572 0.09719156046342842 1.2752109041964526 0 0 0 0.47 7 2792 125 915 144 516 68 165 151 926 212 353 216 893 
2808 0.021563130283669716 0.07362047601194326 0.9472901635413394 0 0 0 0.47 7 2793 30 429 57 491 94 1192 140 877 143 285 149 1400 151 927 193 1065 211 659 228 987 18 495 23 563 55 387 58 367 72 477 102 318 115 19 116 1112 166 654 226 578 59 316 203 466 
2809 0.054959343856504445 0.07506415570347469 0.9734892570511883 0 0 0 0.44 7 2794 57 492 94 1193 99 621 116 1113 139 401 140 878 149 1401 205 550 46 784 144 517 167 389 193 1066 202 190 86 589 189 217 8 305 59 317 145 410 210 519 218 723 228 988 68 166 90 343 233 942 18 496 154 780 183 501 203 467 151 928 180 668 
2810 0.542050672164831 0.10109853721214294 1.2724876834959142 0 0 0 0.5 7 2795 59 318 86 590 180 669 211 660 
2811 -0.12010314150115145 0.06953601520302462 0.8419639316081534 0 0 0 0.75 7 2796 58 368 149 1402 210 520 121 54 203 468 
2812 0.04319999912783858 0.08141154889185988 0.9578919354130827 0 0 0 0.38 7 2797 30 430 34 563 55 388 57 493 59 319 94 1194 121 55 125 916 132 54 139 402 140 879 144 518 149 1403 151 929 161 662 166 655 193 1067 205 551 211 661 212 354 228 989 233 943 86 591 143 286 167 390 183 502 189 218 191 250 210 521 8 306 171 486 203 469 
2813 -0.02866643721143357 0.0781274723010798 0.9135436838758333 0 0 0 0.22 7 2798 30 431 149 1404 233 944 
2814 0.2315486791184921 0.0903573259695201 1.0412467637979375 0 0 0 0.48 7 2799 57 494 59 320 72 478 94 1195 116 1114 119 281 125 917 139 403 144 519 149 1405 154 781 166 656 173 534 177 610 189 219 193 1068 212 355 30 432 31 408 37 758 90 344 99 622 102 319 143 287 171 487 210 522 218 724 106 457 151 930 55 389 137 151 145 411 183 503 226 579 45 294 117 234 228 990 203 470 216 894 
2815 0.17506840450946876 0.08838546329704909 1.0041169486682169 0 0 0 0.53 7 2800 57 495 94 1196 116 1115 139 404 140 880 144 520 149 1406 166 657 178 136 193 1069 210 523 228 991 8 307 31 409 102 320 115 20 121 56 125 918 133 9 143 288 173 535 177 611 212 356 216 895 225 66 72 479 131 190 23 564 30 433 55 390 106 458 137 152 161 663 205 552 226 580 18 497 34 564 145 412 151 931 168 9 99 623 171 488 203 471 
2816 0.006039308148983477 0.0862733459297975 0.9381234661820652 0 0 0 0.39 7 2801 37 759 46 785 58 369 94 1197 125 919 143 289 149 1407 150 358 191 251 210 524 211 662 233 945 34 565 57 496 59 321 116 1116 119 282 131 191 132 55 139 405 151 932 154 782 167 391 177 612 178 137 183 504 189 220 202 191 228 992 55 391 137 153 161 664 226 581 99 624 121 57 203 472 
2817 -0.22771496593808813 0.07368280236900812 0.7706164700676202 0 0 0 0.26 7 2802 57 497 139 406 228 993 37 760 46 786 72 480 86 592 125 920 143 290 144 521 166 658 167 392 189 221 191 252 202 192 211 663 218 725 8 308 51 57 55 392 24 223 173 536 180 670 
2818 0.2459632615056664 0.09917919031565192 1.0429780630645027 0 0 0 0.41 7 2803 18 498 23 565 34 566 37 761 45 295 57 498 59 322 86 593 94 1198 116 1117 125 921 139 407 140 881 144 522 149 1408 150 359 151 933 154 783 161 665 166 659 171 489 177 613 178 138 180 671 183 505 193 1070 202 193 212 357 216 896 218 726 228 994 233 946 31 410 55 393 115 21 119 283 137 154 143 291 145 413 205 553 72 481 99 625 210 525 226 582 30 434 102 321 106 459 173 537 191 253 68 167 122 591 203 473 
2819 0.2194927055691859 0.09924353266382634 1.031653613753724 0 0 0 0.44 7 2804 30 435 37 762 57 499 59 323 86 594 94 1199 99 626 116 1118 125 922 131 192 139 408 140 882 149 1409 151 934 189 222 191 254 202 194 205 554 216 897 218 727 228 995 233 947 119 284 193 1071 18 499 23 566 31 411 72 482 102 322 143 292 154 784 161 666 166 660 173 538 210 526 225 67 226 583 211 664 106 460 117 235 203 474 
2820 -0.23133970302323953 0.07748513237878979 0.7665664917127194 0 0 0 0.31 7 2805 18 500 34 567 48 40 51 58 57 500 58 370 116 1119 121 58 144 523 151 935 166 661 193 1072 211 665 216 898 228 996 37 763 94 1200 59 324 86 595 143 293 167 393 171 490 189 223 212 358 8 309 24 224 125 923 191 255 202 195 218 728 
2821 0.1791804020350681 0.1018684885678914 0.9958363884135006 0 0 0 0.42 7 2806 57 501 59 325 99 627 121 59 122 592 166 662 180 672 191 256 202 196 211 666 31 412 171 491 168 10 203 475 
2822 -0.0226344420709641 0.09622780017869377 0.9156794694461268 0 0 0 0.2 7 2807 30 436 233 948 161 667 
2823 -0.1941181368513425 0.0831615483971648 0.7823776744511645 0 0 0 0.19 7 2808 45 296 48 41 51 59 149 1410 23 567 34 568 57 502 72 483 86 596 102 323 121 60 131 193 166 663 167 394 171 492 180 673 193 1073 211 667 212 359 226 584 37 764 46 787 59 326 125 924 189 224 8 310 58 371 94 1201 116 1120 18 501 24 225 145 414 153 164 178 139 173 539 168 11 
2824 0.08162247798168108 0.10497519195062006 0.9833476435494319 0 0 0 0.28 7 2809 37 765 57 503 149 1411 154 785 228 997 31 413 59 327 99 628 119 285 125 925 139 409 140 883 151 936 191 257 193 1074 226 585 233 949 121 61 203 476 
2825 0.5153593590963167 0.1370588114836473 1.2746506787388845 0 0 0 0.4 7 2810 34 569 37 766 46 788 55 394 57 504 59 328 86 597 90 345 94 1202 116 1121 119 286 122 593 125 926 131 194 139 410 140 884 144 524 145 415 150 360 151 937 154 786 166 664 173 540 177 614 178 140 191 258 193 1075 202 197 212 360 216 899 218 729 228 998 24 226 31 414 45 297 99 629 149 1412 180 674 233 950 106 461 
2826 0.14337881552904883 0.10528718234464293 0.9649023121432921 0 0 0 0.51 7 2811 46 789 57 505 94 1203 125 927 8 311 23 568 31 415 55 395 59 329 99 630 116 1122 137 155 143 294 144 525 145 416 151 938 166 665 173 541 180 675 202 198 218 730 226 586 72 484 106 462 140 885 154 787 177 615 203 477 
2827 0.43963671841589125 0.1318232374488017 1.2077329855692316 0 0 0 0.49 7 2812 86 598 102 324 116 1123 178 141 212 361 216 900 218 731 31 416 46 790 99 631 149 1413 34 570 37 767 57 506 59 330 90 346 94 1204 137 156 144 526 145 417 177 616 202 199 211 668 225 68 45 298 68 168 106 463 173 542 193 1076 233 951 140 886 180 676 
2828 -0.02265694561793329 0.10169702234808967 0.9091837574538792 0 0 0 0.34 7 2813 37 768 161 668 205 555 
2829 0.2639122471917048 0.11064026384808494 1.0426585401811084 0 0 0 1.13 189 225 228 999 57 507 23 569 178 142 180 677 34 571 55 396 106 464 116 1124 143 295 144 527 145 418 151 939 161 669 166 666 173 543 177 617 193 1077 205 556 216 901 218 732 226 587 68 169 115 22 131 195 168 12 37 769 117 236 125 928 150 361 183 506 211 669 139 411 191 259 
2830 -0.1970631363554069 0.08868739862645719 0.7817301996178003 0 0 0 0.43 7 2814 46 791 48 42 202 200 57 508 116 1125 189 226 226 588 86 599 167 395 171 493 218 733 8 312 23 570 58 372 59 331 94 1205 119 287 125 929 143 296 149 1414 166 667 211 670 216 902 154 788 228 1000 
2831 -0.22627339598864665 0.08927784708725758 0.7649872976356242 0 0 0 0.41 7 2815 34 572 58 373 90 347 116 1126 121 62 125 930 143 297 166 668 189 227 191 260 202 201 211 671 212 362 226 589 
2832 0.31066021817469586 0.1302636719325391 1.1271615303895504 0 0 0 0.35 7 2816 37 770 46 792 86 600 94 1206 149 1415 189 228 31 417 154 789 177 618 180 678 218 734 23 571 72 485 106 465 131 196 173 544 183 507 205 557 
2833 0.24379029024511398 0.12169938737268252 1.0362440339784678 0 0 0 0.54 7 2817 90 348 139 412 149 1416 150 362 151 940 161 670 211 672 106 466 154 790 177 619 193 1078 212 363 68 170 
2834 -0.11954617163885964 0.10204126815085167 0.8288452149654663 0 0 0 0.22 7 2818 34 573 37 771 59 332 86 601 119 288 125 931 149 1417 154 791 46 793 94 1207 116 1127 166 669 167 396 171 494 178 143 189 229 191 261 202 202 212 364 218 735 226 590 233 952 8 313 102 325 45 299 139 413 151 941 183 508 225 69 140 887 174 89 205 558 210 527 216 903 18 502 23 572 24 227 173 545 180 679 58 374 72 486 153 165 193 1079 203 478 
2835 -0.15413273861328458 0.10095139565283705 0.8108874500559414 0 0 0 0.39 7 2819 58 375 125 932 216 904 8 314 116 1128 121 63 191 262 226 591 
2836 0.08614860397734703 0.12234067480799593 0.9825138542325025 0 0 0 0.3 7 2820 57 509 59 333 90 349 94 1208 119 289 144 528 149 1418 166 670 211 673 233 953 228 1001 8 315 23 573 31 418 37 772 46 794 72 487 86 602 99 632 102 326 116 1129 125 933 131 197 140 888 143 298 151 942 154 792 173 546 177 620 180 680 183 509 189 230 191 263 193 1080 202 203 216 905 218 736 226 592 30 437 55 397 137 157 174 90 203 479 210 528 212 365 
2837 -0.07911662216631564 0.10791008798149113 0.8565785826898938 0 0 0 0.31 7 2821 58 376 149 1419 150 363 233 954 23 574 34 574 37 773 59 334 86 603 94 1209 99 633 116 1130 125 934 143 299 154 793 167 397 177 621 191 264 202 204 218 737 139 414 193 1081 203 480 226 593 228 1002 
2838 -0.193857652513884 0.09907021871983972 0.7769537579824598 0 0 0 0.42 7 2822 34 575 37 774 45 300 46 795 51 60 55 398 57 510 58 377 59 335 86 604 94 1210 116 1131 119 290 121 64 125 935 139 415 143 300 144 529 149 1420 151 943 154 794 166 671 189 231 193 1082 202 205 205 559 211 674 218 738 226 594 228 1003 8 316 18 503 23 575 24 228 48 43 72 488 90 350 131 198 153 166 171 495 173 547 178 144 180 681 212 366 216 906 225 70 
2839 0.28827778363203593 0.13949620436139676 1.1008787270722313 0 0 0 0.15 7 2823 183 510 191 265 228 1004 233 955 68 171 
2840 -0.2264422117070553 0.09761410447756619 0.7619124966401988 0 0 0 0.5 7 2824 37 775 45 301 57 511 58 378 74 30 94 1211 116 1132 121 65 143 301 144 530 151 944 171 496 189 232 191 266 211 675 212 367 228 1005 34 576 72 489 125 936 131 199 139 416 145 419 154 795 166 672 167 398 180 682 193 1083 218 739 226 595 8 317 23 576 24 229 46 796 102 327 119 291 153 167 216 907 
2841 0.0012933466361853467 0.1170329544481776 0.9226106244968365 0 0 0 0.42 7 2825 30 438 46 797 57 512 58 379 86 605 94 1212 116 1133 119 292 125 937 137 158 144 531 145 420 149 1421 161 671 177 622 183 511 191 267 205 560 216 908 226 596 233 956 37 776 59 336 167 399 189 233 202 206 211 676 212 368 228 1006 8 318 23 577 173 548 218 740 55 399 102 328 166 673 
2842 0.3949981421116947 0.14886253426818538 1.1681140028814112 0 0 0 0.45 7 2826 34 577 57 513 59 337 94 1213 99 634 116 1134 139 417 149 1422 150 364 151 945 166 674 186 285 189 234 211 677 212 369 228 1007 23 578 24 230 31 419 131 200 191 268 55 400 106 467 173 549 
2843 0.0116849415962423 0.12008011618232001 0.9304416514379507 0 0 0 0.27 7 2827 37 777 46 798 58 380 86 606 94 1214 99 635 119 293 125 938 149 1423 166 675 189 235 211 678 233 957 8 319 72 490 116 1135 140 889 144 532 145 421 151 946 183 512 205 561 226 597 57 514 59 338 55 401 143 302 177 623 202 207 212 370 228 1008 210 529 154 796 174 91 193 1084 203 481 
2844 0.17009943148822987 0.12724896344594064 0.9919237700278448 0 0 0 0.28 7 2828 30 439 57 515 94 1215 122 594 125 939 144 533 149 1424 233 958 34 578 45 302 59 339 119 294 225 71 8 320 23 579 31 420 72 491 102 329 116 1136 139 418 140 890 151 947 166 676 173 550 177 624 193 1085 211 679 216 909 218 741 226 598 37 778 46 799 86 607 99 636 131 201 183 513 189 236 202 208 228 1009 55 402 106 468 154 797 161 672 205 562 143 303 180 683 203 482 171 497 
2845 0.18632457465457253 0.128279109110302 0.9872919351532162 0 0 0 0.22 7 2829 23 580 37 779 45 303 46 800 57 516 59 340 72 492 86 608 94 1216 99 637 116 1137 119 295 121 66 122 595 131 202 139 419 140 891 144 534 149 1425 151 948 154 798 177 625 180 684 189 237 191 269 193 1086 210 530 211 680 212 371 216 910 218 742 226 599 8 321 31 421 133 10 143 304 166 677 183 514 106 469 173 551 171 498 178 145 203 483 
2846 -0.12364041487568683 0.10874452913973628 0.8275502724752065 0 0 0 0.41 7 2830 34 579 37 780 45 304 46 801 51 61 59 341 94 1217 125 940 140 892 144 535 149 1426 166 678 171 499 180 685 202 209 218 743 193 1087 212 372 167 400 186 286 211 681 233 959 18 504 24 231 102 330 131 203 139 420 216 911 8 322 23 581 58 381 116 1138 119 296 145 422 151 949 225 72 203 484 
2847 0.21377763706793274 0.13857598792570053 1.01516864729399 0 0 0 0.81 7 2831 37 781 122 596 139 421 144 536 149 1427 205 563 233 960 8 323 72 493 86 609 173 552 55 403 57 517 119 297 131 204 143 305 183 515 189 238 23 582 106 470 178 146 31 422 99 638 116 1139 216 912 218 744 226 600 34 580 94 1218 140 893 151 950 154 799 177 626 180 686 30 440 68 172 145 423 150 365 211 682 228 1010 
2848 -0.07854667302710135 0.1193799136909126 0.8604694979990509 0 0 0 0.5 7 2832 30 441 37 782 72 494 94 1219 99 639 116 1140 119 298 131 205 140 894 144 537 149 1428 150 366 151 951 173 553 180 687 189 239 191 270 193 1088 205 564 210 531 226 601 228 1011 233 961 23 583 24 232 46 802 125 941 183 516 154 800 203 485 
2849 -0.17853875326109012 0.11030854574506076 0.7901637217446879 0 0 0 0.31 7 2833 57 518 116 1141 144 538 151 952 205 565 228 1012 37 783 58 382 86 610 131 206 139 422 143 306 167 401 178 147 189 240 191 271 212 373 218 745 
2850 -0.004219318081103725 0.1266171664482283 0.9068077852595776 0 0 0 0.37 7 2834 30 442 37 784 57 519 58 383 86 611 119 299 144 539 145 424 149 1429 161 673 177 627 233 962 46 803 94 1220 116 1142 154 801 166 679 167 402 189 241 218 746 8 324 102 331 23 584 72 495 153 168 203 486 210 532 137 159 216 913 
2851 -0.16143889457136112 0.1131685848307363 0.8016404159750447 0 0 0 0.42 7 2835 23 585 37 785 55 404 57 520 90 351 94 1221 102 332 116 1143 119 300 137 160 143 307 144 540 149 1430 151 953 166 680 211 683 216 914 226 602 46 804 59 342 72 496 86 612 121 67 125 942 167 403 191 272 212 374 218 747 24 233 153 169 203 487 
2852 0.08623163641644935 0.1389107854144508 0.9772156887104563 0 0 0 0.79 7 2836 139 423 144 541 211 684 8 325 23 586 31 423 59 343 72 497 86 613 99 640 102 333 121 68 131 207 145 425 154 802 166 681 178 148 202 210 210 533 212 375 218 748 115 23 55 405 116 1144 140 895 143 308 177 628 180 688 191 273 226 603 30 443 37 786 46 805 119 301 125 943 149 1431 151 954 183 517 233 963 68 173 94 1222 34 581 203 488 
2853 0.3557023224609385 0.16336218852271425 1.1416922187063052 0 0 0 0.32 7 2837 34 582 59 344 94 1223 149 1432 151 955 161 674 177 629 183 518 218 749 23 587 31 424 72 498 119 302 131 208 140 896 178 149 193 1089 226 604 24 234 99 641 116 1145 117 237 145 426 
2854 -0.0400269251289984 0.12496978700142153 0.8733154578089051 0 0 0 0.24 7 2838 149 1433 233 964 174 92 
2855 -0.04762586584560102 0.1254996148562887 0.8732172278903485 0 0 0 0.29 7 2839 30 444 34 583 57 521 59 345 125 944 140 897 144 542 151 956 225 73 37 787 46 806 119 303 166 682 167 404 171 500 177 630 191 274 202 211 218 750 18 505 23 588 24 235 58 384 94 1224 99 642 102 334 116 1146 139 424 178 150 189 242 211 685 212 376 226 605 72 499 173 554 203 489 228 1013 
2856 0.17036785936801024 0.1430526382983399 0.9869463949517654 0 0 0 0.22 7 2840 30 445 86 614 94 1225 125 945 139 425 144 543 189 243 211 686 31 425 34 584 37 788 55 406 72 500 116 1147 140 898 145 427 149 1434 151 957 161 675 177 631 191 275 193 1090 202 212 205 566 218 751 228 1014 8 326 106 471 173 555 
2857 -0.07255958462127135 0.12709578284234196 0.8676487634354592 0 0 0 0.47 7 2841 34 585 37 789 150 367 186 287 94 1226 116 1148 139 426 149 1435 189 244 211 687 212 377 228 1015 59 346 131 209 167 405 193 1091 218 752 58 385 143 309 166 683 216 915 99 643 174 93 183 519 205 567 154 803 191 276 203 490 
2858 0.4957002745445357 0.1870022577914938 1.229494608718515 0 0 0 0.37 7 2842 34 586 45 305 90 352 94 1227 116 1149 119 304 125 946 144 544 149 1436 150 368 202 213 211 688 212 378 216 916 228 1016 233 965 57 522 59 347 99 644 122 597 140 899 143 310 166 684 177 632 178 151 180 689 191 277 193 1092 218 753 225 74 31 426 46 807 139 427 18 506 24 236 171 501 189 245 210 534 226 606 72 501 106 472 173 556 30 446 68 174 
2859 -0.08231222961454339 0.13135690663860836 0.8492576915940081 0 0 0 0.55 7 2843 23 589 57 523 58 386 72 502 99 645 119 305 125 947 137 161 149 1437 151 958 161 676 173 557 189 246 202 214 210 535 211 689 212 379 228 1017 233 966 59 348 166 685 167 406 180 690 24 237 171 502 46 808 140 900 144 545 193 1093 203 491 
2860 0.12296901469898182 0.1455036087615295 0.9393536230935223 0 0 0 0.27 7 2844 18 507 30 447 34 587 46 809 55 407 57 524 59 349 86 615 90 353 94 1228 99 646 102 335 116 1150 119 306 122 598 125 948 131 210 137 162 139 428 140 901 143 311 144 546 145 428 149 1438 151 959 154 804 161 677 166 686 173 558 177 633 178 152 180 691 183 520 189 247 193 1094 202 215 205 568 210 536 211 690 212 380 216 917 218 754 225 75 228 1018 233 967 8 327 31 427 45 306 186 288 106 473 203 492 
2861 0.24608744529410886 0.15731185636215486 1.0167365301792484 0 0 0 0.37 7 2845 18 508 34 588 37 790 46 810 47 118 57 525 59 350 86 616 90 354 94 1229 116 1151 119 307 122 599 125 949 144 547 145 429 149 1439 161 678 166 687 171 503 189 248 191 278 210 537 212 381 216 918 226 607 233 968 24 238 31 428 55 408 72 503 102 336 131 211 137 163 140 902 150 369 151 960 154 805 173 559 177 634 178 153 193 1095 202 216 205 569 218 755 228 1019 106 474 68 175 121 69 203 493 
2862 0.4566384130689848 0.1867926437557822 1.2002917903176822 0 0 0 0.28 7 2846 37 791 46 811 86 617 94 1230 116 1152 122 600 125 950 144 548 149 1440 151 961 178 154 189 249 212 382 225 76 8 328 31 429 55 409 59 351 119 308 131 212 140 903 143 312 154 806 166 688 177 635 180 692 191 279 193 1096 202 217 218 756 233 969 106 475 117 238 226 608 24 239 99 647 
2863 0.02591652284184403 0.14309859575892345 0.9177546172531493 0 0 0 0.27 7 2847 46 812 218 757 233 970 37 792 86 618 125 951 166 689 171 504 167 407 
2864 -0.29695061983654886 0.10817147151229003 0.6839864884069375 0 0 0 0.46 7 2848 18 509 34 589 51 62 57 526 125 952 144 549 151 962 171 505 191 280 216 919 
2865 0.03517082832644094 0.14531474561769803 0.9262017860909797 0 0 0 0.33 7 2849 30 448 46 813 139 429 189 250 205 570 211 691 233 971 68 176 
2866 0.2838672832331234 0.17095864381311904 1.0908145040487232 0 0 0 0.39 7 2850 144 550 151 963 191 281 216 920 34 590 68 177 117 239 119 309 150 370 161 679 183 521 189 251 228 1020 
2867 0.0016959632531191914 0.14415471995441198 0.9093722034921164 0 0 0 0.38 7 2851 37 793 55 410 57 527 58 387 125 953 139 430 144 551 145 430 149 1441 183 522 205 571 211 692 216 921 233 972 86 619 94 1231 116 1153 151 964 167 408 191 282 210 538 140 904 143 313 193 1097 174 94 
2868 0.48937150415530534 0.19413791908591818 1.2234992178520372 0 0 0 0.3 7 2852 94 1232 116 1154 122 601 131 213 144 552 149 1442 151 965 180 693 211 693 218 758 24 240 46 814 59 352 166 690 34 591 72 504 106 476 143 314 202 218 212 383 68 178 150 371 228 1021 117 240 216 922 226 609 233 973 
2869 -0.24409694091990505 0.11864862453276154 0.7381843362020047 0 0 0 0.57 7 2853 45 307 144 553 
2870 0.041268750405609546 0.15209792240837647 0.9282744199369913 0 0 0 0.33 7 2854 30 449 37 794 139 431 205 572 68 179 137 164 161 680 186 289 211 694 233 974 
2871 -0.17349238202759232 0.12985084471606886 0.7852473022736559 0 0 0 0.26 7 2855 45 308 57 528 94 1233 116 1155 139 432 144 554 149 1443 151 966 183 523 189 252 8 329 18 510 23 590 24 241 58 388 59 353 125 954 178 155 180 694 193 1098 216 923 218 759 226 610 228 1022 171 506 191 283 
2872 0.0062786317032121714 0.1499816289678446 0.9109166095775827 0 0 0 0.43 7 2856 205 573 216 924 57 529 72 505 94 1234 99 648 116 1156 149 1444 153 170 161 681 166 691 180 695 202 219 225 77 228 1023 23 591 37 795 46 815 55 411 59 354 86 620 125 955 144 555 151 967 167 409 173 560 177 636 183 524 186 290 191 284 193 1099 211 695 212 384 218 760 233 975 58 389 189 253 210 539 226 611 131 214 168 13 203 494 
2873 0.052649450684426904 0.1575461072112345 0.9449917369226665 0 0 0 0.27 7 2857 37 796 46 816 57 530 94 1235 116 1157 125 956 144 556 149 1445 151 968 193 1100 211 696 228 1024 233 976 55 412 140 905 183 525 212 385 68 180 
2874 0.22815318200366863 0.1675832434503058 1.0078302913411492 0 0 0 0.38 7 2858 59 355 86 621 94 1236 99 649 122 602 125 957 144 557 154 807 178 156 180 696 211 697 212 386 228 1025 233 977 55 413 116 1158 119 310 150 372 166 692 8 330 24 242 72 506 173 561 171 507 203 495 121 70 133 11 145 431 189 254 168 14 
2875 -0.2535632049439228 0.12280000204505595 0.724995077292997 0 0 0 0.39 7 2859 37 797 45 309 46 817 57 531 90 355 121 71 139 433 186 291 211 698 228 1026 18 511 55 414 72 507 94 1237 119 311 143 315 151 969 154 808 166 693 167 410 171 508 191 285 193 1101 216 925 218 761 226 612 
2876 0.2853650625761085 0.18430020979881254 1.0867938897100506 0 0 0 0.42 7 2860 161 682 211 699 233 978 
2877 0.1923453374739177 0.16494023693128743 0.972890636923659 0 0 0 0.5 7 2861 34 592 59 356 90 356 122 603 125 958 139 434 140 906 149 1446 166 694 202 220 211 700 8 331 177 637 218 762 225 78 37 798 57 532 86 622 116 1159 193 1102 228 1027 
2878 -0.23755311755039318 0.12745884476737826 0.7380493636391899 0 0 0 0.31 7 2862 34 593 37 799 45 310 51 63 57 533 94 1238 116 1160 125 959 139 435 144 558 151 970 166 695 189 255 202 221 211 701 212 387 216 926 18 512 55 415 58 390 59 357 72 508 86 623 119 312 121 72 131 215 143 316 153 171 154 809 167 411 171 509 173 562 180 697 191 286 193 1103 218 763 226 613 8 332 24 243 102 337 137 165 145 432 178 157 228 1028 
2879 -0.13899245978586255 0.138190106814922 0.8058239132508165 0 0 0 0.27 7 2863 51 64 57 534 144 559 149 1447 189 256 212 388 23 592 37 800 46 818 125 960 167 412 186 292 193 1104 86 624 8 333 24 244 58 391 59 358 94 1239 116 1161 139 436 140 907 151 971 154 810 166 696 171 510 183 526 191 287 216 927 218 764 228 1029 174 95 119 313 203 496 211 702 
2880 0.08654367810966941 0.16510447777327777 0.9648407298284457 0 0 0 0.38 7 2864 30 450 37 801 55 416 57 535 59 359 86 625 94 1240 116 1162 119 314 122 604 125 961 137 166 139 437 140 908 144 560 145 433 149 1448 151 972 161 683 183 527 193 1105 205 574 211 703 212 389 216 928 226 614 228 1030 233 979 8 334 23 593 31 430 34 594 46 819 99 650 131 216 177 638 178 158 186 293 189 257 191 288 202 222 210 540 218 765 72 509 102 338 166 697 173 563 203 497 
2881 0.18317662140833268 0.16635595235661477 0.975135030294519 0 0 0 0.36 7 2865 18 513 34 595 37 802 57 536 59 360 72 510 94 1241 99 651 102 339 116 1163 119 315 122 605 137 167 139 438 140 909 143 317 144 561 151 973 154 811 166 698 171 511 177 639 193 1106 202 223 210 541 211 704 212 390 216 929 225 79 228 1031 233 980 149 1449 180 698 186 294 24 245 173 564 106 477 115 24 168 15 203 498 
2882 0.30318232277521495 0.18791438488881576 1.092983037562442 0 0 0 0.21 7 2866 37 803 46 820 57 537 119 316 122 606 125 962 144 562 149 1450 161 684 183 528 202 224 216 930 233 981 34 596 59 361 150 373 151 974 193 1107 205 575 212 391 228 1032 174 96 117 241 
2883 -0.16967088933469288 0.13604933884260464 0.7857856388079729 0 0 0 0.42 7 2867 51 65 57 538 116 1164 144 563 183 529 189 258 202 225 205 576 211 705 212 392 225 80 167 413 8 335 
2884 -0.1188007484704251 0.14090394769350537 0.8132891812878195 0 0 0 0.41 7 2868 34 597 45 311 51 66 58 392 59 362 94 1242 116 1165 125 963 144 564 151 975 166 699 171 512 191 289 193 1108 202 226 211 706 216 931 218 766 228 1033 23 594 57 539 37 804 167 414 18 514 24 246 8 336 225 81 55 417 174 97 119 317 139 439 154 812 161 685 203 499 
2885 0.24437175894774066 0.17553864981873502 1.0133763283168715 0 0 0 0.34 7 2869 34 598 37 805 45 312 57 540 59 363 86 626 94 1243 116 1166 122 607 125 964 139 440 140 910 143 318 144 565 145 434 149 1451 150 374 151 976 161 686 166 700 180 699 202 227 205 577 211 707 212 393 225 82 228 1034 233 982 24 247 99 652 119 318 68 181 
2886 0.37236138351223547 0.19750018346753218 1.1384153949942581 0 0 0 0.28 7 2870 34 599 37 806 46 821 59 364 86 627 116 1167 119 319 122 608 125 965 131 217 140 911 144 566 149 1452 150 375 151 977 154 813 166 701 177 640 178 159 183 530 189 259 193 1109 202 228 212 394 218 767 225 83 228 1035 233 983 24 248 31 431 72 511 99 653 143 319 173 565 180 700 226 615 106 478 145 435 68 182 137 168 117 242 
2887 0.4692816843897388 0.20894140813780543 1.2004144126513008 0 0 0 0.23 7 2871 139 441 149 1453 202 229 
2888 -0.16186635089438667 0.13817832435474764 0.7875299981899594 0 0 0 0.47 7 2872 90 357 149 1454 166 702 228 1036 18 515 23 595 58 393 94 1244 125 966 131 218 139 442 153 172 154 814 167 415 171 513 173 566 180 701 183 531 193 1110 218 768 8 337 24 249 48 44 55 418 116 1168 151 978 
2889 -0.2582554131093151 0.12859337375271615 0.7200502668591939 0 0 0 0.22 7 2873 137 169 216 932 228 1037 37 807 46 822 116 1169 139 443 167 416 186 295 211 708 
2890 0.2525924877427049 0.18133008011147148 1.0125932706308536 0 0 0 0.52 7 2874 18 516 122 609 125 967 144 567 150 376 211 709 228 1038 24 250 31 432 72 512 99 654 102 340 121 73 173 567 178 160 180 702 106 479 45 313 68 183 137 170 
2891 0.34229832257714804 0.19933360863479943 1.1127492544360518 0 0 0 0.33 7 2875 59 365 99 655 102 341 143 320 144 568 149 1455 166 703 189 260 210 542 225 84 24 251 131 219 
2892 0.21417895302629453 0.1805921834879977 0.99971477485832 0 0 0 0.35 7 2876 125 968 149 1456 161 687 216 933 233 984 37 808 59 366 116 1170 139 444 140 912 151 979 193 1111 211 710 228 1039 
2893 0.10592893154159529 0.1741038554797329 0.9588850670555558 0 0 0 0.31 7 2877 55 419 57 541 139 445 144 569 149 1457 151 980 211 711 18 517 24 252 31 433 59 367 72 513 86 628 94 1245 99 656 102 342 116 1171 121 74 125 969 143 321 154 815 171 514 177 641 178 161 180 703 202 230 210 543 218 769 168 16 228 1040 
2894 0.23983786213519157 0.18129744847869067 1.0074792036716607 0 0 0 0.48 7 2878 30 451 34 600 37 809 45 314 55 420 57 542 59 368 86 629 90 358 94 1246 99 657 102 343 116 1172 122 610 125 970 137 171 139 446 140 913 143 322 144 570 149 1458 150 377 151 981 161 688 171 515 180 704 193 1112 202 231 205 578 210 544 211 712 212 395 225 85 228 1041 233 985 18 518 24 253 31 434 46 823 72 514 119 320 121 75 145 436 154 816 166 704 173 568 177 642 183 532 191 290 216 934 218 770 226 616 106 480 115 25 203 500 
2895 -0.18012299098602633 0.1414846350311571 0.7724653694496026 0 0 0 0.44 7 2879 34 601 45 315 58 394 90 359 144 571 149 1459 154 817 189 261 193 1113 205 579 212 396 216 935 226 617 228 1042 48 45 59 369 72 515 125 971 137 172 151 982 167 417 171 516 183 533 202 232 218 771 8 338 24 254 51 67 55 421 131 220 143 323 153 173 173 569 178 162 211 713 203 501 
2896 0.40340251687154133 0.20978487292148143 1.150402050894055 0 0 0 0.26 7 2880 34 602 46 824 59 370 86 630 94 1247 116 1173 122 611 149 1460 166 705 212 397 216 936 24 255 31 435 72 516 99 658 102 344 119 321 131 221 140 914 143 324 150 378 151 983 154 818 177 643 178 163 189 262 193 1114 202 233 218 772 226 618 37 810 68 184 117 243 228 1043 
2897 0.4191412561865013 0.21623353659300829 1.1714297139015093 0 0 0 0.37 7 2881 34 603 37 811 57 543 86 631 94 1248 116 1174 119 322 122 612 125 972 144 572 145 437 149 1461 151 984 189 263 191 291 193 1115 202 234 212 398 216 937 226 619 228 1044 233 986 55 422 68 185 137 173 140 915 117 244 
2898 -0.10404177483634706 0.1521958075965482 0.8232007269590945 0 0 0 0.39 7 2882 30 452 34 604 58 395 86 632 125 973 144 573 149 1462 151 985 154 819 161 689 183 534 193 1116 202 235 212 399 37 812 55 423 57 544 59 371 119 323 167 418 186 296 205 580 211 714 228 1045 8 339 23 596 24 256 94 1249 140 916 166 706 216 938 218 773 225 86 180 705 174 98 210 545 203 502 
2899 0.47520651929837876 0.22458725933744975 1.1973843468560832 0 0 0 0.26 7 2883 34 605 46 825 86 633 119 324 144 574 189 264 191 292 211 715 226 620 228 1046 8 340 31 436 55 424 72 517 99 659 143 325 166 707 173 570 180 706 59 372 106 481 116 1175 150 379 151 986 154 820 177 644 193 1117 202 236 212 400 216 939 233 987 
2900 0.5183662379339761 0.229232643484257 1.2167581459222558 0 0 0 0.3 7 2884 34 606 37 813 45 316 46 826 57 545 59 373 72 518 86 634 94 1250 99 660 122 613 125 974 131 222 140 917 143 326 144 575 149 1463 151 987 166 708 171 517 173 571 177 645 178 164 180 707 191 293 193 1118 202 237 210 546 211 716 212 401 216 940 218 774 225 87 228 1047 233 988 8 341 18 519 24 257 30 453 31 437 55 425 102 345 116 1176 119 325 137 174 139 447 154 821 186 297 226 621 106 482 68 186 168 17 174 99 
2901 0.2652213643454905 0.19452138803857622 1.0292070683332588 0 0 0 0.36 7 2885 46 827 119 326 125 975 145 438 191 294 228 1048 
2902 -0.2554683175427538 0.13653296832173661 0.7177750445102163 0 0 0 0.35 7 2886 34 607 37 814 45 317 46 828 51 68 55 426 57 546 58 396 90 360 116 1177 119 327 121 76 144 576 186 298 189 265 191 295 211 717 216 941 228 1049 86 635 94 1251 125 976 139 448 143 327 154 822 167 419 171 518 8 342 59 374 
2903 -0.02414079612972386 0.16610017351723413 0.8763256540013448 0 0 0 0.23 7 2887 30 454 34 608 37 815 46 829 58 397 59 375 86 636 90 361 94 1252 99 661 116 1178 119 328 125 977 139 449 140 918 144 577 149 1464 151 988 183 535 189 266 202 238 205 581 216 942 218 775 233 989 57 547 131 223 161 690 167 420 177 646 212 402 8 343 191 296 211 718 225 88 174 100 
2904 0.24475170162141113 0.19152637184443838 1.0060125557987443 0 0 0 0.43 7 2888 18 520 34 609 55 427 57 548 59 376 72 519 90 362 94 1253 99 662 102 346 116 1179 122 614 125 978 139 450 140 919 143 328 144 578 149 1465 150 380 151 989 154 823 161 691 166 709 173 572 177 647 180 708 193 1119 211 719 212 403 216 943 218 776 226 622 228 1050 30 455 37 816 86 637 121 77 183 536 189 267 191 297 210 547 233 990 24 258 31 438 45 318 202 239 46 830 171 519 106 483 
2905 -0.23997728452473147 0.14160004917711247 0.7340022305594051 0 0 0 0.36 7 2889 18 521 37 817 45 319 46 831 48 46 57 549 58 398 59 377 86 638 94 1254 116 1180 125 979 143 329 144 579 151 990 153 174 166 710 171 520 180 709 189 268 191 298 202 240 211 720 212 404 216 944 218 777 228 1051 34 610 51 69 121 78 131 224 139 451 154 824 167 421 173 573 8 344 24 259 72 520 145 439 226 623 
2906 -0.1241676535765331 0.15369191608563867 0.8036962326569759 0 0 0 0.33 7 2890 23 597 30 456 34 611 37 818 59 378 86 639 119 329 140 920 144 580 151 991 154 825 178 165 183 537 191 299 202 241 205 582 212 405 218 778 225 89 51 70 57 550 58 399 90 363 94 1255 139 452 149 1466 167 422 189 269 193 1120 211 721 226 624 228 1052 8 345 24 260 45 320 55 428 72 521 116 1181 137 175 143 330 153 175 161 692 216 945 131 225 168 18 203 503 
2907 -0.00735291700218436 0.16984038418280542 0.8854680130279882 0 0 0 0.26 7 2891 45 321 46 832 57 551 94 1256 99 663 116 1182 119 330 140 921 144 581 145 440 183 538 218 779 225 90 34 612 37 819 167 423 189 270 212 406 23 598 59 379 86 640 149 1467 171 521 177 648 191 300 202 242 228 1053 8 346 58 400 72 522 131 226 210 548 211 722 216 946 151 992 153 176 193 1121 174 101 125 980 166 711 203 504 161 693 
2908 0.001204831981877423 0.17185241659882486 0.8909551603925288 0 0 0 0.38 7 2892 57 552 144 582 225 91 34 613 99 664 116 1183 145 441 149 1468 167 424 211 723 8 347 23 599 24 261 46 833 140 922 171 522 189 271 191 301 193 1122 210 549 218 780 228 1054 59 380 119 331 125 981 161 694 205 583 45 322 174 102 37 820 58 401 203 505 151 993 
2909 -0.21411363461621682 0.1481879027766009 0.7504807984585422 0 0 0 0.59 7 2893 23 600 57 553 90 364 116 1184 121 79 143 331 144 583 145 442 151 994 154 826 166 712 193 1123 202 243 212 407 228 1055 48 47 94 1257 167 425 171 523 211 724 8 348 34 614 59 381 102 347 137 176 
2910 0.04065006322209356 0.18099554554132496 0.9118503124819958 0 0 0 0.25 7 2894 30 457 45 323 55 429 57 554 125 982 139 453 140 923 144 584 149 1469 151 995 161 695 166 713 183 539 193 1124 205 584 211 725 216 947 228 1056 233 991 34 615 46 834 59 382 72 523 145 443 154 827 167 426 202 244 212 408 37 821 86 641 94 1258 99 665 116 1185 119 332 177 649 186 299 189 272 191 302 210 550 226 625 8 349 23 601 143 332 68 187 
2911 -0.18125417837299276 0.15396679526924265 0.7636560019350825 0 0 0 0.32 7 2895 45 324 58 402 23 602 34 616 37 822 46 835 51 71 94 1259 116 1186 125 983 139 454 144 585 151 996 161 696 166 714 167 427 171 524 183 540 193 1125 211 726 216 948 226 626 228 1057 57 555 86 642 119 333 189 273 191 303 218 781 8 350 72 524 153 177 
2912 -0.00503693063770848 0.17731987453010606 0.8822060638131594 0 0 0 0.38 7 2896 34 617 37 823 57 556 58 403 86 643 90 365 94 1260 99 666 119 334 140 924 144 586 145 444 149 1470 151 997 154 828 166 715 177 650 183 541 186 300 189 274 191 304 193 1126 211 727 212 409 218 782 225 92 233 992 46 836 116 1187 203 506 
2913 0.005699656243789953 0.17878905819995308 0.8908095222011646 0 0 0 0.41 7 2897 37 824 125 984 144 587 177 651 189 275 191 305 193 1127 233 993 34 618 116 1188 140 925 145 445 149 1471 151 998 218 783 167 428 94 1261 99 667 139 455 154 829 225 93 8 351 57 557 216 949 58 404 174 103 30 458 183 542 
2914 0.30173523251912376 0.21932199522749662 1.0810099677113787 0 0 0 0.39 7 2898 37 825 45 325 57 558 94 1262 116 1189 122 615 140 926 144 588 149 1472 183 543 186 301 189 276 191 306 193 1128 211 728 212 410 216 950 228 1058 24 262 31 439 99 668 154 830 177 652 178 166 218 784 225 94 72 525 55 430 106 484 119 335 137 177 145 446 121 80 203 507 210 551 
2915 0.3569368470238076 0.22765611877517877 1.1255181641085008 0 0 0 0.52 7 2899 46 837 119 336 125 985 166 716 191 307 228 1059 34 619 59 383 137 178 144 589 145 447 193 1129 202 245 212 411 216 951 226 627 143 333 183 544 218 785 86 644 117 245 154 831 189 277 233 994 
2916 -0.1930527705763866 0.15655580883165343 0.7521121879401962 0 0 0 0.37 7 2900 34 620 48 48 51 72 59 384 94 1263 116 1190 125 986 149 1473 154 832 161 697 166 717 171 525 180 710 211 729 216 952 228 1060 45 326 57 559 139 456 144 590 212 412 86 645 167 429 189 278 191 308 202 246 8 352 18 522 23 603 24 263 55 431 72 526 102 348 143 334 153 178 173 574 218 786 119 337 
2917 -0.03293574340688421 0.1814306102220227 0.8552926175018593 0 0 0 0.47 7 2901 30 459 37 826 57 560 139 457 149 1474 183 545 228 1061 45 327 205 585 174 104 216 953 
2918 0.4868499895329805 0.2570556241810492 1.19802222022236 0 0 0 0.49 7 2902 86 646 94 1264 218 787 116 1191 143 335 191 309 212 413 226 628 106 485 154 833 173 575 37 827 117 246 144 591 166 718 
2919 -0.1558717745311512 0.16854928778413444 0.7822456129839506 0 0 0 0.21 7 2903 45 328 46 838 48 49 57 561 58 405 59 385 86 647 94 1265 131 227 139 458 149 1475 171 526 191 310 211 730 212 414 
2920 0.02207216678550588 0.1957009901069444 0.8971907506979739 0 0 0 0.53 7 2904 37 828 45 329 86 648 90 366 94 1266 139 459 166 719 189 279 191 311 211 731 46 839 119 338 167 430 202 247 233 995 59 386 212 415 
2921 0.1406556722048035 0.2018602419255962 0.9272819482189554 0 0 0 0.26 7 2905 57 562 86 649 137 179 151 999 216 954 228 1062 
2922 0.2837109588401797 0.23323735050481553 1.0614463515279178 0 0 0 0.52 7 2906 37 829 57 563 144 592 161 698 205 586 211 732 233 996 125 987 145 448 191 312 216 955 228 1063 55 432 68 188 116 1192 149 1476 
2923 0.5131159578379675 0.26538208784926914 1.2060133492378144 0 0 0 0.48 7 2907 34 621 94 1267 149 1477 166 720 193 1130 212 416 59 387 150 381 151 1000 211 733 233 997 18 523 23 604 24 264 31 440 55 433 57 564 72 527 99 669 102 349 116 1193 122 616 131 228 137 180 140 927 143 336 171 527 177 653 178 167 180 711 191 313 202 248 210 552 216 956 218 788 226 629 119 339 106 486 173 576 68 189 139 460 144 593 117 247 
2924 0.15179924035675516 0.205467747863221 0.9336341683367758 0 0 0 0.41 7 2908 37 830 46 840 55 434 57 565 59 388 86 650 90 367 116 1194 119 340 122 617 125 988 139 461 144 594 145 449 149 1478 151 1001 189 280 191 314 211 734 212 417 216 957 228 1064 233 998 31 441 99 670 102 350 140 928 177 654 193 1131 210 553 218 789 226 630 34 622 106 487 173 577 183 546 
2925 0.2507524820283058 0.2202774022996943 0.9924873338133814 0 0 0 0.37 7 2909 23 605 30 460 37 831 45 330 59 389 94 1268 116 1195 122 618 139 462 144 595 154 834 161 699 166 721 177 655 178 168 191 315 193 1132 211 735 212 418 216 958 218 790 225 95 228 1065 233 999 149 1479 202 249 31 442 8 353 24 265 55 435 72 528 99 671 119 341 137 181 226 631 102 351 168 19 18 524 203 508 
2926 0.30814758925459546 0.2425978758608672 1.0780397723559265 0 0 0 0.44 7 2910 30 461 34 623 45 331 59 390 86 651 122 619 125 989 140 929 151 1002 166 722 202 250 211 736 212 419 228 1066 
2927 0.3545876445003972 0.2501573455928096 1.1088136511619742 0 0 0 0.3 7 2911 37 832 57 566 59 391 94 1269 116 1196 122 620 125 990 140 930 144 596 150 382 166 723 191 316 202 251 225 96 233 1000 23 606 31 443 86 652 119 342 121 81 154 835 177 656 218 791 226 632 24 266 34 624 46 841 55 436 106 488 131 229 143 337 145 450 149 1480 151 1003 183 547 189 281 193 1133 216 959 117 248 137 182 211 737 
2928 -0.20556938982252487 0.17097097528253785 0.7546186972834428 0 0 0 0.19 7 2912 45 332 90 368 191 317 
2929 0.1465320558794011 0.21143478368192076 0.9284627045361432 0 0 0 0.27 7 2913 23 607 30 462 37 833 46 842 55 437 57 567 59 392 86 653 90 369 94 1270 116 1197 119 343 122 621 125 991 137 183 140 931 143 338 144 597 145 451 149 1481 151 1004 161 700 166 724 173 578 177 657 183 548 186 302 189 282 191 318 193 1134 202 252 205 587 211 738 212 420 216 960 218 792 226 633 228 1067 233 1001 8 354 31 444 34 625 72 529 102 352 180 712 210 554 106 489 203 509 
2930 0.4360126291346728 0.26576843130908395 1.1564465356432552 0 0 0 0.4 7 2914 37 834 57 568 144 598 166 725 191 319 216 961 225 97 233 1002 23 608 72 530 106 490 116 1198 143 339 151 1005 177 658 180 713 226 634 68 190 
2931 0.020110612525538838 0.20499584665572418 0.8941407938277699 0 0 0 0.64 7 2915 34 626 37 835 46 843 57 569 99 672 116 1199 166 726 183 549 189 283 210 555 211 739 212 421 167 431 8 355 59 393 94 1271 131 230 139 463 149 1482 18 525 177 659 180 714 203 510 216 962 228 1068 
2932 0.28750419252035697 0.24590549682183396 1.063165888317108 0 0 0 0.33 7 2916 34 627 37 836 55 438 125 992 144 599 145 452 150 383 151 1006 183 550 216 963 119 344 122 622 139 464 161 701 205 588 233 1003 
2933 0.39394133290805733 0.263708457319035 1.1321033070680064 0 0 0 0.47 7 2917 34 628 37 837 57 570 59 394 119 345 122 623 125 993 144 600 145 453 149 1483 150 384 189 284 191 320 202 253 211 740 212 422 216 964 226 635 228 1069 233 1004 72 531 99 673 106 491 116 1200 154 836 166 727 173 579 178 169 180 715 210 556 225 98 
2934 -0.17620763321948735 0.18030802809654284 0.769059275857113 0 0 0 0.45 7 2918 139 465 161 702 
2935 0.1452451621952213 0.21822218192276943 0.9233785937049289 0 0 0 0.41 7 2919 37 838 57 571 86 654 125 994 139 466 144 601 145 454 149 1484 151 1007 161 703 189 285 191 321 211 741 212 423 216 965 228 1070 233 1005 8 356 23 609 31 445 116 1201 119 346 131 231 143 340 173 580 183 551 193 1135 210 557 218 793 226 636 72 532 106 492 203 511 171 528 
2936 0.3564424831627082 0.2619020035587023 1.1028655255434583 0 0 0 0.25 7 2920 59 395 94 1272 183 552 191 322 193 1136 
2937 -0.05637205889570793 0.20333825341360776 0.8478582686865761 0 0 0 0.44 7 2921 23 610 30 463 34 629 57 572 59 396 90 370 94 1273 99 674 116 1202 125 995 139 467 144 602 151 1008 154 837 180 716 193 1137 205 589 211 742 212 424 216 966 225 99 226 637 228 1071 233 1006 166 728 167 432 177 660 189 286 218 794 8 357 24 267 55 439 58 406 143 341 191 323 210 558 72 533 102 353 153 179 173 581 202 254 203 512 
2938 0.30548334480528627 0.25613305040956436 1.0716170767718027 0 0 0 0.28 7 2922 37 839 122 624 144 603 161 704 183 553 205 590 
2939 0.38830167677299127 0.2686339027767232 1.1215304741646317 0 0 0 0.25 7 2923 140 932 144 604 151 1009 193 1138 23 611 59 397 94 1274 106 493 143 342 145 455 173 582 178 170 180 717 218 795 226 638 228 1072 
2940 0.5160569675213145 0.2873781865892772 1.1994611682060712 0 0 0 0.36 7 2924 18 526 34 630 46 844 57 573 94 1275 140 933 144 605 149 1485 150 385 151 1010 154 838 166 729 171 529 177 661 178 171 191 324 202 255 211 743 212 425 218 796 228 1073 233 1007 24 268 125 996 216 967 55 440 137 184 
2941 -0.10195624172393652 0.19726946409090934 0.8147422347909933 0 0 0 0.28 7 2925 46 845 125 997 139 468 151 1011 228 1074 
2942 0.0021729935962058796 0.2137171984932063 0.8837484155203997 0 0 0 0.27 7 2926 57 574 58 407 139 469 161 705 205 591 233 1008 34 631 102 354 151 1012 
2943 0.421202385432818 0.27684420881364996 1.142687282791959 0 0 0 0.28 7 2927 46 846 99 675 144 606 149 1486 180 718 23 612 24 269 31 446 72 534 145 456 154 839 212 426 218 797 106 494 131 232 140 934 193 1139 202 256 211 744 
