# 3D point list with one line of data per point:
#   POINT3D_ID, X, Y, Z, R, G, B, ERROR, TRACK[] as (IMAGE_ID, POINT2D_IDX)
# Number of points: 261, mean track length: 15.4
324 -0.15440404136243602 0.16374571391942705 0.37228322171242134 56 50 53 7.36 18 59 19 287 20 272 21 275 22 284 36 219 
325 -0.5059227717065202 -0.009484679834085836 0.7491532986474757 51 35 27 5.67 18 60 19 288 20 273 
326 -0.19216340237923413 0.13570173424098075 0.5619653013835846 120 114 109 4.6 18 61 19 289 20 274 21 276 22 285 23 271 24 230 26 214 
327 0.05392855672854117 0.12261013401764914 0.7622495368963319 50 34 35 1.94 18 62 19 290 21 277 22 286 23 272 24 231 26 215 35 176 36 220 37 183 38 267 42 248 43 231 
328 -0.13710742087183161 0.15311767579201538 0.3982195221417657 37 34 34 6.75 18 63 19 291 20 275 21 278 22 287 24 232 26 216 
329 -0.28765695585238177 -0.06674576482793516 0.5604584630491087 143 136 126 5.74 18 64 19 292 20 276 21 279 22 288 23 273 24 233 26 217 38 268 
330 0.3540416950677193 -0.1310813890493597 0.840345095433743 105 126 141 1.63 18 65 19 293 20 277 21 280 22 289 23 274 24 234 35 177 36 221 37 184 38 269 39 255 40 265 42 249 43 232 
331 0.2395048269176867 0.21214837944013323 0.5223367975795884 45 36 37 2.88 18 66 19 294 20 278 21 281 22 290 23 275 24 235 26 218 36 222 40 266 12 8 17 9 
332 -0.22423997108286817 0.14117787978982063 0.5393032403738895 37 30 25 5.53 18 67 19 295 20 279 21 282 22 291 23 276 24 236 39 256 
333 0.1547366426116837 0.19854003919601473 0.48895217699748567 22 23 28 2.13 18 68 19 296 20 280 21 283 22 292 23 277 
334 -0.31889558602488055 -0.22091410298031108 0.5777469831886246 82 81 83 7.32 18 69 19 297 20 281 21 284 22 293 23 278 24 237 26 219 38 270 
335 -0.2788043475188634 -0.14938329116992174 0.6012225874651904 192 183 159 5.84 18 70 19 298 20 282 21 285 22 294 23 279 24 238 26 220 
336 -0.06495869767728024 0.15986931529631393 0.3753615917446053 69 88 38 6.97 18 71 19 299 20 283 21 286 22 295 23 280 24 239 26 221 36 223 
337 -0.3151013593334931 0.12725529727640744 0.4780800438779472 105 91 84 7.44 18 72 19 300 20 284 21 287 22 296 24 240 26 222 36 224 38 271 39 257 
338 -0.09423334539507547 -0.06039268076460412 0.7092174478527092 43 46 48 2.58 18 73 19 301 20 285 21 288 22 297 23 281 24 241 35 178 36 225 37 185 38 272 42 250 
339 -0.28548227278414096 0.1817941512087902 0.4976488553460029 66 52 46 8.41 18 74 19 302 20 286 21 289 22 298 23 282 24 242 26 223 
340 -0.2969192605657335 -0.008632249383844935 0.5334330502469096 126 111 103 6.03 18 75 19 303 20 287 21 290 22 299 23 283 24 243 26 224 36 226 38 273 
341 -0.1825949410614904 -0.02295941337348753 0.6200707231959564 135 124 113 3.53 18 76 19 304 20 288 21 291 22 300 23 284 24 244 26 225 38 274 39 258 
342 -0.1520635013677985 0.1516738922137919 0.5886928763791787 120 113 102 3.68 18 77 19 305 20 289 21 292 22 301 24 245 26 226 36 227 38 275 39 259 
343 0.476634703849486 0.17112244547184277 0.8443983111108097 155 163 168 1.84 18 78 19 306 20 290 21 293 22 302 23 285 24 246 35 179 38 276 39 260 40 267 42 251 43 233 
344 -0.2914739046709575 0.12839611502224904 0.5000421904123608 111 90 83 7.27 18 79 19 307 20 291 21 294 22 303 23 286 24 247 26 227 36 228 
345 -0.08249775992923107 0.10291741010888444 0.6644988950680525 110 110 116 2.83 18 80 19 308 20 292 21 295 22 304 23 287 24 248 36 229 37 186 38 277 40 268 42 252 
346 0.304389497393002 -0.30476838254374516 0.8386503435002222 131 153 166 3.45 18 81 19 309 20 293 21 296 22 305 23 288 37 187 38 278 39 261 40 269 42 253 43 234 
347 -0.2879269958477124 -0.12008675883959115 0.5727675784226675 72 78 83 5.89 18 82 19 310 20 294 21 297 22 306 23 289 24 249 26 228 38 279 
348 -0.32987891214236637 0.07827018268813007 0.4796887676147208 120 116 109 7.44 18 83 19 311 20 295 21 298 22 307 24 250 26 229 36 230 38 280 39 262 
349 -0.31070903856184473 -0.12489079505701471 0.5571211994331908 152 145 135 6.73 18 84 19 312 20 296 21 299 22 308 23 290 24 251 26 230 38 281 
350 0.5052873617896487 -0.040395624536847655 1.1597472769597805 116 108 99 1.91 19 313 20 297 21 300 23 291 24 252 35 180 36 231 37 188 38 282 39 263 40 270 42 254 43 235 
351 0.5388572437699145 0.04370068588353668 1.180597984877164 214 230 229 2.32 19 314 20 298 22 309 23 292 24 253 35 181 36 232 37 189 38 283 39 264 40 271 42 255 43 236 
352 0.48796254946006745 0.2287271963166253 0.8249554857525345 92 106 103 4.61 18 85 19 315 20 299 21 301 22 310 23 293 24 254 26 231 35 182 36 233 37 190 38 284 39 265 40 272 42 256 43 237 25 215 27 196 28 188 29 20 30 20 31 18 41 254 
353 0.4129187375064951 0.030020556465741317 1.08253310832763 122 137 153 1.26 18 86 19 316 21 302 22 311 23 294 24 255 26 232 35 183 36 234 37 191 38 285 39 266 40 273 42 257 43 238 
354 0.5643772250147104 0.2516481779853773 1.1434754133893583 124 133 146 2.68 19 317 22 312 23 295 35 184 37 192 38 286 39 267 40 274 42 258 43 239 
355 0.40528327849427953 0.22656495690223083 1.0161325819602582 119 135 151 1.34 18 87 19 318 21 303 22 313 23 296 24 256 26 233 35 185 36 235 37 193 38 287 39 268 40 275 42 259 43 240 
356 0.5108333188571753 0.18326000707352597 1.0989145768185693 92 84 84 1.95 19 319 20 300 21 304 23 297 24 257 35 186 36 236 37 194 38 288 39 269 40 276 42 260 43 241 
357 0.470949566128599 0.17327221370007317 1.0680049425907374 108 101 100 1.37 20 301 21 305 22 314 26 234 35 187 36 237 37 195 38 289 39 270 40 277 42 261 43 242 
358 0.645492627149186 0.07255568256826311 1.2475211479443757 79 65 64 3.41 20 302 21 306 22 315 23 298 35 188 37 196 38 290 39 271 40 278 42 262 43 243 
359 0.3594699793764881 0.09788879153521371 0.9857816650936951 77 69 63 0.68 18 88 19 320 20 303 22 316 23 299 24 258 26 235 36 238 37 197 38 291 39 272 40 279 42 263 43 244 
360 0.6349963414343008 0.235944523031851 1.1868856438366089 56 60 60 3.83 20 304 21 307 22 317 23 300 35 189 37 198 38 292 39 273 40 280 42 264 43 245 
361 0.558324128590855 -0.08974598024204157 1.2196112161397852 65 50 44 3.08 19 321 21 308 22 318 23 301 35 190 36 239 37 199 38 293 39 274 40 281 42 265 43 246 
362 0.6375679457576144 0.1521869700346862 1.216540093833634 125 113 108 3.32 20 305 21 309 22 319 23 302 35 191 37 200 38 294 39 275 40 282 42 266 43 247 
363 0.00013629421510646418 0.07167131499929395 0.7426632136452727 50 49 50 1.94 18 89 19 322 20 306 23 303 24 259 26 236 36 240 37 201 38 295 39 276 40 283 42 267 43 248 
364 0.6451116166552828 0.16108028506109745 1.2203272710100235 117 104 97 3.47 20 307 21 310 22 320 23 304 35 192 37 202 38 296 39 277 40 284 42 268 43 249 
365 0.34361534460500154 0.06646637145433038 0.7967705154485195 100 99 104 1.21 18 90 19 323 20 308 21 311 22 321 23 305 24 260 26 237 35 193 36 241 37 203 38 297 39 278 40 285 42 269 43 250 
366 0.6256723433786614 0.2724126840093418 1.1662222250474503 109 102 97 4.13 21 312 22 322 23 306 35 194 37 204 38 298 39 279 40 286 42 270 43 251 
367 0.5520599581848977 0.2712617345764727 0.8253965251402156 14 14 16 4.18 19 324 20 309 22 323 23 307 35 195 36 242 38 299 39 280 40 287 42 271 43 252 21 313 25 216 27 197 29 21 31 19 32 21 33 23 34 22 41 255 44 32 45 34 46 187 47 212 48 227 
368 0.6637057666595938 0.2845981949112371 0.9570819974398865 53 52 34 3.01 35 196 38 300 39 281 40 288 42 272 43 253 
369 0.33850070850726494 -0.08999966010407155 0.8367401326191679 64 63 62 1.31 18 91 19 325 20 310 21 314 22 324 23 308 24 261 26 238 35 197 36 243 37 205 38 301 39 282 40 289 42 273 43 254 
370 0.5821446789892881 0.06080987078716264 1.1990253651582112 146 138 141 2.38 18 92 21 315 22 325 23 309 35 198 37 206 38 302 39 283 40 290 42 274 43 255 25 217 27 198 29 22 31 20 33 24 41 256 44 33 45 35 46 188 47 213 48 228 
371 0.4783872762653459 0.24560634701215892 1.0506414382661746 109 99 92 2.04 20 311 21 316 26 239 35 199 36 244 37 207 38 303 39 284 40 291 42 275 43 256 
372 0.5025629116526645 -0.18586543383759246 0.9527469556150793 59 81 108 2.72 18 93 19 326 20 312 21 317 22 326 23 310 24 262 35 200 37 208 38 304 39 285 40 292 42 276 43 257 
373 0.5731258722691095 0.24377684431993962 1.0189532964647015 55 48 48 2.71 21 318 22 327 23 311 35 201 36 245 37 209 38 305 39 286 40 293 42 277 43 258 
374 0.5362531061238011 0.17588766173308218 1.1273115740803081 43 33 36 2.06 19 327 20 313 22 328 23 312 35 202 36 246 37 210 38 306 39 287 40 294 42 278 43 259 
375 0.2067011232740541 0.16849774378008192 0.631053171686395 147 154 152 3.87 18 94 19 328 20 314 21 319 22 329 23 313 24 263 26 240 35 203 36 247 37 211 38 307 39 288 40 295 42 279 43 260 25 218 27 199 28 189 29 23 30 21 31 21 32 22 33 25 34 23 41 257 44 34 45 36 46 189 47 214 48 229 
376 0.4803541227151073 -0.18615949244166904 0.9367909407338769 145 165 175 2.53 18 95 19 329 20 315 21 320 22 330 23 314 24 264 35 204 37 212 38 308 39 289 40 296 42 280 43 261 
377 0.5294478634321121 0.005104371960879075 1.173954783481332 57 57 68 2.01 19 330 20 316 22 331 23 315 24 265 35 205 36 248 37 213 38 309 39 290 40 297 42 281 43 262 
378 0.05976408378733655 0.03644250524221872 0.7796230743495995 74 51 41 1.68 18 96 21 321 22 332 23 316 24 266 26 241 35 206 36 249 37 214 38 310 39 291 42 282 43 263 
379 0.41644821461716636 0.2285458706771158 1.03103645217404 117 132 148 1.5 18 97 19 331 21 322 22 333 23 317 24 267 26 242 35 207 36 250 37 215 38 311 39 292 40 298 42 283 43 264 
380 0.3425786204386153 0.20525976456515227 0.7241446278238951 175 172 168 1.93 18 98 19 332 20 317 21 323 22 334 23 318 24 268 26 243 35 208 36 251 37 216 38 312 39 293 40 299 42 284 43 265 
381 0.45852755329919925 0.2526292545946671 0.7182411700338762 44 37 34 4.02 19 333 20 318 21 324 22 335 23 319 24 269 26 244 35 209 36 252 38 313 39 294 40 300 42 285 43 266 
382 0.6214831537003638 0.22236994869498394 1.1804947562760737 125 112 103 3.15 18 99 20 319 21 325 22 336 23 320 35 210 37 217 38 314 39 295 40 301 42 286 43 267 
383 0.48259494473103676 0.19670453162171106 0.86802124090118 44 32 32 3.04 18 100 19 334 20 320 21 326 22 337 23 321 24 270 26 245 35 211 36 253 37 218 38 315 39 296 40 302 42 287 43 268 25 219 27 200 28 190 29 24 30 22 31 22 32 23 33 26 34 24 41 258 44 35 45 37 46 190 47 215 48 230 
384 0.4756689460173824 -0.14341847848715536 0.9423687940057976 141 151 159 2.03 18 101 19 335 20 321 21 327 22 338 23 322 24 271 35 212 36 254 37 219 38 316 39 297 40 303 42 288 43 269 
385 0.5859021015335274 0.18853411418758567 1.1694983039427032 95 83 86 2.64 18 102 19 336 21 328 22 339 23 323 35 213 37 220 38 317 39 298 40 304 42 289 43 270 
386 0.4331177535805515 0.18791576650775085 1.0538292524263277 109 115 128 1.16 18 103 19 337 21 329 22 340 23 324 24 272 35 214 36 255 37 221 38 318 39 299 40 305 42 290 43 271 
387 0.712607448555242 0.27841992415737504 1.0305373351196896 79 72 80 4.92 35 215 37 222 38 319 39 300 40 306 42 291 43 272 
388 0.433281492117444 0.2299971795850979 1.0434201564586723 99 113 127 1.88 18 104 19 338 21 330 22 341 23 325 24 273 35 216 36 256 37 223 38 320 39 301 40 307 42 292 43 273 25 220 28 191 29 25 30 23 31 23 32 24 33 27 34 25 41 259 44 36 45 38 46 191 47 216 48 231 
389 0.009589535028170412 0.09651965362336816 0.7499752247102497 70 68 68 1.9 18 105 19 339 20 322 23 326 24 274 26 246 35 217 36 257 37 224 38 321 39 302 40 308 42 293 43 274 
390 0.4597585247691538 0.19037740705457973 1.0576190735251223 63 57 57 1.33 18 106 20 323 21 331 22 342 23 327 26 247 35 218 36 258 37 225 38 322 39 303 40 309 42 294 43 275 
391 0.33193427657507935 0.13025659525736 0.7451238355454559 121 115 110 4.13 18 107 19 340 21 332 22 343 23 328 24 275 26 248 35 219 36 259 37 226 38 323 39 304 40 310 42 295 43 276 7 11 8 11 9 10 10 12 11 8 12 9 13 7 14 8 16 8 17 10 41 260 46 192 47 217 48 232 49 176 25 221 27 201 28 192 29 26 30 24 31 24 32 25 33 28 34 26 44 37 45 39 
392 0.2096336677099093 -0.11373107362467325 0.9435280229850616 29 18 14 1.55 18 108 19 341 21 333 22 344 23 329 24 276 26 249 35 220 36 260 37 227 38 324 39 305 40 311 42 296 43 277 
393 0.3407610689767811 -0.01692837447651447 0.8178507235210725 93 96 102 2.11 18 109 19 342 20 324 21 334 22 345 23 330 24 277 26 250 35 221 36 261 37 228 38 325 39 306 40 312 42 297 43 278 7 12 8 12 9 11 10 13 11 9 12 10 13 8 14 9 15 8 16 9 17 11 41 261 47 218 48 233 49 177 
394 0.6589158052812716 0.28188259582975966 0.8907103562948905 42 51 30 3.75 35 222 36 262 38 326 39 307 40 313 27 202 29 27 31 25 33 29 41 262 
395 0.4570473936514017 0.2163057596489313 0.8236776300755223 116 112 109 1.88 18 110 19 343 20 325 21 335 22 346 23 331 24 278 26 251 35 223 36 263 37 229 38 327 39 308 40 314 42 298 43 279 11 10 12 11 13 9 41 263 
396 0.20393082285414615 0.19938735595854631 0.8480597530099931 98 92 88 2.3 18 111 19 344 20 326 23 332 24 279 26 252 35 224 36 264 37 230 38 328 39 309 40 315 43 280 22 347 25 222 27 203 28 193 29 28 30 25 31 26 32 26 33 30 34 27 41 264 44 38 45 40 46 193 47 219 48 234 
397 0.6601894301206983 0.27978465279032766 0.9137435952201282 32 42 21 3.72 35 225 38 329 39 310 40 316 42 299 27 204 29 29 31 27 33 31 41 265 
398 0.06833731711576622 -0.08190043797111814 0.6294344134570218 81 80 78 3.59 19 345 20 327 21 336 22 348 23 333 24 280 26 253 36 265 38 330 39 311 40 317 42 300 43 281 25 223 27 205 28 194 29 30 30 26 32 27 34 28 41 266 44 39 45 41 46 194 47 220 48 235 
399 0.559280771890202 0.2630329808079608 1.0805939589093951 53 34 32 2.78 22 349 23 334 35 226 36 266 37 231 38 331 39 312 40 318 42 301 43 282 
400 0.21098455019785325 0.014319840600759097 0.9036804061717251 30 26 24 1.21 18 112 19 346 21 337 22 350 23 335 24 281 26 254 35 227 36 267 37 232 38 332 39 313 40 319 43 283 
401 0.6035503649026767 0.2702987278427974 0.9414404788322183 25 22 23 3.75 35 228 36 268 38 333 39 314 40 320 42 302 43 284 33 32 41 267 44 40 45 42 46 195 47 221 48 236 
402 0.1916293533637805 -0.002692097607340143 0.8967535011812592 42 31 24 1.12 18 113 19 347 20 328 22 351 23 336 24 282 26 255 36 269 37 233 38 334 39 315 40 321 43 285 
403 0.6346804587247966 0.14326616569329606 1.2167083846837385 116 108 105 3.24 20 329 21 338 22 352 23 337 35 229 37 234 38 335 39 316 40 322 42 303 43 286 
404 0.34736997073131914 0.15068629632842853 0.7501384104380702 123 127 135 1.32 18 114 19 348 20 330 21 339 22 353 23 338 24 283 26 256 35 230 36 270 37 235 38 336 39 317 40 323 42 304 43 287 
405 0.1835671754932665 -0.053499268786616684 0.9093836656505085 36 26 20 1.32 18 115 19 349 20 331 22 354 23 339 24 284 26 257 36 271 37 236 38 337 39 318 40 324 43 288 
406 0.6989895122962018 0.2841547804066013 1.0168358299469822 66 63 70 4.73 35 231 37 237 38 338 39 319 40 325 42 305 43 289 
407 0.15734834436945205 -0.034311560465804816 0.9014705751919989 31 28 24 1.28 19 350 20 332 21 340 23 340 24 285 26 258 36 272 37 238 38 339 39 320 40 326 43 290 
408 0.4921202633544577 -0.07084779879457537 1.1548061192724206 112 101 91 2.11 19 351 20 333 21 341 23 341 24 286 26 259 35 232 36 273 37 239 38 340 39 321 40 327 42 306 43 291 
409 0.49257204132227567 -0.1755313669852269 0.9455719044134979 122 133 140 5.0 18 116 19 352 20 334 21 342 22 355 23 342 24 287 35 233 37 240 38 341 39 322 40 328 42 307 43 292 25 224 27 206 28 195 29 31 32 28 33 33 41 268 44 41 45 43 46 196 47 222 48 237 
410 0.41182113273746335 0.16391517134671788 1.0490999090770672 90 103 114 1.04 18 117 19 353 21 343 22 356 23 343 24 288 26 260 35 234 36 274 37 241 38 342 39 323 40 329 42 308 43 293 
411 0.20208220324618925 -0.08875338388158129 0.7158255544808338 124 128 133 2.76 18 118 19 354 20 335 21 344 22 357 23 344 24 289 26 261 35 235 36 275 37 242 38 343 39 324 40 330 42 309 43 294 6 8 7 13 8 13 9 12 10 14 11 11 12 12 13 10 15 9 16 10 17 12 41 269 46 197 47 223 48 238 49 178 25 225 27 207 28 196 29 32 30 27 31 28 32 29 33 34 34 29 44 42 45 44 
412 0.5773219197113933 0.09572755970312005 1.1818194158690534 124 115 109 2.09 18 119 21 345 22 358 23 345 35 236 37 243 38 344 39 325 40 331 42 310 43 295 
413 0.5888261204173112 0.25966621764609665 1.0661813077221607 40 36 37 2.57 35 237 37 244 38 345 39 326 40 332 
414 0.660553766316907 -0.09666886166052273 1.2748024882322577 29 24 27 4.32 20 336 21 346 22 359 23 346 35 238 37 245 38 346 39 327 40 333 42 311 43 296 25 226 27 208 29 33 31 29 33 35 41 270 44 43 45 45 46 198 47 224 48 239 
415 0.5043830891453241 0.2552674258314818 0.8077396574535876 81 84 85 3.1 19 355 20 337 21 347 22 360 23 347 35 239 36 276 38 347 39 328 40 334 42 312 43 297 
416 0.6002463261763819 -0.008562619280880769 1.2322415457028713 143 138 135 2.66 20 338 21 348 22 361 23 348 35 240 37 246 38 348 39 329 40 335 42 313 43 298 
417 0.6525524488320429 0.26859797461576734 1.1958951367612045 100 82 77 4.65 21 349 22 362 35 241 37 247 38 349 39 330 40 336 42 314 43 299 
418 0.6768335068303045 0.2867767979345267 0.956852759614459 52 51 43 4.06 35 242 38 350 39 331 40 337 42 315 43 300 27 209 29 34 31 30 33 36 41 271 44 44 45 46 
419 0.6058094990355294 0.17632247664247963 1.180651578053809 120 114 114 2.67 20 339 21 350 22 363 23 349 35 243 37 248 38 351 39 332 40 338 42 316 43 301 
420 0.7239106472311589 0.2949793215545956 0.9816655626950885 46 55 31 5.49 35 244 38 352 39 333 40 339 
421 0.0855873986315992 -0.1698758622029433 0.6390080658627747 136 137 136 2.89 18 120 19 356 20 340 21 351 22 364 23 350 24 290 26 262 38 353 39 334 40 340 42 317 43 302 
422 0.5812255620057454 0.22966996051363903 0.8349852101534372 23 26 21 3.16 19 357 35 245 36 277 37 249 38 354 39 335 40 341 42 318 43 303 25 227 27 210 29 35 31 31 32 30 33 37 34 30 41 272 44 45 45 47 46 199 47 225 48 240 
423 0.21775277712295557 -0.148319831287194 0.7353198640324018 150 152 150 2.43 18 121 19 358 20 341 21 352 22 365 23 351 24 291 26 263 36 278 37 250 38 355 39 336 40 342 42 319 43 304 6 9 7 14 8 14 9 13 10 15 11 12 12 13 13 11 14 10 15 10 16 11 17 13 41 273 46 200 47 226 48 241 49 179 
424 0.4475576946931357 -0.029321188973965056 1.114921565677454 128 140 150 2.15 18 122 20 342 21 353 22 366 23 352 26 264 35 246 36 279 37 251 38 356 39 337 40 343 42 320 43 305 6 10 7 15 9 14 10 16 41 274 46 201 47 227 48 242 49 180 27 211 28 197 29 36 30 28 32 31 33 38 34 31 44 46 45 48 
425 -0.13794108680373712 -0.18051769690092284 0.6929990165356323 106 71 59 3.34 18 123 19 359 20 343 21 354 22 367 23 353 24 292 26 265 36 280 37 252 38 357 39 338 40 344 42 321 43 306 
426 0.6366192531586423 -0.01341817035418562 1.2613957338965067 154 144 138 3.4 20 344 21 355 22 368 23 354 35 247 37 253 38 358 39 339 40 345 42 322 43 307 
427 -0.1356751259533205 -0.10138477674401843 0.6796471553821849 57 46 44 2.96 18 124 19 360 20 345 21 356 22 369 23 355 24 293 26 266 36 281 37 254 38 359 39 340 42 323 43 308 
428 0.42481598214654176 -0.07964791614937164 1.1186652670863688 36 28 26 1.48 21 357 22 370 23 356 24 294 35 248 36 282 37 255 38 360 39 341 40 346 42 324 43 309 8 15 9 15 10 17 11 13 
429 0.48482750292124344 -0.10101282918223707 0.9370040145067928 175 195 205 1.84 18 125 19 361 20 346 21 358 22 371 23 357 24 295 26 267 35 249 36 283 37 256 38 361 39 342 40 347 42 325 43 310 
430 0.013764341815648914 -0.1027575998043648 0.8002134577611523 42 37 30 1.95 18 126 19 362 22 372 23 358 24 296 26 268 35 250 36 284 37 257 38 362 39 343 40 348 43 311 6 11 7 16 8 16 9 16 10 18 11 14 12 14 13 12 14 11 15 11 16 12 17 14 47 228 48 243 49 181 
431 0.391769870441433 -0.1187748646381414 1.0762843535220978 25 25 25 2.36 21 359 22 373 23 359 24 297 35 251 36 285 37 258 38 363 39 344 40 349 42 326 43 312 7 17 9 17 10 19 11 15 41 275 46 202 47 229 48 244 49 182 34 32 44 47 45 49 
432 0.06277455205249916 -0.017231886108242944 0.7962909554838243 41 31 23 1.59 18 127 19 363 21 360 22 374 23 360 24 298 26 269 35 252 36 286 37 259 38 364 39 345 42 327 43 313 
433 0.38019187218122913 0.06602388166647384 1.012029767770436 86 72 69 0.96 18 128 19 364 20 347 21 361 22 375 23 361 24 299 26 270 35 253 36 287 37 260 38 365 39 346 40 350 42 328 43 314 
434 0.4682927092438241 -0.024431390425032565 0.9005099167598949 168 177 183 1.37 18 129 19 365 20 348 21 362 22 376 23 362 24 300 26 271 35 254 36 288 37 261 38 366 39 347 40 351 42 329 43 315 
435 0.42467962229224715 -0.034921722100596984 1.1116710953053182 137 154 168 1.39 19 366 21 363 22 377 23 363 24 301 35 255 36 289 37 262 38 367 39 348 40 352 42 330 43 316 
436 0.4276658791072606 0.22538760238480382 0.6701774847640101 22 23 29 3.93 20 349 21 364 22 378 23 364 24 302 26 272 35 256 36 290 38 368 39 349 40 353 42 331 43 317 25 228 27 212 28 198 29 37 30 29 31 32 32 32 33 39 34 33 41 276 44 48 45 50 
437 0.17293563483561658 -0.13372172648966552 0.6961197151757395 95 87 82 3.9 18 130 19 367 20 350 21 365 22 379 23 365 24 303 26 273 35 257 36 291 37 263 38 369 39 350 40 354 42 332 43 318 25 229 27 213 28 199 29 38 30 30 31 33 32 33 33 40 34 34 41 277 44 49 45 51 46 203 47 230 48 245 
438 0.4568095026459177 0.16628746978309114 1.0647827039998126 38 31 31 1.26 18 131 20 351 21 366 22 380 23 366 26 274 35 258 36 292 37 264 38 370 39 351 40 355 42 333 43 319 
439 0.5485418183860273 0.2060267685583393 1.1438918184869884 147 160 176 2.4 19 368 22 381 23 367 35 259 36 293 37 265 38 371 39 352 40 356 42 334 43 320 
440 0.41843433354050696 0.06650663119680206 1.0611533575504792 98 94 93 1.1 18 132 19 369 20 352 21 367 22 382 23 368 24 304 35 260 36 294 37 266 38 372 39 353 40 357 42 335 43 321 
441 0.3100824618605123 -0.11252405551285034 0.8022589628056597 110 123 130 1.6 18 133 19 370 20 353 21 368 22 383 23 369 24 305 26 275 35 261 36 295 37 267 38 373 39 354 40 358 42 336 43 322 
442 0.339505069900232 -0.11939888702464098 0.8209257336877347 139 148 152 1.66 18 134 19 371 20 354 21 369 22 384 23 370 24 306 26 276 35 262 36 296 37 268 38 374 39 355 40 359 42 337 43 323 
443 0.4523087058405644 -0.0269305674868766 0.8946140750765852 171 174 167 1.32 18 135 19 372 20 355 21 370 22 385 23 371 24 307 26 277 35 263 36 297 37 269 38 375 39 356 40 360 42 338 43 324 
444 -0.12110663497273728 0.05290114813758746 0.6512441953898198 108 114 113 2.33 18 136 19 373 20 356 21 371 22 386 23 372 24 308 26 278 36 298 37 270 38 376 42 339 43 325 5 4 6 12 7 18 8 17 9 18 10 20 11 16 12 15 13 13 14 12 15 12 16 13 17 15 41 278 48 246 
445 0.46896556073386053 -0.03214006524371497 0.9290871830236248 41 36 39 1.36 18 137 19 374 20 357 21 372 22 387 23 373 24 309 26 279 35 264 36 299 37 271 38 377 39 357 40 361 42 340 43 326 
446 0.0195138744945275 0.0634498363319306 0.7662455219592751 69 82 85 1.8 18 138 19 375 20 358 22 388 23 374 24 310 26 280 35 265 36 300 37 272 38 378 39 358 42 341 43 327 
447 0.23494451398872312 0.013166196706574325 0.9279098145348671 73 59 47 1.11 18 139 19 376 21 373 22 389 23 375 24 311 26 281 35 266 36 301 37 273 38 379 39 359 42 342 43 328 
448 0.4421011648812681 0.025321306322252997 1.1029762293618026 138 169 179 1.22 20 359 21 374 22 390 23 376 35 267 36 302 37 274 38 380 39 360 40 362 42 343 43 329 
449 0.3431540771112667 0.018530794023432797 0.8093896602873909 88 89 89 1.99 19 377 20 360 21 375 22 391 23 377 24 312 26 282 35 268 36 303 37 275 38 381 39 361 40 363 42 344 43 330 7 19 8 18 9 19 10 21 11 17 12 16 13 14 14 13 15 13 16 14 17 16 41 279 46 204 47 231 48 247 49 183 25 230 27 214 28 200 29 39 30 31 31 34 32 34 33 41 34 35 44 50 45 52 
450 0.38825229834242947 0.10507747157940722 1.009770310065818 65 61 61 3.38 18 140 19 378 21 376 22 392 23 378 24 313 26 283 35 269 36 304 37 276 38 382 39 362 40 364 42 345 43 331 25 231 27 215 28 201 29 40 30 32 31 35 32 35 33 42 34 36 41 280 44 51 45 53 46 205 47 232 48 248 
451 -0.1309529958461969 -0.0446166412169178 0.6533342190065958 76 65 56 3.93 18 141 19 379 20 361 21 377 22 393 23 379 24 314 26 284 36 305 37 277 38 383 39 363 42 346 43 332 5 5 6 13 7 20 8 19 9 20 10 22 11 18 12 17 13 15 14 14 15 14 16 15 17 17 48 249 49 184 25 232 27 216 28 202 30 33 32 36 34 37 41 281 45 54 47 233 40 365 44 52 
452 0.4742758909618755 0.03940783591668467 0.9091099574572457 86 78 77 1.31 18 142 19 380 20 362 21 378 22 394 23 380 24 315 26 285 35 270 36 306 37 278 38 384 39 364 40 366 42 347 43 333 
453 0.4749393623627439 -0.08412837910408123 0.9240440105783895 50 48 47 1.51 18 143 19 381 20 363 21 379 22 395 23 381 24 316 26 286 35 271 36 307 37 279 38 385 39 365 40 367 42 348 43 334 
454 0.27619617688918957 0.010291475684997334 0.9652455356792872 80 83 87 1.65 20 364 21 380 22 396 23 382 35 272 36 308 37 280 38 386 40 368 42 349 43 335 6 14 7 21 8 20 9 21 10 23 11 19 12 18 13 16 17 18 41 282 46 206 47 234 48 250 49 185 
455 0.5329445955445807 0.26332294004661827 0.7942362961067305 113 110 110 3.93 19 382 20 365 21 381 22 397 23 383 35 273 36 309 38 387 39 366 40 369 42 350 43 336 
456 0.5006773288966072 0.09992336828389696 1.1143389185544026 138 132 128 1.89 20 366 21 382 23 384 24 317 26 287 35 274 36 310 37 281 38 388 39 367 40 370 42 351 43 337 6 15 7 22 8 21 9 22 10 24 41 283 46 207 47 235 48 251 49 186 
457 0.29359309152502505 0.2213430504080122 0.5671566944890524 54 44 42 4.73 22 398 23 385 24 318 26 288 36 311 38 389 39 368 40 371 42 352 43 338 
458 -0.1318437953810573 0.07246406782402641 0.6377776365194954 62 56 56 3.4 18 144 19 383 20 367 21 383 22 399 23 386 24 319 26 289 36 312 37 282 38 390 42 353 43 339 
459 -0.1224758318634914 0.07258693892519158 0.6448598632946864 115 122 120 2.47 18 145 19 384 20 368 21 384 22 400 23 387 24 320 26 290 36 313 37 283 38 391 42 354 43 340 5 6 6 16 7 23 8 22 9 23 10 25 11 20 12 19 13 17 14 15 15 15 16 16 17 19 48 252 49 187 
460 0.3824613593900372 -0.06754726306491488 1.0522000189392813 56 52 54 1.37 19 385 21 385 22 401 23 388 24 321 26 291 35 275 36 314 37 284 38 392 39 369 40 372 42 355 43 341 
461 0.4780573774973276 0.23292628337935894 0.6205777242691245 83 63 60 5.24 22 402 36 315 40 373 
462 0.42725647276296175 0.14285605186755657 1.0674091404218466 107 119 132 1.08 18 146 19 386 21 386 22 403 23 389 24 322 35 276 36 316 37 285 38 393 39 370 40 374 42 356 43 342 
463 0.47581336910804095 0.007650691312679188 1.1235025758168538 115 114 110 1.75 20 369 21 387 22 404 26 292 35 277 36 317 37 286 38 394 39 371 40 375 42 357 43 343 
464 -0.12086343559134764 -0.12193237254896791 0.6999328065469773 131 142 144 2.47 18 147 19 387 20 370 21 388 22 405 23 390 24 323 26 293 36 318 37 287 38 395 42 358 6 17 7 24 8 23 9 24 10 26 11 21 12 20 13 18 14 16 15 16 16 17 17 20 41 284 48 253 25 233 27 217 28 203 30 34 32 37 34 38 39 372 40 376 43 344 47 236 
465 0.48880926741617337 0.23682683479073266 1.0645903183932994 113 103 98 1.89 20 371 21 389 35 278 36 319 37 288 38 396 39 373 40 377 42 359 43 345 
466 0.36391897324886385 0.21767333790462756 0.7593072882576811 51 51 53 1.93 18 148 19 388 20 372 21 390 22 406 23 391 24 324 26 294 35 279 36 320 37 289 38 397 39 374 40 378 42 360 43 346 
467 0.3800594479580541 0.23333703699426878 0.7450292862365591 68 64 68 2.43 18 149 19 389 20 373 21 391 23 392 24 325 26 295 35 280 36 321 38 398 39 375 40 379 42 361 43 347 
468 0.3406549714960311 -0.10613001405965161 0.8238945035611301 57 55 55 1.52 18 150 19 390 20 374 21 392 22 407 23 393 24 326 26 296 35 281 36 322 37 290 38 399 39 376 40 380 42 362 43 348 
469 0.4219292225756278 0.00923504905956095 1.1030309344167124 113 136 151 1.31 18 151 21 393 22 408 23 394 24 327 35 282 36 323 37 291 38 400 39 377 40 381 42 363 43 349 
470 0.3534699016594984 0.23452059492233368 0.6361427824111596 20 20 24 3.72 18 152 20 375 21 394 22 409 23 395 24 328 26 297 35 283 36 324 38 401 39 378 40 382 42 364 43 350 
471 0.3676653547838791 0.04857693148251176 1.0078083717014221 98 90 85 1.68 18 153 19 391 20 376 22 410 23 396 24 329 26 298 35 284 36 325 37 292 38 402 39 379 40 383 42 365 43 351 6 18 7 25 8 24 9 25 10 27 11 22 15 17 41 285 46 208 47 237 48 254 49 188 
472 0.48015956582045755 -0.10907867538862528 0.9337896113747705 125 139 146 3.48 18 154 19 392 20 377 21 395 22 411 23 397 24 330 26 299 35 285 36 326 37 293 38 403 39 380 40 384 42 366 43 352 7 26 8 25 9 26 10 28 11 23 12 21 13 19 14 17 15 18 16 18 17 21 48 255 49 189 25 234 27 218 28 204 29 41 30 35 32 38 33 43 34 39 41 286 44 53 45 55 46 209 47 238 50 1 51 1 
473 0.4700876557983129 -0.0896357734591868 0.9198792397293293 98 108 118 1.55 18 155 19 393 20 378 21 396 22 412 23 398 24 331 26 300 35 286 36 327 37 294 38 404 39 381 40 385 42 367 43 353 
474 -0.1235842240134703 0.11901584754331827 0.6422954251416558 123 128 129 3.36 18 156 19 394 20 379 21 397 22 413 23 399 24 332 26 301 36 328 37 295 38 405 40 386 42 368 
475 0.37717435709384783 0.17359999002495136 0.9790653319851366 27 20 21 0.82 18 157 19 395 20 380 22 414 23 400 24 333 26 302 35 287 36 329 37 296 38 406 39 382 40 387 42 369 43 354 
476 0.28760242857092205 0.1413630285534983 0.9456293986992648 90 103 110 1.73 18 158 20 381 21 398 22 415 23 401 26 303 35 288 36 330 37 297 39 383 40 388 42 370 43 355 6 19 7 27 8 26 9 27 10 29 11 24 12 22 13 20 17 22 41 287 46 210 47 239 48 256 49 190 
477 0.456227489193167 0.24487496038873552 0.7938778211557562 64 55 55 2.76 18 159 19 396 20 382 21 399 22 416 23 402 24 334 26 304 35 289 36 331 38 407 39 384 40 389 42 371 43 356 
478 0.4262468179522288 0.15279928993107178 1.06256042520783 81 103 113 1.07 18 160 19 397 21 400 22 417 23 403 24 335 35 290 36 332 37 298 38 408 39 385 40 390 42 372 43 357 
479 0.3832978358067285 0.21122847223491117 0.9727400375288745 97 85 78 1.06 18 161 19 398 20 383 22 418 23 404 24 336 26 305 35 291 36 333 37 299 38 409 39 386 40 391 42 373 43 358 
480 0.45190014570724507 -0.10877004551025148 0.9046083226093689 70 62 59 1.9 18 162 19 399 20 384 21 401 22 419 23 405 24 337 35 292 36 334 37 300 38 410 39 387 40 392 42 374 43 359 7 28 8 27 9 28 10 30 11 25 12 23 13 21 14 18 15 19 16 19 17 23 41 288 46 211 47 240 48 257 
481 0.3518254362264657 0.1926654401523965 0.7358299719195635 68 76 85 2.33 18 163 19 400 20 385 21 402 22 420 23 406 24 338 26 306 35 293 36 335 37 301 38 411 39 388 40 393 42 375 43 360 25 235 27 219 28 205 29 42 30 36 31 36 32 39 33 44 34 40 41 289 44 54 45 56 46 212 47 241 
482 0.36563666091372055 0.19256680642642654 0.6329360312188504 40 36 38 3.55 19 401 22 421 26 307 35 294 36 336 38 412 39 389 40 394 42 376 
483 0.25439297246126424 0.10263522879750409 0.913379792670403 102 89 69 1.21 18 164 20 386 21 403 22 422 23 407 24 339 35 295 36 337 37 302 38 413 39 390 42 377 43 361 
484 0.37281243446576173 0.22458966428356852 0.7507646468313585 46 47 51 2.02 18 165 19 402 20 387 21 404 22 423 24 340 26 308 35 296 36 338 38 414 39 391 40 395 42 378 43 362 11 26 12 24 14 19 16 20 17 24 41 290 
485 0.20693865034226522 -0.13776172898783115 0.7212640908929269 120 123 124 2.15 18 166 19 403 20 388 21 405 22 424 23 408 24 341 26 309 36 339 37 303 38 415 39 392 40 396 42 379 43 363 
486 0.3775890297287591 0.18883197422706904 0.9753305128766186 99 90 83 0.88 18 167 19 404 20 389 22 425 23 409 24 342 26 310 35 297 36 340 37 304 38 416 39 393 40 397 42 380 43 364 
487 0.4898238066254241 0.07278331828518156 1.1124433106552742 133 129 123 1.72 20 390 21 406 24 343 26 311 35 298 36 341 37 305 38 417 39 394 40 398 42 381 43 365 
488 0.4774539277773681 0.25338181932187415 0.75476250674408 107 104 104 3.81 19 405 20 391 21 407 22 426 23 410 26 312 35 299 36 342 38 418 39 395 40 399 42 382 43 366 
489 0.00306909811006102 -0.1250229797352551 0.7913328184924951 45 36 28 2.12 18 168 19 406 22 427 23 411 24 344 26 313 36 343 37 306 38 419 39 396 40 400 6 20 7 29 8 28 9 29 10 31 11 27 13 22 14 20 15 20 16 21 17 25 47 242 48 258 49 191 
490 0.459612884088508 0.22809004126176782 0.8131514798545365 146 148 141 2.38 18 169 19 407 20 392 21 408 22 428 23 412 24 345 26 314 35 300 36 344 37 307 38 420 39 397 40 401 42 383 43 367 
491 0.4463474743184578 -0.08004474145751553 1.1284349989859566 18 12 12 2.29 20 393 21 409 22 429 23 413 26 315 35 301 36 345 37 308 38 421 39 398 40 402 42 384 43 368 27 220 28 206 29 43 30 37 32 40 33 45 34 41 41 291 44 55 45 57 46 213 47 243 48 259 
492 0.5098563675660271 0.06911425668694372 1.1305797291833606 146 139 133 1.87 19 408 20 394 21 410 23 414 24 346 35 302 36 346 37 309 38 422 39 399 40 403 42 385 43 369 
493 0.06575977737809748 -0.012999058712028038 0.5773976049097562 165 166 162 3.13 18 170 19 409 20 395 21 411 22 430 23 415 24 347 26 316 36 347 38 423 39 400 40 404 42 386 43 370 
494 0.4137492078044798 0.0995803562738998 1.046629010522126 124 124 125 1.02 18 171 19 410 21 412 22 431 23 416 24 348 26 317 35 303 36 348 37 310 38 424 39 401 40 405 42 387 43 371 
495 0.28868591700579427 0.19255156903885387 0.5770007299281872 44 50 55 3.22 22 432 23 417 24 349 26 318 36 349 38 425 39 402 40 406 43 372 6 21 8 29 9 30 12 25 20 396 21 413 41 292 42 388 
496 -0.7139783098061554 0.17812007712670325 1.0041648222160342 44 46 45 0.56 0 3 1 2 2 3 3 4 4 3 5 7 9 31 10 32 11 28 12 26 13 23 14 21 15 21 16 22 17 26 
497 -0.5295342348953148 -0.022809234412478074 0.7803745639811741 126 121 117 1.63 0 4 1 3 2 4 3 5 4 4 7 30 8 30 9 32 10 33 11 29 12 27 13 24 14 22 15 22 16 23 17 27 98 16 99 18 
498 -0.47544796427708647 -0.15539726181894908 0.7364241106556707 19 15 15 1.92 0 5 1 4 2 5 3 6 4 5 6 22 7 31 8 31 9 33 10 34 11 30 12 28 13 25 14 23 15 23 16 24 17 28 18 172 19 411 98 17 99 19 
499 -0.39807961702353883 0.19175238081715787 0.3860929296038294 69 77 54 1.22 0 6 1 5 2 6 3 7 4 6 5 8 6 23 7 32 8 32 9 34 11 31 
500 -0.46733579073802406 -0.19102509453306976 0.7315075245477904 161 152 141 1.83 0 7 1 6 2 7 3 8 4 7 5 9 6 24 7 33 8 33 9 35 10 35 11 32 12 29 13 26 14 24 15 24 16 25 17 29 19 412 98 18 99 20 
501 -0.4767426551626382 0.22955687081695664 0.6605520749415331 54 46 48 0.5 0 8 1 7 2 8 3 9 4 8 5 10 6 25 7 34 8 34 9 36 10 36 11 33 12 30 13 27 14 25 15 25 16 26 17 30 
502 -0.4471048384516448 -0.0907138536729019 0.6765892076565944 138 136 133 1.29 0 9 1 8 2 9 3 10 5 11 6 26 7 35 8 35 9 37 10 37 11 34 12 31 13 28 14 26 15 26 16 27 17 31 98 19 99 21 
503 -0.37863691132143235 0.18668066731408037 0.5208755000223183 143 132 124 1.09 0 10 1 9 2 10 3 11 4 9 5 12 6 27 7 36 8 36 9 38 10 38 11 35 12 32 13 29 14 27 15 27 16 28 17 32 98 20 99 22 
504 -0.6435335742914907 0.14366236053927384 0.9092349201749234 103 104 105 0.56 0 11 1 10 2 11 3 12 4 10 5 13 8 37 9 39 10 39 11 36 12 33 13 30 14 28 15 28 16 29 17 33 
505 -0.7091521071755962 0.27412443865108926 0.6623248099162274 35 45 25 0.62 0 12 1 11 2 12 3 13 4 11 5 14 6 28 7 37 8 38 9 40 10 40 11 37 12 34 13 31 
506 -0.7365938240383867 0.24941109220287497 0.7308555240490316 35 37 43 0.52 0 13 1 12 2 13 3 14 4 12 5 15 6 29 7 38 8 39 9 41 10 41 11 38 12 35 13 32 15 29 
507 -0.5216439392394118 0.20315287679288233 0.7188802627366414 154 151 148 1.69 0 14 1 13 2 14 3 15 4 13 5 16 6 30 7 39 8 40 9 42 10 42 11 39 12 36 13 33 14 29 15 30 16 30 17 34 98 21 99 23 
508 -0.3416071154862622 -0.22095401649714344 0.5623409939276013 140 129 114 2.58 0 15 1 14 4 14 5 17 6 31 7 40 8 41 9 43 10 43 11 40 12 37 13 34 14 30 15 31 16 31 17 35 22 433 26 319 38 426 98 22 99 24 
509 -0.4561209486611261 -0.16075694958356665 0.7082947113831609 150 145 142 1.75 0 16 1 15 2 15 3 16 4 15 6 32 7 41 8 42 9 44 10 44 11 41 12 38 13 35 14 31 15 32 16 32 17 36 19 413 98 23 99 25 
510 -0.474918628608039 0.16479059510489452 0.6754544178536385 72 67 75 1.68 0 17 1 16 2 16 3 17 4 16 6 33 7 42 8 43 9 45 10 45 11 42 12 39 13 36 14 32 15 33 16 33 17 37 19 414 98 24 99 26 
511 -0.6197887490192117 0.25874930189898493 0.6084796205192557 61 56 52 1.28 0 18 1 17 2 17 3 18 4 17 5 18 6 34 7 43 8 44 9 46 10 46 11 43 12 40 13 37 98 25 
512 -0.5092606284199794 0.14662416953974072 0.7154690358044256 97 81 80 1.53 0 19 1 18 2 18 3 19 4 18 6 35 7 44 8 45 9 47 10 47 11 44 12 41 13 38 14 33 15 34 16 34 17 38 98 26 99 27 
513 -0.4456454113675606 0.18103869178219184 0.4101280296714215 145 158 177 0.91 0 20 1 19 2 19 3 20 4 19 5 19 6 36 7 45 8 46 9 48 10 48 11 45 12 42 13 39 14 34 
514 -0.5118575937860044 -0.14319069373190857 0.7871466745844089 61 55 56 2.06 0 21 1 20 2 20 3 21 4 20 5 20 6 37 7 46 8 47 9 49 10 49 11 46 12 43 13 40 14 35 15 35 16 35 17 39 19 415 98 27 99 28 
515 -0.6617365989074836 0.046551003378317135 0.953091744963806 149 155 159 0.46 0 22 1 21 2 21 3 22 4 21 5 21 9 50 10 50 11 47 12 44 13 41 14 36 15 36 16 36 17 40 18 173 
516 -0.6810554393619049 0.11039072328015406 0.9768400921436774 129 123 114 0.47 0 23 1 22 2 22 3 23 4 22 5 22 9 51 10 51 11 48 12 45 13 42 14 37 15 37 16 37 17 41 
517 -0.4814807405796655 0.041585119008667716 0.6964905698949537 122 94 90 1.32 0 24 1 23 2 23 3 24 4 23 7 47 8 48 9 52 10 52 11 49 12 46 13 43 14 38 15 38 16 38 17 42 98 28 99 29 
518 -0.467220505029661 0.22920303259332953 0.6021603693960816 80 78 60 1.63 0 25 1 24 2 24 3 25 4 24 5 23 6 38 7 48 8 49 9 53 10 53 11 50 12 47 13 44 14 39 15 39 16 39 17 43 98 29 99 30 
519 -0.5096083090600525 0.15272026792551455 0.7142064761705952 115 104 102 1.54 0 26 1 25 2 25 3 26 4 25 6 39 7 49 8 50 9 54 10 54 11 51 12 48 13 45 14 40 15 40 16 40 17 44 98 30 99 31 
520 -0.45929524679578576 0.09694497502175786 0.6606519185619215 34 24 26 1.86 0 27 1 26 2 26 3 27 6 40 7 50 8 51 9 55 10 55 11 52 12 49 13 46 14 41 15 41 16 41 17 45 19 416 98 31 99 32 
521 -0.5079113566062293 -0.11455510287104162 0.7785904282341036 179 195 208 1.9 0 28 1 27 2 27 3 28 4 26 6 41 7 51 8 52 9 56 10 56 11 53 12 50 13 47 14 42 15 42 16 42 17 46 18 174 19 417 98 32 99 33 
522 -0.46964888482715084 -0.029528571667120144 0.691862880985632 98 97 99 1.39 0 29 1 28 2 28 3 29 6 42 7 52 8 53 9 57 10 57 11 54 12 51 13 48 14 43 15 43 16 43 17 47 98 33 99 34 
523 -0.4578003751013471 0.15919435845464885 0.6444841986351297 30 20 21 1.68 0 30 1 29 2 29 3 30 5 24 6 43 7 53 8 54 9 58 10 58 11 55 12 52 13 49 14 44 15 44 16 44 17 48 19 418 98 34 99 35 
524 -0.3749173916588907 0.1901726426568148 0.49457094539967783 84 85 82 0.98 0 31 1 30 2 30 3 31 4 27 5 25 6 44 7 54 8 55 9 59 10 59 11 56 12 53 13 50 14 45 15 45 98 35 99 36 
525 -0.6776887983720525 0.2401044414549079 0.6860186420875848 103 97 109 0.78 0 32 1 31 2 31 3 32 4 28 5 26 6 45 7 55 8 56 9 60 10 60 11 57 12 54 13 51 14 46 15 46 
526 -0.5054348981303138 0.06063447715362911 0.7254599063482375 83 68 75 1.48 0 33 1 32 2 32 3 33 4 29 7 56 8 57 9 61 10 61 11 58 12 55 13 52 14 47 15 47 16 45 17 49 98 36 99 37 
527 -0.6299354515922891 0.05120168507161504 0.9075830792928122 93 85 82 0.45 0 34 1 33 2 33 3 34 4 30 8 58 9 62 10 62 11 59 12 56 13 53 14 48 15 48 16 46 17 50 
528 -0.6915702326307979 0.24696122012172284 0.7092439240917021 91 66 74 0.75 0 35 1 34 2 34 3 35 4 31 5 27 6 46 7 57 8 59 9 63 10 63 11 60 12 57 13 54 14 49 15 49 
529 -0.703270440311256 0.2718502617829541 0.6933927810953161 43 61 34 0.63 0 36 1 35 2 35 3 36 4 32 5 28 6 47 7 58 8 60 9 64 10 64 11 61 12 58 13 55 15 50 
530 -0.6810056451592759 0.13757263602120098 0.9671362193119272 123 111 99 0.37 0 37 1 36 2 36 3 37 4 33 5 29 9 65 10 65 11 62 12 59 13 56 14 50 15 51 16 47 17 51 
531 -0.6601230454013344 0.2519755222368943 0.6621246621034865 119 123 133 1.26 0 38 1 37 2 37 3 38 4 34 5 30 6 48 7 59 8 61 9 66 10 66 11 63 12 60 13 57 14 51 15 52 98 37 
532 -0.5043861196838407 -0.04868327899278745 0.7609621624950157 197 212 225 1.81 0 39 1 38 2 38 3 39 4 35 6 49 7 60 8 62 9 67 10 67 11 64 12 61 13 58 14 52 15 53 16 48 17 52 18 175 19 419 98 38 99 38 
533 -0.49727694311372067 0.1404734185372044 0.7114362556801047 71 55 58 2.02 0 40 1 39 2 39 3 40 4 36 6 50 7 61 8 63 9 68 10 68 11 65 12 62 13 59 14 53 15 54 16 49 17 53 19 420 98 39 99 39 
534 -0.5242583262357268 -0.07905724098543973 0.7855409600579125 152 148 139 1.58 0 41 1 40 2 40 3 41 4 37 6 51 7 62 8 64 9 69 10 69 11 66 12 63 13 60 14 54 15 55 16 50 17 54 98 40 99 40 
535 -0.6581687664828478 0.08140573785006502 0.945989423742943 74 68 68 0.46 0 42 1 41 2 41 3 42 4 38 5 31 9 70 10 70 11 67 12 64 13 61 14 55 15 56 16 51 17 55 
536 -0.5300007514130436 0.2515645606941534 0.6794756414506002 98 91 78 0.68 0 43 1 42 2 42 3 43 4 39 5 32 6 52 7 63 8 65 9 71 10 71 11 68 12 65 13 62 14 56 15 57 16 52 17 56 
537 -0.5829788332089363 0.08112557869170733 0.8224649385741604 186 199 217 1.21 0 44 1 43 2 43 3 44 4 40 8 66 9 72 10 72 11 69 12 66 13 63 14 57 15 58 16 53 17 57 98 41 
538 -0.45302589860808273 0.03781555008884415 0.6579460942741361 150 143 135 1.33 0 45 1 44 2 44 3 45 6 53 7 64 8 67 9 73 10 73 11 70 12 67 13 64 14 58 15 59 16 54 17 58 98 42 99 41 
539 -0.4943828123850921 0.22286605548259347 0.6879188127030232 70 53 60 0.48 0 46 1 45 2 45 3 46 4 41 5 33 6 54 7 65 8 68 9 74 10 74 11 71 12 68 13 65 14 59 15 60 16 55 17 59 
540 -0.4527194904051406 0.1749189657218941 0.6276290629910082 145 136 128 1.3 0 47 1 46 2 46 3 47 4 42 5 34 6 55 7 66 8 69 9 75 10 75 11 72 12 69 13 66 14 60 15 61 16 56 17 60 98 43 99 42 
541 0.6902452489838662 0.2800320002798771 1.0371423073717603 76 73 77 5.28 35 304 39 403 40 407 41 293 42 389 43 373 46 214 47 244 48 260 
542 0.4444728451165999 0.14981590999156355 1.4826813045855287 128 122 117 2.93 41 294 42 390 43 374 46 215 47 245 48 261 49 192 
543 0.6116752406828735 0.3060385987373904 1.2381659578135813 58 52 50 7.91 41 295 42 391 43 375 46 216 47 246 48 262 49 193 50 2 51 2 52 1 54 0 
544 0.7583043590206665 0.33186490226703624 1.2532802611125227 31 34 40 7.33 46 217 47 247 48 263 49 194 
545 0.0674234732123422 -0.026524473725482323 0.5884951268398964 115 116 119 3.23 4 43 12 70 13 67 14 61 15 62 16 57 17 61 18 176 19 421 20 397 21 414 22 434 23 418 26 320 36 350 38 427 39 404 40 408 41 296 42 392 43 376 46 218 47 248 48 264 49 195 
546 0.5497046981806677 0.05552383909249168 1.1695655258404798 114 118 127 2.7 6 56 8 70 9 76 19 422 22 435 23 419 35 305 36 351 37 311 38 428 39 405 40 409 41 297 42 393 43 377 46 219 47 249 48 265 49 196 
547 0.6452190892918032 0.2595371718748167 1.2136617177137834 86 72 68 5.16 21 415 35 306 37 312 41 298 42 394 43 378 46 220 47 250 48 266 49 197 22 436 23 420 25 236 27 221 29 44 31 37 33 46 58 1 
548 0.6424565116619075 0.1539960177309373 1.2121058578180333 62 39 39 3.77 6 57 8 71 20 398 35 307 41 299 42 395 43 379 46 221 47 251 48 267 49 198 
549 0.7698276625415799 0.32519432035404355 1.226366980766068 29 29 34 7.45 43 380 46 222 47 252 48 268 68 0 
550 0.2741798189189648 0.4925710511710084 1.614838219538203 84 98 112 5.45 46 223 47 253 48 269 49 199 
551 0.5433802874357292 0.2505176226993137 1.1113159284587193 36 25 28 3.47 6 58 22 437 35 308 37 313 38 429 39 406 40 410 41 300 42 396 43 381 46 224 47 254 48 270 49 200 
552 0.1853666636743898 -0.15348680839300366 0.709934958995698 60 56 54 3.39 7 67 8 72 9 77 10 76 11 73 12 71 13 68 14 62 15 63 16 58 17 62 18 177 19 423 20 399 21 416 22 438 23 421 26 321 36 352 38 430 39 407 40 411 41 301 42 397 43 382 46 225 47 255 48 271 49 201 24 350 25 237 27 222 28 207 29 45 30 38 31 38 32 41 33 47 34 42 37 314 44 56 45 58 
553 0.4046554812542052 -0.12657499804802924 0.8793662901167616 207 219 226 2.39 7 68 8 73 9 78 10 77 11 74 12 72 13 69 14 63 15 64 16 59 17 63 18 178 19 424 20 400 21 417 22 439 23 422 35 309 36 353 37 315 38 431 39 408 40 412 41 302 42 398 43 383 46 226 47 256 48 272 49 202 
554 0.4911659818198826 -0.16974757553010372 0.9571549306796265 51 47 44 2.37 7 69 9 79 10 78 11 75 12 73 13 70 14 64 15 65 16 60 17 64 18 179 19 425 20 401 21 418 35 310 37 316 38 432 39 409 40 413 41 303 42 399 43 384 46 227 47 257 48 273 
555 0.5723671026920709 0.08519905429246469 1.3401588705584269 135 130 126 6.19 41 304 42 400 43 385 46 228 47 258 48 274 49 203 50 3 51 3 52 2 53 1 54 1 57 1 58 2 59 0 60 1 62 1 63 0 64 0 65 0 66 0 67 0 68 1 69 0 70 0 71 0 
556 0.6935424998063329 0.28060385010427447 1.0788267066597996 25 23 28 5.14 35 311 39 410 40 414 41 305 42 401 43 386 46 229 47 259 48 275 
557 0.6451744387307395 0.34698635092777447 1.3586446405439356 45 45 41 4.22 46 230 47 260 48 276 49 204 
558 0.6299899321279306 0.25544150343009697 1.171831378668657 95 82 81 4.75 35 312 41 306 42 402 43 387 46 231 47 261 48 277 49 205 
559 0.5231280386849061 0.024343783820075845 1.1543753199815125 122 120 116 2.75 6 59 8 74 9 80 20 402 22 440 35 313 37 317 38 433 39 411 40 415 41 307 42 403 43 388 46 232 47 262 48 278 49 206 
560 0.15280409909302864 0.19054689255785595 0.8026164001478977 65 46 41 2.46 5 35 6 60 7 70 8 75 9 81 10 79 13 71 19 426 20 403 26 322 39 412 40 416 41 308 42 404 46 233 47 263 48 279 49 207 
561 0.5103239565552908 -0.014943312765617929 1.1537788527704442 137 134 126 2.75 6 61 8 76 9 82 10 80 20 404 23 423 35 314 36 354 37 318 38 434 39 413 40 417 41 309 42 405 43 389 46 234 47 264 48 280 49 208 
562 0.6690067081707739 -0.09503152295860105 1.288177728601006 138 155 166 6.03 20 405 41 310 42 406 43 390 46 235 47 265 48 281 49 209 
563 0.6048514671275159 0.26318499545626545 1.1479850752377372 119 119 118 4.42 6 62 35 315 41 311 42 407 43 391 46 236 47 266 48 282 49 210 
564 0.6471019849180446 0.19669240131110888 1.2256866446918198 121 118 116 4.62 20 406 21 419 35 316 41 312 42 408 43 392 46 237 47 267 48 283 49 211 22 441 23 424 25 238 27 223 29 46 31 39 33 48 37 319 38 435 39 414 40 418 44 57 45 59 
565 0.6465434495803235 -0.0012237555074149525 1.2684642485611215 134 132 127 4.73 20 407 41 313 42 409 43 393 46 238 47 268 48 284 49 212 
566 0.2894544652729181 0.09661366219274449 1.6882278569642346 135 129 124 5.08 40 419 41 314 42 410 43 394 46 239 47 269 48 285 49 213 50 4 51 4 52 3 53 2 54 2 57 2 58 3 59 1 60 2 61 0 62 2 63 1 64 1 65 1 66 1 67 1 68 2 69 1 70 1 71 1 72 0 
567 0.46568087501513056 -0.040283824451455646 1.128491450609607 122 121 119 2.51 6 63 8 77 9 83 10 81 17 65 20 408 21 420 35 317 36 355 37 320 38 436 39 415 40 420 41 315 42 411 43 395 46 240 47 270 48 286 49 214 
568 0.4351444299840098 0.217140066542211 1.4828993315214072 105 90 82 3.28 40 421 41 316 42 412 46 241 47 271 48 287 49 215 
569 0.14599224302828762 0.36588504903310676 1.8148103170271834 94 91 88 5.29 40 422 46 242 47 272 48 288 49 216 
570 0.6363508788721335 0.10904274972961173 1.2201848342577628 137 137 134 3.21 6 64 8 78 9 84 20 409 35 318 41 317 42 413 43 396 46 243 47 273 48 289 49 217 
571 0.6265400035169757 0.18836402474221978 1.2490543252785329 124 122 118 4.65 41 318 42 414 43 397 46 244 47 274 48 290 49 218 
572 0.5950813185391051 0.23301955052090031 1.1514387868178595 93 102 111 3.59 6 65 21 421 22 442 23 425 35 319 37 321 38 437 39 416 40 423 41 319 42 415 43 398 46 245 47 275 48 291 49 219 
573 0.747054650169303 0.330203866297827 1.2464712032374594 15 19 23 7.26 46 246 47 276 48 292 49 220 
574 0.1593959615689429 -0.17292429978554577 0.6979902171403168 220 230 232 3.38 7 71 9 85 10 82 11 76 12 74 13 72 14 65 15 66 17 66 18 180 19 427 20 410 21 422 22 443 26 323 36 356 37 322 38 438 39 417 40 424 41 320 42 416 43 399 46 247 47 277 48 293 49 221 
575 0.6081851706748002 0.14565414863269438 1.28196329380065 107 99 96 4.37 41 321 42 417 43 400 46 248 47 278 48 294 49 222 
576 0.43108890880251816 0.14345509871584708 1.5040413311421306 123 120 116 3.27 40 425 41 322 42 418 43 401 46 249 47 279 48 295 49 223 
577 0.3682414745174848 -0.17669336775640598 1.6710275522026672 21 19 30 6.45 41 323 42 419 43 402 46 250 47 280 48 296 49 224 40 426 44 58 45 60 60 3 
578 0.626845525358468 0.21642339809016078 1.2440672298214492 103 92 88 6.7 21 423 41 324 42 420 43 403 46 251 47 281 48 297 49 225 50 5 51 5 57 3 58 4 
579 0.05744977909199361 -0.22479774576842304 0.6314168140403917 164 172 178 3.33 4 44 5 36 9 86 10 83 11 77 12 75 13 73 14 66 15 67 16 61 17 67 18 181 19 428 20 411 21 424 22 444 23 426 26 324 38 439 39 418 40 427 41 325 42 421 43 404 46 252 47 282 48 298 49 226 52 4 
580 0.36675719057909306 -0.146119177570679 1.6454039429538487 37 32 30 5.22 40 428 41 326 42 422 43 405 46 253 47 283 48 299 49 227 
581 0.5541116414014731 -0.037011261086995706 1.216568955807875 110 123 136 3.32 6 66 9 87 10 84 19 429 22 445 35 320 37 323 38 440 39 419 40 429 41 327 42 423 43 406 46 254 47 284 48 300 49 228 
582 0.34348126872796464 0.16858330604247604 0.9589854906285685 72 75 82 1.97 6 67 7 72 8 79 9 88 10 85 11 78 19 430 22 446 39 420 40 430 41 328 42 424 43 407 46 255 47 285 48 301 49 229 
583 0.5542964376443124 -0.00506083208695517 1.3816723549237038 122 115 109 4.3 40 431 41 329 42 425 43 408 46 256 47 286 48 302 49 230 
584 0.052210850170782884 -0.2471013983530765 0.6172541285279823 18 14 18 2.75 4 45 11 79 12 76 13 74 14 67 15 68 16 62 17 68 38 441 39 421 40 432 41 330 42 426 46 257 47 287 48 303 49 231 
