# 3D point list with one line of data per point:
#   POINT3D_ID, X, Y, Z, R, G, B, ERROR, TRACK[] as (IMAGE_ID, POINT2D_IDX)
# Number of points: 372, mean track length: 8.55
1114 0.16473049667400075 0.0783375993604051 0.8794966997245288 0 0 0 0.48 7 1081 94 395 150 49 211 29 
1115 -0.16618598792460798 0.06168329466602681 0.6894627066981517 0 0 0 0.29 7 1082 18 121 94 396 116 162 149 555 171 74 193 181 205 80 216 120 
1116 0.09133323542645047 0.07853943290364311 0.8741359429106866 0 0 0 0.24 7 1083 23 37 149 556 166 54 193 182 
1117 0.14373589424200023 0.07947322184373616 0.8773666316210103 0 0 0 0.14 7 1084 94 397 193 183 233 338 
1118 0.14637726038101664 0.07899071487328652 0.8751502344243272 0 0 0 0.21 7 1085 30 59 90 61 94 398 228 106 
1119 0.1137570368847711 0.07639827051755561 0.8443629495535802 0 0 0 0.35 7 1086 18 122 30 60 46 77 94 399 99 187 116 163 140 153 149 557 154 104 180 97 183 45 193 184 216 121 233 339 
1120 -0.08233242541703617 0.0700810269857411 0.7628481742106271 0 0 0 0.29 7 1087 30 61 46 78 58 49 125 83 140 154 149 558 151 67 161 101 193 185 226 44 228 107 233 340 
1121 -0.1682097368805868 0.0634270312326993 0.688787967619184 0 0 0 0.43 7 1088 58 50 94 400 149 559 193 186 226 45 228 108 
1122 -0.16819488242689437 0.06344027056424249 0.688748417943529 0 0 0 0.41 7 1089 58 51 94 401 149 560 205 81 226 46 228 109 
1123 0.20071929734249527 0.0844275242799482 0.9106846794950093 0 0 0 0.29 7 1090 37 65 122 274 149 561 154 105 180 98 
1124 0.09183634443759758 0.08113208316302276 0.8682555924145474 0 0 0 0.18 7 1091 122 275 140 155 193 187 210 203 228 110 233 341 
1125 -0.09949692348014295 0.06875347423274447 0.7345815206416493 0 0 0 0.23 7 1092 149 562 161 102 171 75 210 204 
1126 0.11111014156347633 0.07929851075131907 0.842903199330729 0 0 0 0.33 7 1093 90 62 149 563 193 188 233 342 
1127 0.40111644599902047 0.10520167951713509 1.1051436937812291 0 0 0 0.28 7 1094 45 21 90 63 
1128 0.0735384364601803 0.08226639447248507 0.8630541750080264 0 0 0 0.25 7 1095 18 123 116 164 122 276 140 156 149 564 171 76 193 189 218 42 
1129 0.09929294751572458 0.08160428126301648 0.8462456591948347 0 0 0 0.37 7 1096 140 157 149 565 151 68 154 106 161 103 193 190 205 82 216 122 228 111 233 343 
1130 0.11398446158062081 0.08085969556510628 0.8429192010957683 0 0 0 0.64 7 1097 90 64 94 402 99 188 122 277 140 158 233 344 
1131 -0.16716457569269957 0.06733253317696587 0.6928877806764411 0 0 0 0.63 7 1098 149 566 205 83 
1132 -0.2503942884723386 0.05906670149827492 0.6079676426254366 0 0 0 0.31 34 17 74 8 94 403 180 99 193 191 216 123 228 112 
1133 0.008388429229934876 0.08060038371802186 0.8249921563240483 0 0 0 0.21 7 1099 30 62 46 79 116 165 153 10 154 107 177 35 183 46 233 345 
1134 0.1487727505731897 0.08692554989784755 0.8719881045536308 0 0 0 0.23 7 1100 90 65 99 189 116 166 122 278 140 159 149 567 193 192 205 84 233 346 
1135 0.16913171173167849 0.08784843016801257 0.877372065712649 0 0 0 0.19 7 1101 94 404 140 160 149 568 193 193 233 347 
1136 0.16913171173167849 0.08784843016801257 0.877372065712649 0 0 0 0.19 7 1102 94 405 140 161 149 569 193 194 233 348 
1137 0.10836871065158722 0.08657995313377201 0.8392976111926784 0 0 0 0.54 7 1103 94 406 99 190 122 279 140 162 149 570 154 108 161 104 177 36 205 85 216 124 228 113 
1138 0.09755433322227733 0.08889009653497516 0.8566518717951337 0 0 0 0.21 7 1104 30 63 46 80 151 69 233 349 
1139 0.0027064360884707533 0.08691635910386361 0.8219706161544231 0 0 0 0.53 7 1105 149 571 161 105 205 86 233 350 
1140 -0.13765609824657865 0.07613290299141891 0.7088280717977411 0 0 0 0.25 7 1106 94 407 149 572 233 351 
1141 -0.13777829700179534 0.07610229342771617 0.7098729840637736 0 0 0 0.28 7 1107 58 52 140 163 154 109 205 87 228 114 233 352 
1142 0.18845688605024613 0.0971474279145648 0.8970189615657916 0 0 0 0.21 7 1108 94 408 125 84 140 164 149 573 151 70 154 110 193 195 205 88 226 47 233 353 
1143 0.24982568792395085 0.10535175258684401 0.9743715372072984 0 0 0 0.09 7 1109 46 81 122 280 
1144 -0.10571330698075937 0.07824823487564646 0.7232420032034104 0 0 0 0.25 7 1110 149 574 216 125 233 354 
1145 -0.10568423803034167 0.07849732785185082 0.7243727116779515 0 0 0 0.31 7 1111 149 575 210 205 
1146 0.1992410378999167 0.09925555095304817 0.9050305875861491 0 0 0 0.3 7 1112 22 27 94 409 122 281 140 165 149 576 183 47 193 196 
1147 0.4860022727935834 0.12163257642846663 1.101595490620476 0 0 0 0.39 7 1113 37 66 94 410 150 50 151 71 177 37 193 197 
1148 -0.10250769257341369 0.07995563330954572 0.7282745220336472 0 0 0 0.26 7 1114 58 53 116 167 140 166 153 11 154 111 171 77 193 198 205 89 210 206 216 126 233 355 
1149 -0.08245293563770521 0.08396699968667401 0.758851135513524 0 0 0 0.31 7 1115 149 577 161 106 
1150 -0.05208618973663663 0.08597149756627918 0.7807960014511679 0 0 0 0.24 7 1116 149 578 161 107 228 115 233 356 
1151 0.22579776308293292 0.10227477848519537 0.919304803954276 0 0 0 0.16 7 1117 216 127 233 357 
1152 0.021223764903496263 0.09137505379531834 0.8184359596790252 0 0 0 0.4 7 1118 99 191 149 579 150 51 226 48 228 116 233 358 
1153 0.48329699776902285 0.12508840737585902 1.104457976865884 0 0 0 0.59 7 1119 94 411 99 192 140 167 177 38 193 199 218 43 
1154 -0.07286116641084843 0.08404990648153686 0.7529124188608937 0 0 0 0.28 7 1120 30 64 149 580 161 108 210 207 216 128 
1155 0.09904772170395204 0.09411502903781449 0.8403551910932359 0 0 0 0.26 7 1121 30 65 86 41 94 412 102 4 125 85 140 168 149 581 154 112 161 109 171 78 173 28 177 39 180 100 183 48 211 30 215 4 216 129 218 44 228 117 
1156 -0.06715549959514766 0.085327615117468 0.7612947779919939 0 0 0 0.14 7 1122 149 582 233 359 
1157 -0.17196406296934963 0.07749530870603845 0.6839822062146944 0 0 0 0.25 7 1123 37 67 94 413 171 79 
1158 0.004746548349245622 0.09243549900398997 0.8199926533363902 0 0 0 0.2 7 1124 30 66 150 52 161 110 205 90 228 118 
1159 0.004748216423386945 0.09246245554474289 0.8205577251708932 0 0 0 0.18 7 1125 30 67 150 53 161 111 205 91 233 360 
1160 -0.040614943367846025 0.08752302120945651 0.769233848581473 0 0 0 0.23 7 1126 23 38 37 68 58 54 94 414 116 168 140 169 149 583 154 113 177 40 183 49 193 200 210 208 216 130 
1161 0.2878095146645751 0.11443355816459382 0.9983180658843115 0 0 0 0.36 7 1127 30 68 166 55 210 209 
1162 0.023623502053009823 0.09333488304808762 0.8159017474753967 0 0 0 0.17 7 1128 86 42 94 415 99 193 149 584 177 41 210 210 
1163 0.02353530941786457 0.0931857627088825 0.8153680480277252 0 0 0 0.16 7 1129 30 69 94 416 99 194 116 169 149 585 161 112 166 56 173 29 177 42 193 201 216 131 228 119 233 361 
1164 0.0269266800628396 0.09303734277585403 0.8143306478486882 0 0 0 0.13 7 1130 99 195 149 586 233 362 
1165 0.3807005927989431 0.12230206682499818 1.0575673128823933 0 0 0 0.24 7 1131 99 196 149 587 211 31 
1166 -0.25160615636733574 0.06939764470641327 0.6040333538125685 0 0 0 0.04 18 124 171 80 216 132 
1167 -0.25163142314524156 0.06938220999529753 0.6036602662851828 0 0 0 0.22 18 125 74 9 94 417 180 101 216 133 
1168 0.22121600304171848 0.10516598478017831 0.9092302553380172 0 0 0 0.27 7 1132 99 197 193 202 
1169 0.47004764114730313 0.12729617650823893 1.092793414633567 0 0 0 0.33 7 1133 37 69 46 82 94 418 99 198 122 282 125 86 140 170 149 588 151 72 193 203 211 32 218 45 
1170 0.01873962010871292 0.09581068533175732 0.8249946461994098 0 0 0 0.25 7 1134 149 589 233 363 
1171 0.032139960703586386 0.09489711732685178 0.8193973796396509 0 0 0 0.15 7 1135 149 590 233 364 
1172 0.204855061720377 0.1050375233387918 0.9051622586754614 0 0 0 0.32 7 1136 23 39 37 70 116 170 161 113 210 211 228 120 
1173 0.4599141570454779 0.1287265415012053 1.0963727797776843 0 0 0 0.26 7 1137 46 83 94 419 99 199 116 171 122 283 125 87 140 171 149 591 150 54 154 114 173 30 177 43 180 102 193 204 216 134 218 46 228 121 233 365 
1174 0.4739627487601714 0.12791169244240536 1.0825704719958922 0 0 0 0.33 7 1138 46 84 86 43 94 420 140 172 193 205 216 135 228 122 
1175 -0.2073569165872379 0.0779151933825169 0.6655699838921152 0 0 0 0.23 7 1139 23 40 171 81 226 49 
1176 0.16262196191498718 0.10278416251048311 0.8692818675294592 0 0 0 0.39 7 1140 30 70 94 421 116 172 122 284 149 592 193 206 228 123 233 366 
1177 0.25362923614771465 0.11546028951216925 0.9752156207405488 0 0 0 0.13 7 1141 140 173 228 124 
1178 -0.23779591867015396 0.07243513937936218 0.6118056251334304 0 0 0 0.33 74 10 94 422 216 136 
1179 -0.09790420720246655 0.086815296574783 0.7285742654001883 0 0 0 0.19 7 1142 18 126 171 82 233 367 
1180 0.11011406535651425 0.1001274999925788 0.8329058049599168 0 0 0 0.11 7 1143 149 593 228 125 
1181 0.10682141157463049 0.10057480536417614 0.8337948536776025 0 0 0 0.15 7 1144 94 423 99 200 210 212 218 47 233 368 
1182 0.17900871520033648 0.10633317292716457 0.8800427840028164 0 0 0 0.24 7 1145 149 594 150 55 216 137 228 126 233 369 
1183 0.29958914047091334 0.12127332464803173 0.99875914436537 0 0 0 0.23 7 1146 46 85 94 424 116 173 122 285 149 595 180 103 
1184 -0.16588143862151816 0.08197249994809803 0.6817791820486376 0 0 0 0.3 7 1147 90 66 205 92 
1185 0.3845244565690417 0.1299346452534629 1.0585179166881362 0 0 0 0.51 7 1148 86 44 122 286 149 596 233 370 
1186 -0.08233596983884539 0.09103873427115637 0.7503347770600483 0 0 0 0.61 7 1149 30 71 46 86 149 597 228 127 
1187 0.07720514936442298 0.10481469375506261 0.8625906333071067 0 0 0 0.34 7 1150 90 67 94 425 99 201 116 174 140 174 149 598 193 207 205 93 210 213 233 371 
1188 0.17378814239860496 0.10619696648008417 0.8691198901178274 0 0 0 0.27 7 1151 30 72 94 426 140 175 150 56 161 114 177 44 193 208 205 94 216 138 228 128 233 372 
1189 0.10132953035764428 0.1023298547128732 0.8358457125896597 0 0 0 0.34 7 1152 18 127 180 104 233 373 
1190 -0.03220203283666784 0.09531301340618209 0.7778775370794493 0 0 0 0.33 7 1153 149 599 205 95 233 374 
1191 0.0491927041881272 0.10388152621346036 0.8434820564719279 0 0 0 0.29 7 1154 30 73 37 71 86 45 94 427 149 600 151 73 210 214 218 48 226 50 228 129 233 375 
1192 0.0229585410670921 0.10048515809898081 0.8142186343267378 0 0 0 0.24 7 1155 37 72 86 46 116 175 125 88 149 601 151 74 166 57 210 215 226 51 233 376 
1193 0.023083529851909684 0.10010441211666339 0.8120588029947363 0 0 0 0.28 7 1156 86 47 94 428 125 89 140 176 149 602 228 130 233 377 
1194 0.29969729446539417 0.1242190013373914 0.9943565481253895 0 0 0 0.11 7 1157 94 429 149 603 216 139 
1195 -0.11013491724893773 0.09057998804789458 0.726540727688291 0 0 0 0.24 7 1158 149 604 210 216 228 131 
1196 0.44089089211856547 0.1369471005462935 1.0849604246906341 0 0 0 0.36 7 1159 94 430 125 90 193 209 
1197 -0.18184437088154431 0.08628425227742981 0.6797081699010449 0 0 0 0.16 7 1160 116 176 171 83 228 132 
1198 -0.18232849502803056 0.08675006285735457 0.6805083739659138 0 0 0 0.6 7 1161 149 605 216 140 
1199 0.3885613283498038 0.1351563313306877 1.0512587684279735 0 0 0 0.33 7 1162 30 74 34 18 86 48 99 202 116 177 140 177 154 115 173 31 180 105 193 210 216 141 218 49 
1200 0.07982804464393328 0.11045126304320547 0.861470417249729 0 0 0 0.29 7 1163 23 41 30 75 46 87 94 431 149 606 154 116 161 115 193 211 210 217 228 133 
1201 0.0896244201454217 0.11007899560961207 0.8564616877405172 0 0 0 0.12 7 1164 94 432 99 203 154 117 177 45 193 212 210 218 228 134 
1202 -0.21990853153907272 0.07983156052013517 0.6328344523465741 0 0 0 0.32 94 433 116 178 154 118 
1203 -0.08264820873364978 0.09698605493346002 0.7526291055212951 0 0 0 0.33 7 1165 149 607 154 119 180 106 226 52 233 378 
1204 0.13521752422609332 0.11031665486396823 0.8513092807945979 0 0 0 0.31 7 1166 37 73 46 88 94 434 140 178 145 14 149 608 151 75 154 120 161 116 205 96 228 135 233 379 
1205 0.27787791802150125 0.12888762004504314 0.9881962492637638 0 0 0 0.23 7 1167 30 76 94 435 125 91 150 57 151 76 154 121 166 58 177 46 211 33 216 142 233 380 
1206 0.277584639801081 0.12865173783895936 0.987330665732709 0 0 0 0.18 7 1168 125 92 149 609 150 58 154 122 166 59 211 34 216 143 233 381 
1207 -0.17559602265987653 0.08804051635719397 0.6794118458599505 0 0 0 0.41 7 1169 18 128 58 55 116 179 149 610 151 77 153 12 154 123 216 144 226 53 228 136 
1208 0.1210570098979096 0.10881691543582729 0.8359808955508563 0 0 0 0.25 7 1170 45 22 149 611 
1209 0.014754372078564233 0.10702355277904257 0.8165845517554475 0 0 0 0.2 7 1171 30 77 72 18 94 436 99 204 149 612 154 124 210 219 
1210 0.05894881072811023 0.11024660921179674 0.8384994605317755 0 0 0 0.27 7 1172 90 68 122 287 
1211 0.033701011197060385 0.10734207144879127 0.8154760564741278 0 0 0 0.11 7 1173 149 613 233 382 
1212 0.25452047610817186 0.12692943046871286 0.9576489934594385 0 0 0 0.23 7 1174 151 78 212 6 
1213 0.10613148572517628 0.10983995948623478 0.8288172493264424 0 0 0 0.13 7 1175 102 5 122 288 140 179 149 614 205 97 233 383 
1214 -0.03252908446260861 0.10263697259806924 0.7691317841348254 0 0 0 0.19 7 1176 94 437 99 205 140 180 149 615 210 220 233 384 
1215 0.1795197259752903 0.11765881113380373 0.8764426192679731 0 0 0 0.29 7 1177 149 616 233 385 
1216 0.3533934219692862 0.13902258847147256 1.029715051042811 0 0 0 0.28 7 1178 46 89 139 5 150 59 
1217 0.11831347644918963 0.11130612616099043 0.8282061822044174 0 0 0 0.33 7 1179 23 42 90 69 94 438 116 180 122 289 125 93 149 617 151 79 193 213 233 386 
1218 0.38809586946889885 0.14235520384407982 1.050001825026241 0 0 0 0.21 7 1180 37 74 94 439 122 290 149 618 210 221 
1219 0.16093423279722346 0.11756047878253849 0.8679090337177626 0 0 0 0.27 7 1181 46 90 94 440 122 291 140 181 149 619 151 80 161 117 216 145 226 54 228 137 
1220 -0.1506213001461428 0.09529643749737826 0.7034821667299702 0 0 0 0.3 7 1182 149 620 205 98 216 146 233 387 
1221 0.20119315451847472 0.12289800915158694 0.8963224528410306 0 0 0 0.27 7 1183 23 43 46 91 72 19 116 181 125 94 154 125 173 32 177 47 205 99 226 55 
1222 0.32592847949398673 0.13863853305952353 1.010099129117511 0 0 0 0.1 7 1184 37 75 94 441 228 138 
1223 0.10696206403109934 0.11349617145234761 0.8283443372771268 0 0 0 0.23 7 1185 18 129 30 78 86 49 94 442 116 182 125 95 140 182 149 621 154 126 171 84 177 48 180 107 193 214 228 139 
1224 0.10689643056841185 0.11348026841046364 0.8282833698666087 0 0 0 0.15 7 1186 18 130 30 79 46 92 116 183 140 183 154 127 171 85 177 49 180 108 228 140 
1225 0.34767264896601935 0.14337362936585635 1.0297599134018198 0 0 0 0.36 7 1187 37 76 99 206 116 184 143 9 154 128 177 50 193 215 216 147 233 388 
1226 0.4472349901386402 0.15171624799838332 1.0908296519039793 0 0 0 0.41 7 1188 18 131 22 28 34 19 37 77 45 23 46 93 86 50 90 70 94 443 99 207 116 185 122 292 125 96 140 184 149 622 154 129 166 60 177 51 180 109 216 148 218 50 228 141 233 389 
1227 0.22032800972072408 0.12450833800663537 0.8992248638503362 0 0 0 0.27 7 1189 122 293 205 100 
1228 0.12104666681720437 0.11512849377547779 0.828720373375991 0 0 0 0.15 7 1190 94 444 122 294 140 185 149 623 161 118 193 216 233 390 
1229 0.12557827456099938 0.11594640271418603 0.8361585527097595 0 0 0 0.29 7 1191 90 71 122 295 140 186 149 624 233 391 
1230 0.04951532418952482 0.11644415369497227 0.8373814699139932 0 0 0 0.26 7 1192 37 78 46 94 94 445 99 208 116 186 125 97 149 625 151 81 193 217 205 101 210 222 228 142 233 392 
1231 0.3951091913077905 0.1483597101124602 1.053747830053617 0 0 0 0.35 7 1193 99 209 149 626 
1232 -0.0731279413144959 0.10441207492241132 0.7487275203355003 0 0 0 0.34 7 1194 30 80 37 79 149 627 150 60 161 119 216 149 
1233 0.29348108450017096 0.13963754545065707 0.9930740345606488 0 0 0 0.16 7 1195 94 446 122 296 
1234 0.35471565055479526 0.14554275523093127 1.030455104880114 0 0 0 0.28 7 1196 86 51 125 98 151 82 233 393 
1235 0.11760435603029515 0.11552951802216824 0.8246603544684384 0 0 0 0.35 7 1197 193 218 233 394 
1236 0.3865689334781783 0.149053552540404 1.0453878891262032 0 0 0 0.21 7 1198 90 72 116 187 149 628 193 219 233 395 
1237 0.1609747493398312 0.12401513709747904 0.864459817343792 0 0 0 0.51 7 1199 46 95 122 297 166 61 
1238 0.3413129807712823 0.14721466030682354 1.0221691638188892 0 0 0 0.25 7 1200 23 44 30 81 34 20 37 80 45 24 46 96 86 52 94 447 99 210 116 188 119 1 122 298 140 187 144 7 149 629 151 83 154 130 173 33 177 52 180 110 183 50 193 220 212 7 216 150 218 51 226 56 233 396 
1239 -0.07336450115443709 0.10758512229717747 0.7475154730740285 0 0 0 0.28 7 1201 99 211 211 35 
1240 -0.11258186578723631 0.10428135421365978 0.7218006620488266 0 0 0 0.26 7 1202 72 20 116 189 140 188 149 630 154 131 161 120 180 111 193 221 216 151 218 52 226 57 228 143 
1241 0.17465699388869058 0.12539364392843796 0.8667968869937 0 0 0 0.26 7 1203 149 631 233 397 
1242 0.1736893714553742 0.12493223153674857 0.8619571450746751 0 0 0 0.34 7 1204 90 73 149 632 150 61 
1243 -0.10996120591854402 0.10460341641593447 0.7208448088582045 0 0 0 0.2 7 1205 94 448 149 633 154 132 216 152 218 53 228 144 233 398 
1244 0.2053212502013541 0.1306074539936709 0.8941534029413561 0 0 0 0.25 7 1206 72 21 94 449 116 190 140 189 149 634 193 222 228 145 
1245 -0.012679438909830983 0.11560877189550547 0.7913390957844987 0 0 0 0.21 7 1207 72 22 94 450 149 635 154 133 
1246 -0.20665303135148977 0.0960900155336756 0.653963805516339 0 0 0 0.36 7 1208 94 451 151 84 218 54 
1247 -0.0029458604277816124 0.11692235230963101 0.7947268030774575 0 0 0 0.31 7 1209 90 74 149 636 210 223 216 153 233 399 
1248 0.21487855101809253 0.13261461915185865 0.8979404957643994 0 0 0 0.19 7 1210 149 637 150 62 193 223 233 400 
1249 0.21438823201131188 0.13251436889717433 0.8971104146674761 0 0 0 0.13 7 1211 34 21 125 99 
1250 -0.04344212006084092 0.11382786285922004 0.7633915208238885 0 0 0 0.33 7 1212 23 45 149 638 171 86 177 53 193 224 210 224 216 154 228 146 233 401 
1251 -0.04343104043567148 0.11384105041084913 0.7637623724292796 0 0 0 0.3 7 1213 149 639 171 87 173 34 177 54 193 225 210 225 216 155 228 147 233 402 
1252 0.19523375073076246 0.13295535287102067 0.8848354939644197 0 0 0 0.13 7 1214 125 100 228 148 
1253 -0.16767715716847112 0.10107202851659612 0.6725302027004699 0 0 0 0.44 7 1215 94 452 116 191 149 640 205 102 
1254 0.3533465217748535 0.15552523177003177 1.0266208743591871 0 0 0 0.25 7 1216 37 81 86 53 94 453 99 212 116 192 122 299 140 190 149 641 151 85 180 112 193 226 218 55 226 58 
1255 0.37541441091683025 0.1569249207176435 1.0377542357885579 0 0 0 0.22 7 1217 94 454 140 191 145 15 193 227 226 59 
1256 -0.24762735932143223 0.09064590944591648 0.600248551803261 0 0 0 0.26 18 132 58 56 94 455 116 193 151 86 154 134 180 113 193 228 216 156 
1257 -0.10182438387058002 0.10899046702357179 0.7166315491721753 0 0 0 0.11 7 1218 94 456 116 194 140 192 149 642 210 226 233 403 
1258 0.1799561248168025 0.1326604955328909 0.8650037802765497 0 0 0 0.28 7 1219 37 82 116 195 140 193 149 643 150 63 151 87 161 121 183 51 193 229 216 157 226 60 228 149 233 404 
1259 -0.03613073667221906 0.1157297747348739 0.7600924027903909 0 0 0 0.32 7 1220 149 644 233 405 
1260 -0.09981404768454158 0.11034464045408067 0.7167625988279246 0 0 0 0.07 7 1221 149 645 210 227 233 406 
1261 -0.06309370489000878 0.11635897102959149 0.7534786785469747 0 0 0 0.13 7 1222 58 57 149 646 
1262 0.4175330333972565 0.1664381960498903 1.0674563544422873 0 0 0 0.31 7 1223 122 300 150 64 
1263 -0.038342226751289975 0.11690572241843313 0.7567233261719373 0 0 0 0.11 7 1224 149 647 233 407 
1264 0.1929650642158449 0.13838404884183966 0.88684703818581 0 0 0 0.32 7 1225 30 82 46 97 150 65 228 150 
1265 0.4676901527768076 0.17112806840693792 1.0846270074880309 0 0 0 0.29 7 1226 22 29 122 301 149 648 150 66 233 408 
1266 0.22022402073106173 0.1406286170387358 0.8945157906864851 0 0 0 0.42 7 1227 90 75 116 196 122 302 149 649 180 114 205 103 210 228 233 409 
1267 -0.18522192177400085 0.10584929862446137 0.6675952809448064 0 0 0 0.29 7 1228 154 135 226 61 
1268 -0.007182904808810647 0.124462944996026 0.7868896932858628 0 0 0 0.2 7 1229 37 83 46 98 55 11 58 58 94 457 116 197 125 101 139 6 140 194 149 650 151 88 154 136 161 122 180 115 183 52 210 229 216 158 228 151 233 410 
1269 0.22317844188117203 0.142275076633301 0.8929845511288347 0 0 0 0.23 7 1230 18 133 34 22 72 23 90 76 94 458 99 213 122 303 125 102 140 195 145 16 149 651 150 67 151 89 154 137 161 123 171 88 177 55 180 116 183 53 193 230 210 230 216 159 218 56 226 62 228 152 233 411 
1270 0.3162203147937448 0.16107386627568326 1.0081907828407002 0 0 0 0.25 7 1231 46 99 94 459 122 304 140 196 149 652 193 231 228 153 233 412 
1271 0.07985195726189688 0.13530486774106926 0.8500967890744325 0 0 0 0.18 7 1232 23 46 137 1 
1272 0.01798379010705586 0.1290556322721176 0.8031455279824424 0 0 0 0.27 7 1233 46 100 211 36 
1273 -0.19293829815195848 0.10683238878450521 0.6612208614716271 0 0 0 0.3 7 1234 94 460 216 160 228 154 
1274 0.277291499263714 0.1589846481718279 0.982444383665177 0 0 0 0.17 7 1235 122 305 140 197 149 653 161 124 
1275 0.29220703281047244 0.15903097706772257 0.9796703638626636 0 0 0 0.25 7 1236 94 461 149 654 154 138 171 89 228 155 233 413 
1276 -0.2294588154495192 0.10155018170170999 0.6261675397297414 0 0 0 0.78 7 1237 45 25 90 77 216 161 
1277 -0.01954758771576757 0.12688358491173524 0.7783366310359191 0 0 0 0.06 7 1238 149 655 216 162 
1278 0.04959685053420363 0.13570201293551343 0.8318031883447167 0 0 0 0.11 7 1239 149 656 154 139 161 125 193 232 
1279 0.11721630871425373 0.13506488555773996 0.825006636631751 0 0 0 0.26 7 1240 30 83 90 78 94 462 99 214 116 198 125 103 140 198 151 90 166 62 173 35 193 233 211 37 216 163 228 156 
1280 -0.18549153392022938 0.11003026378438992 0.6663803695284938 0 0 0 0.33 7 1241 94 463 171 90 226 63 
1281 -0.18550429388007558 0.11001280147161563 0.6664872981752565 0 0 0 0.39 7 1242 94 464 171 91 
1282 -0.16776036900525515 0.11103722776791355 0.6689573796345 0 0 0 0.32 7 1243 58 59 116 199 149 657 154 140 161 126 216 164 218 57 228 157 
1283 -0.16776753443315615 0.1110588625775028 0.668723272473343 0 0 0 0.32 7 1244 94 465 116 200 149 658 216 165 218 58 
1284 -0.18002220337368105 0.11192838169681495 0.6683448251276588 0 0 0 0.31 7 1245 94 466 116 201 149 659 171 92 193 234 216 166 
1285 0.04957115291792341 0.13939163722607784 0.8312119618393238 0 0 0 0.2 7 1246 161 127 228 158 
1286 0.385468988261424 0.17428521934401736 1.033547740406609 0 0 0 0.27 7 1247 37 84 90 79 116 202 125 104 140 199 
1287 -0.13652735635517577 0.116743873299417 0.6923331255419131 0 0 0 0.41 7 1248 149 660 233 414 
1288 0.11791145466727061 0.13832669862049302 0.8218620011428842 0 0 0 0.21 7 1249 18 134 30 84 45 26 72 24 86 54 90 80 94 467 99 215 116 203 122 306 140 200 149 661 151 91 154 141 173 36 177 56 180 117 193 235 205 104 210 231 216 167 218 59 226 64 228 159 233 415 
1289 0.1016112564035159 0.13934030973477832 0.8251664312113636 0 0 0 0.15 7 1250 18 135 94 468 99 216 166 63 171 93 177 57 180 118 210 232 228 160 
1290 0.41388152362955527 0.18003175604788083 1.061275625216438 0 0 0 0.19 7 1251 122 307 125 105 228 161 
1291 -0.2064365796825803 0.11016179306137142 0.6496621401570757 0 0 0 0.34 7 1252 37 85 94 469 
1292 -0.10462385199735873 0.12026822646932701 0.7081677971059732 0 0 0 0.23 7 1253 149 662 210 233 
1293 -0.19474109037555243 0.11252574538556022 0.658535900747744 0 0 0 0.23 7 1254 23 47 116 204 154 142 161 128 193 236 216 168 
1294 -0.09746357741925803 0.12178394784454806 0.7119077876005042 0 0 0 0.14 7 1255 30 85 149 663 
1295 -0.09746357741925803 0.12178394784454806 0.7119077876005042 0 0 0 0.14 7 1256 30 86 149 664 
1296 0.13136955411087345 0.14356765768794819 0.8354185917925712 0 0 0 0.2 7 1257 30 87 37 86 90 81 94 470 99 217 116 205 140 201 149 665 151 92 154 143 161 129 205 105 226 65 228 162 
1297 0.16493463621722976 0.14704284153568095 0.8542840230834304 0 0 0 0.19 7 1258 30 88 37 87 116 206 122 308 149 666 161 130 171 94 173 37 177 58 180 119 183 54 193 237 216 169 226 66 228 163 233 416 
1298 -0.1985613553130141 0.11268396570622104 0.6545900895676499 0 0 0 0.34 7 1259 116 207 171 95 216 170 
1299 -0.10110455894126953 0.12223785211965159 0.710791455186517 0 0 0 0.09 7 1260 140 202 149 667 
1300 0.38576452661030847 0.18023799651793848 1.0345321363448543 0 0 0 0.22 7 1261 116 208 149 668 
1301 0.3859759893961451 0.18055041380961537 1.0357069770188754 0 0 0 0.39 7 1262 149 669 218 60 
1302 0.456091840122444 0.18844754207807052 1.0765507610924818 0 0 0 0.23 7 1263 18 136 34 23 37 88 45 27 46 101 72 25 86 55 94 471 99 218 116 209 122 309 125 106 140 203 149 670 150 68 151 93 154 144 173 38 177 59 180 120 193 238 210 234 211 38 216 171 218 61 226 67 228 164 233 417 
1303 0.4722569792676909 0.18948387133774983 1.0752779785831588 0 0 0 0.42 7 1264 122 310 210 235 
1304 0.12847091834567576 0.14650623450857084 0.8330273824819776 0 0 0 0.25 7 1265 122 311 149 671 
1305 0.3232409037787188 0.1763812891654752 0.9982146608037117 0 0 0 0.32 7 1266 37 89 94 472 116 210 140 204 145 17 151 94 177 60 205 106 216 172 228 165 
1306 0.16948549117945416 0.15080462746712547 0.852745106528489 0 0 0 0.39 7 1267 125 107 154 145 161 131 183 55 216 173 218 62 228 166 
1307 0.16518121304996503 0.15050130833252456 0.8522022145251256 0 0 0 0.2 7 1268 34 24 37 90 99 219 102 6 122 312 149 672 161 132 166 64 171 96 173 39 180 121 210 236 226 68 228 167 233 418 
1308 0.1652345386391226 0.1504571331359694 0.8522120493410102 0 0 0 0.15 7 1269 94 473 99 220 122 313 140 205 161 133 171 97 180 122 193 239 210 237 228 168 233 419 
1309 -0.1697393216896419 0.11797550062208163 0.6654125447279357 0 0 0 0.39 7 1270 45 28 149 673 171 98 193 240 216 174 
1310 -0.03538987267801666 0.1333512869379197 0.7546202061151204 0 0 0 0.27 7 1271 18 137 94 474 99 221 149 674 210 238 
1311 0.17237839539261615 0.15083111051320341 0.8523647733609722 0 0 0 0.18 7 1272 99 222 116 211 122 314 140 206 149 675 183 56 193 241 205 107 216 175 233 420 
1312 -0.12681720349839962 0.1246526518867812 0.7006368467380932 0 0 0 0.25 7 1273 58 60 116 212 140 207 149 676 233 421 
1313 -0.12678451312812974 0.12460132731841177 0.700500762384174 0 0 0 0.3 7 1274 58 61 149 677 233 422 
1314 0.3678005564342166 0.18391987875918694 1.0269262236965135 0 0 0 0.24 7 1275 94 475 116 213 
1315 0.4626640669141668 0.19369819917601747 1.0759674270901518 0 0 0 0.32 7 1276 18 138 22 30 37 91 99 223 122 315 125 108 140 208 180 123 210 239 226 69 228 169 
1316 -0.10180004309585569 0.12710927541527792 0.7103547231800922 0 0 0 0.15 7 1277 161 134 183 57 205 108 233 423 
1317 -0.10182281766493625 0.12736682997080123 0.7109318133686656 0 0 0 0.19 7 1278 183 58 210 240 233 424 
1318 0.2958860755297362 0.17475500478854883 0.9721957054971281 0 0 0 0.4 7 1279 94 476 99 224 116 214 122 316 149 678 151 95 183 59 193 242 205 109 210 241 233 425 
1319 -0.2685758745571143 0.1060662698479941 0.5917948497381982 0 0 0 0.06 18 139 171 99 180 124 
1320 -0.06894875057782321 0.13132726874427458 0.7340466511364102 0 0 0 0.13 7 1280 149 679 210 242 
1321 -0.1136715818539345 0.12770330938218247 0.708744961147438 0 0 0 0.25 7 1281 94 477 233 426 
1322 -0.11705886755159778 0.12755187133637 0.7073295844906297 0 0 0 0.28 7 1282 94 478 149 680 183 60 
1323 0.444769542347645 0.19516664381518745 1.071862587129529 0 0 0 0.3 7 1283 22 31 122 317 149 681 154 146 210 243 
1324 0.45880051275591277 0.19588620678398683 1.0754854787427903 0 0 0 0.42 7 1284 18 140 22 32 30 89 34 25 46 102 94 479 99 225 122 318 149 682 150 69 166 65 180 125 193 243 210 244 216 176 218 63 226 70 
1325 -0.0708060262405372 0.1333756447293162 0.7351057415101798 0 0 0 0.2 7 1285 149 683 210 245 
1326 0.26250716493408915 0.17554720856628 0.959626994736421 0 0 0 0.27 7 1286 46 103 122 319 154 147 161 135 193 244 
1327 0.0199978626622993 0.1446651226666088 0.7965692439863189 0 0 0 0.19 7 1287 149 684 210 246 233 427 
1328 0.10221303313236418 0.14931396784469844 0.8217264320330772 0 0 0 0.35 7 1288 166 66 193 245 
1329 0.15194171514705718 0.15511215779697163 0.8482839232016247 0 0 0 0.33 7 1289 30 90 46 104 94 480 139 7 193 246 
1330 0.1522671725881317 0.15597882543528943 0.8509471623380154 0 0 0 0.52 7 1290 30 91 46 105 122 320 
1331 0.16904604212402366 0.15498987303796455 0.8496696973918468 0 0 0 0.21 7 1291 149 685 233 428 
1332 0.2705780666711215 0.176291765084476 0.960141236831309 0 0 0 0.29 7 1292 37 92 122 321 149 686 161 136 183 61 205 110 211 39 216 177 228 170 233 429 
1333 0.39397150742346687 0.19077643793146612 1.0371282210715778 0 0 0 0.25 7 1293 94 481 125 109 140 209 149 687 154 148 228 171 233 430 
1334 -0.10552233617819935 0.1294612996323462 0.7078559368960811 0 0 0 0.36 7 1294 37 93 86 56 94 482 116 215 140 210 149 688 153 13 180 126 216 178 218 64 
1335 0.40245612343118203 0.19332680039930494 1.0503643000225382 0 0 0 0.24 7 1295 94 483 216 179 226 71 233 431 
1336 0.11634555025310188 0.14945116392294538 0.8148687714514002 0 0 0 0.24 7 1296 154 149 211 40 
1337 0.2015645967211588 0.16182269656174977 0.8778427779301895 0 0 0 0.37 7 1297 99 226 122 322 154 150 
1338 0.20483410464786928 0.16200637393817335 0.8795087800957101 0 0 0 0.18 7 1298 34 26 37 94 45 29 46 106 86 57 90 82 94 484 99 227 116 216 122 323 125 110 140 211 149 689 150 70 151 96 154 151 166 67 171 100 177 61 180 127 183 62 186 24 193 247 205 111 210 247 211 41 215 5 216 180 218 65 226 72 228 172 233 432 
1339 -0.09649594290044132 0.13172861477639713 0.7167794756907375 0 0 0 0.05 7 1299 149 690 228 173 
1340 -0.09649594290044132 0.13172861477639713 0.7167794756907375 0 0 0 0.05 7 1300 149 691 228 174 
1341 -0.2141275135609307 0.11870630885337419 0.6412891747283412 0 0 0 0.23 7 1301 58 62 228 175 
1342 -0.2139267486664929 0.11872010145237005 0.6405224990825242 0 0 0 0.32 7 1302 193 248 218 66 
1343 -0.11530445232452363 0.1304464274748197 0.7058664076518354 0 0 0 0.12 7 1303 46 107 116 217 149 692 171 101 
1344 0.02015293734318786 0.14813664620323327 0.7980248578083186 0 0 0 0.16 7 1304 30 92 233 433 
1345 0.22525260437288994 0.1651844224393781 0.887555478083505 0 0 0 0.2 7 1305 122 324 149 693 150 71 216 181 233 434 
1346 -0.2618788926884705 0.11020116989705155 0.590722789939829 0 0 0 0.21 34 27 46 108 102 7 151 97 154 152 171 102 193 249 218 67 228 176 
1347 -0.08137100873765869 0.13575056293925927 0.7272318509475006 0 0 0 0.18 7 1306 149 694 210 248 
1348 -0.07412750371599455 0.13706916571053127 0.7338259812383761 0 0 0 0.16 7 1307 58 63 94 485 149 695 210 249 
1349 -0.0740913768269072 0.1369318624453482 0.7332930981789962 0 0 0 0.14 7 1308 58 64 94 486 149 696 
1350 -0.04794866902040312 0.13955227441270435 0.7476258563852781 0 0 0 0.15 7 1309 149 697 233 435 
1351 -0.04799251655668462 0.13985795663839018 0.7490733876177283 0 0 0 0.15 7 1310 94 487 140 212 149 698 161 137 210 250 233 436 
1352 -0.19848976419412492 0.12233981382943568 0.6520251672037387 0 0 0 0.14 7 1311 94 488 171 103 
1353 -0.03781020961349683 0.14033472923965287 0.7490140813338857 0 0 0 0.16 7 1312 37 95 99 228 205 112 210 251 216 182 
1354 -0.037795862361128835 0.14042110442945668 0.7492918980183978 0 0 0 0.12 7 1313 30 93 140 213 210 252 216 183 233 437 
1355 -0.033440821685316 0.1405846227183108 0.7514438114362224 0 0 0 0.23 7 1314 149 699 161 138 226 73 233 438 
1356 -0.03337415066831958 0.14089737604909042 0.7526083806613489 0 0 0 0.22 7 1315 149 700 161 139 210 253 216 184 
1357 0.4458249237905988 0.20248546304485046 1.0695206897918652 0 0 0 0.3 7 1316 18 141 22 33 37 96 46 109 72 26 90 83 94 489 99 229 116 218 122 325 140 214 149 701 150 72 151 98 154 153 173 40 177 62 180 128 193 250 210 254 211 42 215 6 216 185 218 68 228 177 
1358 0.2665393207249988 0.1814115451318266 0.9576720811060138 0 0 0 0.13 7 1317 94 490 122 326 140 215 216 186 233 439 
1359 0.2768608883492605 0.1836013111627287 0.9695803279732347 0 0 0 0.12 7 1318 122 327 140 216 205 113 226 74 
1360 -0.215573047178286 0.12067057757832352 0.6386684275242999 0 0 0 0.26 7 1319 46 110 58 65 74 11 171 104 
1361 -0.10359637627722676 0.1335683740212254 0.7062523573858835 0 0 0 0.2 7 1320 94 491 140 217 149 702 183 63 205 114 226 75 233 440 
1362 -0.06607754567981017 0.13918758160795397 0.7373871224676913 0 0 0 0.23 7 1321 94 492 99 230 149 703 210 255 
1363 -0.06616549993540836 0.13905214295036977 0.7370576118295373 0 0 0 0.23 7 1322 94 493 116 219 149 704 
1364 -0.12330036846056155 0.13218482673267504 0.6980310744969317 0 0 0 0.26 7 1323 94 494 149 705 183 64 193 251 233 441 
1365 0.007034131080294978 0.14867629604475013 0.7857081092705974 0 0 0 0.37 7 1324 94 495 116 220 210 256 
1366 -0.2599638934575846 0.11177907420625986 0.5876225181067359 0 0 0 0.56 18 142 46 111 58 66 154 154 171 105 228 178 
1367 -0.1673933302885379 0.1259456917789174 0.6623556674978694 0 0 0 0.33 7 1325 94 496 149 706 216 187 
1368 -0.08595143037115967 0.13706849458547643 0.7229740474273932 0 0 0 0.25 7 1326 37 97 58 67 149 707 161 140 171 106 233 442 
1369 -0.05320410701975573 0.14100435944965664 0.745029539463186 0 0 0 0.23 7 1327 149 708 210 257 
1370 -0.027907547459396404 0.14515559989455573 0.7645820248653515 0 0 0 0.06 7 1328 30 94 233 443 
1371 -0.02779821641582185 0.14433332359156434 0.7607366617249127 0 0 0 0.21 7 1329 149 709 216 188 
1372 0.4432647314209886 0.2051047847466465 1.070422598466765 0 0 0 0.3 7 1330 90 84 116 221 149 710 216 189 226 76 228 179 233 444 
1373 -0.07235790197896165 0.13998001614540956 0.734404794544958 0 0 0 0.16 7 1331 58 68 94 497 
1374 -0.07877411924177083 0.13888916082582292 0.7272027617571832 0 0 0 0.26 7 1332 58 69 94 498 99 231 125 111 140 218 149 711 150 73 151 99 154 155 161 141 171 107 180 129 193 252 210 258 211 43 228 180 233 445 
1375 -0.12507373361196586 0.13365013359877706 0.6971660203776144 0 0 0 0.3 7 1333 30 95 94 499 149 712 216 190 228 181 233 446 
1376 -0.10539660832480191 0.13495000646353772 0.7042467155939458 0 0 0 0.29 7 1334 34 28 45 30 86 58 94 500 116 222 140 219 149 713 161 142 180 130 183 65 193 253 205 115 216 191 228 182 233 447 
1377 -0.10535703500722104 0.13497610623195358 0.7048372805139803 0 0 0 0.24 7 1335 140 220 149 714 180 131 193 254 233 448 
1378 0.29674798770022665 0.18675135986007402 0.97014038741795 0 0 0 0.16 7 1336 122 328 140 221 150 74 216 192 233 449 
1379 -0.19980245128642404 0.12462876672235651 0.6482981406115021 0 0 0 0.22 7 1337 74 12 94 501 116 223 154 156 171 108 216 193 
1380 -0.18295295893651303 0.1269971124351942 0.6589940980842889 0 0 0 0.35 7 1338 37 98 72 27 90 85 94 502 116 224 154 157 171 109 
1381 -0.06429448185951152 0.1423509503529045 0.7400520244212577 0 0 0 0.58 7 1339 94 503 99 232 149 715 150 75 
1382 0.10897956889426089 0.15598213292591154 0.8112359276543274 0 0 0 0.16 7 1340 30 96 46 112 90 86 94 504 116 225 125 112 140 222 149 716 151 100 161 143 180 132 183 66 193 255 205 116 216 194 218 69 226 77 228 183 
1383 -0.012670084151725979 0.14843342911065213 0.7711625156981702 0 0 0 0.24 7 1341 149 717 210 259 
1384 -0.012651710187383581 0.14843576985951437 0.7711022757656748 0 0 0 0.18 7 1342 58 70 99 233 149 718 161 144 210 260 
1385 0.1870984101192917 0.16760065340646477 0.8657381912082645 0 0 0 0.47 7 1343 149 719 226 78 
1386 0.2019329300641285 0.17017175003892587 0.876411642816403 0 0 0 0.31 7 1344 34 29 46 113 99 234 122 329 149 720 154 158 166 68 173 41 193 256 205 117 210 261 216 195 218 70 226 79 228 184 233 450 
1387 0.2241474929097028 0.17190241045160587 0.8843772367172734 0 0 0 0.17 7 1345 122 330 233 451 
1388 -0.004990366909180929 0.15045290410713 0.7766153381164823 0 0 0 0.18 7 1346 149 721 210 262 
1389 -0.005041918302469728 0.15033902309942787 0.7755755153297692 0 0 0 0.21 7 1347 99 235 149 722 210 263 
1390 -0.16029317857823985 0.1309935973247119 0.6725602367368404 0 0 0 0.27 7 1348 149 723 171 110 
1391 -0.018122779127999377 0.15008083754203463 0.7690308880594291 0 0 0 0.13 7 1349 30 97 210 264 233 452 
1392 -0.01809500378194668 0.14998214988942163 0.7685247532754717 0 0 0 0.19 7 1350 30 98 94 505 193 257 210 265 233 453 
1393 0.2996529747215646 0.19012586845812052 0.967092967176452 0 0 0 0.22 7 1351 37 99 122 331 161 145 233 454 
1394 0.4611174979414761 0.20974041057549017 1.0670353666837635 0 0 0 0.31 7 1352 34 30 99 236 149 724 180 133 228 185 
1395 -0.032815545343820425 0.14709227401597083 0.7512813365106866 0 0 0 0.32 7 1353 37 100 46 114 94 506 99 237 140 223 149 725 154 159 161 146 166 69 193 258 205 118 210 266 233 455 
1396 0.3270181905324459 0.1954329552019573 0.9914225428513666 0 0 0 0.22 7 1354 90 87 122 332 140 224 151 101 154 160 161 147 166 70 226 80 228 186 
1397 0.3557995161264069 0.19910082059436662 1.0096605396242817 0 0 0 0.2 7 1355 94 507 116 226 122 333 149 726 193 259 
1398 -0.2645344042856441 0.11584103181912857 0.5878278410299203 0 0 0 0.25 18 143 102 8 171 111 228 187 
1399 -0.002942934271216664 0.15360977265358253 0.7769406552849094 0 0 0 0.31 7 1356 94 508 99 238 116 227 166 71 177 63 228 188 
1400 0.45466576514362567 0.21239242256244592 1.066626781985322 0 0 0 0.38 7 1357 18 144 22 34 23 48 37 101 46 115 94 509 99 239 122 334 125 113 140 225 149 727 171 112 173 42 177 64 216 196 233 456 
1401 0.03277446601934431 0.15755062852228535 0.7932072297298026 0 0 0 0.24 7 1358 161 148 210 267 
1402 0.03259628618577837 0.15711302665995178 0.7922569382381996 0 0 0 0.21 7 1359 30 99 161 149 216 197 233 457 
1403 0.3842515065600806 0.2046831030141704 1.0231326628107138 0 0 0 0.27 7 1360 18 145 30 100 34 31 37 102 46 116 72 28 94 510 99 240 116 228 122 335 125 114 140 226 149 728 151 102 154 161 171 113 173 43 177 65 180 134 193 260 210 268 216 198 218 71 226 81 228 189 233 458 
1404 -0.20954075536894365 0.12799494633276545 0.6417734985279447 0 0 0 0.28 166 72 171 114 180 135 193 261 216 199 218 72 228 190 
1405 -0.06676594523692525 0.14616153062952658 0.7338116303573451 0 0 0 0.3 7 1361 99 241 233 459 
1406 -0.06407520090116217 0.14647321703019728 0.7335895508150656 0 0 0 0.15 7 1362 94 511 99 242 
1407 0.11380105046078443 0.16118732301278949 0.8081519374662672 0 0 0 0.43 7 1363 122 336 205 119 
1408 0.03784647528870536 0.16019957098352883 0.7997368172240269 0 0 0 0.23 7 1364 149 729 205 120 216 200 
1409 0.16479939577700495 0.1693444906911699 0.8427670037897464 0 0 0 0.3 7 1365 90 88 145 18 193 262 
1410 0.16479698294548506 0.16955452215098177 0.8442193905458063 0 0 0 0.21 7 1366 94 512 99 243 149 730 177 66 180 136 233 460 
1411 -0.14973856222902557 0.1373796851107573 0.680040269869306 0 0 0 0.33 7 1367 149 731 233 461 
1412 0.2780904389778977 0.19634659212431746 0.9668614140712055 0 0 0 0.21 7 1368 37 103 46 117 94 513 122 337 140 227 228 191 233 462 
1413 0.3848382160268617 0.2077496290495987 1.020356062346421 0 0 0 0.24 7 1369 46 118 94 514 122 338 125 115 140 228 150 76 166 73 193 263 216 201 218 73 226 82 228 192 
1414 0.4170709159965224 0.21321148461205267 1.0477356012895982 0 0 0 0.18 7 1370 37 104 46 119 94 515 122 339 125 116 143 10 150 77 151 103 166 74 211 44 216 202 218 74 233 463 
1415 0.4167988564735799 0.21305966480559085 1.0468597419483814 0 0 0 0.14 7 1371 122 340 193 264 
1416 0.10661956527332667 0.1639970275218343 0.80821104875414 0 0 0 0.25 7 1372 94 516 99 244 140 229 171 115 180 137 193 265 216 203 218 75 226 83 233 464 
1417 -0.14158117989183147 0.13884984351428836 0.6828354729289521 0 0 0 0.19 7 1373 149 732 233 465 
1418 -0.2596033550899358 0.11932645761137092 0.584414251264086 0 0 0 0.35 18 146 102 9 171 116 228 193 
1419 0.040287409022621595 0.16400832652250744 0.8037912757440696 0 0 0 0.15 7 1374 149 733 161 150 193 266 205 121 
1420 0.04039028647555368 0.1641152289561549 0.8044229290820398 0 0 0 0.11 7 1375 149 734 161 151 193 267 
1421 0.2742029180924074 0.19737880044938413 0.9643952180885934 0 0 0 0.18 7 1376 37 105 94 517 122 341 140 230 150 78 161 152 193 268 205 122 211 45 228 194 233 466 
1422 -0.1508125666456971 0.1387580700771394 0.677596601246097 0 0 0 0.3 7 1377 149 735 216 204 
1423 0.282786581493011 0.19908812175601617 0.9698123176476305 0 0 0 0.17 7 1378 37 106 46 120 122 342 139 8 211 46 226 84 228 195 
1424 0.11398578524441175 0.16523604989145904 0.8074921772949786 0 0 0 0.28 7 1379 122 343 193 269 
1425 0.11394113151662807 0.16533147022212627 0.8064998617416288 0 0 0 0.44 7 1380 18 147 46 121 122 344 149 736 193 270 
1426 0.24971998824145414 0.19326119203657513 0.9408030829051099 0 0 0 0.35 7 1381 30 101 46 122 150 79 228 196 
1427 0.24953259605155634 0.19314342292716863 0.9403499538076215 0 0 0 0.34 7 1382 46 123 55 12 150 80 161 153 183 67 186 25 205 123 228 197 233 467 
1428 -0.12712184089185544 0.14274431083729983 0.6947836314637884 0 0 0 0.29 7 1383 37 107 45 31 46 124 58 71 94 518 116 229 140 231 149 737 154 162 161 154 171 117 226 85 228 198 233 468 
1429 0.25372377384724776 0.1948864904497937 0.9454133350071066 0 0 0 0.21 7 1384 57 8 150 81 211 47 233 469 
1430 0.25373333405119247 0.1948846511716292 0.9453791889832958 0 0 0 0.24 7 1385 57 9 150 82 233 470 
1431 -0.0005586745138535241 0.1595383094524925 0.7758922877736104 0 0 0 0.3 7 1386 23 49 34 32 58 72 72 29 94 519 99 245 116 230 139 9 140 232 149 738 154 163 161 155 171 118 177 67 180 138 193 271 205 124 210 269 216 205 218 76 226 86 233 471 
1432 -0.05144945818782372 0.15282261410531464 0.741201960682401 0 0 0 0.24 7 1387 23 50 58 73 94 520 99 246 116 231 149 739 193 272 216 206 
1433 -0.11914722819894426 0.14482210579462165 0.7000993876045603 0 0 0 0.3 7 1388 37 108 46 125 58 74 94 521 149 740 154 164 161 156 171 119 211 48 216 207 218 77 226 87 233 472 
1434 0.11075696816962216 0.16704124484577257 0.8065544230345317 0 0 0 0.23 7 1389 18 148 90 89 94 522 99 247 116 232 122 345 140 233 149 741 171 120 173 44 180 139 183 68 193 273 210 270 216 208 218 78 226 88 233 473 
1435 -0.15437718748145773 0.14034085379549638 0.6759473669915418 0 0 0 0.63 7 1390 149 742 154 165 233 474 
1436 -0.15437718748145773 0.14034085379549638 0.6759473669915418 0 0 0 0.63 7 1391 149 743 154 166 233 475 
1437 -0.08451237813243889 0.14894078512632442 0.719392657190769 0 0 0 0.17 7 1392 210 271 216 209 
1438 0.05789691630385935 0.16817852023080207 0.8108354830838064 0 0 0 0.12 7 1393 149 744 183 69 
1439 0.05807239217461477 0.16853894426651547 0.8124523289657382 0 0 0 0.13 7 1394 72 30 149 745 210 272 
1440 0.17697824469955045 0.17508019232689861 0.8414692442712093 0 0 0 0.15 7 1395 149 746 233 476 
1441 0.3162972925514817 0.20702691801697054 0.9892273066269328 0 0 0 0.17 7 1396 30 102 37 109 94 523 139 10 149 747 150 83 161 157 193 274 211 49 216 210 233 477 
1442 -0.08221844390349234 0.15094411751740985 0.7210460260847117 0 0 0 0.25 7 1397 30 103 58 75 94 524 99 248 116 233 140 234 149 748 154 167 171 121 180 140 183 70 193 275 205 125 210 273 216 211 
1443 0.13586450986226423 0.17356968049245544 0.8260250139728398 0 0 0 0.27 7 1398 30 104 37 110 45 32 94 525 140 235 
1444 0.13586450986226423 0.17356968049245544 0.8260250139728398 0 0 0 0.27 7 1399 30 105 37 111 45 33 94 526 140 236 
1445 0.29592377668175485 0.20327253012870544 0.9649260388801437 0 0 0 0.21 7 1400 37 112 46 126 72 31 99 249 122 346 140 237 149 749 154 168 161 158 166 75 177 68 180 141 193 276 211 50 228 199 233 478 
1446 0.32284578602403663 0.20827224438744382 0.9866286962250733 0 0 0 0.23 7 1401 86 59 183 71 218 79 226 89 233 479 
1447 0.16627440309984287 0.1765858565729463 0.8382936281323033 0 0 0 0.08 7 1402 122 347 140 238 149 750 193 277 
1448 0.266145731926388 0.2006073717932453 0.9490969384722153 0 0 0 0.15 7 1403 46 127 116 234 122 348 149 751 154 169 186 26 233 480 
1449 -0.07519507678798186 0.15298286332790326 0.7260963943626988 0 0 0 0.25 7 1404 23 51 30 106 46 128 58 76 86 60 94 527 99 250 116 235 140 239 149 752 151 104 161 159 166 76 180 142 183 72 193 278 205 126 210 274 216 212 233 481 
1450 0.0018070601793779173 0.1629292612726277 0.774608428824149 0 0 0 0.45 7 1405 30 107 149 753 228 200 
1451 0.05529893956423252 0.17132024653823869 0.812152684440379 0 0 0 0.09 7 1406 94 528 149 754 
1452 0.41742344189605063 0.22169841439389337 1.0463794419718118 0 0 0 0.26 7 1407 37 113 46 129 72 32 94 529 140 240 149 755 193 279 216 213 226 90 228 201 233 482 
1453 -0.09111920030645941 0.15119940432735202 0.7149776685995074 0 0 0 0.17 7 1408 37 114 58 77 149 756 161 160 210 275 233 483 
1454 0.05951542246415276 0.17195790819266155 0.8139801807643101 0 0 0 0.28 7 1409 94 530 99 251 140 241 149 757 210 276 216 214 
1455 0.3429294004545996 0.21244701970693688 1.0014490670345308 0 0 0 0.21 7 1410 151 105 211 51 
1456 0.1392436322171776 0.17602818506510962 0.8284412723856469 0 0 0 0.25 7 1411 116 236 140 242 149 758 
1457 0.20054168811328918 0.18447598190983558 0.8662484982528597 0 0 0 0.14 7 1412 94 531 140 243 149 759 193 280 216 215 
1458 0.20068776638803504 0.18452594724731342 0.8664859656479437 0 0 0 0.14 7 1413 94 532 122 349 149 760 210 277 216 216 233 484 
1459 0.007701340285374735 0.16479837056240426 0.7769869516241739 0 0 0 0.3 7 1414 149 761 233 485 
1460 0.03763691493884053 0.17006812343771854 0.7999496733822803 0 0 0 0.32 7 1415 90 90 94 533 
1461 0.44392327195211173 0.22674270640964878 1.0590562139391406 0 0 0 0.41 7 1416 46 130 122 350 149 762 180 143 
1462 0.37166902841443283 0.21979469391362927 1.020514426398815 0 0 0 0.11 7 1417 34 33 218 80 
1463 0.025812156107285808 0.16863269573424933 0.7852068046285849 0 0 0 0.39 7 1418 23 52 37 115 94 534 99 252 140 244 149 763 177 69 193 281 205 127 216 217 226 91 228 202 
1464 -0.008888823676569646 0.16532207667870275 0.7680992951254634 0 0 0 0.18 7 1419 30 108 37 116 233 486 
1465 0.3791053396067671 0.22189681187469482 1.0219829748532219 0 0 0 0.21 7 1420 122 351 149 764 150 84 180 144 233 487 
1466 -0.06101060060153381 0.15853674794220035 0.7338180572677313 0 0 0 0.28 7 1421 23 53 30 109 58 78 94 535 99 253 116 237 140 245 149 765 154 170 177 70 180 145 210 278 216 218 233 488 
1467 0.0365004152415055 0.17200979302859248 0.7955207180266409 0 0 0 0.19 7 1422 99 254 233 489 
1468 0.2155783578762621 0.18885846458142963 0.8714231587510505 0 0 0 0.24 7 1423 94 536 122 352 149 766 180 146 193 282 233 490 
1469 -0.0007415475590114431 0.16722392724012006 0.7725985335563893 0 0 0 0.3 7 1424 30 110 37 117 94 537 99 255 125 117 140 246 149 767 193 283 228 203 233 491 
1470 -0.07683110296158467 0.15665129223626226 0.7213006158007318 0 0 0 0.24 7 1425 46 131 116 238 140 247 149 768 210 279 228 204 233 492 
1471 0.11722022511897555 0.17518677432543542 0.807086060156537 0 0 0 0.38 7 1426 122 353 140 248 233 493 
1472 0.2182060028723071 0.1904972070776323 0.8726823744991467 0 0 0 0.22 7 1427 99 256 122 354 
1473 0.2245516679537913 0.19049932151262905 0.8744959339295435 0 0 0 0.17 7 1428 72 33 94 538 99 257 116 239 122 355 140 249 149 769 161 161 173 45 180 147 210 280 233 494 
1474 0.3003694377849734 0.21000316767794708 0.9619175872951008 0 0 0 0.29 7 1429 37 118 94 539 116 240 122 356 125 118 140 250 149 770 183 73 193 284 211 52 233 495 
1475 0.3319926719742552 0.2158305424293103 0.988216975029026 0 0 0 0.21 7 1430 149 771 233 496 
1476 -0.04814045551620761 0.16109120100247545 0.7389263162212519 0 0 0 0.24 7 1431 23 54 58 79 72 34 86 61 94 540 116 241 125 119 140 251 151 106 153 14 193 285 216 219 218 81 226 92 233 497 
1477 -0.10877892149230334 0.1527477340616223 0.6991555904462098 0 0 0 0.23 7 1432 46 132 233 498 
1478 -0.10105343774340465 0.1520575654943337 0.697053134324658 0 0 0 0.15 7 1433 94 541 149 772 
1479 0.2655891052435776 0.20729828948622195 0.9459606219819867 0 0 0 0.22 7 1434 30 111 34 34 37 119 94 542 140 252 150 85 151 107 161 162 193 286 228 205 233 499 
1480 0.2656288687337371 0.2071484312390772 0.9459893879215024 0 0 0 0.13 7 1435 37 120 46 133 149 773 
1481 -0.019862802894605746 0.16664200165686585 0.7614820808849888 0 0 0 0.32 7 1436 99 258 149 774 233 500 
1482 -0.015843778865659578 0.1663901796652916 0.762563867271695 0 0 0 0.34 7 1437 58 80 94 543 99 259 140 253 177 71 193 287 205 128 
1483 0.4119656016590742 0.22893012482274594 1.0400224844174157 0 0 0 0.21 7 1438 23 55 46 134 149 775 193 288 228 206 
1484 0.13863016630759806 0.18104354695525185 0.8244766477641393 0 0 0 0.21 7 1439 37 121 45 34 46 135 94 544 99 260 116 242 125 120 140 254 145 19 149 776 151 108 216 220 218 82 228 207 233 501 
1485 0.2212732282733762 0.19207768708524464 0.8729470826553707 0 0 0 0.14 7 1440 94 545 99 261 116 243 122 357 140 255 149 777 154 171 161 163 193 289 205 129 226 93 233 502 
