# 3D point list with one line of data per point:
#   POINT3D_ID, X, Y, Z, R, G, B, ERROR, TRACK[] as (IMAGE_ID, POINT2D_IDX)
# Number of points: 281, mean track length: 8.82
564 -0.1954071315591879 0.09151990281375842 0.7665133918715543 0 0 0 0.16 18 225 94 220 102 56 116 185 125 116 153 34 167 61 193 194 
565 0.11985079705405187 0.08166251336549582 0.9521764853515512 0 0 0 0.62 18 226 47 34 99 248 102 57 116 186 149 362 154 149 203 440 211 96 
566 0.16453464707864626 0.08798758689492532 0.9861394397224036 0 0 0 0.35 18 227 23 114 47 35 94 221 99 249 140 180 149 363 154 150 171 178 180 151 203 441 210 175 216 152 
567 0.18466252962280563 0.08863434543452944 0.9919589361485192 0 0 0 0.3 18 228 116 187 140 181 149 364 151 132 171 179 180 152 203 442 205 76 210 176 
568 -0.05957889714245964 0.10372189668454213 0.873218267229769 0 0 0 0.4 18 229 46 68 58 81 72 102 99 250 125 117 131 22 140 182 149 365 154 151 166 102 171 180 177 109 193 195 203 443 212 55 228 192 
569 -0.08429387768448122 0.11706880668703093 0.8430322097677144 0 0 0 0.24 18 230 23 115 58 82 72 103 99 251 102 58 119 30 125 118 140 183 149 366 151 133 154 152 166 103 180 153 193 196 203 444 210 177 211 97 218 106 226 119 228 193 233 124 
570 -0.059530515173686474 0.11835229616852042 0.8674514456570708 0 0 0 0.31 18 231 23 116 99 252 116 188 125 119 149 367 151 134 171 181 203 445 216 153 
571 0.11919186403964109 0.11231107068315196 0.9376394565422966 0 0 0 0.18 18 232 46 69 90 21 99 253 102 59 116 189 122 63 125 120 149 368 151 135 154 153 161 91 171 182 183 58 193 197 203 446 210 178 211 98 
572 -0.019654910373508395 0.13552412421818846 0.8879680710245028 0 0 0 0.31 18 233 72 104 99 254 125 121 149 369 154 154 167 62 171 183 177 110 180 154 203 447 210 179 226 120 
573 0.12933270847285647 0.12703775276176935 0.932563498578685 0 0 0 0.29 18 234 23 117 102 60 116 190 140 184 149 370 151 136 154 155 166 104 171 184 177 111 180 155 203 448 
574 0.33154521125262154 0.1459901105744067 1.1194779662885002 0 0 0 0.38 18 235 57 60 59 51 86 46 99 255 116 191 122 64 125 122 149 371 150 27 166 105 191 29 216 154 
575 0.028421190566836032 0.14631638581599424 0.904590639965008 0 0 0 0.19 18 236 57 61 72 105 99 256 102 61 121 21 154 156 171 185 180 156 203 449 210 180 211 99 226 121 
576 0.18184326413948554 0.14258017650195276 0.9687297411081405 0 0 0 0.41 18 237 47 36 94 222 102 62 116 192 140 185 149 372 166 106 171 186 173 83 177 112 180 157 203 450 210 181 218 107 
577 -0.205290216702196 0.14006043880925492 0.7415071840517554 0 0 0 0.24 18 238 23 118 46 70 58 83 72 106 86 47 94 223 102 63 116 193 139 51 151 137 153 35 154 157 167 63 171 187 193 198 216 155 218 108 228 194 
578 -0.21845699720020498 0.1422087251814999 0.7350094906794525 0 0 0 0.17 18 239 46 71 58 84 94 224 116 194 167 64 216 156 226 122 
579 -0.20406905789699623 0.14509358008906492 0.7404500494390358 0 0 0 0.24 18 240 23 119 58 85 94 225 102 64 116 195 125 123 144 64 151 138 153 36 154 158 166 107 180 158 191 30 193 199 211 100 218 109 228 195 
580 -0.17611136189714088 0.14970667095098433 0.7607522018986004 0 0 0 0.28 18 241 37 74 116 196 125 124 153 37 154 159 166 108 167 65 171 188 193 200 216 157 226 123 228 196 
581 -0.18009162074587665 0.15055518853994318 0.7563693110865104 0 0 0 0.22 18 242 34 70 55 30 57 62 58 86 86 48 102 65 116 197 125 125 139 52 143 36 144 65 151 139 154 160 161 92 166 109 167 66 171 189 183 59 189 24 191 31 193 201 211 101 212 56 216 158 226 124 228 197 
582 0.1729148819765813 0.16081157487125639 0.9671960315224961 0 0 0 0.42 18 243 34 71 72 107 102 66 149 373 173 84 180 159 203 451 216 159 
583 0.17196138520212906 0.1649392356118865 0.9632794481297868 0 0 0 0.27 18 244 72 108 173 85 203 452 
584 -0.13486810950456832 0.16526456206180043 0.7849318555125419 0 0 0 0.29 18 245 23 120 140 186 151 140 154 161 161 93 166 110 167 67 171 190 173 86 180 160 193 202 203 453 211 102 218 110 226 125 
585 0.09247480542335819 0.19378638306869025 0.9349491285955382 0 0 0 0.2 18 246 59 52 180 161 203 454 
586 0.14624478408306724 0.18979911846294478 0.925931431234549 0 0 0 0.16 18 247 99 257 102 67 140 187 149 374 151 141 166 111 171 191 173 87 178 33 180 162 203 455 210 182 
587 0.09816796323946222 0.19842914982786258 0.9362556945584978 0 0 0 0.28 18 248 23 121 34 72 46 72 86 49 116 198 125 126 140 188 143 37 144 66 149 375 154 162 161 94 171 192 177 113 203 456 205 77 210 183 228 198 
588 -0.1204765273685679 0.18193471174451967 0.7796855346902642 0 0 0 0.29 18 249 23 122 58 87 72 109 140 189 149 376 151 142 153 38 161 95 171 193 173 88 180 163 183 60 193 203 203 457 205 78 211 103 216 160 218 111 226 126 
589 0.10134189980878248 0.21518023965808022 0.9276757870458732 0 0 0 0.22 18 250 23 123 94 226 102 68 140 190 149 377 171 194 173 89 183 61 203 458 218 112 226 127 
590 0.10841592560001673 0.21240372097154464 0.9229630926760554 0 0 0 0.29 18 251 23 124 86 50 99 258 102 69 154 163 177 114 180 164 203 459 210 184 
591 0.12103600953179981 0.21167353550126577 0.8975336276525127 0 0 0 0.22 18 252 23 125 30 57 173 90 180 165 193 204 203 460 211 104 228 199 
592 0.1653636496938874 0.22244296569747057 0.9286141759493777 0 0 0 0.21 18 253 23 126 34 73 57 63 72 110 99 259 116 199 121 22 140 191 149 378 151 143 166 112 173 91 177 115 180 166 193 205 203 461 210 185 211 105 218 113 228 200 
593 0.034522666586061415 0.23812075408431865 0.8675998851276067 0 0 0 0.12 18 254 102 70 116 200 125 127 203 462 211 106 216 161 
594 -0.20855974540005418 0.054179676619826124 0.785476022869697 0 0 0 0.25 18 255 46 73 94 227 154 164 180 167 
595 -0.19585289217854213 0.06935707636191533 0.7714659736278091 0 0 0 0.31 18 256 23 127 37 75 57 64 72 111 94 228 102 71 116 201 121 23 125 128 143 38 151 144 153 39 154 165 166 113 167 68 171 195 191 32 211 107 218 114 226 128 228 201 
596 0.005442471388256837 0.0659104191412964 0.9287180432964105 0 0 0 0.24 18 257 30 58 34 74 57 65 59 53 94 229 99 260 116 202 121 24 125 129 139 53 140 192 145 45 149 379 151 145 166 114 177 116 183 62 189 25 191 33 193 206 203 463 210 186 211 108 218 115 225 6 228 202 
597 -0.19888599604526283 0.07761058143065437 0.7707058827773046 0 0 0 0.28 18 258 37 76 46 74 57 66 58 88 59 54 86 51 94 230 119 31 121 25 125 130 139 54 144 67 149 380 151 146 166 115 167 69 171 196 180 168 191 34 202 33 211 109 212 57 216 162 218 116 226 129 228 203 
598 0.05314715291757452 0.07443280337771462 0.960303155829785 0 0 0 0.3 18 259 59 55 116 203 145 46 149 381 154 166 183 63 189 26 193 207 203 464 218 117 228 204 
599 0.017139942577436975 0.09590665148432172 0.9293215211874342 0 0 0 0.43 18 260 119 32 149 382 171 197 203 465 228 205 
600 0.17333736518929338 0.08772875296395845 0.9918972087894892 0 0 0 0.37 18 261 23 128 99 261 166 116 171 198 173 92 203 466 210 187 
601 -0.12038975553092936 0.11017384691010808 0.8123709709635766 0 0 0 0.17 18 262 34 75 37 77 59 56 116 204 119 33 125 131 140 193 143 39 149 383 151 147 154 167 178 34 191 35 193 208 203 467 216 163 226 130 
602 -0.12528526699813944 0.11410415221847478 0.8125209846610008 0 0 0 0.33 18 263 23 129 37 78 46 75 55 31 58 89 72 112 102 72 131 23 140 194 149 384 151 148 154 168 167 70 171 199 180 169 203 468 212 58 218 118 225 7 
603 0.03839248615363183 0.1793792436242218 0.8965142569230279 0 0 0 0.2 46 76 59 57 99 262 116 205 154 169 166 117 167 71 177 117 191 36 202 34 
604 0.18577231431181632 0.1438911981030351 0.9660157364956249 0 0 0 0.27 18 264 34 76 59 58 72 113 116 206 125 132 131 24 144 68 171 200 173 93 177 118 203 469 211 110 
605 0.10347424989106375 0.1558522262805264 0.9530927790143378 0 0 0 0.18 18 265 23 130 59 59 72 114 86 52 99 263 116 207 125 133 149 385 151 149 166 118 171 201 173 94 177 119 178 35 180 170 202 35 203 470 210 188 218 119 
606 0.1848781362623517 0.15942609284843798 0.9630615116013664 0 0 0 0.18 18 266 57 67 59 60 72 115 99 264 102 73 121 26 140 195 149 386 166 119 173 95 177 120 178 36 193 209 203 471 211 111 212 59 216 164 218 120 228 206 
607 -0.14845025053772404 0.15566308109089758 0.7782381058212505 0 0 0 0.23 18 267 23 131 34 77 55 32 57 68 58 90 59 61 86 53 94 231 116 208 119 34 125 134 139 55 140 196 144 69 149 387 151 150 154 170 161 96 167 72 171 202 180 171 183 64 189 27 191 37 193 210 202 36 203 472 205 79 211 112 212 60 218 121 226 131 228 207 
608 0.10380175649721592 0.16665123668512807 0.9502151314562209 0 0 0 0.26 18 268 30 59 46 77 55 33 57 69 59 62 72 116 86 54 94 232 99 265 102 74 116 209 119 35 121 27 125 135 139 56 140 197 143 40 144 70 149 388 151 151 154 171 161 97 166 120 171 203 173 96 177 121 186 12 189 28 193 211 202 37 203 473 210 189 211 113 218 122 225 8 226 132 228 208 
609 -0.1505857303456312 0.1621287549328512 0.7755653990098901 0 0 0 0.31 18 269 23 132 34 78 58 91 72 117 94 233 116 210 119 36 140 198 143 41 144 71 149 389 151 152 154 172 166 121 171 204 193 212 203 474 205 80 211 114 218 123 228 209 
610 -0.14172607602181075 0.1642279110882938 0.7819517848622898 0 0 0 0.26 18 270 23 133 34 79 57 70 59 63 94 234 102 75 116 211 125 136 131 25 140 199 144 72 149 390 151 153 153 40 154 173 161 98 166 122 167 73 173 97 178 37 183 65 191 38 193 213 203 475 212 61 218 124 
611 -0.07779170747292334 0.16813712185513965 0.8214603166944252 0 0 0 0.29 18 271 34 80 37 79 46 78 57 71 58 92 59 64 86 55 94 235 99 266 116 212 119 37 125 137 131 26 139 57 140 200 144 73 149 391 151 154 154 174 167 74 186 13 191 39 193 214 202 38 203 476 211 115 212 62 218 125 225 9 
612 0.22676952333273045 0.1774244507414555 0.9910136616465014 0 0 0 0.12 18 272 90 22 150 28 203 477 
613 -0.05853342932691619 0.18427589486993487 0.8319082077201677 0 0 0 0.29 18 273 189 29 203 478 
614 0.017749881196279654 0.20333499135598557 0.8796887627502611 0 0 0 0.32 18 274 59 65 94 236 99 267 139 58 149 392 177 122 180 172 189 30 203 479 216 165 228 210 
615 -0.13250625687633485 0.1977217546383301 0.784466647034027 0 0 0 0.28 18 275 37 80 102 76 119 38 125 138 151 155 154 175 161 99 171 205 173 98 178 38 186 14 191 40 212 63 226 133 
616 -0.16768896915554093 0.20340946073608931 0.754449740246531 0 0 0 0.14 18 276 58 93 178 39 193 215 
617 0.10388485410926504 0.23326774481275775 0.9202077610787844 0 0 0 0.17 59 66 90 23 94 237 139 59 144 74 166 123 189 31 202 39 225 10 233 125 
618 0.18444035478830872 0.24457046130699073 0.9255424546486415 0 0 0 0.29 23 134 34 81 37 81 46 79 57 72 72 118 94 238 99 268 116 213 125 139 131 27 144 75 149 393 151 156 171 206 173 99 177 123 180 173 191 41 212 64 218 126 
619 0.10369757378560257 0.2601357755329596 0.9105373939469166 0 0 0 0.23 30 60 34 82 37 82 46 80 55 34 59 67 72 119 90 24 94 239 99 269 102 77 116 214 125 140 139 60 140 201 143 42 144 76 145 47 149 394 151 157 161 100 166 124 171 207 173 100 177 124 180 174 183 66 186 15 189 32 191 42 193 216 205 81 211 116 212 65 216 166 218 127 225 11 226 134 228 211 233 126 
620 0.11990478372735322 0.2586100990678965 0.8857006150580933 0 0 0 0.17 18 277 178 40 203 480 
621 -0.08526978937925672 0.05124559560609724 0.8671874194298144 0 0 0 0.38 18 278 58 94 59 68 116 215 144 77 149 395 151 158 171 208 180 175 203 481 211 117 212 66 225 12 228 212 
622 -0.06428407519832331 0.07770870638898186 0.8830806762371285 0 0 0 0.25 18 279 59 69 90 25 166 125 171 209 177 125 178 41 180 176 202 40 203 482 212 67 218 128 233 127 
623 0.0730530933154624 0.07366834144809546 0.9706345352054385 0 0 0 0.25 18 280 23 135 57 73 59 70 116 216 121 28 125 141 140 202 144 78 145 48 149 396 151 159 154 176 178 42 183 67 193 217 203 483 212 68 
624 -0.19504551441763338 0.09811917704820909 0.7642560644311023 0 0 0 0.34 18 281 23 136 37 83 46 81 59 71 86 56 125 142 166 126 171 210 180 177 202 41 212 69 
625 -0.12103296097826838 0.10116197120687681 0.8156800731217186 0 0 0 0.19 18 282 23 137 34 83 58 95 59 72 72 120 125 143 140 203 151 160 153 41 154 177 166 127 171 211 173 101 178 43 180 178 193 218 203 484 212 70 216 167 218 129 
626 0.24915378505016336 0.21959870462313769 0.9797605877120028 0 0 0 0.25 18 283 149 397 203 485 212 71 216 168 226 135 
627 0.18064954686360812 0.21715574634593415 0.937763045266114 0 0 0 0.24 57 74 59 73 86 57 94 240 121 29 144 79 171 212 212 72 228 213 
628 0.227503045550456 0.28459712751054317 0.9500395567186545 0 0 0 0.37 23 138 72 121 102 78 116 217 121 30 143 43 144 80 151 161 171 213 173 102 178 44 180 179 193 219 226 136 228 214 233 128 
629 0.047837940675357155 0.06809231695762723 0.9577892669647509 0 0 0 0.48 18 284 178 45 203 486 
630 0.007323106665201402 0.0791964049433148 0.9270450233911611 0 0 0 0.24 18 285 59 74 99 270 149 398 166 128 171 214 178 46 180 180 202 42 203 487 228 215 
631 0.1468001813972325 0.26504243417020323 0.8997472774929633 0 0 0 0.56 18 286 171 215 203 488 
632 -0.13079885249153714 0.09670697920640606 0.8175230849939344 0 0 0 0.39 18 287 59 75 72 122 94 241 102 79 121 31 125 144 143 44 144 81 151 162 166 129 193 220 203 489 212 73 218 130 226 137 228 216 
633 -0.09680493232950545 0.15316891651381775 0.8051304506314146 0 0 0 0.37 18 288 59 76 203 490 225 13 
634 -0.0686290361300802 0.17374871310455856 0.8281082253192572 0 0 0 0.44 18 289 23 139 37 84 57 75 58 96 59 77 94 242 116 218 119 39 125 145 140 204 149 399 153 42 166 130 173 103 178 47 180 181 189 33 191 43 202 43 203 491 211 118 212 74 218 131 228 217 
635 0.15174321138372976 0.04552377176703483 0.992743320937044 0 0 0 0.59 23 140 47 37 72 123 116 219 151 163 154 178 203 492 
636 0.07586808331216705 0.08665035410567731 0.9702896096487844 0 0 0 0.23 23 141 55 35 99 271 116 220 125 146 140 205 149 400 151 164 154 179 193 221 203 493 210 190 
637 -0.04543251711723064 0.08642218250206375 0.8716658896913145 0 0 0 0.12 23 142 72 124 94 243 99 272 116 221 140 206 149 401 177 126 183 68 193 222 203 494 
638 0.21777624145078897 0.10772297612174563 1.013413295705967 0 0 0 0.28 23 143 47 38 86 58 94 244 99 273 140 207 150 29 151 165 154 180 166 131 173 104 177 127 180 182 193 223 203 495 210 191 211 119 216 169 228 218 233 129 
639 -0.010801578923239576 0.10251461229432456 0.8993179746235046 0 0 0 0.21 23 144 99 274 140 208 171 216 203 496 226 138 
640 -0.12626900353841172 0.09455718130534321 0.8169372805009281 0 0 0 0.34 23 145 149 402 154 181 173 105 203 497 210 192 226 139 
641 0.11922022882285498 0.11223372759838424 0.9377085674173861 0 0 0 0.16 23 146 34 84 94 245 102 80 116 222 145 49 149 403 151 166 161 101 173 106 177 128 180 183 183 69 193 224 203 498 205 82 211 120 228 219 
642 0.10902370092393686 0.11905826289637948 0.9541781729395756 0 0 0 0.19 23 147 99 275 149 404 154 182 177 129 203 499 210 193 
643 0.10002904271706828 0.12291287409111065 0.9636490026107787 0 0 0 0.26 23 148 37 85 47 39 99 276 116 223 122 65 140 209 145 50 149 405 151 167 154 183 166 132 171 217 177 130 183 70 193 225 203 500 205 83 210 194 216 170 228 220 233 130 
644 0.31287301225768066 0.143446043190392 1.1124517650472985 0 0 0 0.37 23 149 47 40 149 406 154 184 203 501 216 171 233 131 
645 -0.00650032566149518 0.1252874713097929 0.8911100321389153 0 0 0 0.23 23 150 72 125 116 224 153 43 166 133 167 75 189 34 203 502 210 195 218 132 
646 0.22660003599612807 0.13808956058137345 1.0089733808401458 0 0 0 0.62 23 151 125 147 173 107 193 226 203 503 205 84 
647 0.0668602712784784 0.14350185279368274 0.9340047378961417 0 0 0 0.21 23 152 72 126 154 185 173 108 177 131 203 504 210 196 
648 -0.009260852903229458 0.13955664762954717 0.8858387024612555 0 0 0 0.2 23 153 34 85 37 86 46 82 55 36 58 97 72 127 86 59 94 246 99 277 116 225 125 148 139 61 140 210 145 51 149 407 151 168 153 44 154 186 166 134 167 76 171 218 177 132 180 184 183 71 193 227 203 505 210 197 216 172 218 133 226 140 228 221 
649 -0.20413608372147726 0.1211224622050574 0.7525447907970216 0 0 0 0.15 23 154 58 98 154 187 171 219 193 228 
650 0.06508933425274796 0.14971823725135622 0.9346588940492108 0 0 0 0.16 23 155 99 278 140 211 149 408 193 229 203 506 210 198 
651 -0.21654854390099976 0.12216726977708654 0.7436455066326805 0 0 0 0.23 23 156 94 247 116 226 153 45 154 188 193 230 228 222 
652 0.06859127550081985 0.15427939558581083 0.9366946755410455 0 0 0 0.24 23 157 46 83 57 76 72 128 94 248 99 279 116 227 119 40 125 149 140 212 145 52 151 169 154 189 177 133 183 72 191 44 193 231 203 507 210 199 226 141 
653 -0.1297688511980739 0.13870716809678063 0.7978425971192693 0 0 0 0.09 23 158 37 87 94 249 140 213 203 508 205 85 
654 0.06561865475879221 0.16727876783300558 0.9271672988332358 0 0 0 0.26 23 159 72 129 140 214 151 170 203 509 218 134 
655 -0.14253099003493933 0.15034056355082775 0.785119744615107 0 0 0 0.23 23 160 30 61 58 99 140 215 154 190 183 73 203 510 216 173 
656 -0.12078069547290819 0.15685563246794282 0.7881234279278473 0 0 0 0.19 23 161 30 62 154 191 180 185 203 511 228 223 
657 -0.12070138196548913 0.15696920314743312 0.79021179019006 0 0 0 0.49 23 162 30 63 149 409 154 192 161 102 167 77 173 109 180 186 193 232 203 512 218 135 226 142 
658 0.06115549696059197 0.18782903191221517 0.9153590202564823 0 0 0 0.26 23 163 72 130 99 280 116 228 151 171 166 135 171 220 183 74 203 513 210 200 228 224 
659 0.060912160643255046 0.18752429316130742 0.9142402200649583 0 0 0 0.3 23 164 72 131 116 229 154 193 166 136 203 514 228 225 
660 -0.02546425499327181 0.17588782803545872 0.8555252218401004 0 0 0 0.21 23 165 30 64 58 100 94 250 99 281 140 216 149 410 154 194 171 221 183 75 193 233 203 515 210 201 216 174 226 143 233 132 
661 -0.1293683400033476 0.16375788036931002 0.7865384339620987 0 0 0 0.19 23 166 72 132 94 251 140 217 149 411 151 172 154 195 171 222 173 110 183 76 203 516 228 226 
662 -0.12744817042653694 0.16754328181460248 0.7909822927472454 0 0 0 0.23 23 167 58 101 94 252 116 230 140 218 149 412 167 78 180 187 193 234 228 227 
663 -0.011053253658697734 0.18559503457835114 0.8637207736671805 0 0 0 0.22 23 168 30 65 37 88 58 102 99 282 140 219 151 173 153 46 154 196 167 79 171 223 203 517 205 86 210 202 228 228 233 133 
664 0.04165421401020528 0.1934665402677969 0.8961842524761684 0 0 0 0.22 23 169 34 86 55 37 72 133 116 231 125 150 140 220 145 53 151 174 153 47 154 197 183 77 193 235 203 518 210 203 211 121 226 144 228 229 
665 -0.05519001288950584 0.18115261395704527 0.8325628578013599 0 0 0 0.23 23 170 58 103 72 134 94 253 116 232 140 221 151 175 153 48 167 80 180 188 193 236 203 519 226 145 
666 0.3196278736283445 0.23357244848306424 1.0803131138808562 0 0 0 0.49 23 171 47 41 99 283 116 233 149 413 166 137 193 237 
667 0.31782840824428354 0.23232679304643725 1.0753656367450564 0 0 0 0.44 23 172 47 42 149 414 
668 0.24244420597899988 0.21129794432017499 0.980129318520716 0 0 0 0.32 23 173 94 254 99 284 180 189 193 238 
669 -0.07791499956561776 0.18251646620375325 0.8189942403111665 0 0 0 0.15 23 174 140 222 193 239 203 520 210 204 
670 -0.07054269425735922 0.18424387250291496 0.8253805224959189 0 0 0 0.24 23 175 116 234 140 223 149 415 167 81 171 224 193 240 203 521 226 146 228 230 
671 0.15507046533367325 0.20248900473435233 0.9272980264782547 0 0 0 0.21 23 176 99 285 140 224 149 416 173 111 180 190 203 522 216 175 233 134 
672 -0.08376182408136211 0.1848403963052247 0.8166547411310409 0 0 0 0.15 23 177 154 198 203 523 
673 0.04424131075465335 0.20525008604138764 0.8951540640264923 0 0 0 0.22 23 178 94 255 99 286 116 235 140 225 145 54 149 417 151 176 154 199 166 138 177 134 193 241 203 524 210 205 
674 0.033052336917603266 0.2019612612244385 0.8790267872602285 0 0 0 0.15 23 179 99 287 203 525 
675 0.052291422191019864 0.20719533766421258 0.898541256513121 0 0 0 0.21 23 180 125 151 140 226 149 418 154 200 161 103 177 135 183 78 193 242 203 526 216 176 218 136 
676 0.3167242618670089 0.2462613845111721 1.070157478633555 0 0 0 0.26 23 181 57 77 94 256 99 288 116 236 131 28 145 55 149 419 173 112 183 79 193 243 210 206 
677 -0.12284958179365207 0.18461344192822202 0.7777286353885676 0 0 0 0.24 23 182 58 104 94 257 116 237 125 152 140 227 149 420 161 104 183 80 193 244 216 177 218 137 
678 0.09021404676660731 0.2497516910399087 0.9199457809378851 0 0 0 0.3 23 183 46 84 72 135 99 289 131 29 161 105 166 139 173 113 180 191 193 245 203 527 216 178 226 147 228 231 233 135 
679 0.1492856904550403 0.24525457513415277 0.9053747900455275 0 0 0 0.19 23 184 99 290 144 82 173 114 
680 0.18574366615405624 0.26301341529582795 0.9185010466448468 0 0 0 0.38 23 185 99 291 116 238 149 421 173 115 180 192 193 246 216 179 
681 -0.16744258015566435 0.21354787228136413 0.7014827858064451 0 0 0 0.1 23 186 154 201 180 193 
682 -0.17039396291305556 0.21397594352160326 0.6990505523589147 0 0 0 0.25 23 187 46 85 55 38 58 105 116 239 154 202 193 247 216 180 
683 0.14808072734823272 0.28590027180383176 0.8999452661826366 0 0 0 0.28 23 188 99 292 116 240 173 116 203 528 
684 0.12631116363935754 0.040095273549662726 0.96897481300067 0 0 0 0.18 23 189 34 87 55 39 102 81 122 66 131 30 140 228 144 83 145 56 151 177 154 203 173 117 180 194 183 81 193 248 203 529 212 75 216 181 218 138 
685 0.11435547155404285 0.04568628771390263 0.9730110590727419 0 0 0 0.22 23 190 55 40 86 60 102 82 116 241 140 229 149 422 154 204 171 225 177 136 180 195 193 249 203 530 
686 -0.12646080831453377 0.06572649117904296 0.8294957419468035 0 0 0 0.21 23 191 30 66 37 89 58 106 86 61 94 258 125 153 140 230 151 178 166 140 171 226 203 531 
687 0.06460069606564647 0.07529502381867653 0.9647195262366471 0 0 0 0.21 23 192 30 67 94 259 99 293 140 231 149 423 151 179 154 205 171 227 177 137 193 250 203 532 228 232 
688 0.07047620370713163 0.08940504171463327 0.9647941104875771 0 0 0 0.31 23 193 99 294 125 154 139 62 149 424 151 180 193 251 203 533 210 207 211 122 228 233 
689 0.1143644984948902 0.09134418093173374 0.9677280120483603 0 0 0 0.79 23 194 102 83 203 534 
690 0.20924005215952962 0.09876219737299433 1.013673351135681 0 0 0 0.28 23 195 34 88 72 136 99 295 102 84 119 41 149 425 173 118 180 196 193 252 203 535 210 208 233 136 
691 0.1104294317198729 0.0984497220153986 0.9475528689214511 0 0 0 0.24 23 196 145 57 203 536 
692 0.12097920661377637 0.10255651186827028 0.9398087847385616 0 0 0 0.27 23 197 34 89 94 260 99 296 102 85 116 242 140 232 145 58 151 181 166 141 173 119 177 138 180 197 203 537 218 139 
693 -0.007231695307294858 0.10656282190561324 0.8990172844879424 0 0 0 0.23 23 198 99 297 116 243 140 233 154 206 177 139 193 253 203 538 210 209 218 140 226 148 228 234 
694 0.14145094486628226 0.10474112806486675 0.9522373614766309 0 0 0 0.37 23 199 59 78 94 261 99 298 116 244 151 182 173 120 180 198 202 44 203 539 
695 -0.11716011405423006 0.09704986501727218 0.8156967640681896 0 0 0 0.25 23 200 34 90 72 137 94 262 140 234 149 426 153 49 154 207 171 228 173 121 180 199 203 540 211 123 216 182 226 149 228 235 
696 0.10511249181983902 0.12422273531243286 0.9628626955903355 0 0 0 0.23 23 201 72 138 173 122 177 140 183 82 203 541 218 141 
697 0.10526200046649678 0.12425462463743563 0.9634332763261713 0 0 0 0.18 23 202 72 139 173 123 177 141 183 83 203 542 
698 0.12994054801138816 0.12982668041989948 0.9242403976872393 0 0 0 0.2 23 203 173 124 203 543 
699 0.00385565397482842 0.14114653231446492 0.8989632746141573 0 0 0 0.43 23 204 34 91 46 86 72 140 153 50 173 125 203 544 210 210 218 142 
700 0.06048837816689941 0.15841472560587871 0.9276015186922422 0 0 0 0.3 23 205 30 68 55 41 72 141 94 263 99 299 102 86 116 245 119 42 125 155 143 45 145 59 149 427 151 183 166 142 171 229 177 142 191 45 193 254 202 45 203 545 211 124 218 143 226 150 228 236 
701 0.08417207089429155 0.1639963302631572 0.9499876826072917 0 0 0 0.34 23 206 46 87 72 142 86 62 94 264 99 300 102 87 116 246 166 143 173 126 177 143 193 255 202 46 203 546 211 125 216 183 218 144 228 237 
702 0.05712676343704025 0.18463854704109636 0.9137807582290312 0 0 0 0.14 23 207 37 90 46 88 72 143 94 265 99 301 116 247 125 156 144 84 145 60 149 428 151 184 154 208 177 144 203 547 210 211 218 145 226 151 228 238 
703 -0.05586572370309004 0.17412096407630429 0.8351424339990171 0 0 0 0.4 23 208 30 69 46 89 72 144 86 63 125 157 154 209 177 145 203 548 211 126 218 146 
704 -0.015233389662875 0.18037523417076 0.8618747509889797 0 0 0 0.25 23 209 34 92 86 64 94 266 102 88 125 158 131 31 140 235 151 185 177 146 180 200 193 256 203 549 228 239 233 137 
705 -0.12090041275733085 0.17219971892489372 0.7829855445380692 0 0 0 0.23 23 210 34 93 57 78 94 267 116 248 125 159 140 236 149 429 151 186 153 51 161 106 171 230 193 257 203 550 205 87 211 127 216 184 226 152 228 240 
706 -0.19408792363615093 0.1632736323297984 0.7343195180878462 0 0 0 0.22 23 211 34 94 37 91 45 22 58 107 86 65 125 160 149 430 151 187 154 210 161 107 166 144 167 82 180 201 193 258 205 88 211 128 216 185 226 153 228 241 
707 -0.12043953448291134 0.1820514656377994 0.7801185976413045 0 0 0 0.28 23 212 58 108 72 145 149 431 153 52 161 108 171 231 180 202 193 259 203 551 218 147 
708 -0.008303943774293812 0.20338769019264227 0.8611387550106402 0 0 0 0.32 23 213 116 249 149 432 177 147 193 260 203 552 228 242 
709 0.11232877809274068 0.214663204422512 0.9047546435906305 0 0 0 0.18 23 214 34 95 46 90 72 146 86 66 94 268 99 302 102 89 116 250 125 161 140 237 149 433 151 188 154 211 161 109 166 145 171 232 173 127 177 148 180 203 193 261 203 553 210 212 211 129 216 186 218 148 226 154 228 243 
710 0.2184352992028444 0.22858374810572138 0.9613154676792334 0 0 0 0.3 23 215 37 92 94 269 99 303 102 90 116 251 143 46 144 85 149 434 166 146 180 204 
711 0.14349928862873224 0.2174995464169124 0.9108481539192486 0 0 0 0.34 23 216 57 79 86 67 125 162 131 32 151 189 161 110 173 128 189 35 191 46 193 262 203 554 210 213 212 76 216 187 226 155 228 244 233 138 
712 -0.0736744236220872 0.2025612011740752 0.8243559398724334 0 0 0 0.29 23 217 99 304 102 91 119 43 125 163 203 555 216 188 218 149 
713 0.14738647557451565 0.2244331494623116 0.9144964755144496 0 0 0 0.21 23 218 34 96 99 305 125 164 140 238 149 435 151 190 166 147 193 263 203 556 210 214 
714 0.09023063577080473 0.2404392669011563 0.9234911001042734 0 0 0 0.3 23 219 46 91 55 42 72 147 94 270 99 306 116 252 140 239 144 86 145 61 154 212 171 233 173 129 177 149 178 48 180 205 186 16 191 47 193 264 212 77 216 189 226 156 228 245 
715 0.1499217291424563 0.23423439644409472 0.9119911477158464 0 0 0 0.13 23 220 34 97 99 307 203 557 
716 0.08500183586368398 0.2405780487484338 0.9216850392453577 0 0 0 0.24 23 221 34 98 72 148 94 271 99 308 102 92 116 253 119 44 125 165 131 33 139 63 140 240 143 47 151 191 154 213 166 148 173 130 191 48 193 265 226 157 228 246 
717 -0.1271535858079944 0.22323853452930498 0.7277696499517801 0 0 0 0.31 23 222 37 93 203 558 228 247 
718 0.1162090908435358 0.2737592434177495 0.8805698842740973 0 0 0 0.64 23 223 144 87 177 150 203 559 218 150 
719 0.22026593652857854 0.05481273797942208 1.0434397675387737 0 0 0 0.37 23 224 72 149 173 131 177 151 180 206 202 47 203 560 218 151 226 158 
720 0.21632606916472313 0.06213542251358929 1.0473062299835052 0 0 0 0.45 23 225 180 207 203 561 210 215 
721 -0.13410931361498604 0.08494082778598785 0.8266609374334605 0 0 0 0.22 23 226 58 109 59 79 86 68 151 192 189 36 203 562 
722 0.18485178404899993 0.10295090336818123 0.9855804945046551 0 0 0 0.35 23 227 72 150 86 69 99 309 102 93 121 32 140 241 151 193 154 214 173 132 178 49 193 266 203 563 210 216 212 78 216 190 226 159 
723 -0.05956993541709281 0.10930057374958327 0.871032731168502 0 0 0 0.49 23 228 59 80 102 94 131 34 140 242 166 149 173 133 180 208 189 37 193 267 203 564 205 89 228 248 233 139 
724 0.11196523533846381 0.11435022752405392 0.9420805401789666 0 0 0 0.19 23 229 34 99 59 81 116 254 125 166 144 88 145 62 151 194 171 234 173 134 178 50 180 209 202 48 203 565 216 191 
725 0.04933759067870358 0.12903156360566412 0.9408954795039445 0 0 0 0.23 23 230 72 151 99 310 154 215 166 150 167 83 193 268 203 566 210 217 218 152 
726 -0.09381186508913 0.11679567464722505 0.8442057800480297 0 0 0 0.4 23 231 30 70 46 92 59 82 72 152 99 311 125 167 151 195 154 216 166 151 167 84 180 210 203 567 211 130 212 79 
727 0.08456986075787441 0.13739816033396082 0.9630552564704347 0 0 0 0.26 23 232 34 100 59 83 72 153 86 70 94 272 99 312 116 255 119 45 140 243 143 48 145 63 151 196 154 217 177 152 178 51 203 568 210 218 218 153 226 160 
728 -0.059441739702259355 0.1247977992494758 0.8646338996638127 0 0 0 0.31 23 233 34 101 58 110 99 313 116 256 149 436 151 197 153 53 166 152 167 85 177 153 203 569 212 80 218 154 228 249 
729 -0.08805736500803103 0.1866320229737519 0.8095805207373419 0 0 0 0.11 23 234 94 273 119 46 151 198 154 218 166 153 167 86 228 250 
730 -0.16777579950561555 0.19937476316771605 0.7555455317517598 0 0 0 0.25 23 235 171 235 180 211 218 155 226 161 
731 -0.018444874104054817 0.2249371144339178 0.853769353673656 0 0 0 0.35 23 236 37 94 72 154 102 95 116 257 153 54 154 219 167 87 173 135 178 52 180 212 191 49 202 49 203 570 
732 -0.11985766204781972 0.20626211839829553 0.775336681342357 0 0 0 0.23 23 237 59 84 94 274 125 168 140 244 151 199 153 55 154 220 166 154 171 236 180 213 193 269 202 50 211 131 
733 -0.11994938073367772 0.20605951136047304 0.7748842973103487 0 0 0 0.23 23 238 30 71 37 95 58 111 59 85 72 155 102 96 116 258 119 47 125 169 140 245 151 200 153 56 154 221 161 111 166 155 180 214 183 84 193 270 203 571 205 90 212 81 226 162 228 251 
734 -0.045506486203216776 0.2233464171263376 0.8193432711749735 0 0 0 0.14 23 239 34 102 58 112 59 86 94 275 116 259 119 48 125 170 131 35 139 64 140 246 144 89 151 201 153 57 166 156 177 154 178 53 180 215 183 85 193 271 202 51 211 132 212 82 216 192 218 156 226 163 228 252 
735 -0.04544819603788673 0.22349019173275864 0.8198380346744203 0 0 0 0.13 23 240 37 96 57 80 59 87 116 260 125 171 140 247 166 157 167 88 177 155 178 54 189 38 212 83 216 193 226 164 
736 0.3037019863110691 0.296951037157754 1.03857754129927 0 0 0 0.27 23 241 72 156 143 49 173 136 180 216 218 157 
737 0.23011476989732807 0.2769699408048469 0.9502041928741698 0 0 0 0.16 23 242 72 157 102 97 143 50 173 137 178 55 
738 -0.0920944033336487 0.04867996223338773 0.8690038789308222 0 0 0 0.18 23 243 72 158 140 248 203 572 226 165 
739 0.212901887561176 0.07001733929602112 1.0311923936417837 0 0 0 0.53 23 244 173 138 180 217 203 573 210 219 
740 0.1118361492812987 0.07110939535843337 0.9614172866256516 0 0 0 0.23 23 245 34 103 57 81 59 88 86 71 94 276 102 98 140 249 144 90 149 437 151 202 171 237 186 17 193 272 202 52 203 574 218 158 233 140 
741 0.22959365479526403 0.08033362115667263 1.0326131639693799 0 0 0 0.24 23 246 30 72 34 104 55 43 59 89 72 159 94 277 102 99 131 36 139 65 140 250 144 91 145 64 149 438 151 203 154 222 177 156 178 56 183 86 193 273 202 53 203 575 205 91 216 194 218 159 226 166 228 253 233 141 
742 -0.1953278868094404 0.08228797575184237 0.768923073818768 0 0 0 0.14 23 247 34 105 57 82 72 160 86 72 121 33 167 89 171 238 180 218 193 274 211 133 212 84 
743 -0.19813316354465363 0.08757913736880253 0.7677161419006655 0 0 0 0.3 23 248 58 113 59 90 94 278 116 261 119 49 125 172 143 51 149 439 154 223 166 158 211 134 216 195 218 160 228 254 
744 -0.0817646911045857 0.09535369313250856 0.8485804465193307 0 0 0 0.26 23 249 30 73 34 106 37 97 46 93 55 44 58 114 59 91 86 73 125 173 140 251 149 440 150 30 154 224 167 90 186 18 191 50 202 54 203 576 211 135 212 85 226 167 228 255 
745 -0.12571441944343384 0.15224433845139268 0.7892025133024315 0 0 0 0.24 23 250 34 107 57 83 58 115 59 92 72 161 86 74 94 279 116 262 139 66 140 252 143 52 149 441 151 204 153 58 154 225 167 91 189 39 191 51 193 275 202 55 203 577 211 136 212 86 216 196 218 161 225 14 226 168 228 256 
746 -0.05800449002431834 0.20217755748295235 0.8344958879759141 0 0 0 0.4 23 251 30 74 34 108 55 45 57 84 58 116 59 93 72 162 90 26 94 280 99 314 102 100 116 263 125 174 143 53 151 205 153 59 154 226 166 159 167 92 173 139 177 157 180 219 189 40 191 52 193 276 202 56 203 578 205 92 210 220 211 137 212 87 216 197 218 162 225 15 226 169 228 257 233 142 
747 -0.12200340733983002 0.21062664475861428 0.7726060283861793 0 0 0 0.32 23 252 59 94 72 163 178 57 191 53 193 277 203 579 
748 0.12529744305029486 0.27251733574465975 0.879493967280863 0 0 0 0.37 23 253 34 109 59 95 72 164 99 315 102 101 116 264 125 175 140 253 149 442 173 140 178 58 180 220 193 278 228 258 
749 0.10155338717055615 0.07483738024384935 0.9847226589923579 0 0 0 0.52 23 254 30 75 47 43 57 85 59 96 102 102 116 265 125 176 149 443 151 206 154 227 203 580 212 88 216 198 
750 0.21330098513274537 0.1144162298266382 1.009920314499888 0 0 0 0.37 23 255 34 110 99 316 121 34 178 59 180 221 203 581 218 163 
751 0.10600553158980557 0.21428439312367967 0.9346211270278769 0 0 0 0.4 23 256 34 111 46 94 59 97 72 165 86 75 116 266 140 254 144 92 154 228 161 112 173 141 177 158 178 60 193 279 202 57 203 582 211 138 218 164 228 259 
752 -0.1147341670499969 0.20221963287619069 0.7774098134448723 0 0 0 0.21 23 257 34 112 59 98 102 103 116 267 125 177 140 255 143 54 189 41 191 54 193 280 212 89 225 16 226 170 228 260 
753 0.14837294658854017 0.2725414947038917 0.8993334642437835 0 0 0 0.28 23 258 34 113 72 166 131 37 143 55 144 93 173 142 178 61 203 583 212 90 218 165 
754 0.037017209298871395 0.1712675171740609 0.9078684698218282 0 0 0 0.87 23 259 99 317 131 38 203 584 
755 -0.04281909468447178 0.16608272487267683 0.8408679701855138 0 0 0 0.35 23 260 30 76 37 98 58 117 59 99 72 167 86 76 99 318 116 268 119 50 125 178 139 67 140 256 144 94 149 444 151 207 153 60 154 229 166 160 167 93 171 239 173 143 177 159 180 222 189 42 193 281 202 58 203 585 212 91 218 166 226 171 228 261 
756 0.1628961601842701 0.2352057576870606 0.9227368195276192 0 0 0 0.28 23 261 34 114 59 100 94 281 99 319 116 269 121 35 131 39 144 95 151 208 166 161 173 144 178 62 180 223 212 92 
757 0.16426580605544058 0.27147440126867095 0.9151751324737984 0 0 0 0.37 23 262 72 168 99 320 121 36 173 145 178 63 180 224 203 586 
758 0.06447855892128507 0.1044204252162332 0.9491562026240594 0 0 0 0.54 23 263 57 86 59 101 99 321 102 104 121 37 143 56 144 96 149 445 151 209 154 230 177 160 178 64 203 587 210 221 
759 0.06084179613825861 0.13906293886117357 0.9308410597019419 0 0 0 0.45 23 264 37 99 59 102 72 169 86 77 102 105 116 270 119 51 121 38 139 68 177 161 178 65 203 588 218 167 225 17 
760 0.06084179613825861 0.13906293886117357 0.9308410597019419 0 0 0 0.45 23 265 37 100 59 103 72 170 86 78 102 106 116 271 119 52 121 39 139 69 177 162 178 66 203 589 218 168 225 18 
761 0.045889339993004256 0.14742661998117618 0.9202395557295183 0 0 0 0.55 23 266 72 171 99 322 102 107 177 163 203 590 218 169 
762 0.0801182854844123 0.23024522704654315 0.9112209537764107 0 0 0 0.43 23 267 34 115 59 104 99 323 116 272 119 53 121 40 125 179 144 97 145 65 149 446 151 210 154 231 166 162 173 146 178 67 180 225 202 59 203 591 212 93 218 170 
763 0.08036434934326502 0.23044423541935619 0.9121032845379464 0 0 0 0.44 23 268 34 116 46 95 59 105 99 324 116 273 119 54 121 41 125 180 131 40 144 98 145 66 149 447 151 211 154 232 166 163 171 240 173 147 178 68 180 226 189 43 202 60 203 592 211 139 212 94 218 171 
764 0.08075666096170704 0.24949994494548558 0.9116399920877509 0 0 0 0.38 23 269 46 96 59 106 72 172 116 274 121 42 143 57 145 67 173 148 177 164 178 69 202 61 203 593 210 222 
765 0.08106139487590067 0.2497689519242878 0.9126633208140061 0 0 0 0.38 23 270 59 107 72 173 116 275 121 43 143 58 145 68 173 149 177 165 178 70 202 62 203 594 
766 0.09629252765785964 0.2696190479378799 0.9066070606632364 0 0 0 0.38 23 271 140 257 171 241 203 595 
767 0.006580519052653974 0.21467925503579988 0.8683120979262269 0 0 0 0.57 23 272 116 276 131 41 140 258 145 69 173 150 177 166 203 596 228 262 
768 0.1319636257369432 0.2403955321365309 0.898084257414545 0 0 0 0.31 23 273 30 77 57 87 59 108 72 174 116 277 140 259 143 59 144 99 151 212 177 167 180 227 203 597 212 95 
769 0.1320751085858933 0.24048460393616936 0.898492905838058 0 0 0 0.31 23 274 30 78 57 88 59 109 72 175 102 108 116 278 140 260 143 60 144 100 151 213 173 151 177 168 178 71 180 228 193 282 203 598 212 96 218 172 
770 -0.010196755914705782 0.05614439081062458 0.920336340822608 0 0 0 0.21 30 79 94 282 99 325 149 448 154 233 171 242 177 169 193 283 203 599 210 223 216 199 228 263 233 143 
771 0.004000738706297258 0.10286389011725608 0.9199970751786815 0 0 0 0.21 30 80 116 279 203 600 205 93 210 224 
772 0.11091512821391218 0.15277720619576815 0.932092788131703 0 0 0 0.32 30 81 72 176 99 326 102 109 149 449 151 214 177 170 203 601 210 225 216 200 218 173 226 172 233 144 
773 0.1044782715878785 0.16090794528829808 0.9537658613765105 0 0 0 0.14 30 82 99 327 171 243 180 229 203 602 
774 -0.11368313819832063 0.14035257139067772 0.8020385102974774 0 0 0 0.08 30 83 203 603 216 201 
775 -0.06385794020711918 0.1548986422369927 0.8390044333447025 0 0 0 0.15 30 84 94 283 99 328 149 450 203 604 216 202 
776 0.016015163222420338 0.1742562214564628 0.8875016861570024 0 0 0 0.24 30 85 86 79 99 329 149 451 153 61 167 94 177 171 193 284 203 605 
777 -0.13638194530906053 0.1685146177100132 0.7850068760066621 0 0 0 0.16 30 86 58 118 151 215 154 234 171 244 183 87 203 606 228 264 
778 -0.0080480963742027 0.19111910326719334 0.8634000879814492 0 0 0 0.25 30 87 37 101 72 177 99 330 116 280 131 42 149 452 151 216 161 113 167 95 177 172 180 230 193 285 203 607 226 173 
779 0.025317721832613424 0.19480459748454831 0.8833135948761844 0 0 0 0.25 30 88 72 178 94 284 116 281 140 261 149 453 153 62 154 235 166 164 167 96 171 245 177 173 180 231 193 286 203 608 210 226 
780 0.01567741258168589 0.05300942607601589 0.937831539649836 0 0 0 0.28 30 89 46 97 58 119 86 80 94 285 99 331 116 282 140 262 144 101 149 454 150 31 154 236 166 165 180 232 183 88 203 609 211 140 218 174 228 265 
781 0.12193225986168596 0.07575580130901773 0.9542853246799928 0 0 0 0.19 30 90 99 332 139 70 203 610 
782 -0.01556616418796239 0.13775101040012366 0.887362687940266 0 0 0 0.43 30 91 37 102 94 286 99 333 102 110 116 283 143 61 149 455 166 166 173 152 203 611 228 266 
783 -0.13291455832974045 0.13851639853628986 0.7963490181033327 0 0 0 0.07 30 92 37 103 149 456 154 237 167 97 203 612 211 141 
784 0.21789147447395668 0.17800846402055148 0.9929322546736525 0 0 0 0.37 30 93 46 98 99 334 166 167 180 233 203 613 211 142 218 175 
785 -0.02323247797800754 0.17116341599362853 0.8596918911055828 0 0 0 0.28 30 94 58 120 149 457 166 168 167 98 183 89 193 287 203 614 210 227 228 267 
786 -0.056028615966809026 0.17393721605858378 0.834183447078421 0 0 0 0.47 30 95 46 99 58 121 86 81 125 181 154 238 166 169 171 246 177 174 203 615 211 143 
787 0.06741473198964786 0.19970067062730823 0.9129047264504372 0 0 0 0.22 30 96 37 104 94 287 99 335 116 284 125 182 139 71 140 263 149 458 151 217 171 247 173 153 177 175 183 90 193 288 203 616 205 94 218 176 228 268 
788 -0.07944187901266078 0.18787768576756947 0.8123811743879208 0 0 0 0.11 30 97 58 122 119 55 140 264 203 617 
789 -0.09332416264800188 0.19069728648124848 0.8119108798682391 0 0 0 0.26 30 98 58 123 140 265 154 239 161 114 166 170 171 248 178 72 180 234 193 289 202 63 203 618 226 174 228 269 
790 0.1044292955974667 0.2331095210333042 0.9199379686155273 0 0 0 0.27 30 99 34 117 46 100 180 235 191 55 203 619 228 270 
791 -0.11314969555977142 0.22164764263696624 0.7653722268901157 0 0 0 0.24 30 100 34 118 203 620 
792 0.13396461942699062 0.2734175309602632 0.8859024918866211 0 0 0 0.32 30 101 72 179 99 336 119 56 125 183 143 62 180 236 189 44 191 56 233 145 
793 0.007416601879196532 0.05079282174760563 0.9332084498636611 0 0 0 0.29 30 102 161 115 203 621 233 146 
794 0.039772107255925754 0.05878721164168039 0.9527845994498026 0 0 0 0.39 30 103 154 240 203 622 233 147 
795 -0.05149985206347231 0.054221759485110946 0.8881788065215498 0 0 0 0.25 30 104 57 89 58 124 86 82 94 288 116 285 125 184 149 459 166 171 203 623 210 228 
796 -0.0283507900657948 0.05721474437915778 0.9080349997462124 0 0 0 0.15 30 105 86 83 94 289 99 337 116 286 149 460 151 218 166 172 189 45 193 290 203 624 
797 0.0813602736477665 0.06908646358074852 0.9771886898924002 0 0 0 0.42 30 106 47 44 86 84 94 290 99 338 139 72 149 461 154 241 186 19 203 625 233 148 
798 -0.10091019006164001 0.1465665469057884 0.8166945422278453 0 0 0 0.17 30 107 58 125 116 287 203 626 212 97 
799 -0.045630345292980504 0.19166362761898317 0.8297808895023383 0 0 0 0.27 30 108 45 23 55 46 57 90 58 126 59 110 72 180 94 291 99 339 116 288 125 185 131 43 139 73 140 266 149 462 151 219 153 63 154 242 161 116 166 173 177 176 180 237 183 91 193 291 203 627 205 95 210 229 211 144 216 203 218 177 226 175 228 271 
800 0.0007525510011467686 0.22733914221519444 0.8662962440292813 0 0 0 0.26 30 109 55 47 116 289 119 57 125 186 139 74 143 63 144 102 151 220 154 243 166 174 167 99 177 177 183 92 189 46 191 57 193 292 203 628 212 98 216 204 218 178 226 176 
801 0.11762889648615911 0.1513160578265728 0.9254743129241854 0 0 0 0.24 30 110 59 111 94 292 99 340 125 187 140 267 144 103 145 70 149 463 151 221 154 244 161 117 166 175 173 154 178 73 180 238 183 93 193 293 202 64 203 629 211 145 212 99 218 179 228 272 
802 -0.08082883489658875 0.15706368454962136 0.8243358783555038 0 0 0 0.34 30 111 57 91 58 127 59 112 94 293 99 341 116 290 125 188 144 104 149 464 151 222 154 245 161 118 189 47 203 630 210 230 212 100 228 273 
803 -0.13839543778120286 0.14927931129303706 0.7872965111507075 0 0 0 0.37 30 112 45 24 55 48 59 113 72 181 86 85 116 291 119 58 125 189 131 44 140 268 143 64 144 105 151 223 154 246 161 119 166 176 167 100 171 249 183 94 193 294 203 631 205 96 211 146 212 101 216 205 218 180 225 19 226 177 228 274 
804 -0.0644020403007665 0.2019897655926017 0.8274460445935904 0 0 0 0.42 30 113 34 119 58 128 125 190 151 224 154 247 183 95 191 58 193 295 203 632 225 20 226 178 
805 0.08220495656916812 0.09757807719135252 0.9729913961056402 0 0 0 0.24 30 114 99 342 121 44 125 191 149 465 154 248 178 74 202 65 203 633 228 275 
806 0.020933262561260605 0.19192637135543034 0.884160400351984 0 0 0 0.58 30 115 57 92 59 114 94 294 116 292 125 192 149 466 154 249 177 178 191 59 203 634 210 231 212 102 228 276 
807 -0.08162664367109713 0.20114744234762258 0.8026564875090906 0 0 0 0.34 30 116 34 120 58 129 72 182 99 343 125 193 140 269 144 106 154 250 167 101 189 48 191 60 193 296 203 635 211 147 212 103 226 179 228 277 
808 0.06726760115052174 0.19521122898260407 0.915524247574959 0 0 0 0.25 30 117 59 115 151 225 203 636 216 206 
809 0.11103417685906336 0.0429061744652736 0.9789451210221148 0 0 0 0.42 34 121 46 101 47 45 102 111 125 194 171 250 177 179 180 239 186 20 193 297 203 637 218 181 228 278 233 149 
810 0.09362412755085286 0.05718640773468473 0.9903182102530477 0 0 0 0.27 34 122 46 102 86 86 99 344 140 270 144 107 154 251 177 180 180 240 186 21 193 298 203 638 218 182 
811 -0.19437777767665482 0.04936834577919542 0.7787376082865891 0 0 0 0.18 34 123 58 130 167 102 211 148 
812 0.014570266885590643 0.10654294805625315 0.9248784351833781 0 0 0 0.42 34 124 46 103 72 183 125 195 178 75 180 241 186 22 203 639 210 232 228 279 
813 0.06803271310896926 0.13024399236582795 0.9414528511065239 0 0 0 0.37 34 125 57 93 72 184 86 87 99 345 102 112 116 293 143 65 144 108 145 71 149 467 151 226 166 177 173 155 177 181 203 640 210 233 212 104 226 180 
814 -0.18440070563911068 0.11630243389494604 0.7594660748399523 0 0 0 0.27 34 126 37 105 46 104 57 94 125 196 149 468 193 299 226 181 
815 0.004811778481861655 0.14173416060638883 0.9036832423109458 0 0 0 0.48 34 127 46 105 116 294 167 103 203 641 210 234 226 182 233 150 
816 0.14668555860763108 0.1517669424999848 0.9430487443093302 0 0 0 0.37 34 128 144 109 173 156 180 242 203 642 
817 0.13042602821256982 0.1503543621060088 0.9259074874220413 0 0 0 0.31 34 129 72 185 99 346 140 271 149 469 151 227 161 120 171 251 173 157 177 182 193 300 203 643 205 97 210 235 211 149 226 183 233 151 
818 0.23088288963024942 0.18763528208669158 0.9884091800091742 0 0 0 0.24 34 130 37 106 46 106 47 46 55 49 57 95 72 186 99 347 125 197 139 75 143 66 150 32 151 228 161 121 171 252 177 183 193 301 203 644 205 98 210 236 211 150 216 207 218 183 233 152 
819 -0.201617423428616 0.14862286623598617 0.7418770185974566 0 0 0 0.29 34 131 37 107 58 131 86 88 139 76 211 151 218 184 
820 0.2091421614454309 0.19168173147405507 0.9717444075530041 0 0 0 0.16 34 132 180 243 203 645 
821 0.324587306273191 0.22044496057008695 1.0955356632770061 0 0 0 0.35 34 133 37 108 46 107 72 187 94 295 99 348 122 67 125 198 140 272 143 67 149 470 161 122 177 184 180 244 183 96 191 61 202 66 203 646 210 237 211 152 216 208 218 185 228 280 
822 0.31406774285233835 0.22522972376154457 1.0852878495518448 0 0 0 0.29 34 134 99 349 189 49 191 62 203 647 
823 0.15702869363804894 0.19264795606916219 0.9339980840456819 0 0 0 0.17 34 135 72 188 99 350 102 113 116 295 149 471 171 253 173 158 177 185 203 648 210 238 218 186 
824 0.14988316242696448 0.19598729448986651 0.9250052894204528 0 0 0 0.27 34 136 46 108 59 116 99 351 131 45 140 273 149 472 151 229 202 67 203 649 212 105 228 281 
825 -0.12094724552984842 0.1725888782572907 0.7844967277098008 0 0 0 0.2 34 137 37 109 46 109 58 132 116 296 125 199 140 274 149 473 154 252 183 97 193 302 203 650 205 99 216 209 226 184 228 282 
826 -0.00798369497242696 0.1913448947794275 0.8641568838790935 0 0 0 0.24 34 138 99 352 140 275 203 651 
827 0.13758859678007881 0.21117459522723173 0.9040863349052338 0 0 0 0.28 34 139 46 110 99 353 149 474 173 159 180 245 203 652 
828 -0.07958939898040596 0.1969537120710033 0.8001332618087886 0 0 0 0.2 34 140 125 200 203 653 
829 0.005089360218016192 0.2291361882613762 0.8677879335502083 0 0 0 0.28 34 141 72 189 94 296 153 64 154 253 167 104 173 160 177 186 193 303 211 153 216 210 
830 0.12039661509232445 0.037776007088297085 0.9662355920706583 0 0 0 0.21 34 142 173 161 178 76 203 654 
831 0.1032898982888172 0.05412799214530469 0.9964814114859717 0 0 0 0.33 34 143 47 47 94 297 99 354 116 297 125 201 131 46 139 77 140 276 149 475 154 254 166 178 177 187 180 246 186 23 202 68 203 655 211 154 212 106 218 187 225 21 228 283 
832 0.14632333718610838 0.08315105070235326 0.9727281388070704 0 0 0 0.21 34 144 149 476 203 656 233 153 
833 -0.0937812578628932 0.08501291434016786 0.8573457336153798 0 0 0 0.29 34 145 46 111 58 133 59 117 72 190 99 355 116 298 145 72 149 477 150 33 189 50 203 657 205 100 218 188 226 185 228 284 
834 -0.05971028340647113 0.08904014254101084 0.8785535217601068 0 0 0 0.36 34 146 37 110 46 112 57 96 58 134 99 356 116 299 121 45 151 230 166 179 167 105 189 51 203 658 228 285 
835 -0.07464300723483537 0.09875715523076824 0.8657688213349555 0 0 0 0.2 34 147 58 135 86 89 94 298 116 300 140 277 167 106 189 52 191 63 203 659 212 107 226 186 228 286 
836 0.008981546723569472 0.11017158755448296 0.9183027326230587 0 0 0 0.26 34 148 37 111 59 118 86 90 94 299 99 357 116 301 167 107 177 188 203 660 228 287 
837 0.008814642444829787 0.10994362434640507 0.9166953659295718 0 0 0 0.36 34 149 37 112 59 119 86 91 94 300 116 302 144 110 149 478 150 34 151 231 166 180 167 108 177 189 178 77 193 304 202 69 203 661 212 108 226 187 228 288 
838 0.23881994060425638 0.1645655829956345 1.0010921972797122 0 0 0 0.29 34 150 55 50 59 120 116 303 122 68 131 47 140 278 144 111 145 73 149 479 151 232 154 255 161 123 180 247 193 305 203 662 205 101 212 109 228 289 
839 0.22021787481032873 0.19387689123061475 0.9813203797177361 0 0 0 0.27 34 151 72 191 86 92 102 114 149 480 151 233 154 256 173 162 180 248 203 663 218 189 226 188 
840 0.13219451024586362 0.1838344834440253 0.9126709778221885 0 0 0 0.24 34 152 86 93 99 358 102 115 140 279 149 481 154 257 173 163 193 306 203 664 
841 0.08451532085482284 0.19537425530556635 0.9224079607643022 0 0 0 0.48 34 153 72 192 94 301 145 74 191 64 
842 0.14468362528386644 0.2105759404179879 0.9150284248117359 0 0 0 0.28 34 154 166 181 180 249 203 665 210 239 
843 0.22124386802746984 0.23710044817772774 0.9643120380402794 0 0 0 0.47 34 155 122 69 145 75 151 234 161 124 183 98 203 666 211 155 228 290 
844 -0.15714523416799966 0.1983996888738901 0.7556262026140889 0 0 0 0.19 34 156 58 136 59 121 72 193 94 302 116 304 125 202 143 68 144 112 151 235 166 182 167 109 180 250 191 65 193 307 211 156 216 211 218 190 228 291 
