# 3D point list with one line of data per point:
#   POINT3D_ID, X, Y, Z, R, G, B, ERROR, TRACK[] as (IMAGE_ID, POINT2D_IDX)
# Number of points: 340, mean track length: 9.9
4707 0.20000085868167736 -0.11000155908997386 0.9943357114571326 0 0 0 0.71 24 2265 150 421 161 347 180 1267 
4708 -0.26124515121884884 -0.051954108330075084 0.6544668427833684 0 0 0 0.63 8 2682 24 2266 139 718 166 1196 
4709 -0.19528059111823692 0.010782887497330758 0.707993844058918 0 0 0 0.39 8 2683 24 2267 57 1363 116 1197 125 1162 154 722 166 1197 225 485 
4710 -0.23293070399334237 0.02096711311796492 0.6415615076854593 0 0 0 0.48 8 2684 24 2268 57 1364 59 1360 72 770 94 768 102 797 116 1198 119 715 133 303 143 744 144 1169 145 592 153 385 173 1013 218 1240 228 1111 
4711 0.4814769243415935 0.03619555035637338 1.1594308340004993 0 0 0 0.92 24 2269 31 1302 37 442 94 769 99 860 115 504 116 1199 137 437 144 1170 149 664 150 422 151 1185 154 723 166 1198 171 583 202 917 212 580 215 518 
4712 -0.3697470635071804 0.03185150195673841 0.5216706931680886 0 0 0 0.77 8 2685 51 227 58 621 59 1361 86 893 119 716 125 1163 167 628 178 591 
4713 -0.20765792644376177 0.04257396216993235 0.6842098107979503 0 0 0 0.4 24 2270 51 228 58 622 59 1362 86 894 94 770 116 1200 143 745 166 1199 167 629 171 584 178 592 180 1268 193 1022 
4714 -0.27437392982917197 0.04424683695747534 0.6356776638581534 0 0 0 0.37 24 2271 48 121 180 1269 
4715 0.3792207760437392 0.06914927727208213 1.1205624067363773 0 0 0 0.33 24 2272 178 593 180 1270 
4716 -0.275299297860778 0.053302213528360565 0.635249237393656 0 0 0 0.29 24 2273 48 122 59 1363 86 895 166 1200 
4717 -0.27804638143734806 0.0810959332610858 0.6187987477427386 0 0 0 0.15 24 2274 59 1364 167 630 180 1271 212 581 
4718 -0.26982427037442597 0.0790915081916709 0.6058774242286893 0 0 0 0.71 24 2275 151 1186 202 918 
4719 -0.30138201972745565 0.10705051709674233 0.6701963274023819 0 0 0 0.57 24 2276 59 1365 86 896 166 1201 167 631 178 594 180 1272 202 919 
4720 -0.16409696527463244 0.10119161030126556 0.678054645726063 0 0 0 0.08 24 2277 151 1187 228 1112 
4721 -0.13601301172169103 0.10997402652207713 0.7075975850178221 0 0 0 0.26 24 2278 58 623 59 1366 125 1164 166 1202 167 632 
4722 0.31045643973019005 0.1610431438566125 0.9898672178675205 0 0 0 0.4 24 2279 102 798 180 1273 
4723 0.4630764576740186 0.1763687919866388 1.0868344660144051 0 0 0 0.38 24 2280 171 585 180 1274 
4724 0.7238186480220953 0.10859864476614202 0.9131579573652121 0 0 0 0.45 24 2281 31 1303 180 1275 
4725 -0.3558909874753352 0.10380632572427739 0.49804510697655097 0 0 0 0.75 8 2686 24 2282 59 1367 102 799 115 505 125 1165 133 304 139 719 167 633 178 595 191 735 218 1241 228 1113 
4726 0.3671623494336451 0.20622632546779293 1.0225250703550988 0 0 0 0.46 24 2283 34 688 94 771 144 1171 145 593 151 1188 178 596 
4727 0.6898926519643165 0.18161139595068945 1.0039452700343374 0 0 0 0.45 8 2687 24 2284 57 1365 59 1368 119 717 144 1172 145 594 212 582 216 854 
4728 0.6268508116346733 0.25827655629046126 1.104189002736746 0 0 0 0.57 8 2688 24 2285 30 530 31 1304 57 1366 59 1369 99 861 115 506 116 1201 131 743 133 305 137 438 139 720 140 893 144 1173 150 423 178 597 180 1276 189 776 191 736 202 920 216 855 228 1114 
4729 -0.26440872064977144 0.14523829781534323 0.5749701099250485 0 0 0 0.95 24 2286 48 123 51 229 59 1370 115 507 119 718 166 1203 167 634 202 921 215 519 
4730 -0.2647315763491505 0.1460195561011379 0.5795238606451608 0 0 0 0.26 24 2287 46 409 59 1371 119 719 166 1204 
4731 -0.32567297628632924 0.13191871373809672 0.5052574560788295 0 0 0 0.49 8 2689 24 2288 58 624 59 1372 119 720 139 721 202 922 218 1242 228 1115 
4732 0.20583385749828306 0.2275235236181092 0.8601387667120284 0 0 0 0.93 24 2289 59 1373 99 862 121 144 180 1277 210 370 212 583 
4733 0.672690942327818 0.2543989972469755 1.02226165706081 0 0 0 1.06 8 2690 24 2290 57 1367 99 863 115 508 119 721 139 722 144 1174 161 348 216 856 228 1116 
4734 0.7952656035109731 0.21973886586367364 0.8253897056451538 0 0 0 1.11 24 2291 99 864 115 509 
4735 0.7018966181113377 0.3071166624908446 0.9689843338366385 0 0 0 0.71 24 2292 99 865 180 1278 
4736 -0.23901603122287782 0.1871822136045935 0.5640948735326051 0 0 0 0.77 24 2293 34 689 125 1166 166 1205 
4737 0.6526863096932785 0.3497188013347808 1.0153478315450544 0 0 0 0.56 24 2294 99 866 119 722 139 723 140 894 180 1279 228 1117 
4738 0.6598558494637451 0.3395304587672645 0.98958353288685 0 0 0 0.7 24 2295 30 531 31 1305 57 1368 99 867 119 723 139 724 140 895 144 1175 154 724 216 857 228 1118 
4739 0.5884539068115932 0.3897702568985058 1.0892042701213334 0 0 0 0.79 24 2296 57 1369 99 868 180 1280 
4740 0.6070774846268244 0.38338067281653715 1.0731427106605615 0 0 0 0.62 24 2297 31 1306 57 1370 59 1374 72 771 99 869 119 724 137 439 150 424 171 586 178 598 180 1281 189 777 191 737 202 923 228 1119 
4741 0.6925653683203452 0.33221047379441027 0.9231204559807702 0 0 0 0.54 24 2298 30 532 31 1307 57 1371 59 1375 102 800 119 725 137 440 140 896 150 425 171 587 177 907 189 778 216 858 
4742 0.4692658475011355 0.3650186710115045 0.9866745185101767 0 0 0 0.34 24 2299 57 1372 99 870 116 1202 143 746 171 588 180 1282 189 779 191 738 
4743 0.42300593468925163 0.3575978503229361 0.954915044385891 0 0 0 0.38 24 2300 46 410 116 1203 189 780 191 739 
4744 0.4234763269176131 0.3580396289141704 0.9574746026049172 0 0 0 0.6 8 2691 24 2301 46 411 57 1373 115 510 140 897 186 192 189 781 191 740 202 924 215 520 228 1120 
4745 0.35842502088111156 0.35049365969077484 0.9184761639869359 0 0 0 0.51 8 2692 30 533 34 690 37 443 55 676 57 1374 116 1204 119 726 125 1167 133 306 140 898 143 747 144 1176 150 426 151 1189 166 1206 189 782 191 741 193 1023 202 925 215 521 216 859 228 1121 233 437 
4746 0.7102277802632765 0.3466976292542126 0.9135169919845911 0 0 0 0.27 24 2302 140 899 177 908 191 742 
4747 0.20134879192056138 -0.22492886251400424 1.0664159509959281 0 0 0 0.27 102 801 119 727 211 724 
4748 -0.35402365289519466 -0.0528003342686637 0.8484899557522332 0 0 0 0.48 24 2303 51 230 180 1283 
4749 -0.30499904829362207 -0.04000351559833992 0.7694415941174783 0 0 0 0.21 24 2304 143 748 173 1014 
4750 -0.3046968840046318 -0.025130027140069993 0.7680425439361621 0 0 0 0.81 24 2305 131 744 173 1015 
4751 -0.21787120146035963 -0.022325415567538368 0.6744028875800655 0 0 0 0.31 24 2306 48 124 131 745 
4752 -0.34891435939672827 0.009341463584300876 0.5417349618653495 0 0 0 0.86 24 2307 125 1168 225 486 
4753 -0.17643543964843508 0.06848703444830218 0.6947371718224779 0 0 0 0.38 24 2308 37 444 46 412 57 1375 59 1376 125 1169 166 1207 167 635 171 589 189 783 191 743 211 725 212 584 216 860 
4754 0.3466069815027756 0.09342548109166174 1.0767082116510627 0 0 0 0.52 24 2309 94 772 144 1177 145 595 166 1208 202 926 228 1122 
4755 -0.24339783653388827 0.06332278287885049 0.6039413810697435 0 0 0 1.1 8 2693 24 2310 94 773 102 802 115 511 143 749 145 596 151 1190 173 1016 202 927 225 487 
4756 0.3918744515534186 0.10530456159850693 1.099053745793518 0 0 0 0.5 24 2311 57 1376 125 1170 151 1191 180 1284 228 1123 
4757 0.37347581071265556 0.17676255213096626 1.0387772835250166 0 0 0 0.95 24 2312 72 772 94 774 133 307 149 665 166 1209 173 1017 178 599 218 1243 
4758 -0.34999473311404566 0.0972324754440539 0.49815670082710156 0 0 0 0.3 24 2313 58 625 167 636 191 744 
4759 0.5946865840609363 0.22617064782243948 1.2108869270403295 0 0 0 0.87 24 2314 99 871 180 1285 
4760 0.6062505427649652 0.22630322157659094 1.1453517102408504 0 0 0 0.61 24 2315 99 872 166 1210 186 193 191 745 212 585 228 1124 
4761 -0.3335661941086331 0.10948092098825286 0.512349899090579 0 0 0 0.81 24 2316 58 626 151 1192 167 637 225 488 
4762 0.6125681803576718 0.24155606628904344 1.138482709180656 0 0 0 0.77 24 2317 31 1308 57 1377 99 873 119 728 121 145 131 746 144 1178 166 1211 171 590 178 600 180 1286 189 784 191 746 193 1024 202 928 210 371 212 586 215 522 216 861 
4763 0.621889148215018 0.2299189674453965 1.107174644444714 0 0 0 0.61 24 2318 31 1309 57 1378 59 1377 99 874 115 512 116 1205 119 729 121 146 131 747 139 725 140 900 150 427 166 1212 171 591 178 601 180 1287 189 785 191 747 193 1025 202 929 210 372 211 726 212 587 216 862 225 489 228 1125 
4764 0.6000100437422946 0.25121569512419467 1.1606951592576313 0 0 0 0.73 24 2319 31 1310 57 1379 59 1378 86 897 99 875 115 513 119 730 121 147 125 1171 131 748 137 441 139 726 166 1213 178 602 180 1288 191 748 202 930 212 588 215 523 228 1126 
4765 0.9413397610489631 0.10226339716499108 0.7591638108222899 0 0 0 0.34 24 2320 57 1380 191 749 
4766 0.6439132994291046 0.2321315799847173 1.0883907910865227 0 0 0 0.76 24 2321 31 1311 57 1381 59 1379 99 876 115 514 116 1206 119 731 131 749 139 727 140 901 144 1179 150 428 171 592 178 603 180 1289 202 931 210 373 212 589 216 863 225 490 228 1127 
4767 0.670008557140886 0.2136409468709123 1.0389286003853266 0 0 0 0.42 24 2322 57 1382 99 877 131 750 139 728 144 1180 161 349 171 593 180 1290 189 786 191 750 202 932 212 590 216 864 228 1128 
4768 -0.33359475660746707 0.12141527206201856 0.5057321967218289 0 0 0 0.3 24 2323 125 1172 139 729 
4769 -0.33361437700863084 0.12164568058952237 0.5067393598970283 0 0 0 0.46 24 2324 125 1173 139 730 151 1193 167 638 
4770 0.8886766464602778 0.13718016191277405 0.7895290518342144 0 0 0 0.53 24 2325 57 1383 140 902 189 787 
4771 0.8076855316418831 0.17651816216687566 0.8897860915169964 0 0 0 0.59 24 2326 177 909 202 933 
4772 -0.25800618652022905 0.14583988198836004 0.5803949423602399 0 0 0 0.29 24 2327 34 691 48 125 51 231 57 1384 58 627 125 1174 131 751 137 442 167 639 180 1291 212 591 
4773 1.040330517744336 0.10248524428874309 0.6740586739411031 0 0 0 0.31 24 2328 57 1385 177 910 
4774 0.916497629097913 0.13979096492379164 0.7615459950429694 0 0 0 0.62 24 2329 177 911 189 788 191 751 
4775 0.28189651298651164 0.24867960066627168 0.942569668215655 0 0 0 0.5 24 2330 99 878 121 148 173 1018 178 604 180 1292 
4776 0.2830524936809218 0.2493584203749044 0.9448084791539452 0 0 0 0.48 24 2331 99 879 121 149 173 1019 180 1293 
4777 0.9164668520967639 0.17806636852478477 0.7458586818400389 0 0 0 0.2 24 2332 55 677 57 1386 115 515 189 789 
4778 1.0390248815455063 0.14021544293410199 0.6574701022016405 0 0 0 0.47 24 2333 57 1387 177 912 189 790 
4779 1.0390469575266517 0.14043715295605105 0.6575782600109601 0 0 0 0.53 24 2334 57 1388 189 791 
4780 0.9008150765699994 0.1928312801841558 0.7814085527412056 0 0 0 0.17 24 2335 189 792 191 752 
4781 0.6381042359467881 0.31960107553709716 1.0694039136110085 0 0 0 0.44 24 2336 57 1389 59 1380 202 934 228 1129 
4782 0.6379259214998679 0.3190869590849021 1.0715035728151399 0 0 0 0.65 24 2337 178 605 180 1294 202 935 
4783 -0.12352417527625922 0.20521756350775228 0.6592005441100406 0 0 0 1.28 24 2338 58 628 115 516 143 750 215 524 
4784 0.7182128024173885 0.2955593773289601 0.9363324505189626 0 0 0 0.46 24 2339 59 1381 99 880 139 731 
4785 0.7179421287257759 0.2946853978160712 0.9354775416410718 0 0 0 0.76 24 2340 31 1312 59 1382 99 881 119 732 139 732 180 1295 
4786 0.8899663606985181 0.2204001646035984 0.754380377717553 0 0 0 0.38 24 2341 57 1390 140 903 
4787 -0.2286488490537445 0.19327164397682164 0.5635211406302103 0 0 0 0.75 24 2342 59 1383 119 733 137 443 143 751 151 1194 166 1214 180 1296 191 753 215 525 218 1244 
4788 -0.32435241107489826 0.17200259625257205 0.4882622877140852 0 0 0 0.77 24 2343 115 517 139 733 
4789 -0.22106022479182935 0.1989400985764246 0.561188289323849 0 0 0 0.72 24 2344 34 692 57 1391 59 1384 125 1175 144 1181 151 1195 171 594 202 936 212 592 
4790 0.8334509054924153 0.266564766759974 0.7915003998825239 0 0 0 0.31 24 2345 55 678 57 1392 177 913 
4791 -0.2342003251320643 0.20253885188812157 0.5558853872746696 0 0 0 0.97 24 2346 125 1176 215 526 
4792 -0.23409238283937508 0.20345823353915396 0.5594296144632008 0 0 0 0.81 24 2347 55 679 119 734 125 1177 139 734 191 754 215 527 
4793 0.6447317638342436 0.3731335690207548 1.0228166976692785 0 0 0 0.49 24 2348 30 534 57 1393 59 1385 119 735 180 1297 212 593 
4794 0.6589229076387475 0.36489487982010693 1.0048390526414845 0 0 0 0.38 24 2349 59 1386 102 803 180 1298 
4795 0.7200983948140666 0.32323128030549975 0.9038562656002633 0 0 0 0.38 24 2350 31 1313 99 882 140 904 150 429 177 914 189 793 
4796 0.33174292194302274 0.33588877090922975 0.8992639466892903 0 0 0 0.55 24 2351 30 535 46 413 57 1394 116 1207 119 736 125 1178 133 308 143 752 186 194 189 794 191 755 233 438 
4797 0.3345367020998697 0.3384562393908857 0.9068429547673247 0 0 0 0.66 24 2352 46 414 57 1395 115 518 116 1208 125 1179 133 309 143 753 150 430 189 795 191 756 233 439 
4798 0.6627486148651992 0.3815460261529171 0.9814810747666859 0 0 0 0.3 24 2353 57 1396 99 883 119 737 140 905 
4799 0.2137201069347819 -0.2374656819173682 1.0599049593106356 0 0 0 0.37 24 2354 166 1215 211 727 
4800 -0.33278396900947677 -0.031126060284156005 0.8242415072454388 0 0 0 1.08 24 2355 125 1180 139 735 166 1216 202 937 
4801 -0.1887907151608763 0.04410779381076002 0.6879232520702002 0 0 0 0.43 24 2356 173 1020 218 1245 225 491 
4802 1.0097713422114698 -0.04430170842304404 0.7952264605495817 0 0 0 0.31 24 2357 57 1397 150 431 189 796 
4803 1.0097713422114698 -0.04430170842304404 0.7952264605495817 0 0 0 0.31 24 2358 57 1398 150 432 189 797 
4804 -0.17092771584339242 0.0805277139395814 0.6928613533255225 0 0 0 0.3 24 2359 59 1387 166 1217 180 1299 212 594 
4805 1.0178423811189408 -0.021658688428637028 0.7548879745676187 0 0 0 0.22 24 2360 30 536 57 1399 
4806 0.6534550924204208 0.15368749706716506 1.1166614794140193 0 0 0 1.25 24 2361 31 1314 55 680 57 1400 59 1388 99 884 102 804 115 519 131 752 133 310 137 444 139 736 144 1182 150 433 166 1218 171 595 178 606 180 1300 189 798 191 757 202 938 212 595 216 865 228 1130 233 440 
4807 0.9856072700754295 0.022872808256161954 0.7440704854081798 0 0 0 0.62 24 2362 31 1315 57 1401 
4808 -0.20153145619941193 0.16849727518398097 0.6335434663881043 0 0 0 0.33 24 2363 125 1181 144 1183 166 1219 180 1301 
4809 -0.16896359782726297 0.1757799244272498 0.6511559749640653 0 0 0 0.33 24 2364 59 1389 125 1182 180 1302 202 939 212 596 
4810 -0.16883740754733242 0.1762478861147807 0.652433743003274 0 0 0 0.34 24 2365 59 1390 125 1183 180 1303 202 940 211 728 212 597 
4811 -0.15197029678131815 0.17827747970572558 0.6656429626134266 0 0 0 0.67 8 2694 23 1402 24 2366 37 445 48 126 57 1402 59 1391 102 805 116 1209 119 738 125 1184 131 753 133 311 143 754 144 1184 151 1196 166 1220 178 607 180 1304 189 799 191 758 202 941 218 1246 
4812 -0.12238411436964043 0.1861441145975323 0.6834587023299743 0 0 0 0.58 8 2695 23 1403 24 2367 59 1392 102 806 116 1210 125 1185 131 754 166 1221 173 1021 
4813 0.7092333121042942 0.231631859416706 0.9504367974092506 0 0 0 0.36 24 2368 57 1403 140 906 150 434 180 1305 
4814 0.7092333121042942 0.231631859416706 0.9504367974092506 0 0 0 0.36 24 2369 57 1404 140 907 150 435 180 1306 
4815 0.7301316328397326 0.21962824700362996 0.9226393939345875 0 0 0 0.74 24 2370 57 1405 59 1393 137 445 140 908 150 436 180 1307 189 800 191 759 233 441 
4816 -0.13659797303336813 0.1850947823230455 0.6756542956482218 0 0 0 0.78 8 2696 23 1404 24 2371 37 446 46 415 51 232 55 681 57 1406 59 1394 116 1211 119 739 137 446 144 1185 151 1197 153 386 173 1022 180 1308 202 942 211 729 212 598 218 1247 
4817 -0.13669424968733995 0.18544715348741198 0.6741882255767538 0 0 0 0.37 24 2372 59 1395 144 1186 151 1198 180 1309 202 943 211 730 
4818 -0.24000856642309434 0.16109901152666434 0.5730803847500995 0 0 0 0.47 24 2373 58 629 59 1396 125 1186 166 1222 167 640 180 1310 
4819 0.9096363075362534 0.1915293521741284 0.7584763605893474 0 0 0 0.16 24 2374 57 1407 189 801 202 944 
4820 0.4866178184015551 0.3516925066708498 1.0051536522790945 0 0 0 0.59 24 2375 137 447 154 725 202 945 228 1131 
4821 0.24343254092531977 0.3174390039135431 0.8511739540951985 0 0 0 0.48 8 2697 24 2376 34 693 37 447 99 885 119 740 125 1187 131 755 133 312 143 755 144 1187 180 1311 189 802 191 760 193 1026 202 946 
4822 0.6598032214037505 0.09058261198734131 1.1189939868635266 0 0 0 0.67 24 2377 31 1316 55 682 99 886 115 520 131 756 133 313 137 448 140 909 144 1188 150 437 177 915 178 608 189 803 202 947 228 1132 233 442 
4823 0.16875383735172136 0.18415108098294397 0.8183209379345732 0 0 0 0.84 24 2378 34 694 59 1397 102 807 151 1199 180 1312 228 1133 
4824 -0.18741795537868328 0.1707746170857569 0.6430689253135721 0 0 0 0.18 24 2379 59 1398 180 1313 
4825 0.18511567868802173 0.2484331242134664 0.8455975009982518 0 0 0 0.19 24 2380 99 887 121 150 
4826 0.9852533025249622 0.1838215975814595 0.6782361265759727 0 0 0 0.31 24 2381 177 916 189 804 
4827 0.49972237817141524 0.03367681293796937 1.1510829657493147 0 0 0 0.93 24 2382 31 1317 34 695 45 127 46 416 55 683 57 1408 99 888 115 521 122 257 125 1188 131 757 137 449 139 737 140 910 144 1189 150 438 154 726 166 1223 173 1023 178 609 180 1314 193 1027 202 948 212 599 215 528 216 866 233 443 
4828 0.47596875429122065 0.22335813014785078 1.0630473082324028 0 0 0 0.21 24 2383 121 151 180 1315 
4829 -0.3282171083328291 0.16123869354398052 0.4913171452197166 0 0 0 0.93 24 2384 51 233 58 630 115 522 119 741 125 1189 139 738 
4830 -0.2801782753517711 -0.006491026634896347 0.6781943361033539 0 0 0 0.58 24 2385 59 1399 166 1224 178 610 
4831 0.47348050891783866 0.0031644603469399074 1.1782111641013817 0 0 0 0.83 24 2386 31 1318 34 696 37 448 55 684 57 1409 59 1400 94 775 116 1212 122 258 125 1190 131 758 133 314 139 739 144 1190 149 666 150 439 151 1200 154 727 166 1225 171 596 173 1024 177 917 180 1316 189 805 191 761 202 949 211 731 216 867 233 444 
4832 0.6481034003909223 0.24186888282392918 1.0574168734945912 0 0 0 0.94 24 2387 115 523 131 759 
4833 1.0112526647235254 -0.023427175693108242 0.7841675387675244 0 0 0 0.88 24 2388 30 537 31 1319 150 440 
4834 0.08584096864640836 -0.05328922321600032 0.9498317937824583 0 0 0 0.84 30 538 31 1320 47 151 149 667 215 529 218 1248 
4835 0.15465105248656008 0.0020673567087537573 0.9224332541788691 0 0 0 0.3 30 539 31 1321 145 597 149 668 150 441 166 1226 216 868 218 1249 
4836 0.08254694053791162 0.04573725751508788 0.8860684151898793 0 0 0 0.28 30 540 31 1322 116 1213 154 728 216 869 228 1134 233 445 
4837 0.06702438426157596 0.05570518530067707 0.8738542664763126 0 0 0 0.25 30 541 31 1323 46 417 94 776 140 911 154 729 166 1227 177 918 228 1135 
4838 0.10053726824555984 0.13545385745323105 0.8335712215108296 0 0 0 0.31 30 542 31 1324 99 889 102 808 149 669 151 1201 161 350 166 1228 177 919 210 374 216 870 218 1250 226 597 233 446 
4839 0.052691936208210464 0.1438585952629188 0.8290413067216722 0 0 0 0.38 30 543 31 1325 140 912 177 920 183 368 205 361 216 871 
4840 0.35540994532550374 0.18022447975897632 1.0238961218775546 0 0 0 0.26 24 2389 30 544 31 1326 37 449 72 773 99 890 102 809 116 1214 131 760 144 1191 149 670 154 730 173 1025 177 921 178 611 180 1317 210 375 218 1251 233 447 
4841 0.8880548825709905 0.10180520925663614 0.8049566913792446 0 0 0 0.14 30 545 31 1327 99 891 
4842 0.1531259880514561 0.156796338135703 0.8510584494151509 0 0 0 0.26 30 546 31 1328 94 777 116 1215 140 913 151 1202 154 731 177 922 183 369 
4843 0.6494666457297776 0.20894111197121465 1.0595250509597867 0 0 0 0.51 30 547 31 1329 59 1401 99 892 131 761 140 914 144 1192 150 442 154 732 171 597 180 1318 202 950 210 376 212 600 
4844 0.05708949775726696 0.16654997524908455 0.8195069854165831 0 0 0 0.23 30 548 31 1330 72 774 99 893 116 1216 154 733 166 1229 193 1028 210 377 216 872 228 1136 
4845 0.6652551114744327 0.20774608218704513 1.049151819996747 0 0 0 0.53 30 549 31 1331 154 734 
4846 0.9709274016473817 0.13648256744972445 0.6903762994130079 0 0 0 0.1 30 550 31 1332 177 923 
4847 0.6727174383113739 0.24890335215940998 0.9960763200600977 0 0 0 0.18 30 551 31 1333 212 601 
4848 0.1282771546810353 0.23046234356842263 0.8047290907924209 0 0 0 0.37 30 552 31 1334 46 418 55 685 116 1217 122 259 125 1191 140 915 143 756 151 1203 193 1029 211 732 226 598 
4849 0.613027871455248 0.3432082234528574 1.1006042710588844 0 0 0 0.4 30 553 31 1335 119 742 177 924 226 599 228 1137 
4850 0.6947826137605199 0.3062308174112314 0.9790589602379882 0 0 0 0.35 31 1336 177 925 216 873 
4851 0.6167684726771959 0.34853365615523146 1.0789820556452732 0 0 0 0.22 8 2698 30 554 31 1337 72 775 99 894 139 740 140 916 143 757 177 926 189 806 191 762 193 1030 212 602 228 1138 
4852 0.1487305247488803 0.26127576982329037 0.807225666136961 0 0 0 0.3 30 555 31 1338 34 697 72 776 102 810 116 1218 144 1193 145 598 151 1204 166 1230 173 1026 177 927 186 195 211 733 216 874 218 1252 
4853 0.673335516697113 0.3342678773322755 0.9807436261168582 0 0 0 0.35 30 556 31 1339 99 895 119 743 137 450 216 875 228 1139 
4854 0.30989107753952577 0.31000489565500944 0.8961304378609496 0 0 0 0.53 30 557 31 1340 99 896 166 1231 215 530 216 876 
4855 0.2267748433532719 0.29393994990496825 0.845892132425837 0 0 0 0.51 30 558 31 1341 57 1410 151 1205 161 351 173 1027 193 1031 211 734 215 531 216 877 226 600 228 1140 
4856 0.3352531510044335 0.3230916396715182 0.9068228287995641 0 0 0 0.17 30 559 31 1342 140 917 218 1253 
4857 0.0804586521040686 0.27399983452478643 0.747186489721108 0 0 0 0.31 30 560 31 1343 46 419 116 1219 140 918 151 1206 161 352 173 1028 183 370 193 1032 205 362 233 448 
4858 0.11529719646820555 -0.028724684642419576 0.8904922936482148 0 0 0 0.38 30 561 31 1344 154 735 180 1319 193 1033 211 735 228 1141 
4859 0.11575590725616737 -0.02847880426893046 0.8928183849886868 0 0 0 0.21 30 562 31 1345 149 671 
4860 0.10827696106712884 0.07183955156940261 0.8490568565207843 0 0 0 0.3 30 563 31 1346 99 897 211 736 
4861 0.06225946593460501 0.10570156901942852 0.8468798619788425 0 0 0 0.28 30 564 31 1347 99 898 116 1220 140 919 145 599 154 736 193 1034 210 378 226 601 
4862 0.14128164940803528 0.10934417153772696 0.8649767780533987 0 0 0 0.21 30 565 31 1348 37 450 99 899 161 353 218 1254 226 602 233 449 
4863 0.34195572249202466 0.15081910436712123 1.0268930820861992 0 0 0 0.36 24 2390 30 566 31 1349 34 698 37 451 55 686 59 1402 72 777 90 126 94 778 102 811 116 1221 119 744 125 1192 131 762 140 920 143 758 144 1194 145 600 149 672 150 443 151 1207 154 737 166 1232 173 1029 177 928 183 371 191 763 202 951 211 737 215 532 216 878 218 1255 228 1142 233 450 
4864 0.6567447061860977 0.1707228049718729 1.0766436259492098 0 0 0 0.26 30 567 31 1350 72 778 154 738 177 929 180 1320 212 603 216 879 233 451 
4865 0.17345607448442518 0.14178928498589602 0.8610454518716357 0 0 0 0.22 30 568 31 1351 34 699 86 898 94 779 116 1222 154 739 166 1233 177 930 180 1321 211 738 218 1256 
4866 0.980561412215794 0.06890764778389916 0.7124952109794579 0 0 0 0.7 8 2699 30 569 31 1352 55 687 57 1411 150 444 189 807 
4867 0.6514059436366658 0.20434658201681352 1.0662720911844743 0 0 0 0.27 30 570 31 1353 59 1403 99 900 131 763 144 1195 150 445 154 740 171 598 180 1322 202 952 210 379 212 604 216 880 
4868 0.676420426374153 0.2020625980405748 1.0213143586879676 0 0 0 0.36 30 571 31 1354 57 1412 59 1404 99 901 102 812 119 745 131 764 137 451 139 741 140 921 143 759 144 1196 145 601 154 741 171 599 177 931 189 808 191 764 202 953 212 605 216 881 225 492 228 1143 
4869 0.1411131936529234 0.17058140085316628 0.8361991157738518 0 0 0 0.32 30 572 31 1355 72 779 99 902 140 922 173 1030 177 932 215 533 226 603 
4870 0.062379983556655506 0.17692901179876594 0.8176427865912234 0 0 0 0.33 30 573 31 1356 37 452 46 420 72 780 94 780 99 903 116 1223 125 1193 131 765 140 923 173 1031 177 933 180 1323 183 372 193 1035 205 363 210 380 216 882 218 1257 226 604 
4871 0.44591560501326183 0.23768803224397406 1.0666899671936523 0 0 0 0.35 30 574 31 1357 55 688 72 781 102 813 131 766 140 924 143 760 149 673 166 1234 171 600 177 934 178 612 210 381 218 1258 228 1144 
4872 0.12418205237598268 0.20193325017053607 0.8120311982000779 0 0 0 0.56 30 575 31 1358 46 421 94 781 139 742 215 534 218 1259 233 452 
4873 0.6113538970902851 0.30598088758842723 1.1159893378187007 0 0 0 0.36 30 576 31 1359 57 1413 59 1405 72 782 99 904 102 814 119 746 122 260 131 767 140 925 154 742 166 1235 177 935 180 1324 189 809 191 765 193 1036 215 535 226 605 228 1145 
4874 0.7374691878428901 0.23943234455819284 0.9094140649007432 0 0 0 0.18 30 577 31 1360 59 1406 
4875 0.6341006313310943 0.31830939104339434 1.0645269265468802 0 0 0 0.41 30 578 31 1361 59 1407 72 783 137 452 140 926 143 761 144 1197 150 446 154 743 177 936 191 766 193 1037 202 954 211 739 228 1146 
4876 0.5813504177560666 0.34762868401415614 1.1422961393513396 0 0 0 0.58 30 579 57 1414 137 453 189 810 212 606 215 536 226 606 228 1147 233 453 
4877 0.5892735980485664 0.35159773418502854 1.1392179842803394 0 0 0 0.37 30 580 31 1362 37 453 46 422 59 1408 72 784 119 747 131 768 137 454 143 762 144 1198 150 447 154 744 191 767 212 607 215 537 228 1148 233 454 
4878 0.14520395429533497 0.2557642187749122 0.8073779492149397 0 0 0 0.41 30 581 31 1363 34 700 55 689 137 455 140 927 143 763 193 1038 
4879 0.48160307722570866 0.3400759067034109 1.0171669110148698 0 0 0 0.35 30 582 31 1364 37 454 99 905 119 748 137 456 143 764 144 1199 154 745 173 1032 177 937 178 613 180 1325 191 768 211 740 218 1260 228 1149 
4880 0.05402470950828547 0.24513653948214204 0.7474945256694637 0 0 0 0.29 30 583 31 1365 57 1415 99 906 116 1224 125 1194 140 928 149 674 154 746 166 1236 205 364 211 741 218 1261 228 1150 
4881 0.748166304701825 0.30118004105349727 0.8836901292717915 0 0 0 0.26 8 2700 30 584 31 1366 137 457 140 929 177 938 191 769 
4882 0.11123197319558599 0.2665216089830737 0.7762548148144219 0 0 0 0.42 30 585 31 1367 57 1416 116 1225 
4883 0.7622183822200131 0.32005409839294996 0.86984934498115 0 0 0 0.59 30 586 31 1368 57 1417 72 785 140 930 143 765 177 939 233 455 
4884 0.7146972490066944 0.35766452803039406 0.9065896822710996 0 0 0 0.41 30 587 31 1369 119 749 137 458 143 766 177 940 
4885 0.15644956642684643 -0.08846062039392408 0.9565986767093534 0 0 0 0.71 30 588 31 1370 86 899 
4886 0.19576454628291573 -0.05177084892835862 0.9727357315650604 0 0 0 0.45 30 589 31 1371 47 152 55 690 59 1409 72 786 94 782 102 815 116 1226 119 750 125 1195 131 769 137 459 140 931 145 602 149 675 150 448 151 1208 154 747 161 354 166 1237 177 941 178 614 180 1326 183 373 202 955 205 365 210 382 211 742 212 608 218 1262 226 607 228 1151 
4887 0.09106937772847089 -0.006259170422751288 0.925070126375052 0 0 0 0.35 30 590 31 1372 37 455 46 423 47 153 86 900 116 1227 144 1200 145 603 149 676 151 1209 154 748 178 615 180 1327 189 811 202 956 226 608 
4888 0.09210229449424444 -0.005816652672189485 0.9287474383509461 0 0 0 0.26 30 591 31 1373 37 456 55 691 59 1410 72 787 86 901 116 1228 144 1201 186 196 189 812 212 609 228 1152 
4889 0.06382354856675719 0.05935080054030273 0.8700382608430154 0 0 0 0.21 30 592 31 1374 94 783 116 1229 125 1196 149 677 151 1210 154 749 166 1238 177 942 186 197 205 366 211 743 216 883 228 1153 
4890 0.06347774304236367 0.05914343104221736 0.8687930429699589 0 0 0 0.19 30 593 31 1375 102 816 116 1230 154 750 178 616 216 884 
4891 0.06173963778041541 0.09493467276227342 0.8518255350464574 0 0 0 0.29 30 594 31 1376 86 902 154 751 166 1239 177 943 210 383 218 1263 
4892 0.29499225623727565 0.11853103039944367 1.0055000829691245 0 0 0 0.39 30 595 31 1377 37 457 86 903 99 907 122 261 177 944 178 617 210 384 216 885 226 609 
4893 0.14996597451728866 0.12525451492980746 0.8662138171705097 0 0 0 0.42 30 596 31 1378 34 701 37 458 47 154 55 692 72 788 116 1231 140 932 145 604 149 678 151 1211 161 355 177 945 191 770 193 1039 202 957 205 367 215 538 218 1264 228 1154 
4894 0.16145081112249293 0.15424005145470235 0.8569679103898546 0 0 0 0.91 24 2391 30 597 31 1379 34 702 57 1418 99 908 102 817 116 1232 144 1202 145 605 154 752 166 1240 193 1040 215 539 228 1155 
4895 0.28770370526649575 0.21424053165925894 0.9673995894424773 0 0 0 0.41 30 598 31 1380 116 1233 180 1328 205 368 216 886 
4896 0.9695408258820246 0.11930587276339408 0.7000241176993818 0 0 0 0.36 30 599 31 1381 57 1419 177 946 189 813 
4897 0.8652410564204502 0.17347510988600104 0.793052959812423 0 0 0 0.19 30 600 31 1382 57 1420 99 909 
4898 0.7813525053274384 0.23470669245568762 0.9299722854219777 0 0 0 0.9 30 601 55 693 57 1421 115 524 
4899 0.7750848590519255 0.26359106448209396 0.929908833067208 0 0 0 1.23 30 602 57 1422 115 525 
4900 0.642380951032854 0.31305529573899643 1.068546126378486 0 0 0 0.41 24 2392 30 603 31 1383 57 1423 59 1411 99 910 102 818 140 933 143 767 150 449 154 753 171 601 177 947 178 618 180 1329 189 814 191 771 193 1041 202 958 216 887 228 1156 
4901 0.612699167765831 0.34501217777698484 1.0856822956315595 0 0 0 0.3 30 604 131 770 140 934 150 450 180 1330 186 198 189 815 
4902 0.6953377403229962 0.30212573111183816 0.9559111203095917 0 0 0 0.22 31 1384 137 460 140 935 177 948 216 888 
4903 0.6172012728374391 0.3587536695242908 1.0901855769294266 0 0 0 0.45 30 605 57 1424 59 1412 119 751 137 461 150 451 177 949 189 816 193 1042 202 959 212 610 226 610 228 1157 
4904 0.31265499295596394 0.29990600267646894 0.9032867993737972 0 0 0 0.43 30 606 31 1385 34 703 37 459 72 789 150 452 166 1241 177 950 193 1043 216 889 
4905 -0.03677180168617548 0.03403468682014063 0.7933099548369789 0 0 0 0.26 30 607 115 526 215 540 
4906 0.7872453292379455 0.23379389544410129 0.9245347012099984 0 0 0 0.87 30 608 55 694 115 527 
4907 0.7611800153083439 0.23155583844512828 0.8833270684910868 0 0 0 0.78 30 609 99 911 
4908 0.4527600584075549 0.32649241591355915 1.0302281186570137 0 0 0 0.31 30 610 31 1386 121 152 202 960 
4909 -0.03239807400121059 0.22267680373262144 0.6951135656022652 0 0 0 1.15 30 611 115 528 116 1234 149 679 
4910 0.804786561352759 0.2922394027865686 0.8175609479996975 0 0 0 0.31 30 612 31 1387 57 1425 
4911 0.18688907411077646 0.29625586891489997 0.8205371856534155 0 0 0 0.42 24 2393 30 613 31 1388 37 460 46 424 55 695 99 912 132 197 139 743 143 768 149 680 173 1033 178 619 191 772 202 961 212 611 218 1265 228 1158 233 456 
4912 0.07122343801051016 -0.10882574860346904 0.9922084689553264 0 0 0 0.52 30 614 45 128 131 771 133 315 140 936 151 1212 177 951 193 1044 
4913 0.9765875156371286 0.027679185026272753 0.7706621099774003 0 0 0 0.35 24 2394 30 615 31 1389 57 1426 
4914 0.3839814575258403 0.17922923992822648 1.0448439872971118 0 0 0 0.48 30 616 31 1390 57 1427 131 772 133 316 140 937 151 1213 166 1242 173 1034 178 620 193 1045 215 541 216 890 225 493 226 611 
4915 0.9406014767982049 0.0863932920965078 0.7435622895747546 0 0 0 0.52 30 617 31 1391 150 453 
4916 0.09430638375976802 0.18518381404548126 0.8240966615541059 0 0 0 0.48 30 618 94 784 119 752 125 1197 133 317 139 744 211 744 215 542 228 1159 
4917 0.6638280887474756 0.2720375398193028 1.0265927962025765 0 0 0 0.47 24 2395 30 619 31 1392 59 1413 99 913 133 318 137 462 139 745 140 938 144 1203 150 454 154 754 161 356 180 1331 212 612 216 891 
4918 0.3391823103353812 0.27414319656969366 0.972794279355673 0 0 0 0.46 30 620 57 1428 133 319 139 746 145 606 189 817 205 369 233 457 
4919 0.33743346418180803 0.27251867613109904 0.9671515193101052 0 0 0 0.48 30 621 57 1429 119 753 133 320 139 747 189 818 233 458 
4920 0.5983582530098117 0.34089024003240936 1.1224747294318418 0 0 0 0.53 24 2396 30 622 59 1414 99 914 121 153 139 748 140 939 143 769 144 1204 177 952 178 621 189 819 191 773 212 613 215 543 226 612 233 459 
4921 0.2686790139201867 0.29732565994511817 0.8835550349918835 0 0 0 0.88 30 623 37 461 46 425 115 529 125 1198 177 953 189 820 191 774 215 544 233 460 
4922 0.2642904206074708 0.3099839634401496 0.8763161799046165 0 0 0 0.42 30 624 115 530 133 321 139 749 143 770 
4923 0.08715698821303507 0.09808365424175908 0.8654803823378108 0 0 0 0.59 30 625 31 1393 47 155 55 696 57 1430 59 1415 86 904 116 1235 125 1199 139 750 144 1205 149 681 151 1214 178 622 193 1046 202 962 205 370 
4924 0.08867772549443206 0.09964219478802763 0.872545456540866 0 0 0 0.36 30 626 31 1394 57 1431 86 905 94 785 116 1236 119 754 125 1200 144 1206 193 1047 202 963 
4925 0.34212907678132887 0.13482059674843722 1.0327575691844904 0 0 0 0.5 18 778 24 2397 30 627 31 1395 34 704 37 462 57 1432 59 1416 86 906 90 127 94 786 99 915 116 1237 121 154 122 262 125 1201 140 940 144 1207 149 682 150 455 151 1215 166 1243 177 954 178 623 180 1332 189 821 193 1048 211 745 212 614 216 892 218 1266 225 494 228 1160 233 461 
4926 0.2124398107542894 0.1267001268446811 0.9034380910582853 0 0 0 0.6 24 2398 30 628 55 697 57 1433 59 1417 86 907 94 787 115 531 116 1238 131 773 139 751 143 771 149 683 151 1216 154 755 177 955 193 1049 218 1267 225 495 226 613 233 462 
4927 0.2970088195408402 0.196968425416074 0.9717395535100434 0 0 0 0.34 30 629 31 1396 34 705 37 463 59 1418 86 908 94 788 116 1239 125 1202 143 772 144 1208 151 1217 154 756 166 1244 173 1035 177 956 202 964 212 615 218 1268 
4928 0.6524797299445474 0.30304673115915165 1.0726935021977189 0 0 0 0.59 24 2399 30 630 31 1397 59 1419 99 916 137 463 139 752 140 941 144 1209 150 456 154 757 171 602 178 624 180 1333 212 616 216 893 228 1161 
4929 0.35092100866021936 0.3086771999273884 0.9671646266686007 0 0 0 0.61 30 631 31 1398 99 917 149 684 186 199 189 822 211 746 212 617 
4930 0.647498233287774 0.3447988022882809 1.0399592533483417 0 0 0 0.42 30 632 31 1399 59 1420 102 819 154 758 
4931 0.656029550891524 0.3678186002859404 0.9985624708273924 0 0 0 0.48 30 633 31 1400 119 755 140 942 150 457 216 894 228 1162 
4932 0.12443494065390209 0.30496609837622335 0.7633604177004611 0 0 0 0.7 8 2701 18 779 24 2400 30 634 31 1401 34 706 99 918 139 753 144 1210 171 603 180 1334 183 374 215 545 228 1163 
4933 0.08538675951398376 0.07805406612697893 0.8693494208603092 0 0 0 0.73 23 1405 30 635 31 1402 47 156 94 789 99 919 116 1240 133 322 140 943 151 1218 161 357 177 957 193 1050 211 747 215 546 216 895 
4934 0.22179646094749655 0.13762233866821866 0.8932604603584863 0 0 0 0.84 30 636 37 464 46 426 55 698 57 1434 59 1421 116 1241 133 323 137 464 140 944 143 773 145 607 149 685 150 458 151 1219 161 358 186 200 205 371 211 748 215 547 226 614 
4935 0.3674049520663546 0.3033878605089301 0.9862706839350949 0 0 0 0.43 30 637 31 1403 37 465 119 756 133 324 150 459 189 823 
4936 0.29744422737424303 0.2956482057927793 0.9370247285323855 0 0 0 0.48 30 638 31 1404 37 466 46 427 116 1242 119 757 133 325 143 774 177 958 189 824 191 775 215 548 218 1269 233 463 
4937 0.29730305705751797 0.2954921159229219 0.9370007228418477 0 0 0 0.57 30 639 37 467 119 758 133 326 149 686 189 825 191 776 211 749 215 549 233 464 
4938 0.3812176618277299 0.3127224063678985 0.9764297337048903 0 0 0 0.58 8 2702 23 1406 24 2401 30 640 31 1405 59 1422 102 820 116 1243 125 1203 131 774 149 687 166 1245 173 1036 177 959 211 750 212 618 
4939 -0.10884989518036517 -0.017960291889054816 0.7684809711289681 0 0 0 1.08 57 1435 86 909 131 775 133 327 144 1211 193 1051 215 550 
4940 0.05498214295392888 0.02219844585252105 0.8894391001325437 0 0 0 0.95 8 2703 30 641 55 699 57 1436 59 1423 86 910 102 821 115 532 116 1244 119 759 131 776 144 1212 145 608 149 688 151 1220 154 759 166 1246 178 625 202 965 211 751 212 619 215 551 218 1270 
4941 0.19613874109739407 -0.10475244287049601 0.9914852909223434 0 0 0 0.2 31 1406 94 790 149 689 
4942 0.0939728551019975 -0.06427402548324346 0.9428095307415603 0 0 0 0.25 31 1407 116 1245 145 609 150 460 
4943 0.09293306960967794 -0.05841016349875728 0.9464686234394739 0 0 0 0.33 31 1408 116 1246 150 461 154 760 216 896 
4944 0.16907309879771434 -0.0771723640854455 0.9508968004804265 0 0 0 0.21 31 1409 150 462 210 385 228 1164 
4945 0.17096892991154958 -0.07422131485247895 0.9496110513951544 0 0 0 0.36 31 1410 72 790 94 791 116 1247 150 463 
4946 0.08505973468775768 -0.04790193952289945 0.9571219378884362 0 0 0 0.17 31 1411 154 761 173 1037 193 1052 
4947 0.09147866585790361 -0.04737598856912661 0.9414483085234676 0 0 0 0.21 31 1412 72 791 154 762 177 960 216 897 228 1165 
4948 0.0909185902317936 -0.04751006477705049 0.9395700074805337 0 0 0 0.19 31 1413 154 763 177 961 
4949 0.13257834509157035 -0.0599853664048006 0.9239224577489532 0 0 0 0.19 31 1414 72 792 116 1248 154 764 177 962 
4950 0.1356931040743845 -0.0555124163417034 0.9218060925855045 0 0 0 0.22 31 1415 72 793 218 1271 228 1166 
4951 0.2035682191727645 -0.06990091974679237 0.9792564661121984 0 0 0 0.48 31 1416 116 1249 173 1038 180 1335 193 1053 
4952 0.08073475534285639 -0.03512623665270567 0.9529579582760103 0 0 0 0.07 31 1417 173 1039 180 1336 
4953 0.08341810925699866 -0.03278456243521077 0.9529827848513006 0 0 0 0.11 31 1418 94 792 180 1337 
4954 0.13120834966953937 -0.046107252635285506 0.9172107815339297 0 0 0 0.25 31 1419 140 945 150 464 
4955 0.1564500806815783 -0.047122223395024504 0.9429717221639055 0 0 0 0.35 31 1420 47 157 94 793 116 1250 140 946 166 1247 173 1040 177 963 193 1054 228 1167 
4956 0.21525386002326985 -0.05827621431532631 0.9862841562354571 0 0 0 0.31 31 1421 72 794 116 1251 154 765 226 615 
4957 0.1430045325915276 -0.04253702089649001 0.9322210142223524 0 0 0 0.38 31 1422 34 707 46 428 47 158 57 1437 94 794 116 1252 140 947 149 690 151 1221 154 766 166 1248 177 964 193 1055 
4958 0.15596660427790993 -0.043284554645015336 0.9419228707343442 0 0 0 0.39 31 1423 55 700 151 1222 
4959 0.1304889436105501 -0.0382261392356556 0.9116293056747887 0 0 0 0.41 31 1424 37 468 46 429 47 159 86 911 116 1253 122 263 125 1204 149 691 150 465 151 1223 154 767 173 1041 177 965 216 898 228 1168 
4960 0.14045561130415388 -0.03848553993703525 0.9212934244987189 0 0 0 0.33 31 1425 37 469 86 912 116 1254 140 948 145 610 154 768 177 966 183 375 218 1272 226 616 
4961 0.13491748443752277 -0.02271920090060238 0.9090909346532832 0 0 0 0.16 31 1426 116 1255 154 769 218 1273 
4962 0.21265642545761196 -0.032873773797923105 0.9738576311224 0 0 0 0.52 31 1427 37 470 149 692 
4963 0.48201744651407896 -0.058389775009574735 1.2153243381838301 0 0 0 0.39 31 1428 37 471 94 795 150 466 151 1224 173 1042 180 1338 205 372 216 899 
4964 0.45785476487093424 -0.030768334099304965 1.181908521458465 0 0 0 0.55 31 1429 116 1256 154 770 
4965 0.19675903054268123 -0.001111800272052068 0.9476645602740756 0 0 0 0.42 31 1430 183 376 216 900 
4966 0.11185049519118304 0.013534706150269334 0.8904980854935558 0 0 0 0.76 31 1431 47 160 140 949 173 1043 180 1339 
4967 0.20450187050693366 0.002637436090046695 0.9508026189275044 0 0 0 0.34 31 1432 34 708 119 760 173 1044 177 967 180 1340 183 377 193 1056 210 386 216 901 228 1169 
4968 0.12113023668994916 0.017571459603592673 0.8813037325758972 0 0 0 0.2 31 1433 34 709 145 611 149 693 193 1057 
4969 0.19485940986000783 0.012145700478620357 0.9497610416928254 0 0 0 0.43 31 1434 72 795 125 1205 140 950 149 694 151 1225 166 1249 177 968 
4970 0.13246425696993194 0.020077569406941394 0.8932055097063508 0 0 0 0.28 31 1435 47 161 55 701 72 796 173 1045 177 969 
4971 0.06412049452752287 0.037907279589130545 0.8780631684880251 0 0 0 0.32 31 1436 99 920 154 771 173 1046 218 1274 
4972 0.09289567403159475 0.03826025281088171 0.8966095576601545 0 0 0 0.24 31 1437 193 1058 228 1170 
4973 0.06807632999383482 0.04165506154424259 0.8845137890211068 0 0 0 0.4 31 1438 94 796 116 1257 149 695 154 772 166 1250 
4974 0.06349377123827853 0.04304128894779347 0.8787428097013763 0 0 0 0.87 31 1439 47 162 90 128 94 797 
4975 0.38020077581920214 0.028191794789279218 1.214876989831952 0 0 0 0.13 31 1440 149 696 211 752 
4976 0.0698712687644299 0.042957408730397946 0.8776438799200317 0 0 0 0.37 31 1441 99 921 149 697 154 773 
4977 0.05497464407052324 0.04854581058716912 0.8749545252058071 0 0 0 1.01 31 1442 47 163 94 798 
4978 0.05533705513814113 0.04857344080092403 0.8764474408886943 0 0 0 0.84 31 1443 47 164 94 799 116 1258 
4979 0.07879030795008847 0.047946726333945026 0.8840098537153791 0 0 0 0.76 31 1444 47 165 86 913 116 1259 149 698 177 970 216 902 
4980 0.05451627668154569 0.05368947566198383 0.8691286148973326 0 0 0 1.13 31 1445 47 166 177 971 
4981 0.1235051095373162 0.03981316151258653 0.871729785967917 0 0 0 0.36 31 1446 34 710 46 430 145 612 161 359 
4982 0.08627755571715634 0.0518919939645971 0.8891502288408989 0 0 0 0.3 31 1447 139 754 140 951 154 774 166 1251 183 378 186 201 193 1059 228 1171 
4983 0.08527836751317522 0.05105203802828474 0.8848294976520826 0 0 0 0.17 31 1448 99 922 180 1341 193 1060 
4984 0.0712295697875878 0.05742423227232125 0.8697343826026518 0 0 0 0.58 31 1449 47 167 193 1061 
4985 0.10373515268291489 0.05008762088452307 0.8652708064768032 0 0 0 0.45 31 1450 149 699 161 360 
4986 0.07934119374745822 0.05911709674887963 0.8809416533594802 0 0 0 0.2 31 1451 94 800 193 1062 
4987 0.14290005954444615 0.04881153083755595 0.8843934818960562 0 0 0 0.33 31 1452 116 1260 154 775 
4988 0.08366657856013324 0.06455839511493225 0.880158232187416 0 0 0 0.35 31 1453 145 613 149 700 216 903 
4989 0.19767849178804495 0.05611060849412604 0.9283058537588925 0 0 0 0.15 31 1454 177 972 218 1275 
4990 0.09557829478791281 0.0695643127078696 0.876878031035273 0 0 0 0.55 31 1455 47 168 116 1261 171 604 177 973 205 373 218 1276 
4991 0.09598159368475478 0.06965455323720739 0.8773844975265243 0 0 0 0.38 31 1456 116 1262 125 1206 149 701 161 361 205 374 
4992 0.48070793788566446 0.05155322897009101 1.1506843932307367 0 0 0 0.37 31 1457 139 755 151 1226 
4993 0.1954766642449974 0.06303405990990303 0.9241506002296228 0 0 0 0.25 31 1458 94 801 122 264 140 952 161 362 193 1063 233 465 
4994 0.13584708757495592 0.0644394474711957 0.8693032749655671 0 0 0 0.48 31 1459 149 702 154 776 
4995 0.1504610134338663 0.06526787295331576 0.8878173020854253 0 0 0 0.14 31 1460 72 797 173 1047 177 974 180 1342 218 1277 
4996 0.06144269603939256 0.07802157442139987 0.8610623637369171 0 0 0 0.36 31 1461 149 703 193 1064 
4997 0.054266165084517315 0.07893706659027894 0.8554156710328624 0 0 0 0.29 31 1462 177 975 210 387 226 617 
4998 0.3067171835288242 0.07530540069694307 1.0796154123165513 0 0 0 0.3 31 1463 177 976 210 388 
4999 0.06495395081560391 0.07958885797462988 0.8621650009262415 0 0 0 0.3 31 1464 99 923 125 1207 139 756 145 614 149 704 151 1227 154 777 183 379 193 1065 210 389 211 753 228 1172 
5000 0.06530123469374942 0.08002263536038078 0.8650019767149869 0 0 0 0.29 31 1465 116 1263 125 1208 139 757 145 615 149 705 193 1066 211 754 228 1173 
5001 0.48162631148526797 0.05518543077936656 1.1316254336992226 0 0 0 0.29 31 1466 99 924 210 390 233 466 
5002 0.49144878791932395 0.05717527492458278 1.138955508046204 0 0 0 0.4 31 1467 99 925 121 155 210 391 
5003 0.15868086706974596 0.07093831902825382 0.8886823989836886 0 0 0 0.17 31 1468 116 1264 183 380 
5004 0.3148639334090443 0.08480543988332713 1.067240919456938 0 0 0 0.28 31 1469 37 472 46 431 94 802 116 1265 125 1209 180 1343 211 755 216 904 
5005 0.31724594074771717 0.08802374988154785 1.0630721626044815 0 0 0 0.33 31 1470 116 1266 154 778 173 1048 180 1344 211 756 218 1278 
5006 0.13827183109018426 0.0830301713005973 0.8675923905390521 0 0 0 0.18 31 1471 34 711 193 1067 
5007 0.4574363894538175 0.0885930134450355 1.170291714163753 0 0 0 0.31 31 1472 149 706 216 905 
5008 0.48409553143194295 0.07820566344634064 1.130016606328083 0 0 0 0.4 31 1473 99 926 216 906 
5009 0.16796138025012744 0.08214371342146995 0.8761878109840376 0 0 0 0.26 31 1474 94 803 151 1228 
5010 0.3938595584184549 0.09576712201738627 1.1246581423233037 0 0 0 0.67 31 1475 99 927 102 822 154 779 180 1345 215 552 218 1279 
5011 0.4541365659098907 0.09324802586858333 1.153561856155557 0 0 0 0.48 31 1476 99 928 149 707 
5012 0.47869179879164775 0.08616499556845632 1.1320271228434984 0 0 0 0.21 31 1477 34 712 150 467 151 1229 193 1068 216 907 
5013 0.4987872337822697 0.08702241527215075 1.14238018333373 0 0 0 0.52 31 1478 99 929 180 1346 
5014 0.06728074163714057 0.10229441830668136 0.8516067040627808 0 0 0 0.53 31 1479 47 169 94 804 116 1267 125 1210 140 953 
5015 0.06550374491654148 0.10531076154164877 0.8480029234418115 0 0 0 0.37 31 1480 34 713 99 930 218 1280 
5016 0.13986502120713673 0.09676429092697851 0.867243031849526 0 0 0 0.39 31 1481 34 714 47 170 72 798 94 805 116 1268 119 761 140 954 144 1213 145 616 149 708 151 1230 154 780 161 363 177 977 193 1069 205 375 218 1281 
5017 0.23130259969672298 0.09547970648552971 0.9192580181309882 0 0 0 0.97 31 1482 72 799 233 467 
5018 0.1745034266998996 0.09899709537543139 0.8768893399903407 0 0 0 0.22 31 1483 72 800 86 914 116 1269 154 781 
5019 0.0672783301293643 0.1128262546357129 0.8516759945520554 0 0 0 0.12 31 1484 154 782 226 618 
5020 0.08898770990624866 0.11215266864391492 0.8618111009068044 0 0 0 0.53 31 1485 94 806 140 955 149 709 171 605 177 978 205 376 210 392 
5021 0.0951830073365725 0.11229743664833662 0.8594482610234112 0 0 0 0.22 31 1486 149 710 154 783 193 1070 
5022 0.09459664766260294 0.11133778933294787 0.8566911847596729 0 0 0 0.33 31 1487 193 1071 216 908 
5023 0.16558612075365478 0.10499646023138585 0.8715510706766847 0 0 0 0.24 31 1488 72 801 116 1270 202 966 218 1282 
5024 0.07386685322848324 0.11810741634371888 0.8615969261787143 0 0 0 0.31 31 1489 86 915 154 784 
5025 0.06765942781580657 0.11769323471981798 0.8491109797117933 0 0 0 0.45 31 1490 46 432 47 171 55 702 94 807 99 931 116 1271 125 1211 140 956 149 711 151 1231 161 364 177 979 183 381 193 1072 205 377 210 393 226 619 228 1174 
5026 0.1452672009589941 0.11379630325931141 0.8671914252167132 0 0 0 0.29 31 1491 140 957 183 382 
5027 0.13568355689022188 0.11374088754376367 0.8545876595516246 0 0 0 0.31 31 1492 34 715 37 473 47 172 72 802 86 916 94 808 116 1272 125 1212 140 958 149 712 151 1232 154 785 177 980 180 1347 183 383 193 1073 211 757 216 909 228 1175 
5028 0.23357067887707855 0.11641101798997469 0.9275028807351562 0 0 0 0.27 31 1493 72 803 180 1348 
5029 0.14647465461611628 0.11882950508860943 0.8708285620514986 0 0 0 0.41 31 1494 116 1273 125 1213 166 1252 
5030 0.1293363843409895 0.11567866306523895 0.8408419104379516 0 0 0 0.23 31 1495 72 804 116 1274 154 786 218 1283 
5031 0.7090091660874044 0.07701614167585664 1.032986668195227 0 0 0 0.49 31 1496 99 932 131 777 150 468 161 365 177 981 180 1349 212 620 216 910 228 1176 233 468 
5032 0.17867204208956958 0.1204431339561475 0.8752511509318112 0 0 0 0.49 31 1497 116 1275 154 787 215 553 
5033 0.19396244597045206 0.12450634697352936 0.8993226791208152 0 0 0 0.23 31 1498 72 805 140 959 149 713 173 1049 177 982 216 911 
5034 0.07312468731015492 0.13457308160002016 0.8534240532688654 0 0 0 0.41 31 1499 57 1438 86 917 94 809 116 1276 145 617 151 1233 154 788 216 912 
5035 0.07293105895379834 0.13429954087309443 0.8522162306028199 0 0 0 0.51 31 1500 86 918 94 810 99 933 116 1277 151 1234 154 789 177 983 211 758 226 620 
5036 0.47683904945294364 0.13668326202685016 1.1057772046165129 0 0 0 0.31 31 1501 211 759 218 1284 233 469 
5037 0.1449824045969946 0.12788444308472843 0.8609923163404835 0 0 0 0.61 31 1502 34 716 86 919 94 811 116 1278 151 1235 166 1253 177 984 205 378 218 1285 
5038 0.7054766185334246 0.08837928110133714 1.029230859854818 0 0 0 0.4 31 1503 154 790 161 366 205 379 216 913 
5039 0.4094769880036787 0.14223819506494165 1.0807652430977905 0 0 0 0.34 31 1504 86 920 102 823 116 1279 177 985 
5040 0.10542623287746129 0.12870404094845986 0.8302839461974484 0 0 0 0.33 31 1505 140 960 145 618 183 384 
5041 0.10659370498220186 0.12982494079211696 0.8339192595644374 0 0 0 0.5 31 1506 99 934 145 619 
5042 0.2767363104702168 0.1431773155512417 0.9918090506898041 0 0 0 0.21 31 1507 143 775 161 367 
5043 0.2995467310353088 0.1413149030632566 0.9948178798964951 0 0 0 0.26 31 1508 46 433 86 921 99 935 116 1280 125 1214 186 202 210 394 226 621 
5044 0.3222633047467846 0.14406076716824104 1.0179997984626632 0 0 0 0.39 31 1509 46 434 119 762 166 1254 180 1350 183 385 216 914 
5045 0.4280679560637724 0.14635759068971266 1.0893785596327235 0 0 0 0.07 31 1510 37 474 228 1177 
5046 0.43475652608129994 0.14762310434412393 1.0917166341672786 0 0 0 0.29 31 1511 37 475 46 435 94 812 125 1215 140 961 149 714 166 1255 218 1286 228 1178 233 470 
