# 3D point list with one line of data per point:
#   POINT3D_ID, X, Y, Z, R, G, B, ERROR, TRACK[] as (IMAGE_ID, POINT2D_IDX)
# Number of points: 295, mean track length: 11.6
299 -0.15263400971889496 -0.1084754541516304 0.6661233901977539 13 20 23 3.41 18 299 19 295 20 283 21 281 22 276 23 233 24 255 26 221 38 180 39 159 42 118 
300 0.43305936455726624 -0.32383713126182556 0.9172465205192566 131 153 166 2.59 18 300 19 296 20 284 21 282 22 277 23 234 37 81 38 181 39 160 40 166 42 119 43 70 
301 0.3819064199924469 0.2297183871269226 0.7058917284011841 66 67 73 0.98 18 301 19 297 20 285 
302 0.09897004067897797 0.17510293424129486 0.7471500635147095 90 83 75 5.41 18 302 19 298 20 286 21 283 23 235 24 256 26 222 36 155 37 82 38 182 39 161 40 167 43 71 
303 -0.20589835941791534 -0.12654054164886475 0.6113290190696716 72 78 83 3.47 18 303 19 299 20 287 21 284 22 278 23 236 24 257 26 223 38 183 39 162 40 168 
304 0.5765878558158875 0.11414988338947296 0.9625182151794434 68 62 62 2.58 18 304 19 300 20 288 21 285 22 279 23 237 24 258 26 224 35 39 36 156 38 184 
305 -0.19618703424930573 0.10626145452260971 0.5508089065551758 108 95 91 3.08 18 305 19 301 20 289 21 286 22 280 23 238 24 259 26 225 36 157 38 185 40 169 
306 -0.17417410016059875 0.05957312509417534 0.6007891297340393 129 135 140 1.92 18 306 19 302 20 290 21 287 22 281 23 239 24 260 26 226 39 163 40 170 
307 -0.16494107246398926 -0.08067928999662399 0.649399995803833 172 191 203 4.09 18 307 19 303 20 291 21 288 22 282 23 240 24 261 26 227 38 186 39 164 40 171 42 120 
308 -0.08797462284564972 0.039382439106702805 0.6502076387405396 132 127 121 3.22 18 308 19 304 20 292 21 289 22 283 23 241 24 262 26 228 36 158 38 187 39 165 42 121 43 72 
309 0.2879757285118103 0.19974763691425323 0.6645122170448303 99 92 93 2.31 18 309 19 305 20 293 21 290 22 284 23 242 24 263 
310 -0.25650542974472046 0.08294045925140381 0.5190178155899048 120 116 109 2.65 18 310 19 306 20 294 21 291 22 285 24 264 26 229 36 159 38 188 39 166 40 172 
311 -0.2296372652053833 -0.13118265569210052 0.5941492915153503 152 145 135 3.24 18 311 19 307 20 295 21 292 22 286 23 243 24 265 26 230 38 189 40 173 
312 -0.19804298877716064 -0.1297128051519394 0.6184219717979431 131 120 111 4.63 18 312 19 308 20 296 21 293 22 287 23 244 24 266 26 231 39 167 40 174 43 73 
313 0.0526735894382 -0.03584612160921097 0.7632855772972107 98 82 76 1.59 18 313 19 309 20 297 21 294 22 288 23 245 26 232 35 40 36 160 39 168 40 175 
314 -0.17329451441764832 -0.09110678732395172 0.6471242904663086 12 14 13 2.64 18 314 19 310 20 298 21 295 22 289 23 246 24 267 26 233 39 169 40 176 
315 -0.10298704355955124 0.13313721120357513 0.6113702058792114 135 127 116 2.41 18 315 19 311 20 299 21 296 22 290 23 247 24 268 26 234 36 161 38 190 39 170 40 177 
316 0.4058294892311096 0.22295525670051575 0.6217500567436218 21 24 29 1.63 36 162 38 191 39 171 40 178 42 122 43 74 
317 0.6366519331932068 0.28036022186279297 0.799472987651825 25 22 23 4.97 19 312 20 300 21 297 22 291 23 248 35 41 36 163 38 192 39 172 40 179 42 123 43 75 
318 0.618337094783783 -0.1065460592508316 1.0065997838974 63 56 54 2.47 18 316 19 313 20 301 21 298 22 292 23 249 24 269 26 235 35 42 36 164 37 83 38 193 39 173 40 180 42 124 43 76 
319 0.6413415670394897 -0.0345478355884552 1.2569879293441772 116 108 99 1.52 19 314 20 302 21 299 23 250 24 270 35 43 36 165 37 84 38 194 39 174 40 181 42 125 43 77 
320 0.525971531867981 0.036689747124910355 1.1586610078811646 143 159 174 1.49 18 317 19 315 21 300 22 293 23 251 24 271 26 236 35 44 36 166 37 85 38 195 39 175 40 182 42 126 43 78 
321 0.5278784036636353 -0.010617264546453953 1.1635545492172241 115 122 134 1.01 18 318 19 316 21 301 22 294 23 252 24 272 26 237 35 45 36 167 37 86 38 196 39 176 40 183 42 127 43 79 
322 0.16313424706459045 0.18585056066513062 0.8070905804634094 113 105 100 4.49 18 319 19 317 22 295 23 253 24 273 26 238 35 46 36 168 37 87 38 197 39 177 42 128 43 80 
323 0.624993085861206 0.030743535608053207 1.2234269380569458 122 112 102 1.64 20 303 21 302 24 274 26 239 35 47 36 169 37 88 38 198 39 178 40 184 42 129 43 81 
324 0.7338258028030396 0.1433214545249939 1.281123399734497 117 89 86 2.73 18 320 19 318 21 303 22 296 23 254 35 48 37 89 38 199 39 179 40 185 42 130 43 82 
325 0.5317987203598022 0.22684508562088013 1.1039904356002808 140 152 164 0.97 18 321 19 319 21 304 22 297 23 255 24 275 26 240 35 49 36 170 37 90 38 200 39 180 40 186 42 131 43 83 
326 0.4955359101295471 0.03396718204021454 1.0938462018966675 72 62 56 1.41 18 322 19 320 22 298 23 256 24 276 26 241 36 171 37 91 38 201 39 181 40 187 42 132 43 84 
327 0.7082942128181458 0.045400798320770264 1.3099948167800903 138 154 167 1.75 19 321 21 305 22 299 23 257 35 50 37 92 38 202 39 182 40 188 42 133 43 85 
328 0.3318692743778229 0.23284779489040375 0.5835362672805786 28 18 19 1.23 36 172 38 203 39 183 40 189 42 134 43 86 
329 0.6736313104629517 0.0563310831785202 1.2826248407363892 214 230 229 1.79 19 322 20 304 22 300 23 258 24 277 35 51 36 173 37 93 38 204 39 184 40 190 42 135 43 87 
330 0.4631093442440033 0.2463798075914383 0.6960895657539368 21 19 21 1.2 35 52 36 174 38 205 39 185 40 191 42 136 43 88 
331 0.1017092615365982 -0.15294498205184937 0.8611087799072266 21 14 12 1.99 18 323 19 323 20 305 22 301 23 259 24 278 26 242 36 175 37 94 38 206 39 186 40 192 43 89 
332 0.4172913134098053 0.22532936930656433 0.7028822898864746 17 19 23 0.93 35 53 36 176 38 207 39 187 40 193 42 137 43 90 
333 0.7619364261627197 0.2689066529273987 1.2659327983856201 123 115 111 3.02 18 324 21 306 22 302 23 260 35 54 37 95 38 208 39 188 40 194 42 138 43 91 
334 0.5063303709030151 0.1738588511943817 1.061065673828125 64 54 51 1.34 18 325 19 324 22 303 23 261 24 279 26 243 35 55 36 177 37 96 38 209 39 189 40 195 42 139 43 92 
335 0.6316019892692566 0.25256863236427307 0.8928606510162354 92 106 103 4.24 18 326 19 325 20 306 21 307 22 304 23 262 24 280 26 244 35 56 36 178 37 97 38 210 39 190 40 196 42 140 43 93 
336 0.3651353716850281 0.2259501814842224 0.6472988128662109 65 55 55 1.23 36 179 38 211 39 191 40 197 42 141 43 94 
337 0.16267715394496918 0.06159905344247818 0.8367751836776733 15 8 6 1.68 18 327 20 307 21 308 22 305 23 263 24 281 26 245 35 57 36 180 37 98 38 212 39 192 42 142 43 95 
338 0.19363535940647125 0.17688673734664917 0.8215909004211426 114 101 87 5.86 18 328 21 309 22 306 23 264 24 282 26 246 35 58 36 181 37 99 38 213 42 143 43 96 
339 0.5416741371154785 0.04049165919423103 1.173579454421997 122 137 153 1.66 18 329 19 326 20 308 21 310 22 307 23 265 24 283 26 247 35 59 36 182 37 100 38 214 39 193 40 198 42 144 43 97 
340 0.782797634601593 0.001561748911626637 1.3705195188522339 129 121 115 2.31 20 309 21 311 22 308 23 266 35 60 37 101 38 215 39 194 40 199 42 145 43 98 
341 0.7830116748809814 0.10884321480989456 1.3357614278793335 115 105 102 2.87 18 330 20 310 21 312 22 309 23 267 35 61 37 102 38 216 39 195 40 200 42 146 43 99 
342 0.7022626996040344 0.27987173199653625 1.2389373779296875 124 133 146 1.9 19 327 20 311 22 310 23 268 35 62 37 103 38 217 39 196 40 201 42 147 43 100 
343 0.49406561255455017 0.2467101812362671 0.6351460218429565 75 63 60 3.02 35 63 36 183 38 218 39 197 40 202 42 148 
344 0.6700413823127747 -0.0646941140294075 1.2911980152130127 68 48 47 2.02 19 328 20 312 22 311 23 269 24 284 35 64 36 184 37 104 38 219 39 198 40 203 42 149 43 101 
345 -0.061215635389089584 0.1462421864271164 0.6398163437843323 133 118 105 4.28 24 285 26 248 36 185 38 220 39 199 40 204 
346 0.5311974287033081 0.12660746276378632 1.1170629262924194 97 94 91 1.4 18 331 19 329 21 313 22 312 23 270 24 286 26 249 35 65 36 186 37 105 38 221 39 200 40 205 42 150 43 102 
347 0.5611766576766968 0.18738114833831787 1.1489143371582031 88 94 106 1.65 18 332 19 330 20 313 21 314 22 313 23 271 24 287 35 66 36 187 37 106 38 222 39 201 40 206 42 151 43 103 
348 0.7270140647888184 -0.035199712961912155 1.330419659614563 132 130 129 2.77 18 333 19 331 21 315 22 314 23 272 35 67 37 107 38 223 39 202 40 207 42 152 43 104 
349 0.5341275334358215 0.2522774040699005 1.0995253324508667 119 135 151 1.22 18 334 19 332 21 316 22 315 23 273 24 288 26 250 35 68 36 188 37 108 38 224 39 203 40 208 42 153 43 105 
350 0.631345272064209 -0.17899630963802338 1.0251978635787964 106 114 120 1.89 18 335 19 333 20 314 21 317 22 316 23 274 24 289 35 69 37 109 38 225 39 204 40 209 42 154 43 106 
351 0.14157168567180634 0.11374641209840775 0.8252390623092651 62 66 65 2.12 18 336 19 334 21 318 22 317 23 275 24 290 26 251 35 70 36 189 37 110 38 226 39 205 42 155 43 107 
352 0.44143378734588623 -0.1181110292673111 0.8662930727005005 135 137 138 1.86 18 337 19 335 20 315 21 319 22 318 23 276 24 291 26 252 35 71 36 190 37 111 38 227 39 206 40 210 42 156 43 108 
353 0.530046820640564 0.024813083931803703 1.145944356918335 82 76 73 1.31 18 338 19 336 21 320 22 319 23 277 24 292 26 253 35 72 36 191 37 112 38 228 39 207 40 211 42 157 43 109 
354 0.5357676148414612 0.10145669430494308 1.1293697357177734 76 73 71 1.67 18 339 19 337 21 321 22 320 23 278 24 293 26 254 35 73 36 192 37 113 38 229 39 208 40 212 42 158 43 110 
355 0.6496677994728088 0.20599660277366638 1.188248872756958 92 84 84 2.15 19 338 20 316 21 322 23 279 24 294 35 74 36 193 37 114 38 230 39 209 40 213 42 159 43 111 
356 0.5399255752563477 0.02922826260328293 1.1784307956695557 88 105 119 1.24 18 340 19 339 21 323 22 321 23 280 24 295 26 255 35 75 36 194 37 115 38 231 39 210 40 214 42 160 43 112 
357 0.6595238447189331 0.2205667793750763 1.1906815767288208 106 104 107 2.9 19 340 20 317 23 281 24 296 35 76 36 195 37 116 38 232 39 211 40 215 42 161 43 113 
358 0.5554531812667847 0.03244704753160477 1.1877962350845337 63 89 98 1.58 18 341 20 318 21 324 22 322 23 282 24 297 35 77 36 196 37 117 38 233 39 212 40 216 42 162 43 114 
359 0.5543720722198486 0.01880626752972603 1.190264105796814 68 78 90 1.39 18 342 20 319 21 325 22 323 23 283 24 298 35 78 36 197 37 118 38 234 39 213 40 217 42 163 43 115 
360 0.6052625179290771 0.19505460560321808 1.1563048362731934 108 101 100 1.59 18 343 20 320 21 326 22 324 26 256 35 79 36 198 37 119 38 235 39 214 40 218 42 164 43 116 
361 0.7424890398979187 0.08974293619394302 1.3057234287261963 140 135 132 2.56 18 344 20 321 21 327 22 325 23 284 35 80 37 120 38 236 39 215 40 219 42 165 43 117 
362 0.3455640375614166 0.21356190741062164 0.9008114337921143 31 17 14 5.61 24 299 26 257 36 199 37 121 38 237 39 216 
363 0.7413556575775146 0.033835988491773605 1.32168447971344 133 127 122 2.98 18 345 19 341 21 328 22 326 23 285 35 81 37 122 38 238 39 217 40 220 42 166 43 118 
364 0.8017757534980774 -0.08349807560443878 1.3900643587112427 106 122 131 2.29 20 322 21 329 22 327 23 286 35 82 37 123 38 239 39 218 40 221 42 167 43 119 
365 0.5191246867179871 0.20821186900138855 1.0631104707717896 99 94 88 1.73 18 346 19 342 21 330 22 328 23 287 24 300 26 258 35 83 36 200 37 124 38 240 39 219 40 222 42 168 43 120 
366 0.6051056385040283 -0.013313256204128265 1.2207002639770508 142 133 123 1.72 18 347 19 343 20 323 21 331 24 301 35 84 36 201 37 125 38 241 39 220 40 223 42 169 43 121 
367 0.3594661355018616 0.0245022252202034 0.999126672744751 56 46 39 1.74 18 348 19 344 20 324 21 332 22 329 23 288 24 302 26 259 35 85 36 202 37 126 38 242 39 221 42 170 43 122 
368 0.7030439972877502 0.2562791109085083 1.2457939386367798 124 131 144 2.24 19 345 20 325 22 330 23 289 35 86 37 127 38 243 39 222 40 224 42 171 43 123 
369 0.31265541911125183 0.018992168828845024 0.9616477489471436 36 27 23 0.99 18 349 19 346 20 326 22 331 23 290 24 303 26 260 36 203 37 128 38 244 39 223 40 225 43 124 
370 0.7884149551391602 0.0873967632651329 1.3473272323608398 79 65 64 3.3 18 350 19 347 20 327 21 333 22 332 23 291 35 87 37 129 38 245 39 224 40 226 42 172 43 125 
371 0.6483440399169922 0.023410161957144737 1.2453961372375488 132 127 121 1.61 20 328 21 334 23 292 24 304 35 88 36 204 37 130 38 246 39 225 40 227 42 173 43 126 
372 0.48932987451553345 0.11283457279205322 1.0654387474060059 77 69 63 1.49 18 351 19 348 20 329 22 333 23 293 24 305 26 261 36 205 37 131 38 247 39 226 40 228 42 174 43 127 
373 0.769583523273468 0.27077507972717285 1.27240788936615 129 117 109 2.86 21 335 22 334 23 294 35 89 37 132 38 248 39 227 40 229 42 175 43 128 
374 0.4566163420677185 -0.10705940425395966 0.8796492218971252 92 90 89 1.87 18 352 19 349 20 330 21 336 22 335 23 295 24 306 26 262 35 90 36 206 37 133 38 249 39 228 40 230 42 176 43 129 
375 0.7780411243438721 0.2619047164916992 1.2830511331558228 56 60 60 2.79 20 331 21 337 22 336 23 296 35 91 37 134 38 250 39 229 40 231 42 177 43 130 
376 0.5148006081581116 -0.06453016400337219 1.1338080167770386 89 93 99 1.65 18 353 19 350 21 338 22 337 23 297 24 307 26 263 35 92 36 207 37 135 38 251 39 230 40 232 42 178 43 131 
377 0.41523829102516174 -0.13743630051612854 0.8621046543121338 72 61 52 1.85 18 354 19 351 20 332 21 339 22 338 23 298 24 308 26 264 36 208 37 136 38 252 39 231 40 233 42 179 43 132 
378 0.10899380594491959 -0.10521862655878067 0.8656849265098572 33 27 22 1.27 18 355 19 352 20 333 22 339 23 299 24 309 26 265 36 209 37 137 38 253 39 232 40 234 42 180 43 133 
379 0.6979203820228577 -0.0859026163816452 1.3189347982406616 65 50 44 2.6 18 356 19 353 21 340 22 340 23 300 24 310 35 93 36 210 37 138 38 254 39 233 40 235 42 181 43 134 
380 0.3692867159843445 0.22752876579761505 0.6537230610847473 48 45 45 1.69 35 94 36 211 38 255 39 234 40 236 42 182 43 135 
381 0.3847620487213135 0.2303711473941803 0.6682491302490234 66 66 72 1.24 35 95 36 212 38 256 39 235 40 237 42 183 43 136 
382 0.7674638032913208 0.14050795137882233 1.3114070892333984 138 131 125 2.83 18 357 20 334 21 341 22 341 23 301 35 96 37 139 38 257 39 236 40 238 42 184 43 137 
383 -0.04393917694687843 -0.046654440462589264 0.7070533037185669 89 78 70 2.1 18 358 19 354 20 335 21 342 22 342 23 302 24 311 26 266 36 213 37 140 38 258 39 237 42 185 43 138 
384 0.33842402696609497 -0.14727385342121124 0.8061323165893555 43 36 31 1.31 18 359 19 355 20 336 21 343 22 343 23 303 24 312 26 267 36 214 37 141 38 259 39 238 40 239 42 186 43 139 
385 0.7093585133552551 0.06768689304590225 1.3047112226486206 169 185 188 1.63 19 356 21 344 22 344 23 304 35 97 37 142 38 260 39 239 40 240 42 187 43 140 
386 0.5605300068855286 0.23507246375083923 1.1337053775787354 53 60 64 1.92 18 360 19 357 20 337 21 345 22 345 23 305 24 313 35 98 36 215 37 143 38 261 39 240 40 241 42 188 43 141 
387 0.660089373588562 0.13415013253688812 1.2212094068527222 134 125 119 2.07 19 358 20 338 23 306 24 314 35 99 36 216 37 144 38 262 39 241 40 242 42 189 43 142 
388 0.8532838821411133 0.32400256395339966 1.056768536567688 69 83 40 1.03 35 100 38 263 39 242 40 243 42 190 
389 0.7807154059410095 0.1729101687669754 1.3146108388900757 125 113 108 2.9 18 361 20 339 21 346 22 346 23 307 35 101 37 145 38 264 39 243 40 244 42 191 43 143 
390 0.7456868290901184 0.07975511252880096 1.311805248260498 147 140 137 2.54 18 362 20 340 21 347 22 347 23 308 35 102 37 146 38 265 39 244 40 245 42 192 43 144 
391 0.7277275919914246 0.0837009996175766 1.2908521890640259 87 75 74 2.21 18 363 21 348 22 348 23 309 35 103 37 147 38 266 39 245 40 246 42 193 43 145 
392 0.7402637004852295 0.2993321716785431 1.2339866161346436 60 56 51 2.63 21 349 22 349 23 310 35 104 37 148 38 267 39 246 40 247 42 194 43 146 
393 0.10545269399881363 0.08125429600477219 0.8016029000282288 50 49 50 2.45 18 364 19 359 20 341 21 350 22 350 23 311 24 315 26 268 36 217 37 149 38 268 39 247 40 248 42 195 43 147 
394 0.24215127527713776 0.20357508957386017 0.563598096370697 36 34 33 0.68 36 218 38 269 39 248 40 249 42 196 43 148 
395 0.09772173315286636 -0.024280037730932236 0.799220860004425 51 33 23 5.05 18 365 19 360 20 342 21 351 22 351 24 316 26 269 36 219 38 270 39 249 40 250 
396 0.5908530354499817 -0.10226307809352875 0.9807777404785156 136 140 142 1.82 18 366 19 361 20 343 21 352 22 352 23 312 24 317 26 270 35 105 36 220 37 150 38 271 39 250 40 251 42 197 43 149 
397 0.7880631685256958 0.18200711905956268 1.318110466003418 117 104 97 3.18 18 367 20 344 21 353 22 353 23 313 35 106 37 151 38 272 39 251 40 252 42 198 43 150 
398 0.4628860354423523 0.07770495116710663 0.8658037185668945 100 99 104 2.05 18 368 19 362 20 345 21 354 22 354 23 314 24 318 26 271 35 107 36 221 37 152 38 273 39 252 40 253 42 199 43 151 
399 0.7671501040458679 0.301749587059021 1.2629202604293823 109 102 97 2.27 21 355 22 355 23 315 35 108 37 153 38 274 39 253 40 254 42 200 43 152 
400 0.6987647414207458 0.29886385798454285 0.8946491479873657 14 14 16 4.17 19 363 20 346 21 356 22 356 23 316 35 109 36 222 38 275 39 254 40 255 42 201 43 153 
401 0.6381673812866211 0.24972745776176453 0.7927567958831787 55 54 57 13.52 35 110 36 223 38 276 39 255 40 256 42 202 43 154 
402 0.8083720803260803 0.3169957995414734 1.0432274341583252 53 52 34 1.06 35 111 38 277 39 256 40 257 42 203 43 155 
403 0.4610029458999634 -0.09234040230512619 0.9090791344642639 64 63 62 1.4 18 369 19 364 20 347 21 357 22 357 23 317 24 319 26 272 35 112 36 224 37 154 38 278 39 257 40 258 42 204 43 156 
404 0.8401132225990295 0.32538318634033203 1.068011999130249 72 83 42 0.96 35 113 38 279 39 258 40 259 42 205 
405 0.4949924051761627 0.2301541566848755 0.7921874523162842 66 67 67 4.86 18 370 19 365 20 348 21 358 22 358 23 318 24 320 26 273 35 114 36 225 37 155 38 280 39 259 40 260 42 206 43 157 
406 0.8266239166259766 0.3206426501274109 1.0208702087402344 31 35 17 1.35 35 115 38 281 39 260 40 261 42 207 
407 0.7225062251091003 0.07513562589883804 1.2988054752349854 146 138 141 2.14 18 371 19 366 21 359 22 359 23 319 35 116 37 156 38 282 39 261 40 262 42 208 43 158 
408 0.6125233173370361 0.2735014855861664 1.1375188827514648 109 99 92 1.54 20 349 21 360 26 274 35 117 36 226 37 157 38 283 39 262 40 263 42 209 43 159 
409 0.5409852862358093 -0.006747000385075808 1.1834261417388916 53 57 65 1.26 18 372 19 367 21 361 22 360 23 320 24 321 26 275 35 118 36 227 37 158 38 284 39 263 40 264 42 210 43 160 
410 0.6465273499488831 -0.19017788767814636 1.0331131219863892 59 81 108 2.75 18 373 19 368 20 350 21 362 22 361 23 321 24 322 35 119 37 159 38 285 39 264 40 265 42 211 43 161 
411 0.7193877696990967 0.26972389221191406 1.1003354787826538 55 48 48 3.37 21 363 22 362 23 322 35 120 36 228 37 160 38 286 39 265 40 266 42 212 43 162 
412 0.6369819641113281 0.2944163382053375 0.9226946234703064 25 24 25 2.03 18 374 19 369 20 351 21 364 22 363 23 323 35 121 36 229 38 287 39 266 40 267 
413 -0.005526777356863022 0.0366080142557621 0.7211287021636963 20 14 12 5.8 18 375 19 370 20 352 21 365 22 364 23 324 24 323 26 276 36 230 37 161 38 288 42 213 
414 0.7012215256690979 0.16363243758678436 1.2697960138320923 41 37 36 1.96 19 371 20 353 22 365 23 325 35 122 37 162 38 289 39 267 40 268 42 214 43 163 
415 0.5288186073303223 0.13625596463680267 1.1131824254989624 86 82 79 1.54 18 376 19 372 21 366 22 366 23 326 24 324 26 277 35 123 36 231 37 163 38 290 39 268 40 269 42 215 43 164 
416 0.675067663192749 0.19816258549690247 1.2198963165283203 43 33 36 1.89 19 373 20 354 22 367 23 327 35 124 36 232 37 164 38 291 39 269 40 270 42 216 43 165 
417 0.32443052530288696 0.18580995500087738 0.6853354573249817 147 154 152 1.81 18 377 19 374 20 355 21 367 22 368 23 328 24 325 26 278 35 125 36 233 37 165 38 292 39 270 40 271 42 217 43 166 
418 0.6195966005325317 -0.19171224534511566 1.0172224044799805 145 165 175 1.84 18 378 19 375 20 356 21 368 22 369 23 329 24 326 35 126 37 166 38 293 39 271 40 272 42 218 43 167 
419 0.667579174041748 0.015330015681684017 1.2710813283920288 57 57 68 1.7 19 376 20 357 22 370 23 330 24 327 35 127 36 234 37 167 38 294 39 272 40 273 42 219 43 168 
420 0.24536706507205963 0.21056801080703735 0.5803738236427307 21 27 29 1.49 36 235 38 295 39 273 40 274 42 220 43 169 
421 0.5640863180160522 -0.11259099096059799 0.9712427258491516 72 62 56 1.23 18 379 19 377 20 358 21 369 22 371 23 331 24 328 35 128 36 236 37 168 38 296 39 274 40 275 42 221 43 170 
422 0.05556679144501686 0.06701741367578506 0.7179235219955444 105 101 99 12.62 22 372 24 329 26 279 36 237 37 169 38 297 40 276 42 222 
423 0.1640528440475464 0.04397042840719223 0.8423008322715759 74 51 41 1.22 18 380 20 359 21 370 22 373 23 332 24 330 26 280 35 129 36 238 37 170 38 298 39 275 42 223 43 171 
424 0.6874603629112244 0.006111486349254847 1.3049529790878296 223 236 239 1.97 19 378 20 360 22 374 23 333 35 130 36 239 37 171 38 299 39 276 40 277 42 224 43 172 
425 0.5468839406967163 0.2542980909347534 1.1149078607559204 117 132 148 1.53 18 381 19 379 21 371 22 375 23 334 24 331 26 281 35 131 36 240 37 172 38 300 39 277 40 278 42 225 43 173 
426 0.7372821569442749 0.016289928928017616 1.3234622478485107 70 66 71 2.62 18 382 19 380 21 372 22 376 23 335 35 132 37 173 38 301 39 278 40 279 42 226 43 174 
427 0.483110249042511 0.22499406337738037 0.783331036567688 175 172 168 5.45 18 383 19 381 20 361 21 373 22 377 23 336 24 332 26 282 35 133 36 241 37 174 38 302 39 279 40 280 42 227 43 175 
428 0.7634857892990112 0.09950562566518784 1.3204154968261719 55 55 59 2.8 18 384 20 362 21 374 22 378 23 337 35 134 37 175 38 303 39 280 40 281 42 228 43 176 
429 0.7827454805374146 0.27886080741882324 1.2830300331115723 102 94 92 2.66 21 375 22 379 23 338 35 135 37 176 38 304 39 281 40 282 42 229 43 177 
430 0.5732239484786987 0.24743294715881348 0.9797428250312805 22 20 22 2.68 35 136 36 242 37 177 38 305 39 282 43 178 
431 0.779039740562439 -0.06529806554317474 1.4046906232833862 85 73 71 2.84 20 363 21 376 22 380 23 339 35 137 37 178 38 306 39 283 40 283 42 230 43 179 
432 0.6081638336181641 0.13912199437618256 1.17589271068573 117 111 109 2.12 18 385 20 364 21 377 22 381 26 283 35 138 36 243 37 179 38 307 39 284 40 284 42 231 43 180 
433 0.5915444493293762 0.2791319191455841 0.780610203742981 44 37 34 1.76 19 382 20 365 21 378 22 382 23 340 24 333 26 284 35 139 36 244 38 308 39 285 40 285 42 232 43 181 
434 0.4709969758987427 0.19386456906795502 0.8347116708755493 93 95 101 3.05 18 386 19 383 20 366 21 379 22 383 23 341 24 334 26 285 35 140 36 245 37 180 38 309 39 286 40 286 42 233 43 182 
435 0.37682482600212097 -0.12078733742237091 1.0691479444503784 24 15 11 1.23 18 387 20 367 21 380 22 384 23 342 24 335 35 141 36 246 37 181 38 310 40 287 42 234 43 183 
436 0.529792845249176 -0.12083832174539566 1.1677839756011963 17 15 16 1.05 18 388 21 381 22 385 23 343 24 336 35 142 36 247 37 182 38 311 39 287 40 288 42 235 43 184 
437 0.535464346408844 0.12604302167892456 1.1220765113830566 12 8 8 1.19 18 389 19 384 21 382 22 386 23 344 24 337 26 286 35 143 36 248 37 183 38 312 39 288 40 289 42 236 43 185 
438 0.6293973326683044 0.2749732732772827 0.811321496963501 44 39 42 6.16 19 385 20 368 21 383 22 387 23 345 35 144 36 249 38 313 39 289 40 290 42 237 43 186 
439 0.537157416343689 0.26311346888542175 0.754865288734436 98 79 75 1.66 19 386 20 369 21 384 22 388 23 346 35 145 36 250 38 314 39 290 40 291 42 238 43 187 
440 0.48997753858566284 -0.03970617800951004 1.1121493577957153 46 35 33 1.59 18 390 19 387 20 370 22 389 23 347 24 338 26 287 36 251 37 184 38 315 39 291 40 292 42 239 43 188 
441 0.7658720016479492 0.24706776440143585 1.2737160921096802 125 112 103 3.2 18 391 20 371 21 385 22 390 23 348 35 146 37 185 38 316 39 292 40 293 42 240 43 189 
442 0.6090236306190491 0.2202385514974594 0.9461030960083008 44 32 32 2.62 18 392 19 388 20 372 21 386 22 391 23 349 24 339 26 288 35 147 36 252 37 186 38 317 39 293 40 294 42 241 43 190 
443 0.6149085760116577 -0.14586180448532104 1.0225423574447632 141 151 159 1.84 18 393 19 389 20 373 21 387 22 392 23 350 24 340 35 148 36 253 37 187 38 318 39 294 40 295 42 242 43 191 
444 0.6868829727172852 0.27831214666366577 1.2264797687530518 125 135 153 1.82 19 390 20 374 22 393 23 351 35 149 37 188 38 319 39 295 40 296 42 243 43 192 
445 0.7237988710403442 0.21189379692077637 1.2689008712768555 95 83 86 1.92 18 394 19 391 21 388 22 394 23 352 35 150 37 189 38 320 39 296 40 297 42 244 43 193 
446 0.39478614926338196 0.10021928697824478 1.0110948085784912 31 21 18 1.3 18 395 20 375 21 389 22 395 23 353 24 341 35 151 36 254 37 190 38 321 40 298 42 245 43 194 
447 0.5658986568450928 0.21047139167785645 1.1401164531707764 109 115 128 1.63 18 396 19 392 20 376 21 390 22 396 23 354 24 342 35 152 36 255 37 191 38 322 39 297 40 299 42 246 43 195 
448 0.33349812030792236 0.21048015356063843 0.5709967017173767 25 20 22 4.03 36 256 38 323 39 298 40 300 42 247 43 196 
449 0.3960716724395752 -0.1338108628988266 1.0779491662979126 32 26 21 50.95 18 397 19 393 20 377 21 391 22 397 23 355 24 343 35 153 36 257 37 192 38 324 39 299 40 301 42 248 43 197 
450 0.5228497385978699 0.250156044960022 1.0534780025482178 86 81 77 2.09 18 398 19 394 21 392 22 398 23 356 24 344 26 289 35 154 36 258 37 193 38 325 39 300 40 302 42 249 43 198 
451 0.7057899832725525 -0.013076560571789742 1.32374107837677 225 234 238 2.17 19 395 21 393 22 399 23 357 35 155 36 259 37 194 38 326 39 301 40 303 42 250 43 199 
452 0.6518189311027527 0.05531039461493492 1.2381799221038818 108 103 99 1.93 19 396 20 378 21 394 23 358 24 345 35 156 36 260 37 195 38 327 39 302 40 304 42 251 43 200 
453 0.8512789011001587 0.31373274326324463 1.134006142616272 79 72 80 2.81 35 157 37 196 38 328 39 303 40 305 42 252 43 201 
454 0.5647330284118652 0.2559230625629425 1.1285922527313232 99 113 127 1.59 18 399 19 397 20 379 21 395 22 400 23 359 24 346 35 158 36 261 37 197 38 329 39 304 40 306 42 253 43 202 
455 0.5115978717803955 0.06320566684007645 1.0993232727050781 92 83 76 1.67 18 400 19 398 21 396 22 401 23 360 24 347 26 290 35 159 36 262 37 198 38 330 39 305 40 307 42 254 43 203 
456 0.680613100528717 0.27016589045524597 1.0463953018188477 40 44 36 17.32 35 160 36 263 37 199 38 331 39 306 40 308 42 255 43 204 
457 0.5170523524284363 0.2417779564857483 0.8143479824066162 55 52 53 8.01 18 401 19 399 20 380 21 397 22 402 24 348 26 291 35 161 36 264 38 332 39 307 40 309 42 256 43 205 
458 0.6323335766792297 -0.18041600286960602 1.0250816345214844 158 170 178 1.99 18 402 19 400 20 381 21 398 22 403 23 361 24 349 35 162 37 200 38 333 39 308 40 310 42 257 43 206 
459 0.11584774404764175 0.10836446285247803 0.8087638020515442 70 68 68 2.14 18 403 19 401 20 382 22 404 23 362 24 350 26 292 35 163 36 265 37 201 38 334 39 309 40 311 42 258 43 207 
460 0.5917018055915833 0.21350833773612976 1.1462023258209229 63 57 57 1.12 18 404 20 383 21 399 22 405 23 363 26 293 35 164 36 266 37 202 38 335 39 310 40 312 42 259 43 208 
461 0.6766108870506287 0.1535140424966812 1.236419677734375 16 13 14 1.69 19 402 20 384 22 406 23 364 35 165 36 267 37 203 38 336 39 311 40 313 42 260 43 209 
462 0.7786163687705994 0.1339016556739807 1.3237566947937012 52 47 51 2.92 18 405 20 385 21 400 22 407 23 365 35 166 37 204 38 337 39 312 40 314 42 261 43 210 
463 0.44910815358161926 0.14549076557159424 0.8075457215309143 121 115 110 3.12 18 406 19 403 20 386 21 401 22 408 23 366 24 351 26 294 35 167 36 268 37 205 38 338 39 313 40 315 42 262 43 211 
464 0.42573636770248413 0.2417156845331192 0.6177926659584045 105 71 69 2.62 21 402 22 409 36 269 38 339 39 314 40 316 42 263 43 212 
465 0.47986599802970886 0.21127022802829742 0.7829875349998474 88 88 93 5.88 18 407 19 404 20 387 21 403 22 410 23 367 24 352 26 295 35 168 36 270 37 206 38 340 39 315 40 317 42 264 43 213 
466 0.6478263139724731 -0.00393492728471756 1.2533892393112183 126 116 110 1.45 19 405 20 388 23 368 24 353 35 169 36 271 37 207 38 341 39 316 40 318 42 265 43 214 
467 0.8198984265327454 -0.09480356425046921 1.3848986625671387 17 20 27 3.01 20 389 21 404 22 411 23 369 35 170 37 208 38 342 39 317 40 319 42 266 43 215 
468 0.6439836621284485 0.11164567619562149 1.2137763500213623 63 54 53 2.6 19 406 20 390 21 405 23 370 24 354 26 296 35 171 36 272 37 209 38 343 39 318 40 320 42 267 43 216 
469 0.48514029383659363 -0.12394331395626068 0.9135918021202087 53 46 40 0.97 18 408 19 407 20 391 21 406 22 412 23 371 24 355 26 297 35 172 36 273 37 210 38 344 39 319 40 321 42 268 43 217 
470 0.6788663268089294 0.29326939582824707 1.1816984415054321 77 67 62 1.34 35 173 36 274 37 211 38 345 39 320 40 322 42 269 43 218 
471 0.7811541557312012 0.11360494047403336 1.3332866430282593 147 131 119 2.96 18 409 20 392 21 407 22 413 23 372 35 174 37 212 38 346 39 321 40 323 42 270 43 219 
472 0.3258887827396393 -0.11629088968038559 1.0214701890945435 29 18 14 0.98 18 410 19 408 21 408 22 414 23 373 24 356 26 298 35 175 36 275 37 213 38 347 39 322 40 324 42 271 43 220 
473 0.4615367352962494 -0.012967482209205627 0.8885669112205505 93 96 102 1.69 18 411 19 409 20 393 21 409 22 415 23 374 24 357 26 299 35 176 36 276 37 214 38 348 39 323 40 325 42 272 43 221 
474 0.6506431698799133 0.15925273299217224 1.20515775680542 120 110 102 1.86 19 410 20 394 21 410 23 375 24 358 35 177 36 277 37 215 38 349 39 324 40 326 42 273 43 222 
475 0.6425105929374695 0.2828901410102844 0.8364994525909424 88 82 82 4.14 19 411 20 395 21 411 22 416 23 376 35 178 36 278 38 350 39 325 40 327 42 274 43 223 
476 0.5534525513648987 -0.02884303592145443 1.2007020711898804 66 77 83 1.14 18 412 20 396 21 412 22 417 23 377 24 359 35 179 36 279 37 216 38 351 39 326 40 328 42 275 43 224 
477 0.5141757130622864 0.21604804694652557 1.0541744232177734 83 78 71 1.89 18 413 19 412 21 413 22 418 23 378 24 360 26 300 35 180 36 280 37 217 38 352 39 327 40 329 42 276 43 225 
478 0.6103077530860901 -0.09677162766456604 0.9996317625045776 100 106 116 2.41 18 414 19 413 20 397 21 414 22 419 23 379 24 361 26 301 35 181 36 281 37 218 38 353 39 328 40 330 42 277 43 226 
479 0.46498966217041016 0.15537971258163452 0.845740795135498 95 99 102 2.63 18 415 19 414 20 398 21 415 22 420 23 380 24 362 26 302 35 182 36 282 37 219 38 354 39 329 40 331 42 278 43 227 
480 0.8070114254951477 0.31379279494285583 0.9689194560050964 42 51 30 3.08 35 183 36 283 38 355 39 330 40 332 
481 0.6211561560630798 -0.18877854943275452 1.0178593397140503 80 89 94 1.78 18 416 19 415 20 399 21 416 22 421 23 381 24 363 35 184 37 220 38 356 39 331 40 333 42 279 43 228 
482 0.6005207896232605 0.23883619904518127 0.8906113505363464 116 112 109 4.35 18 417 19 416 20 400 21 417 22 422 23 382 24 364 26 303 35 185 36 284 37 221 38 357 39 332 40 334 42 280 43 229 
483 0.11518603563308716 0.18069835007190704 0.7761842608451843 38 39 41 2.88 18 418 19 417 20 401 23 383 24 365 26 304 36 285 37 222 38 358 39 333 40 335 43 230 
484 0.48147696256637573 -0.13041271269321442 0.9013205170631409 101 97 97 1.42 18 419 19 418 20 402 21 418 22 423 23 384 24 366 26 305 35 186 36 286 37 223 38 359 39 334 40 336 42 281 43 231 
485 0.7017025351524353 0.2576482594013214 1.24416184425354 96 105 116 2.11 19 419 20 403 22 424 23 385 35 187 37 224 38 360 39 335 40 337 42 282 43 232 
486 0.4600179195404053 -0.04826028272509575 0.898210883140564 80 85 91 1.92 18 420 19 420 20 404 21 419 22 425 23 386 24 367 26 306 36 287 37 225 38 361 39 336 40 338 42 283 43 233 
487 0.4563710391521454 0.2415580153465271 0.6788097023963928 83 74 76 1.84 35 188 36 288 38 362 39 337 40 339 42 284 43 234 
488 0.6852445006370544 0.16281722486019135 1.2588181495666504 73 96 108 1.55 19 421 20 405 22 426 23 387 35 189 36 289 37 226 38 363 39 338 40 340 42 285 43 235 
489 0.5929804444313049 0.04359447583556175 1.1923078298568726 108 103 98 2.08 18 421 20 406 21 420 22 427 23 388 26 307 35 190 36 290 37 227 38 364 39 339 40 341 42 286 43 236 
490 0.3239276707172394 0.220053032040596 0.9151583313941956 98 92 88 1.88 18 422 19 422 20 407 22 428 23 389 24 368 26 308 35 191 36 291 37 228 38 365 39 340 40 342 43 237 
491 0.804078221321106 0.31281808018684387 0.997374415397644 32 42 21 1.53 35 192 38 366 39 341 40 343 42 287 
492 0.28606584668159485 -0.1670655608177185 0.7657212615013123 82 96 104 3.01 18 423 19 423 20 408 21 421 22 429 23 390 24 369 26 309 36 292 37 229 38 367 39 342 40 344 42 288 43 238 
493 0.16803693771362305 -0.0827714279294014 0.684215247631073 81 80 78 2.42 18 424 19 424 20 409 21 422 22 430 23 391 24 370 26 310 36 293 38 368 39 343 40 345 42 289 43 239 
494 0.7177608609199524 0.024601513519883156 1.3158888816833496 127 135 140 2.06 19 425 21 423 22 431 23 392 35 193 37 230 38 369 39 344 40 346 42 290 43 240 
495 0.6036155223846436 -0.03137898072600365 1.2254259586334229 128 122 114 1.69 18 425 20 410 21 424 22 432 24 371 35 194 36 294 37 231 38 370 39 345 40 347 42 291 43 241 
496 0.6979389190673828 0.2913154065608978 1.1703100204467773 53 34 32 1.88 22 433 23 393 35 195 36 295 37 232 38 371 39 346 40 348 42 292 43 242 
497 0.40781110525131226 0.02067829668521881 1.0325872898101807 95 96 96 3.19 21 425 22 434 23 394 35 196 36 296 37 233 38 372 40 349 42 293 43 243 
498 0.5841115117073059 0.1699073165655136 1.162318468093872 42 37 39 1.16 18 426 20 411 21 426 22 435 23 395 26 311 35 197 36 297 37 234 38 373 39 347 40 350 42 294 43 244 
499 0.33032864332199097 0.022330500185489655 0.9760483503341675 30 26 24 1.1 18 427 19 426 21 427 22 436 23 396 24 372 26 312 35 198 36 298 37 235 38 374 39 348 40 351 43 245 
500 0.7567232251167297 0.15613847970962524 1.2966375350952148 128 122 121 2.62 18 428 20 412 21 428 22 437 23 397 35 199 37 236 38 375 39 349 40 352 42 295 43 246 
501 0.7484973073005676 0.29938825964927673 1.0207270383834839 25 22 23 2.74 20 413 35 200 36 299 38 376 39 350 40 353 42 296 43 247 
502 0.12346220761537552 -0.12590551376342773 0.8840312361717224 33 28 23 2.42 18 429 19 427 21 429 22 438 23 398 24 373 26 313 36 300 37 237 38 377 39 351 42 297 43 248 
503 0.5604845285415649 0.23438146710395813 0.732122004032135 18 21 25 4.16 36 301 38 378 39 352 40 354 
504 0.562020480632782 0.24601100385189056 0.7285698056221008 21 26 30 2.13 22 439 26 314 35 201 36 302 38 379 39 353 40 355 42 298 43 249 
505 0.47476983070373535 0.2230638712644577 0.7747964262962341 179 173 168 2.38 19 428 35 202 36 303 37 238 38 380 39 354 40 356 42 299 43 250 
506 0.6929070949554443 0.13189034163951874 1.2512943744659424 118 102 93 2.47 19 429 20 414 22 440 23 399 35 203 36 304 37 239 38 381 39 355 40 357 42 300 43 251 
507 0.005609029904007912 0.03301902860403061 0.7267181277275085 105 85 72 4.67 22 441 23 400 24 374 26 315 36 305 37 240 38 382 40 358 42 301 
508 0.7167983651161194 0.001818985678255558 1.3212568759918213 163 169 175 1.87 18 430 19 430 21 430 22 442 23 401 35 204 37 241 38 383 39 356 40 359 42 302 43 252 
509 0.7758416533470154 0.2065432071685791 1.2989307641983032 131 122 120 3.51 18 431 20 415 21 431 22 443 23 402 35 205 37 242 38 384 39 357 40 360 42 303 43 253 
510 0.3121359050273895 0.004522151779383421 0.9674925804138184 42 31 24 1.63 18 432 19 431 20 416 22 444 23 403 24 375 26 316 36 306 37 243 38 385 39 358 40 361 43 254 
511 0.5810834765434265 0.25162333250045776 0.8066710233688354 39 38 40 6.02 35 206 36 307 38 386 39 359 40 362 42 304 43 255 
512 0.7581652998924255 -0.07821213454008102 1.3627707958221436 81 84 88 2.61 18 433 20 417 21 432 22 445 23 404 35 207 37 244 38 387 39 360 40 363 42 305 43 256 
513 0.6413118243217468 0.2715911269187927 0.9427165985107422 74 69 71 4.45 35 208 36 308 37 245 38 388 39 361 
514 0.778181791305542 0.16346071660518646 1.3148998022079468 116 108 105 2.87 18 434 20 418 21 433 22 446 23 405 35 209 37 246 38 389 39 362 40 364 42 306 43 257 
515 0.7279897928237915 0.27855509519577026 0.9051804542541504 43 42 45 1.47 36 309 38 390 39 363 40 365 42 307 
516 0.4470774829387665 -0.135141521692276 0.8746352791786194 57 51 46 1.53 18 435 19 432 20 419 21 434 22 447 23 406 24 376 26 317 35 210 36 310 37 247 38 391 39 364 40 366 42 308 43 258 
517 0.6690735220909119 0.016633478924632072 1.2805222272872925 41 42 47 1.73 20 420 22 448 23 407 24 377 35 211 36 311 37 248 38 392 39 365 40 367 42 309 43 259 
518 0.7338258028030396 0.1433214545249939 1.281123399734497 117 89 86 2.73 18 436 19 433 21 435 22 449 23 408 35 212 37 249 38 393 39 366 40 368 42 310 43 260 
519 0.46151721477508545 0.09289075434207916 0.863064706325531 58 57 60 2.5 18 437 19 434 20 421 21 436 22 450 23 409 24 378 26 318 35 213 36 312 37 250 38 394 39 367 40 369 42 311 43 261 
520 0.7870404720306396 0.28918740153312683 1.2841861248016357 117 111 109 2.65 21 437 22 451 23 410 35 214 37 251 38 395 39 368 40 370 42 312 43 262 
521 0.5971195101737976 0.26390358805656433 1.129335641860962 39 25 24 2.41 18 438 20 422 21 438 22 452 23 411 26 319 35 215 36 313 37 252 38 396 39 369 40 371 42 313 43 263 
522 0.3096641004085541 -0.13147372007369995 0.773889422416687 86 78 73 1.4 18 439 19 435 20 423 21 439 22 453 23 412 24 379 26 320 36 314 37 253 38 397 39 370 40 372 42 314 43 264 
523 0.5024242997169495 0.04079768434166908 1.0982695817947388 76 67 63 1.71 18 440 19 436 22 454 23 413 24 380 26 321 35 216 36 315 37 254 38 398 39 371 40 373 42 315 43 265 
524 0.3236790895462036 0.08860348165035248 0.9509469866752625 50 34 29 1.26 18 441 19 437 22 455 23 414 24 381 26 322 35 217 36 316 37 255 38 399 39 372 40 374 43 266 
525 0.7620937824249268 0.14746612310409546 1.3044573068618774 121 109 106 2.8 18 442 20 424 21 440 22 456 23 415 35 218 37 256 38 400 39 373 40 375 42 316 43 267 
526 0.5670424103736877 0.1612524837255478 1.160801887512207 107 123 122 2.17 18 443 19 438 20 425 21 441 22 457 23 416 24 382 35 219 36 317 37 257 38 401 39 374 40 376 42 317 43 268 
527 0.5433704257011414 -0.09665122628211975 1.1027125120162964 170 180 188 2.21 20 426 21 442 22 458 23 417 24 383 35 220 36 318 37 258 38 402 39 375 40 377 42 318 43 269 
528 0.4996645152568817 0.06980307400226593 1.086628794670105 97 90 84 1.53 18 444 19 439 20 427 22 459 23 418 24 384 26 323 35 221 36 319 37 259 38 403 39 376 40 378 42 319 43 270 
529 0.5959697365760803 -0.08391551673412323 0.988470733165741 84 85 88 2.34 18 445 19 440 20 428 21 443 22 460 23 419 24 385 26 324 35 222 36 320 37 260 38 404 39 377 40 379 42 320 43 271 
530 0.7120848298072815 -0.02289234846830368 1.329142451286316 157 171 184 1.98 19 441 21 444 22 461 23 420 35 223 36 321 37 261 38 405 39 378 40 380 42 321 43 272 
531 0.6983343958854675 0.020618906244635582 1.3034977912902832 118 126 137 2.25 19 442 22 462 23 421 35 224 36 322 37 262 38 406 39 379 40 381 42 322 43 273 
532 0.47683194279670715 0.16793161630630493 0.8128008246421814 123 127 135 1.83 18 446 19 443 20 429 21 445 22 463 23 422 24 386 26 325 35 225 36 323 37 263 38 407 39 380 40 382 42 323 43 274 
533 0.8165506720542908 -0.0927477478981018 1.38311767578125 19 18 24 2.78 20 430 21 446 22 464 23 423 35 226 37 264 38 408 39 381 40 383 42 324 43 275 
534 0.29424452781677246 -0.052211858332157135 0.9850637316703796 36 26 20 1.13 18 447 19 444 20 431 22 465 23 424 24 387 26 326 36 324 37 265 38 409 39 382 40 384 43 276 
535 0.692884087562561 -0.027346771210432053 1.3185242414474487 118 142 157 2.48 19 445 22 466 23 425 24 388 35 227 36 325 37 266 38 410 39 383 40 385 42 325 43 277 
536 0.43229079246520996 -0.11532512307167053 0.8612608909606934 77 67 63 1.58 18 448 19 446 20 432 21 447 22 467 23 426 24 389 26 327 36 326 37 267 38 411 39 384 40 386 42 326 43 278 
537 0.6504058837890625 0.2814024090766907 0.9384121894836426 25 28 27 3.98 36 327 38 412 39 385 
538 0.7236232757568359 0.08406095951795578 1.287453055381775 92 72 66 2.31 18 449 19 447 21 448 22 468 23 427 35 228 37 268 38 413 39 386 40 387 42 327 43 279 
539 0.8464866876602173 0.31540319323539734 1.106167197227478 66 63 70 2.13 35 229 37 269 38 414 39 387 40 388 42 328 43 280 
540 0.6770234107971191 0.1681094467639923 1.2523324489593506 112 128 133 1.65 19 448 20 433 22 469 23 428 35 230 36 328 37 270 38 415 39 388 40 389 42 329 43 281 
541 0.5020526051521301 -0.012306983582675457 1.1134002208709717 71 64 61 1.27 18 450 19 449 22 470 23 429 24 390 26 328 35 231 36 329 37 271 38 416 39 389 40 390 42 330 43 282 
542 0.2753559350967407 -0.029330560937523842 0.9722866415977478 31 28 24 1.8 18 451 19 450 20 434 21 449 23 430 24 391 26 329 36 330 37 272 38 417 39 390 40 391 43 283 
543 0.31011056900024414 -0.11705107241868973 0.7736658453941345 144 148 152 1.29 18 452 19 451 20 435 21 450 22 471 23 431 24 392 26 330 36 331 37 273 38 418 39 391 40 392 42 331 43 284 
544 0.6248090863227844 -0.06847811490297318 1.253551721572876 112 101 91 1.68 19 452 20 436 21 451 23 432 24 393 26 331 35 232 36 332 37 274 38 419 39 392 40 393 42 332 43 285 
545 0.5496296286582947 -0.10839161276817322 1.2005114555358887 56 44 41 1.25 18 453 21 452 35 233 36 333 37 275 38 420 39 393 40 394 42 333 43 286 
546 0.6335447430610657 -0.17974962294101715 1.0264133214950562 122 133 140 2.01 18 454 19 453 20 437 21 453 22 472 23 433 24 394 35 234 37 276 38 421 39 394 40 395 42 334 43 287 
547 0.5409405827522278 0.18491235375404358 1.13639497756958 90 103 114 1.13 18 455 19 454 21 454 22 473 23 434 24 395 26 332 35 235 36 334 37 277 38 422 39 395 40 396 42 335 43 288 
548 0.6359245777130127 0.27807775139808655 0.9276549816131592 24 23 23 2.67 18 456 19 455 20 438 21 455 22 474 23 435 26 333 35 236 36 335 38 423 39 396 
549 0.6943830251693726 -0.005537685938179493 1.3135042190551758 165 179 192 2.12 19 456 20 439 22 475 23 436 35 237 36 336 37 278 38 424 39 397 40 397 42 336 43 289 
550 0.3194511830806732 -0.0904875174164772 0.7751114964485168 124 128 133 1.24 18 457 19 457 20 440 21 456 22 476 23 437 24 396 26 334 35 238 36 337 37 279 38 425 39 398 40 398 42 337 43 290 
551 0.7185301184654236 0.11268209666013718 1.278467059135437 124 115 109 2.26 18 458 19 458 21 457 22 477 23 438 35 239 37 280 38 426 39 399 40 399 42 338 43 291 
552 0.7069187760353088 0.012296493165194988 1.3172962665557861 211 226 231 1.93 19 459 21 458 22 478 23 439 35 240 36 338 37 281 38 427 39 400 40 400 42 339 43 292 
553 0.7490310072898865 0.2813546657562256 1.1342413425445557 40 36 37 9.09 22 479 23 440 35 241 37 282 38 428 39 401 40 401 42 340 43 293 
554 -0.03990940377116203 -0.10701649636030197 0.754667341709137 154 160 163 1.55 18 459 19 460 20 441 21 459 22 480 23 441 24 397 26 335 36 339 37 283 38 429 42 341 
555 0.7736576199531555 0.07955856621265411 1.3357281684875488 86 76 77 2.72 18 460 20 442 21 460 22 481 23 442 35 242 37 284 38 430 39 402 40 402 42 342 43 294 
556 0.25377005338668823 -0.03350076079368591 0.9602615833282471 35 32 28 1.44 19 461 20 443 21 461 22 482 24 398 26 336 38 431 39 403 40 403 
557 0.8048126101493835 -0.09143751114606857 1.3765453100204468 29 24 27 2.5 20 444 21 462 22 483 23 443 35 243 37 285 38 432 39 404 40 404 42 343 43 295 
558 0.47187548875808716 0.24345090985298157 0.7255882024765015 70 61 61 1.2 35 244 36 340 38 433 39 405 40 405 42 344 43 296 
559 0.5586212873458862 -0.07543224096298218 1.2117034196853638 59 54 51 1.36 18 461 20 445 21 463 22 484 23 444 24 399 35 245 36 341 37 286 38 434 39 406 40 406 42 345 43 297 
560 0.6443675756454468 0.2823115587234497 0.8764933943748474 81 84 85 2.62 19 462 20 446 21 464 22 485 23 445 35 246 36 342 38 435 39 407 40 407 42 346 43 298 
561 0.7763984799385071 0.04503745585680008 1.349037528038025 127 128 124 2.65 18 462 20 447 21 465 22 486 23 446 35 247 37 287 38 436 39 408 40 408 42 347 43 299 
562 0.5707180500030518 0.17578957974910736 1.158263921737671 89 103 111 2.08 18 463 19 463 20 448 21 466 22 487 23 447 24 400 35 248 36 343 37 288 38 437 39 409 40 409 42 348 43 300 
563 0.6690267324447632 0.25836876034736633 1.0602316856384277 16 17 19 16.2 20 449 21 467 22 488 26 337 35 249 36 344 37 289 38 438 39 410 40 410 42 349 43 301 
564 0.604187548160553 0.03736723214387894 1.2039871215820312 123 112 103 1.83 18 464 20 450 21 468 22 489 26 338 35 250 36 345 37 290 38 439 39 411 40 411 42 350 43 302 
565 0.742283046245575 0.0005657985457219183 1.332877278327942 143 138 135 2.74 18 465 19 464 20 451 21 469 22 490 23 448 35 251 37 291 38 440 39 412 40 412 42 351 43 303 
566 0.7957784533500671 0.29588404297828674 1.2906945943832397 100 82 77 3.98 21 470 22 491 23 449 35 252 37 292 38 441 39 413 40 413 42 352 43 304 
567 0.5555735230445862 0.13037241995334625 1.1401280164718628 14 11 10 1.57 18 466 19 465 20 452 21 471 22 492 23 450 24 401 35 253 36 346 37 293 38 442 39 414 40 414 42 353 43 305 
568 0.7720953226089478 0.28615954518318176 1.1487514972686768 40 37 39 4.17 35 254 37 294 38 443 39 415 40 415 42 354 43 306 
569 0.60362708568573 0.2518596947193146 0.8776023387908936 80 70 68 3.89 18 467 19 466 20 453 21 472 22 493 23 451 24 402 26 339 35 255 36 347 37 295 38 444 39 416 40 416 42 355 43 307 
570 0.6705536246299744 0.17261022329330444 1.2190639972686768 118 109 102 1.97 19 467 20 454 22 494 23 452 35 256 36 348 37 296 38 445 39 417 40 417 42 356 43 308 
571 0.16417789459228516 -0.01846293732523918 0.8613205552101135 32 23 18 1.43 18 468 20 455 21 473 22 495 23 453 24 403 26 340 36 349 37 297 38 446 39 418 42 357 43 309 
572 0.6434006094932556 0.2622518241405487 0.7888893485069275 34 35 39 8.0 35 257 36 350 38 447 39 419 40 418 42 358 43 310 
573 -0.04931078106164932 -0.08308825641870499 0.7372134327888489 66 71 80 1.65 18 469 19 468 20 456 21 474 22 496 23 454 24 404 26 341 36 351 37 298 38 448 42 359 43 311 
574 0.8399001359939575 0.32874804735183716 1.0847729444503784 48 50 32 2.15 35 258 38 449 39 420 40 419 42 360 
575 0.5398841500282288 0.16053926944732666 1.1422966718673706 82 88 94 1.2 18 470 19 469 21 475 22 497 23 455 24 405 26 342 35 259 36 352 37 299 38 450 39 421 40 420 42 361 43 312 
576 0.6741881370544434 0.1499592810869217 1.2295843362808228 75 68 66 1.77 19 470 20 457 22 498 23 456 35 260 36 353 37 300 38 451 39 422 40 421 42 362 43 313 
577 0.525075376033783 0.06618931144475937 1.128895878791809 92 87 83 1.43 18 471 19 471 21 476 22 499 23 457 24 406 26 343 35 261 36 354 37 301 38 452 39 423 40 422 42 363 43 314 
578 0.7661762833595276 -0.002381466794759035 1.354735016822815 158 149 139 2.58 18 472 20 458 21 477 22 500 23 458 35 262 37 302 38 453 39 424 40 423 42 364 43 315 
579 0.6086269021034241 -0.036604829132556915 0.9851969480514526 151 161 171 2.66 18 473 19 472 20 459 21 478 22 501 23 459 24 407 26 344 35 263 36 355 37 303 38 454 39 425 40 424 42 365 43 316 
580 0.759899914264679 0.1833646446466446 1.2927190065383911 124 113 106 2.51 18 474 20 460 21 479 22 502 23 460 35 264 37 304 38 455 39 426 40 425 42 366 43 317 
581 0.6359373927116394 0.2391928732395172 0.7968777418136597 16 18 24 16.26 35 265 36 356 38 456 39 427 40 426 42 367 43 318 
582 0.8235031962394714 0.3191068172454834 1.0420093536376953 52 51 43 1.06 35 266 38 457 39 428 40 427 42 368 43 319 
583 0.18973039090633392 0.17245905101299286 0.569992184638977 136 128 126 0.59 36 357 38 458 39 429 40 428 42 369 43 320 
584 0.7885806560516357 0.16560402512550354 1.3262120485305786 135 123 117 2.87 18 475 20 461 21 480 22 503 23 461 35 267 37 305 38 459 39 430 40 429 42 370 43 321 
585 0.6504594683647156 0.2534816265106201 1.1744030714035034 65 54 52 2.57 19 473 20 462 21 481 23 462 24 408 35 268 36 358 37 306 38 460 39 431 40 430 42 371 43 322 
586 0.7666671276092529 0.30718687176704407 1.0150017738342285 36 46 26 1.7 35 269 36 359 38 461 39 432 40 431 42 372 43 323 
587 0.7481206059455872 0.19848047196865082 1.2771698236465454 120 114 114 2.83 18 476 19 474 20 463 21 482 22 504 23 463 35 270 37 307 38 462 39 433 40 432 42 373 43 324 
588 0.8707420229911804 0.32837748527526855 1.0713781118392944 46 55 31 1.77 35 271 38 463 39 434 40 433 
589 0.5172989368438721 0.2523071765899658 0.795328676700592 30 23 23 4.06 18 477 19 475 20 464 21 483 22 505 23 464 24 409 26 345 35 272 36 360 38 464 39 435 40 434 42 374 43 325 
590 0.6272255182266235 0.27518004179000854 0.8148641586303711 88 81 80 5.93 19 476 20 465 21 484 22 506 23 465 35 273 36 361 38 465 39 436 40 435 42 375 43 326 
591 0.36343249678611755 0.22461849451065063 0.6425448060035706 47 43 45 1.45 36 362 38 466 39 437 40 436 42 376 43 327 
592 0.7182059288024902 0.07225603610277176 1.3028898239135742 178 182 186 1.73 19 477 21 485 22 507 23 466 35 274 37 308 38 467 39 438 40 437 42 377 43 328 
593 0.729623019695282 0.1582384556531906 1.2742983102798462 23 16 15 2.58 18 478 19 478 21 486 22 508 23 467 35 275 37 309 38 468 39 439 40 438 42 378 43 329 
