# 3D point list with one line of data per point:
#   POINT3D_ID, X, Y, Z, R, G, B, ERROR, TRACK[] as (IMAGE_ID, POINT2D_IDX)
# Number of points: 437, mean track length: 10.41
14728 0.27615386411954745 0.3009760863476322 0.9866177562347834 0 0 0 0.27 126 1079 142 902 148 2863 
14729 0.14838401622424977 0.3070626589461774 0.9422030722771815 0 0 0 0.23 126 1080 142 903 159 1482 196 1497 
14730 0.14869230169461484 0.31199499557731397 0.9403553547040457 0 0 0 0.43 126 1081 142 904 148 2864 159 1483 
14731 0.5018218710763622 0.26344369102051773 0.9088223350801754 0 0 0 0.18 126 1082 142 905 172 1318 190 1055 222 1159 
14732 0.30840265501890923 0.1699667746547882 1.0247733994573451 0 0 0 0.1 126 1083 142 906 148 2865 224 1073 
14733 0.5129602618544761 0.14905725279500426 0.9518662083264066 0 0 0 0.18 126 1084 142 907 222 1160 
14734 0.4061262041542667 0.21696174936695453 0.9677206028255404 0 0 0 0.09 126 1085 142 908 232 2200 
14735 0.3148331412084837 0.24473883556330084 0.9916916021344345 0 0 0 0.19 126 1086 142 909 159 1484 196 1498 
14736 0.5306535870351154 0.21972676497879692 0.921194052410007 0 0 0 0.21 126 1087 142 910 220 849 
14737 0.280403804011567 0.3214418357060004 0.9827251957133867 0 0 0 0.24 126 1088 142 911 148 2866 
14738 0.5452808899878785 0.29040912874355496 0.8860667352917605 0 0 0 0.66 126 1089 142 912 220 850 
14739 0.5486278694059069 0.11556617875029151 0.9617376585857795 0 0 0 0.28 126 1090 142 913 148 2867 
14740 0.5727447996585745 0.12278738610034415 0.9484876336192448 0 0 0 0.2 126 1091 142 914 159 1485 185 845 
14741 0.5159635566475393 0.14652128477056225 0.9602971895266202 0 0 0 0.91 126 1092 142 915 221 1304 
14742 0.13157050046772265 0.2306671846125132 0.9259369649860656 0 0 0 0.73 126 1093 142 916 159 1486 
14743 0.4074853653581181 0.22923348475118524 0.9602948439230798 0 0 0 0.26 126 1094 142 917 198 714 
14744 0.39803791095314056 0.12495786319150301 1.004321792190946 0 0 0 0.51 126 1095 142 918 159 1487 196 1499 
14745 0.565365026548166 0.2020366482717127 0.9174395278777191 0 0 0 0.26 126 1096 142 919 194 1315 
14746 0.5418890714918166 0.13602256637800614 0.9512673177135997 0 0 0 0.32 126 1097 142 920 148 2868 159 1488 185 846 
14747 0.3000131790182142 0.31020960673682063 0.9731324026737257 0 0 0 0.2 126 1098 142 921 148 2869 
14748 0.25963051312693436 0.2849603017583535 1.0064604135192114 0 0 0 0.52 126 1099 142 922 224 1074 
14749 0.0798312546755192 0.09119307282637137 0.8324357653175902 0 0 0 0.61 126 1100 142 923 198 715 
14750 0.5345231809021143 0.25987683891709845 0.900900602328408 0 0 0 0.24 127 1377 142 924 194 1316 
14751 0.2761942128469894 0.3080511601406363 0.9837650899188999 0 0 0 0.46 128 1575 142 925 148 2870 
14752 0.42953900861801364 0.2688975412480273 0.9333955918645551 0 0 0 0.44 136 1438 142 926 196 1500 
14753 0.57014729196969 0.12134661599192596 0.9482964720976637 0 0 0 0.25 142 927 159 1489 204 1285 
14754 0.542826685247327 0.16869776559554375 0.9370090463870142 0 0 0 0.17 142 928 159 1490 220 851 
14755 0.5808574539257836 0.1891031597310025 0.9176654439738986 0 0 0 0.28 142 929 148 2871 159 1491 
14756 0.28870289958517065 0.21674175558153472 1.017653448600267 0 0 0 0.34 142 930 159 1492 164 2884 
14757 0.2936552880002661 0.24056717407241632 1.0043436917359843 0 0 0 0.56 142 931 159 1493 224 1075 
14758 0.2135782310529584 0.2699994722507907 1.0331712645603293 0 0 0 0.22 142 932 196 1501 224 1076 
14759 0.12376723606550341 0.24013966021908972 0.9039674104850727 0 0 0 0.46 142 933 148 2872 159 1494 
14760 0.5451385983533465 0.24769274494457008 0.9011114565511454 0 0 0 0.22 142 934 148 2873 196 1502 
14761 0.1392634768858201 0.26730984607174224 0.9378646486179245 0 0 0 0.18 142 935 159 1495 196 1503 
14762 0.13568263499622749 0.2661486982173899 0.929838052630308 0 0 0 0.28 142 936 148 2874 159 1496 
14763 0.5689491657100765 0.25092027552942325 0.8923753664881069 0 0 0 0.24 142 937 194 1317 221 1305 
14764 0.48060743031572317 0.27459751312422276 0.9099279973001522 0 0 0 0.08 142 938 194 1318 196 1504 
14765 0.1244941756240817 0.28099389399878855 0.8780438993420826 0 0 0 0.21 142 939 159 1497 196 1505 
14766 0.17713751172962103 0.34892040127278373 1.0197522144457334 0 0 0 0.35 142 940 176 2322 232 2201 
14767 0.40797419133982793 0.3104667891046306 0.9230052038395689 0 0 0 0.1 142 941 194 1319 196 1506 
14768 0.5382890300515791 0.11422263524716172 0.9628091102442172 0 0 0 0.57 142 942 148 2875 221 1306 
14769 0.544160783809645 0.1187640095671094 0.961082306127663 0 0 0 0.15 142 943 148 2876 162 1374 220 852 
14770 0.2232749178388258 0.18110163212735197 1.0635964145188237 0 0 0 0.34 142 944 159 1498 196 1507 
14771 0.5659176088709071 0.18066809134108394 0.9265308419069742 0 0 0 0.19 142 945 148 2877 163 498 
14772 0.13350506026166598 0.23211600057443094 0.9443252784686872 0 0 0 0.5 142 946 159 1499 196 1508 
14773 0.11347424870694757 0.2816332029816215 1.0784089844178617 0 0 0 0.39 142 947 159 1500 196 1509 
14774 0.13622051348291686 0.2726944063897442 0.9259732920337694 0 0 0 0.36 142 948 148 2878 196 1510 
14775 0.4288568369918451 0.2622233541861962 0.9384453188222838 0 0 0 0.07 142 949 196 1511 199 829 
14776 0.15675859695141375 0.34604556627123256 1.031212295077148 0 0 0 0.47 142 950 159 1501 196 1512 224 1077 
14777 0.4463099924877653 0.11275897046294085 0.9954992631576906 0 0 0 0.49 142 951 148 2879 162 1375 196 1513 
14778 0.47038919825250836 0.17699482016123258 0.9553641154767709 0 0 0 0.18 142 952 196 1514 199 830 
14779 0.29172949298632533 0.31458179196016484 0.9736838007382003 0 0 0 0.11 142 953 148 2880 196 1515 
14780 0.3836836467098852 0.1910224782233705 0.9800557528370338 0 0 0 0.35 142 954 176 2323 204 1286 
14781 0.3155965288363385 0.28990168657316845 0.9744058436017671 0 0 0 0.19 142 955 148 2881 196 1516 
14782 0.2036246961169594 0.20072039658208027 1.070172061387867 0 0 0 0.63 142 956 159 1502 196 1517 
14783 0.13428723124283606 0.2246455459381093 0.9381844797602498 0 0 0 0.43 142 957 159 1503 196 1518 
14784 0.14766500505543692 0.2761253755779161 0.929910672882112 0 0 0 0.71 142 958 159 1504 196 1519 
14785 0.12441500830651438 0.28508665840946024 0.876275037731719 0 0 0 0.23 142 959 159 1505 224 1078 
14786 0.12292110502892994 0.298485655567335 0.8757982585940743 0 0 0 0.15 142 960 159 1506 224 1079 
14787 0.1271522706232214 0.28036968557838876 0.8883240330331204 0 0 0 0.27 142 961 159 1507 181 461 
14788 0.366346111599786 0.27968159644704477 0.9529622563279821 0 0 0 0.02 2 3443 33 3253 124 1427 
14789 0.37335870331537074 0.28801078626272797 0.945907297067044 0 0 0 0.26 2 3444 32 1560 77 2855 124 1428 39 438 
14790 0.37190188819945974 0.3055830662117318 0.9408932255234568 0 0 0 0.23 2 3445 50 3536 124 1429 98 1110 
14791 0.4788959013290024 0.29612576503965465 0.904377624271828 0 0 0 0.24 2 3446 32 1561 33 3254 124 1430 
14792 0.5189940147774664 0.2922337408144342 0.8982434011841863 0 0 0 0.47 2 3447 33 3255 124 1431 
14793 0.5070486915382173 0.18081968173048624 0.947663929364577 0 0 0 0.3 2 3448 124 1432 157 2100 176 2324 
14794 0.26096224097783816 0.3062962474881612 0.9954102388548628 0 0 0 0.23 2 3449 44 2868 124 1433 
14795 0.29422131199966134 0.35094411767290457 0.9564380145419236 0 0 0 0.35 2 3450 32 1562 124 1434 
14796 0.48727135171107183 0.27499769694450404 0.907269643676013 0 0 0 0.28 2 3451 81 682 124 1435 
14797 0.3944126904229061 0.23092305678560524 0.9642680743504451 0 0 0 0.11 3 1635 9 1583 44 2869 124 1436 
14798 0.5948956172834259 0.2531950280665452 0.885065732399979 0 0 0 0.35 3 1636 17 3186 32 1563 36 1142 124 1437 190 1056 227 873 232 2202 
14799 0.6137806645573952 0.12046751414024252 0.9338678984377529 0 0 0 0.29 9 1584 93 1636 124 1438 
14800 0.3233041777817211 0.17285547478061591 1.0182810904715467 0 0 0 0.32 9 1585 13 1298 92 2335 124 1439 
14801 0.6246993561141271 0.14090772724734385 0.922601816679324 0 0 0 0.35 9 1586 50 3537 124 1440 
14802 0.3263094844160304 0.23688253388873742 0.9897790173782408 0 0 0 0.26 9 1587 109 1652 113 1353 124 1441 
14803 0.4648842652443321 0.2202767917323649 0.9446650703777469 0 0 0 0.15 9 1588 44 2870 124 1442 
14804 0.4894705235345103 0.2604304768995907 0.9180463208320445 0 0 0 0.1 9 1589 13 1299 124 1443 
14805 0.6278486086237578 0.24243104860877332 0.8751981115978199 0 0 0 0.4 9 1590 13 1300 124 1444 201 450 234 647 
14806 0.5486603484635587 0.2559975441369399 0.8977013214152159 0 0 0 0.26 9 1591 33 3256 124 1445 157 2101 175 981 200 1468 93 1637 187 1079 
14807 0.6180471389547311 0.24665679899778603 0.8796910674808324 0 0 0 0.1 9 1592 13 1301 124 1446 
14808 0.5745971590226471 0.14536606688287268 0.9356408789557681 0 0 0 0.64 9 1593 13 1302 105 807 110 1621 124 1447 164 2885 200 1469 11 4451 44 2871 96 1576 98 1111 146 3424 157 2102 176 2325 196 1520 213 3920 187 1080 158 1365 234 648 
14809 0.49513802357843295 0.1730545028901918 0.9495957938446792 0 0 0 0.16 9 1594 92 2336 124 1448 
14810 0.26327238202761777 0.22800064712495263 1.0275402346419071 0 0 0 0.44 9 1595 110 1622 124 1449 
14811 0.5358237106226424 0.19256009058464038 0.9342447549571429 0 0 0 0.15 9 1596 92 2337 124 1450 
14812 0.438919490275491 0.2607703215673367 0.9394249063957728 0 0 0 0.22 9 1597 44 2872 124 1451 200 1470 231 589 
14813 0.41031974912710234 0.280409131134052 0.9367264685746278 0 0 0 0.21 9 1598 32 1564 50 3538 124 1452 
14814 0.40534910011695213 0.1535859381430107 0.9900320879401252 0 0 0 0.27 9 1599 53 1721 124 1453 39 439 
14815 0.3857099275585553 0.286125763998271 0.9436673313263021 0 0 0 0.15 9 1600 50 3539 124 1454 
14816 0.5540865722627765 0.27109363155327776 0.8900008008848229 0 0 0 0.25 9 1601 44 2873 124 1455 98 1112 135 738 53 1722 187 1081 
14817 0.3895160325536089 0.2802750648910799 0.9401728014951266 0 0 0 0.12 9 1602 60 1902 124 1456 
14818 0.3866425864310004 0.22270888855705537 0.9696032454008043 0 0 0 0.11 11 4452 41 674 124 1457 
14819 0.4443065677654938 0.2700039183263507 0.92658202137733 0 0 0 0.39 11 4453 44 2874 124 1458 146 3425 164 2886 176 2326 200 1471 231 590 
14820 0.38530439568033764 0.14697196905625629 0.9936861657748041 0 0 0 0.56 13 1303 124 1459 98 1113 200 1472 187 1082 39 440 
14821 0.3913981763970191 0.17847085796524342 0.9837657836973416 0 0 0 0.59 13 1304 28 1624 33 3257 124 1460 135 739 231 591 
14822 0.45770888351483935 0.16241975095999078 0.9683681845781771 0 0 0 0.33 13 1305 109 1653 113 1354 124 1461 
14823 0.46248723795595026 0.16631199766133758 0.9635263581965912 0 0 0 0.3 13 1306 110 1623 124 1462 135 740 194 1320 
14824 0.39962712341600404 0.20050912897222709 0.9712250453913893 0 0 0 0.35 13 1307 113 1355 124 1463 
14825 0.38771804720581377 0.2737786645914361 0.9489211370839962 0 0 0 0.25 13 1308 28 1625 124 1464 98 1114 187 1083 
14826 0.40937805782795167 0.2713501662573744 0.9426634663445098 0 0 0 0.23 13 1309 16 2735 124 1465 
14827 0.3777446679719032 0.28007853145847866 0.9431531150533774 0 0 0 0.25 13 1310 28 1626 124 1466 98 1115 187 1084 
14828 0.4933599099250669 0.2599770318779575 0.9167653088860493 0 0 0 0.1 13 1311 16 2736 124 1467 146 3426 213 3921 201 451 
14829 0.5733338398374005 0.25310094401179356 0.8911574844527894 0 0 0 0.25 13 1312 93 1638 124 1468 187 1085 
14830 0.5782068358792142 0.2546230212583853 0.8898309241117596 0 0 0 0.18 13 1313 28 1627 124 1469 
14831 0.6029111479552632 0.25086679321218797 0.8828471823603816 0 0 0 0.37 13 1314 28 1628 124 1470 98 1116 187 1086 201 452 
14832 0.4269859387053065 0.29466068611113805 0.9239195621001638 0 0 0 0.16 13 1315 93 1639 124 1471 
14833 0.5671980148644872 0.27425065278586835 0.8886348318726309 0 0 0 0.21 13 1316 28 1629 124 1472 135 741 213 3922 
14834 0.42926036876245205 0.30358375141948307 0.9191326395162782 0 0 0 0.24 13 1317 33 3258 124 1473 98 1117 
14835 0.46480497740143345 0.32496350801073487 0.8778064743591378 0 0 0 0.23 13 1318 92 2338 124 1474 
14836 0.439149576859014 0.16472751884707534 0.9734078688911845 0 0 0 0.46 13 1319 92 2339 124 1475 
14837 0.26972303226391886 0.22048073381025876 1.0252458651401317 0 0 0 0.29 13 1320 92 2340 124 1476 
14838 0.3760083094079354 0.20092646527341182 0.9814945584949795 0 0 0 0.46 13 1321 28 1630 124 1477 98 1118 187 1087 
14839 0.2821084390661018 0.29724796319969515 0.9884300452914877 0 0 0 0.21 13 1322 28 1631 124 1478 146 3427 200 1473 
14840 0.5627156177674967 0.2547976972827045 0.8972039523318421 0 0 0 0.1 13 1323 44 2875 124 1479 
14841 0.554546669959775 0.27014441605028183 0.8899150678421552 0 0 0 0.37 13 1324 44 2876 124 1480 175 982 187 1088 201 453 
14842 0.3572343190470434 0.31717754550823285 0.9371685813617595 0 0 0 0.5 13 1325 28 1632 124 1481 
14843 0.2961296248628958 0.33377635655863447 0.9618288174363169 0 0 0 0.25 13 1326 28 1633 124 1482 98 1119 213 3923 
14844 0.5068997072472446 0.29223388765782365 0.8945533402270336 0 0 0 0.46 13 1327 28 1634 124 1483 
14845 0.424100608028967 0.3193637077166468 0.9129156971431953 0 0 0 0.32 13 1328 50 3540 124 1484 158 1366 213 3924 231 592 98 1120 187 1089 
14846 0.30212574936572933 0.3515170305639914 0.9538906826889973 0 0 0 0.42 13 1329 33 3259 93 1640 124 1485 
14847 0.380736054394317 0.33478639013243044 0.9237984658949411 0 0 0 0.3 13 1330 44 2877 124 1486 98 1121 200 1474 
14848 0.3821174718011528 0.33514498546589366 0.9226654695994905 0 0 0 0.29 13 1331 93 1641 124 1487 98 1122 200 1475 
14849 0.2981468926069389 0.21342143142648562 1.0125190563525335 0 0 0 0.34 13 1332 60 1903 124 1488 159 1508 200 1476 39 441 113 1356 
14850 0.33510825349239065 0.23001948120478513 0.9907113587209191 0 0 0 0.41 13 1333 32 1565 60 1904 124 1489 29 1933 39 442 
14851 0.40329222661669095 0.2165116817316095 0.9664319630933358 0 0 0 0.33 13 1334 32 1566 113 1357 124 1490 39 443 110 1624 
14852 0.6278862216824861 0.2413001732840492 0.8775761555374973 0 0 0 0.44 13 1335 50 3541 124 1491 32 1567 98 1123 
14853 0.6039737040677984 0.12487112385738293 0.9379815881369976 0 0 0 0.32 13 1336 93 1642 124 1492 
14854 0.4498056993818325 0.32250647549105627 0.900731861184314 0 0 0 0.17 13 1337 53 1723 124 1493 
14855 0.4678195137193651 0.3270056507512207 0.8693816414824737 0 0 0 0.49 13 1338 61 2332 124 1494 
14856 0.4239827878482277 0.16947925567060246 0.9748728321673301 0 0 0 0.52 13 1339 28 1635 124 1495 98 1124 187 1090 
14857 0.45074983835575644 0.13486319819692963 0.9752638857049568 0 0 0 0.11 16 2737 28 1636 109 1654 124 1496 
14858 0.32262615305922854 0.3137480234725093 0.9580085131358808 0 0 0 0.1 16 2738 28 1637 124 1497 
14859 0.44150377510275496 0.22445138331546366 0.9520632279487137 0 0 0 0.4 16 2739 61 2333 92 2341 124 1498 146 3428 175 983 231 593 39 444 201 454 
14860 0.4023604783190109 0.32709408953312985 0.915765171920877 0 0 0 0.59 17 3187 81 683 124 1499 
14861 0.4501437996073649 0.30204312129680394 0.9122589981364968 0 0 0 0.29 19 2244 44 2878 50 3542 124 1500 175 984 200 1477 231 594 
14862 0.5042355367849118 0.31274032141598085 0.8885242423797227 0 0 0 0.41 19 2245 50 3543 124 1501 196 1521 200 1478 
14863 0.4492649272813926 0.13802246763581563 0.9776034702102175 0 0 0 0.21 28 1638 124 1502 93 1643 98 1125 187 1091 201 455 
14864 0.3357796106762295 0.18189587934851797 1.001622872345655 0 0 0 0.31 28 1639 124 1503 98 1126 200 1479 39 445 
14865 0.6014560104931295 0.09195061233640402 0.9435897226168101 0 0 0 0.41 28 1640 112 580 124 1504 
14866 0.3736810641151073 0.20245647845733838 0.9818116173756016 0 0 0 0.14 28 1641 124 1505 187 1092 
14867 0.3468175065593909 0.23815933346211235 0.9800614833397514 0 0 0 0.36 28 1642 124 1506 187 1093 39 446 231 595 
14868 0.5755719056679572 0.25511845498184205 0.8904083188621343 0 0 0 0.45 28 1643 93 1644 105 808 124 1507 187 1094 201 456 
14869 0.41205796801772593 0.3132265799365839 0.9197794887004463 0 0 0 0.23 28 1644 93 1645 124 1508 98 1127 187 1095 
14870 0.4451551136468662 0.1175017675907869 0.9902994959273902 0 0 0 0.37 28 1645 92 2342 124 1509 
14871 0.5969883532860044 0.10397982027471442 0.9463579089567898 0 0 0 0.28 28 1646 93 1646 124 1510 98 1128 
14872 0.3846973457559489 0.22547771254635338 0.9706617793610085 0 0 0 0.19 28 1647 33 3260 124 1511 
14873 0.4945000402256255 0.2473668086932869 0.917848426671948 0 0 0 0.21 28 1648 124 1512 187 1096 201 457 
14874 0.5433136296007541 0.24637543137759704 0.9054013801984497 0 0 0 0.18 28 1649 112 581 124 1513 187 1097 175 985 201 458 
14875 0.5807330872655859 0.27546042365661794 0.877978599540346 0 0 0 0.46 28 1650 36 1143 124 1514 
14876 0.3876224125952646 0.23758932742789476 0.9667209806443751 0 0 0 0.36 28 1651 32 1568 124 1515 
14877 0.5813181383238903 0.2834243222581254 0.8760427001936628 0 0 0 0.71 28 1652 93 1647 124 1516 98 1129 146 3429 32 1569 187 1098 
14878 0.5839296559759647 0.14371643599115846 0.9335548183568524 0 0 0 0.38 32 1570 91 1098 105 809 124 1517 
14879 0.3960074535778824 0.25804369249468834 0.9570336663628253 0 0 0 0.22 32 1571 50 3544 124 1518 
14880 0.4706497840398683 0.2666224699040379 0.9176159375008218 0 0 0 0.23 32 1572 113 1358 124 1519 
14881 0.4408232760897862 0.2755836386853442 0.9302304678285106 0 0 0 0.09 32 1573 50 3545 124 1520 
14882 0.4819857539322859 0.2691738640893952 0.9151925881741257 0 0 0 0.15 32 1574 50 3546 124 1521 
14883 0.6245605250027367 0.28557903700218235 0.8640153385541283 0 0 0 0.43 32 1575 61 2334 124 1522 
14884 0.2673055389507086 0.33000887387937206 0.9823538888638857 0 0 0 0.26 32 1576 60 1905 92 2343 124 1523 
14885 0.3563053308365391 0.2220110188309287 0.9800158242772322 0 0 0 0.26 32 1577 113 1359 124 1524 39 447 110 1625 
14886 0.47678401343800486 0.2595093592348799 0.9184196215678171 0 0 0 0.22 32 1578 81 684 124 1525 
14887 0.37960013559899913 0.29341632852611094 0.9429690504524703 0 0 0 0.16 32 1579 44 2879 124 1526 
14888 0.43829880319282205 0.10419342969388651 0.9988292370066248 0 0 0 0.3 33 3261 96 1577 124 1527 
14889 0.37666712585552287 0.287520708258799 0.9435838557421007 0 0 0 0.23 33 3262 93 1648 124 1528 98 1130 157 2103 146 3430 187 1099 
14890 0.27495000580487633 0.33361740649577537 0.9700792048613128 0 0 0 0.4 33 3263 44 2880 92 2344 124 1529 200 1480 214 1726 
14891 0.29885132373778117 0.3408661368293168 0.9593100303636989 0 0 0 0.27 33 3264 93 1649 124 1530 98 1131 157 2104 200 1481 
14892 0.32858846918863066 0.20962275915893733 1.0005669571524278 0 0 0 0.18 33 3265 85 2120 92 2345 110 1626 124 1531 
14893 0.5388489524943784 0.2565270766592194 0.9031834010499257 0 0 0 0.25 33 3266 50 3547 124 1532 
14894 0.38283777818004294 0.31988079613551146 0.9296649719853176 0 0 0 0.25 33 3267 44 2881 124 1533 
14895 0.5039040511850371 0.30420815346610464 0.8919115294556204 0 0 0 0.27 33 3268 50 3548 124 1534 98 1132 
14896 0.42912888374455377 0.22024637789903884 0.9553029735088592 0 0 0 0.36 36 1144 92 2346 124 1535 
14897 0.2585115028783528 0.22116447728147806 1.0344906987560376 0 0 0 0.09 44 2882 92 2347 124 1536 
14898 0.2939043115461066 0.32325516734619053 0.9701688023165804 0 0 0 0.9 44 2883 60 1906 110 1627 124 1537 
14899 0.32448623707814706 0.316904950944853 0.9542336373964063 0 0 0 0.48 44 2884 60 1907 124 1538 
14900 0.40502021601361937 0.3227156045089464 0.9187387165261154 0 0 0 0.49 44 2885 50 3549 124 1539 
14901 0.4061136341431136 0.32532780542667955 0.9165130783090348 0 0 0 0.42 44 2886 50 3550 124 1540 
14902 0.5418376731270879 0.20403248878171176 0.9256609209450483 0 0 0 0.26 50 3551 112 582 124 1541 176 2327 200 1482 98 1133 187 1100 
14903 0.34152600353646545 0.3146819540530378 0.9508075310610516 0 0 0 0.19 50 3552 93 1650 124 1542 
14904 0.29386492414047954 0.31552772673057705 0.9715985100000009 0 0 0 0.52 50 3553 111 1522 124 1543 61 2335 98 1134 110 1628 157 2105 
14905 0.4478681670372227 0.3183774509324002 0.8937707235743478 0 0 0 0.19 50 3554 61 2336 124 1544 
14906 0.4194477604889146 0.3296652050021887 0.9133392056860907 0 0 0 0.15 50 3555 61 2337 124 1545 
14907 0.41235140803529324 0.15806747529856066 0.9853427940055204 0 0 0 0.24 60 1908 113 1360 124 1546 176 2328 214 1727 39 448 
14908 0.24566871377485108 0.23034571073940377 1.0335965041013013 0 0 0 0.29 60 1909 110 1629 124 1547 
14909 0.3081938648712318 0.3180143014251828 0.9620292693396302 0 0 0 0.46 60 1910 113 1361 124 1548 
14910 0.34197167336949524 0.3123973811752786 0.948371070033133 0 0 0 0.19 60 1911 81 685 124 1549 
14911 0.411441087462824 0.3277806297130593 0.9143501965235937 0 0 0 0.38 81 686 92 2348 124 1550 
14912 0.2486073721836923 0.22555531578470905 1.0351044395617588 0 0 0 0.13 85 2121 92 2349 124 1551 
14913 0.31094102313325683 0.356571313491983 0.950780837254176 0 0 0 0.54 85 2122 92 2350 113 1362 124 1552 
14914 0.27138597996615893 0.21924035676174689 1.02319079667956 0 0 0 0.32 92 2351 110 1630 113 1363 124 1553 39 449 
14915 0.49381350863543094 0.21181941139217006 0.9359587421668367 0 0 0 0.34 92 2352 93 1651 124 1554 146 3431 231 596 39 450 201 459 
14916 0.3048696606441787 0.3192102909103521 0.9635473438329976 0 0 0 0.18 92 2353 113 1364 124 1555 
14917 0.4432345247593685 0.2748316175904068 0.9290643064429844 0 0 0 0.23 92 2354 111 1523 124 1556 
14918 0.27461137604041946 0.2592649112729427 1.009811926207355 0 0 0 0.29 92 2355 110 1631 124 1557 
14919 0.4622952776935166 0.15335632918339923 0.9702867273096193 0 0 0 0.45 109 1655 110 1632 124 1558 
14920 0.49795690875878834 0.18040979233332768 0.9464307387292603 0 0 0 0.06 109 1656 124 1559 187 1101 
14921 0.49503968574798973 0.1809082244774724 0.9471048844357778 0 0 0 0.13 109 1657 124 1560 39 451 175 986 200 1483 
14922 0.35577700169337323 0.23181097434697676 0.9752259103857317 0 0 0 0.5 109 1658 110 1633 124 1561 
14923 0.29722192600440556 0.2275784746252699 1.0077071703884533 0 0 0 0.26 109 1659 110 1634 124 1562 
14924 0.3263215533272945 0.2119298021400378 0.9998771394038736 0 0 0 0.12 110 1635 113 1365 124 1563 
14925 0.3034015321616753 0.3181926058435293 0.9664716741502513 0 0 0 0.18 110 1636 113 1366 124 1564 
14926 0.6960443851534521 0.2481178220872928 0.8681414824177555 0 0 0 0.14 2 3452 4 4159 107 752 184 799 
14927 0.7015753512247785 0.28177716532966784 0.8564505832571466 0 0 0 0.21 2 3453 4 4160 19 2246 44 2887 107 753 
14928 0.6588916144903821 0.22539975078554808 0.879164076951473 0 0 0 0.18 2 3454 4 4161 91 1099 107 754 164 2887 
14929 0.6947784452097138 0.265349319058809 0.8618049322367951 0 0 0 0.24 2 3455 19 2247 60 1912 77 2856 105 810 107 755 162 1376 
14930 0.648017872419422 0.2776784368184665 0.8568853074704974 0 0 0 0.52 2 3456 17 3188 19 2248 36 1145 40 1261 44 2888 50 3556 107 756 196 1522 28 1653 98 1135 
14931 0.7204563276174522 0.17804538079403975 0.9037034551475386 0 0 0 0.72 4 4162 35 433 107 757 
14932 0.7395031396310292 0.20880328595434824 0.894558947918795 0 0 0 0.63 4 4163 85 2123 107 758 
14933 0.6654469060692564 0.2748128540347469 0.855395331501215 0 0 0 0.11 19 2249 32 1580 107 759 
14934 0.19763105487757754 0.18913557060819544 1.0938063746263404 0 0 0 0.47 52 1760 107 760 109 1660 
14935 0.22075235672836574 0.18518183578696099 1.0621799080225618 0 0 0 0.53 77 2857 92 2356 107 761 109 1661 
14936 0.2646596063715181 0.1821851982075918 1.0407271150289052 0 0 0 0.33 9 1603 85 2124 107 762 
14937 0.23474104452859168 0.302991113150626 1.0089916039273505 0 0 0 0.34 44 2889 52 1761 107 763 159 1509 
14938 0.5900422948309931 0.27383454936492013 0.8808879934390891 0 0 0 0.41 9 1604 60 1913 96 1578 107 764 182 286 213 3925 
14939 0.5572337894779831 0.18774873445857435 0.9298719371566622 0 0 0 0.1 9 1605 77 2858 107 765 129 355 
14940 0.33640053725696173 0.2033419360080858 1.0043328771823565 0 0 0 1.36 9 1606 107 766 109 1662 
14941 0.6730843393035849 0.24908893726156262 0.8630835715132551 0 0 0 0.49 11 4454 107 767 164 2888 165 983 
14942 0.6537753543854886 0.2799904749139506 0.850534736237942 0 0 0 0.23 11 4455 33 3269 107 768 
14943 0.3344717349826363 0.2374918663239575 0.98591728955794 0 0 0 0.35 12 772 13 1340 107 769 
14944 0.48844329118850044 0.12031029888392118 0.9755630575394761 0 0 0 0.53 12 773 89 686 107 770 56 621 97 756 221 1307 
14945 0.5246257391222094 0.11373166058367543 0.9641969516391856 0 0 0 0.27 13 1341 61 2338 107 771 92 2357 
14946 0.41029334371519777 0.2768254786136681 0.9379360177055345 0 0 0 0.13 13 1342 14 402 107 772 
14947 0.32110699832708267 0.1858449503016988 1.0153351202780752 0 0 0 1.14 13 1343 93 1652 107 773 
14948 0.7118275399409576 0.2002107539690823 0.8000968281803608 0 0 0 0.65 14 403 61 2339 107 774 158 1367 
14949 0.7143438193692377 0.23165341954993665 0.762645278526538 0 0 0 1.09 14 404 107 775 158 1368 162 1377 
14950 0.7140217841191567 0.24506868741419402 0.7843763798285874 0 0 0 0.47 14 405 17 3189 61 2340 107 776 182 287 227 874 
14951 0.7143993086853063 0.20132321828747773 0.7675606122108295 0 0 0 0.14 14 406 61 2341 107 777 
14952 0.7126485346258997 0.236362058349519 0.7795358431440892 0 0 0 0.35 14 407 69 732 82 199 107 778 120 152 
14953 0.7103450266426341 0.17495493652608582 0.8107906515017316 0 0 0 0.2 14 408 61 2342 69 733 100 180 107 779 
14954 0.7135932757126243 0.22901048872789387 0.7643271901208034 0 0 0 0.38 14 409 35 434 61 2343 69 734 81 687 100 181 107 780 118 2876 184 800 197 776 
14955 0.7092007145122207 0.14798033869353447 0.7998745625258692 0 0 0 0.34 14 410 61 2344 69 735 81 688 82 200 89 687 100 182 107 781 114 302 129 356 
14956 0.7078931678576068 0.15243580437566068 0.7785838226466774 0 0 0 0.76 14 411 89 688 100 183 107 782 158 1369 182 288 227 875 
14957 0.7114523729223468 0.19575748067078447 0.8054280789922906 0 0 0 0.64 14 412 35 435 61 2345 69 736 81 689 89 689 100 184 107 783 114 303 158 1370 182 289 227 876 
14958 0.7137445577160659 0.23235554576299708 0.7805431656458455 0 0 0 0.53 14 413 61 2346 69 737 89 690 100 185 107 784 111 1524 120 153 129 357 162 1378 163 499 182 290 
14959 0.714099162821584 0.2323976420576332 0.7588397711512851 0 0 0 0.36 17 3190 61 2347 107 785 162 1379 163 500 182 291 
14960 0.7129892272360846 0.21383502457390446 0.8012235373006997 0 0 0 0.46 17 3191 19 2250 107 786 163 501 
14961 0.7113102160212585 0.1712495104853687 0.7832782569230633 0 0 0 0.19 17 3192 61 2348 89 691 100 186 107 787 
14962 0.7143087656139828 0.2050869181764546 0.7696819029624387 0 0 0 0.27 17 3193 61 2349 107 788 114 304 
14963 0.7132653327043704 0.21772621365576475 0.8002184415667777 0 0 0 0.24 17 3194 61 2350 69 738 107 789 
14964 0.5046864228329853 0.19168840718903868 0.9425994453657617 0 0 0 0.08 17 3195 107 790 157 2106 
14965 0.26054465694788165 0.2527831217527372 1.0163900338851757 0 0 0 0.23 19 2251 93 1653 107 791 
14966 0.6218485293954121 0.21847227217358686 0.8909257004965796 0 0 0 0.09 19 2252 92 2358 107 792 
14967 0.619749692482082 0.22410004462529803 0.8891216230027434 0 0 0 0.32 19 2253 40 1262 107 793 
14968 0.6423210070430722 0.22155034751730457 0.8818306005107566 0 0 0 0.15 19 2254 40 1263 107 794 
14969 0.2576611443498229 0.275239060181318 1.0133392143969948 0 0 0 0.35 19 2255 32 1581 107 795 
14970 0.6339308386307569 0.2389703904611432 0.8781529123949422 0 0 0 0.09 19 2256 105 811 107 796 
14971 0.6649348815427575 0.24060194611484695 0.8687209328004722 0 0 0 0.19 19 2257 85 2125 107 797 
14972 0.2489004997073663 0.3114925909367475 0.9955198750591264 0 0 0 0.11 19 2258 93 1654 107 798 
14973 0.7112764786283996 0.26549506399135536 0.8642162114374773 0 0 0 0.16 19 2259 73 1138 105 812 107 799 163 502 
14974 0.713408420987793 0.26552387272855466 0.8647877483131852 0 0 0 0.25 19 2260 107 800 136 1439 
14975 0.7240261794199124 0.26693246087416 0.865771532412953 0 0 0 0.34 19 2261 44 2890 107 801 164 2889 184 801 194 1321 
14976 0.7378892959427195 0.2696957499321493 0.866230451699622 0 0 0 0.12 19 2262 105 813 107 802 
14977 0.7178662610799645 0.280531163692957 0.8576857722634206 0 0 0 0.56 19 2263 85 2126 105 814 107 803 164 2890 
14978 0.6231400578909564 0.2894070041338936 0.8602261216814175 0 0 0 0.16 19 2264 40 1264 107 804 
14979 0.723442224111613 0.28762638808207086 0.8572108050676236 0 0 0 0.32 19 2265 44 2891 107 805 
14980 0.6486777977800164 0.2946417067203507 0.8493279981221896 0 0 0 0.44 19 2266 107 806 162 1380 
14981 0.620276310959922 0.30100342361010657 0.8555511354231754 0 0 0 0.39 19 2267 60 1914 107 807 
14982 0.7081369960054782 0.1515394028433437 0.8273523234008767 0 0 0 0.46 19 2268 91 1100 107 808 162 1381 53 1724 77 2859 118 2877 165 984 197 777 201 460 232 2203 234 649 235 1057 
14983 0.2636828373185544 0.23712620506005158 1.0209246082070644 0 0 0 0.2 19 2269 40 1265 44 2892 107 809 148 2882 
14984 0.48154806089989416 0.2504887330955849 0.9266020627208941 0 0 0 0.17 19 2270 52 1762 91 1101 107 810 136 1440 
14985 0.48546649371522427 0.2684832491352163 0.9142048681657959 0 0 0 0.12 19 2271 107 811 148 2883 
14986 0.26635405935213563 0.3114505088714631 0.9861362088536004 0 0 0 0.23 19 2272 44 2893 107 812 0 958 3 1637 61 2351 118 2878 
14987 0.7445289295932421 0.26453048435978055 0.872141365301108 0 0 0 0.62 19 2273 107 813 162 1382 
14988 0.6042606967541154 0.2984719315707823 0.8442963945625952 0 0 0 0.3 19 2274 60 1915 107 814 
14989 0.7073479778354258 0.14058823978629528 0.8198742644978796 0 0 0 0.44 19 2275 107 815 111 1525 162 1383 
14990 0.6511705402396712 0.21353010301448794 0.8860277796376199 0 0 0 0.15 19 2276 44 2894 85 2127 107 816 
14991 0.7104807194953173 0.20105926123219084 0.8083190358314125 0 0 0 0.19 19 2277 107 817 114 305 
14992 0.2731242589899142 0.32625007248053084 0.9779306122151689 0 0 0 0.3 19 2278 107 818 111 1526 
14993 0.2709452382463279 0.30087308849219874 0.9850265476485797 0 0 0 0.2 19 2279 93 1655 107 819 
14994 0.7421869202993783 0.23876801398164013 0.8836390796177865 0 0 0 0.13 19 2280 107 820 111 1527 163 503 
14995 0.549909707116223 0.30467471649945477 0.8770258798283962 0 0 0 0.29 19 2281 107 821 127 1378 
14996 0.7061913844248313 0.21338712168337365 0.8871051204710355 0 0 0 0.07 73 1139 105 815 107 822 
14997 0.5813018347745657 0.20009402328143655 0.9172375765037357 0 0 0 0.28 33 3270 60 1916 107 823 
14998 0.6307764317966104 0.24287889298915685 0.8791179490612164 0 0 0 0.12 33 3271 105 816 107 824 
14999 0.7139580629766042 0.20079072077164875 0.7894000396569637 0 0 0 0.22 35 436 107 825 165 985 
15000 0.7115806632610765 0.17649495859836814 0.7726104718486873 0 0 0 0.48 35 437 107 826 111 1528 120 154 162 1384 182 292 227 877 
15001 0.15482527696646026 0.3370819596795105 1.0386910648946166 0 0 0 0.35 36 1146 85 2128 92 2359 107 827 
15002 0.5910977807646115 0.2820173776120805 0.87507868849141 0 0 0 0.21 105 817 107 828 148 2884 
15003 0.5885256567329423 0.28287047977061397 0.8754028810882132 0 0 0 0.12 40 1266 105 818 107 829 
15004 0.35972560737066384 0.1752264729563841 0.9962762638283289 0 0 0 0.38 38 2232 93 1656 107 830 
15005 0.6567291737542635 0.22580701253627863 0.8798078355553601 0 0 0 0.22 77 2860 107 831 162 1385 
15006 0.22599461651345823 0.2846450849498506 1.0225876213237834 0 0 0 0.1 40 1267 44 2895 107 832 
15007 0.5366462021615851 0.2535982013238109 0.9045072270916436 0 0 0 0.23 40 1268 60 1917 107 833 135 742 
15008 0.617270554249688 0.11048626929463166 0.9379750522264457 0 0 0 0.25 40 1269 85 2129 107 834 
15009 0.2526862795064257 0.20939826014903568 1.0373037996921783 0 0 0 0.45 40 1270 50 3557 107 835 28 1654 98 1136 200 1484 
15010 0.7123197246130604 0.15993361621740917 0.9111897500330858 0 0 0 0.23 42 993 107 836 136 1441 
15011 0.6894892013439606 0.2033412186305843 0.8891718456616343 0 0 0 0.15 42 994 60 1918 107 837 110 1637 
15012 0.2755401154187905 0.3509286892451115 0.965780392242449 0 0 0 0.6 44 2896 77 2861 107 838 
15013 0.5281303343478492 0.29601326600500544 0.888143774899064 0 0 0 0.23 50 3558 107 839 135 743 162 1386 
15014 0.4824334286972491 0.3157698068702592 0.8954513841136319 0 0 0 0.41 50 3559 107 840 164 2891 
15015 0.5332000177055499 0.25969008256177717 0.9060775060137614 0 0 0 0.04 52 1763 85 2130 107 841 
15016 0.5377418483825688 0.27124758808244076 0.9008993461896968 0 0 0 0.18 52 1764 85 2131 107 842 
15017 0.7118129591676958 0.20875492799668874 0.7908382423826618 0 0 0 0.4 53 1725 107 843 163 504 197 778 227 878 235 1058 
15018 0.7116353540155212 0.2484348026763484 0.773207699324245 0 0 0 0.62 53 1726 105 819 107 844 162 1387 163 505 
15019 0.7132855078481966 0.23402186325354557 0.7544270855784658 0 0 0 0.87 53 1727 69 739 81 690 107 845 118 2879 147 1189 165 986 
15020 0.7128226774958701 0.24922218193777854 0.7906205741653668 0 0 0 0.79 53 1728 61 2352 107 846 162 1388 
15021 0.7109729658432195 0.22103797189667745 0.7741791672334837 0 0 0 0.64 53 1729 107 847 118 2880 120 155 129 358 100 187 111 1529 182 293 227 879 
15022 0.6457442083600848 0.23377505965248124 0.8701408213493949 0 0 0 0.34 60 1919 107 848 164 2892 
15023 0.6930801327523447 0.2351717866688086 0.8753233576945698 0 0 0 0.38 60 1920 92 2360 107 849 136 1442 164 2893 
15024 0.6840499522930321 0.20236727342339877 0.8890462354227179 0 0 0 0.37 60 1921 85 2132 107 850 
15025 0.20123455134876975 0.30196168311844757 1.0270122042379126 0 0 0 0.21 60 1922 93 1657 107 851 
15026 0.5475656503861946 0.2866790394167874 0.8863777833682682 0 0 0 0.34 60 1923 85 2133 107 852 163 506 
15027 0.543724072835399 0.23946850681019652 0.9087169355811914 0 0 0 0.64 60 1924 85 2134 107 853 109 1663 
15028 0.5396907482761264 0.28971459057260585 0.8941762107648142 0 0 0 0.54 60 1925 85 2135 107 854 
15029 0.6003517412788405 0.19492632345842853 0.9099674383872989 0 0 0 0.25 61 2353 107 855 152 724 
15030 0.730182918472022 0.2665532878065981 0.8644512407556746 0 0 0 0.13 61 2354 107 856 158 1371 163 507 
15031 0.3773578232210401 0.17161531594551396 0.9917653414343763 0 0 0 0.41 61 2355 107 857 135 744 136 1443 147 1190 159 1510 71 1344 98 1137 222 1161 
15032 0.711093815261515 0.1768195019847372 0.7866335160230146 0 0 0 0.48 61 2356 100 188 107 858 114 306 89 692 
15033 0.7131507490814799 0.2397814074305939 0.7968914697325709 0 0 0 0.07 61 2357 107 859 129 359 
15034 0.713765395922157 0.1825692924041443 0.8162539985323846 0 0 0 0.73 63 856 77 2862 107 860 
15035 0.6220920982528851 0.22085890357306703 0.8862372299958149 0 0 0 0.51 63 857 85 2136 107 861 159 1511 
15036 0.713171721235396 0.22686338972182024 0.7500873147015938 0 0 0 1.13 69 740 107 862 158 1372 
15037 0.714566830467273 0.23323577351542446 0.7432176689177028 0 0 0 0.74 69 741 107 863 118 2881 147 1191 
15038 0.714380558470849 0.2517339330981392 0.7771070646033047 0 0 0 0.47 69 742 107 864 111 1530 162 1389 
15039 0.7095545821243779 0.17200810712380057 0.76390037618965 0 0 0 0.2 69 743 82 201 89 693 100 189 107 865 120 156 
15040 0.7121172684083438 0.18259393542308516 0.7745620246153762 0 0 0 0.33 69 744 81 691 89 694 100 190 107 866 111 1531 114 307 120 157 129 360 162 1390 182 294 227 880 
15041 0.7123756290969523 0.225742685603156 0.7650911979584757 0 0 0 0.44 69 745 82 202 100 191 107 867 111 1532 120 158 129 361 
15042 0.712435618732476 0.20079099556188354 0.7860338444090995 0 0 0 0.44 69 746 89 695 107 868 114 308 120 159 129 362 162 1391 
15043 0.7132357997250952 0.22878678154967103 0.7919046358586873 0 0 0 0.63 69 747 82 203 107 869 111 1533 120 160 129 363 
15044 0.7113743362004116 0.1878299750805553 0.7798668507952929 0 0 0 0.33 69 748 82 204 89 696 100 192 107 870 129 364 
15045 0.1419229207978854 0.24032108417624623 1.0812894033867335 0 0 0 0.12 77 2863 107 871 148 2885 
15046 0.711041895060797 0.22825009279423222 0.7812155911894809 0 0 0 0.32 81 692 107 872 120 161 129 365 
15047 0.7052645947483587 0.14440608552014533 0.8167716535482393 0 0 0 0.26 81 693 107 873 111 1534 
15048 0.7521230088464963 0.20184737221135077 0.9017531599573928 0 0 0 0.48 85 2137 107 874 165 987 
15049 0.221031049448231 0.18177602463945475 1.05182116610032 0 0 0 0.28 85 2138 107 875 109 1664 
15050 0.7293970829070106 0.17362900246890106 0.9107823717871985 0 0 0 0.4 85 2139 105 820 107 876 
15051 0.6484277250023552 0.2017368010288182 0.8913783844766745 0 0 0 0.25 85 2140 92 2361 107 877 162 1392 
15052 0.7205941209830556 0.2010618513084139 0.8933110195119535 0 0 0 0.6 85 2141 92 2362 105 821 107 878 
15053 0.20500236376545894 0.25551280439270135 1.0412415466305316 0 0 0 0.67 85 2142 107 879 109 1665 
15054 0.5324993944204572 0.2736145170840265 0.9021037513507251 0 0 0 0.23 85 2143 107 880 109 1666 
15055 0.7083881194913128 0.2663508840396035 0.8666881946635636 0 0 0 0.25 85 2144 107 881 162 1393 
15056 0.20789249026531942 0.1856565820911848 1.0744778551619782 0 0 0 0.28 85 2145 107 882 109 1667 
15057 0.20596828523360633 0.19346997894556284 1.0759885620346803 0 0 0 0.26 85 2146 107 883 109 1668 
15058 0.6325747704989308 0.2920897607359941 0.8586891542761865 0 0 0 0.2 88 459 107 884 165 988 
15059 0.7084627874297993 0.15440351016658582 0.7960279662526825 0 0 0 0.25 89 697 105 822 107 885 111 1535 120 162 
15060 0.7090999385155429 0.1823682350170167 0.7872364896138987 0 0 0 0.46 89 698 100 193 105 823 107 886 158 1373 162 1394 163 508 
15061 0.15931098762878207 0.2152640978160444 1.079854231464057 0 0 0 0.3 92 2363 107 887 109 1669 
15062 0.16212631153947002 0.2564255558247176 1.0615700804049941 0 0 0 0.26 92 2364 107 888 109 1670 
15063 0.21350011081240416 0.29258492577276823 1.0270948132558013 0 0 0 0.24 93 1658 107 889 109 1671 
15064 0.7138641552498968 0.15848165203065356 0.7612999638705892 0 0 0 0.33 100 194 107 890 120 163 
15065 0.7075399149254308 0.12837531945463765 0.7753005496468381 0 0 0 0.62 100 195 107 891 158 1374 
15066 0.2050847139378094 0.2750383220290684 1.041179025522064 0 0 0 0.34 107 892 109 1672 162 1395 
15067 0.5044620017704338 0.31961246100509433 0.8857003949219865 0 0 0 0.19 107 893 124 1565 135 745 
15068 0.5030240800460295 0.32103213277270576 0.8854494509671389 0 0 0 0.33 107 894 124 1566 135 746 98 1138 
15069 0.7132780466740382 0.24700042402418595 0.7706732140662664 0 0 0 0.72 107 895 118 2882 162 1396 163 509 
15070 0.709160065834348 0.16173404268714572 0.7934831133494791 0 0 0 0.34 107 896 111 1536 162 1397 163 510 
15071 0.6078272754335496 0.2939901910155788 0.8598561021229902 0 0 0 0.69 107 897 111 1537 148 2886 
15072 0.7134435314740023 0.24215954720317215 0.7773651875779877 0 0 0 0.52 107 898 111 1538 163 511 182 295 227 881 
15073 0.7142744866931735 0.24310318324953825 0.7737604351569618 0 0 0 0.33 107 899 162 1398 163 512 
15074 0.7130972895921107 0.15406938141841345 0.7668237096527043 0 0 0 0.34 107 900 120 164 162 1399 
15075 0.6163234825226276 0.29506691502595084 0.8627293102950915 0 0 0 0.56 107 901 111 1539 164 2894 
15076 0.2724768480191381 0.2967293398070813 0.9858005575834415 0 0 0 0.26 107 902 196 1523 200 1485 
15077 0.7159946491377525 0.2709028526411986 0.8631485840029568 0 0 0 0.3 107 903 184 802 194 1322 
15078 0.6653151693379535 0.2799154230584495 0.8521039654482739 0 0 0 0.55 107 904 213 3926 220 853 
15079 0.6776588651183139 0.28472772690588943 0.8528683189123517 0 0 0 0.33 107 905 184 803 213 3927 
15080 0.7105842520906713 0.11653501629286872 0.7709952759374168 0 0 0 0.26 107 906 184 804 235 1059 
15081 0.5370880389306202 0.20467036008286715 0.9266742544563097 0 0 0 0.16 107 907 197 779 200 1486 
15082 0.5758192490690796 0.27012687856985496 0.8840316017338387 0 0 0 0.29 107 908 182 296 200 1487 220 854 
15083 0.4761278895450435 0.3239627284632253 0.8944112084139476 0 0 0 0.29 107 909 196 1524 200 1488 124 1567 158 1375 175 987 
15084 0.7075044030579652 0.13202160996575826 0.8330312353437098 0 0 0 0.54 107 910 182 297 184 805 
15085 0.7373873099485634 0.1928111137198161 0.8991454430678995 0 0 0 0.32 107 911 221 1308 227 882 
15086 0.7102179849440947 0.18096273357995524 0.8067336663348365 0 0 0 0.31 107 912 182 298 227 883 
15087 0.5049798129684283 0.19868346957222716 0.939284881427351 0 0 0 0.3 107 913 197 780 232 2204 
15088 0.4949038804554918 0.10528484827601065 0.9762195752232703 0 0 0 0.08 124 1568 146 3432 157 2107 
15089 0.5395155022012348 0.12663939802660007 0.9545063141111929 0 0 0 0.27 124 1569 146 3433 175 988 176 2329 
15090 0.37661007156712606 0.17089486346706154 0.9920904090993073 0 0 0 0.27 124 1570 146 3434 157 2108 213 3928 16 2740 98 1139 200 1489 187 1102 
15091 0.3929785426389001 0.17115821040606152 0.9873239809981618 0 0 0 0.15 124 1571 176 2330 213 3929 39 452 
15092 0.42958459060310283 0.1627739560817145 0.9771267245886172 0 0 0 0.29 124 1572 146 3435 176 2331 200 1490 98 1140 112 583 187 1103 39 453 
15093 0.42276417861232907 0.16774061126179085 0.9784145352873013 0 0 0 0.35 124 1573 200 1491 231 597 39 454 201 461 
15094 0.5245551252383591 0.1478034869061098 0.9459669980297146 0 0 0 0.15 124 1574 175 989 200 1492 
15095 0.6197537325257799 0.13116384185965113 0.921218838447852 0 0 0 0.31 124 1575 146 3436 214 1728 
15096 0.474761633927106 0.16557315602730974 0.9601397900986238 0 0 0 0.36 124 1576 146 3437 175 990 200 1493 13 1344 201 462 
15097 0.49691618825252853 0.1666831451627356 0.9518640729804314 0 0 0 0.16 124 1577 175 991 200 1494 146 3438 187 1104 
15098 0.45510686433631903 0.21083482882353977 0.9514032992714636 0 0 0 0.18 124 1578 157 2109 200 1495 231 598 
15099 0.45804611466665246 0.21035952395105936 0.9510501952498017 0 0 0 0.24 124 1579 157 2110 231 599 
15100 0.46572178704771644 0.20893870232757508 0.9482106286943801 0 0 0 0.21 124 1580 200 1496 231 600 
15101 0.418396458154771 0.21971163523144238 0.9581055158272436 0 0 0 0.28 124 1581 175 992 176 2332 231 601 
15102 0.417772402744652 0.22075452714471172 0.95952699706804 0 0 0 0.21 124 1582 200 1497 214 1729 
15103 0.4853665559464871 0.2126492375842324 0.9400003229436616 0 0 0 0.16 124 1583 146 3439 175 993 
15104 0.3258821181971491 0.28023947373284713 0.9672708591954273 0 0 0 0.21 124 1584 200 1498 231 602 
15105 0.4480160438923645 0.26258677799596963 0.9265745228080341 0 0 0 0.29 124 1585 157 2111 175 994 39 455 112 584 201 463 
15106 0.5144126502406172 0.2537012993617711 0.912845811662741 0 0 0 0.17 124 1586 175 995 200 1499 13 1345 201 464 187 1105 
15107 0.618605267718984 0.2361960981348372 0.8833049069159891 0 0 0 0.39 124 1587 175 996 200 1500 
15108 0.4724595235170466 0.2623697796806324 0.9190822715391846 0 0 0 0.19 124 1588 157 2112 231 603 
15109 0.5950837770911234 0.24203337367624844 0.8852809406082033 0 0 0 0.09 124 1589 175 997 200 1501 
15110 0.41232940351695296 0.2742802930475951 0.9414131988308453 0 0 0 0.17 124 1590 175 998 231 604 
15111 0.48251882077794195 0.261786302345777 0.9192875306965534 0 0 0 0.33 124 1591 200 1502 231 605 13 1346 39 456 
15112 0.46542564922355417 0.26517382479616947 0.9223856940242452 0 0 0 0.13 124 1592 146 3440 175 999 
15113 0.5422332508161288 0.25242929717085627 0.903487123279284 0 0 0 0.27 124 1593 157 2113 175 1000 201 465 
15114 0.5743503051419783 0.24824680401651847 0.8975366736011762 0 0 0 0.12 124 1594 175 1001 231 606 
15115 0.4057507882299304 0.27565121446761437 0.9370581056909082 0 0 0 0.11 124 1595 175 1002 200 1503 
15116 0.44239626249992786 0.26939607298604074 0.9266181005507509 0 0 0 0.18 124 1596 157 2114 175 1003 28 1655 187 1106 201 466 
15117 0.45291048354655744 0.26805685442082156 0.9240264526998441 0 0 0 0.11 124 1597 175 1004 200 1504 
15118 0.4281696499435072 0.2723996605669511 0.929299882352253 0 0 0 0.15 124 1598 146 3441 157 2115 
15119 0.40795159408448745 0.27974269671029617 0.9369939955460349 0 0 0 0.15 124 1599 157 2116 175 1005 
15120 0.3502529021844626 0.28970393806891825 0.9514926433531677 0 0 0 0.21 124 1600 146 3442 200 1505 187 1107 
15121 0.5215670475894648 0.2611197871107991 0.9031330243203055 0 0 0 0.24 124 1601 175 1006 200 1506 13 1347 98 1141 187 1108 201 467 
15122 0.4716611639519953 0.27098982679634953 0.9162345305958326 0 0 0 0.07 124 1602 175 1007 200 1507 98 1142 
15123 0.4027324335222122 0.2830795120453193 0.9356607604493309 0 0 0 0.52 124 1603 175 1008 200 1508 93 1659 98 1143 
15124 0.47634378935136124 0.2713612577279198 0.9155700152781812 0 0 0 0.04 124 1604 175 1009 200 1509 
15125 0.6158326431468378 0.2609343267961982 0.878956968540882 0 0 0 0.13 124 1605 175 1010 200 1510 
15126 0.46582703167756334 0.2868415604650277 0.9147331622497917 0 0 0 0.08 124 1606 175 1011 200 1511 
15127 0.4440616441384265 0.2916833638356581 0.9223139884786666 0 0 0 0.27 124 1607 175 1012 200 1512 98 1144 
15128 0.5655489752428943 0.274229886972411 0.8890875985065202 0 0 0 0.19 124 1608 175 1013 200 1513 187 1109 
15129 0.593012318306889 0.271510081895018 0.8805438868910077 0 0 0 0.21 124 1609 175 1014 200 1514 93 1660 201 468 
15130 0.43735871919546454 0.297294461124253 0.9222890309587165 0 0 0 0.09 124 1610 175 1015 200 1515 
15131 0.46328455687257913 0.2937467998391198 0.91405200475493 0 0 0 0.13 124 1611 175 1016 200 1516 
15132 0.4444751565021419 0.29751651628452225 0.9198668763854835 0 0 0 0.25 124 1612 175 1017 200 1517 
15133 0.445834782831493 0.29784199708730763 0.9185639291351619 0 0 0 0.15 124 1613 175 1018 200 1518 13 1348 98 1145 
15134 0.5717380596994831 0.2778936672820895 0.8784802207815395 0 0 0 0.17 124 1614 175 1019 200 1519 
15135 0.5780839277009959 0.28193725767048544 0.877533293029894 0 0 0 0.19 124 1615 175 1020 200 1520 
15136 0.5769033794057715 0.28279393723619906 0.8786837268932951 0 0 0 0.14 124 1616 146 3443 175 1021 
15137 0.4530708407614411 0.3032530396218902 0.910338956917837 0 0 0 0.18 124 1617 175 1022 200 1521 
15138 0.5028077035926671 0.30624180985209354 0.8920965547249252 0 0 0 0.1 124 1618 175 1023 200 1522 98 1146 
15139 0.5538396101122797 0.3070908404178653 0.8765591632393257 0 0 0 0.27 124 1619 175 1024 200 1523 
15140 0.31785223476309143 0.16754016021627557 1.0210337382445436 0 0 0 0.54 124 1620 146 3444 176 2333 200 1524 
15141 0.26399777581793277 0.18247672018281494 1.0451081761526548 0 0 0 0.45 124 1621 200 1525 214 1730 
15142 0.6035372864575074 0.12046948505869735 0.9414493900684706 0 0 0 0.36 124 1622 146 3445 200 1526 
15143 0.2969673730668951 0.1942316482476675 1.0189732915919127 0 0 0 0.21 124 1623 157 2117 200 1527 
15144 0.43010737329239274 0.1663150828501619 0.9750579388857779 0 0 0 0.66 124 1624 146 3446 176 2334 194 1323 98 1147 
15145 0.47480539790293974 0.15951438473181667 0.9620535967183257 0 0 0 0.48 124 1625 135 747 146 3447 176 2335 13 1349 39 457 
15146 0.31727670028441723 0.19669361676926048 1.0095289432828274 0 0 0 0.31 124 1626 200 1528 213 3930 214 1731 
15147 0.3743859651910825 0.20249504381342628 0.9808755477259241 0 0 0 0.26 124 1627 146 3448 214 1732 
15148 0.44194162955198285 0.18887255986554677 0.9628781197586106 0 0 0 0.13 124 1628 176 2336 200 1529 
15149 0.5665849430722655 0.16350347989821656 0.9341295563910788 0 0 0 0.25 124 1629 146 3449 200 1530 234 650 98 1148 112 585 
15150 0.32563523381293163 0.2218635762590523 0.9958171280792919 0 0 0 0.08 124 1630 157 2118 231 607 
15151 0.4171958765765175 0.20927221366159587 0.9665189507322384 0 0 0 0.02 124 1631 157 2119 175 1025 
15152 0.32465115883796763 0.23328265624323846 0.9922815834439508 0 0 0 0.34 124 1632 146 3450 213 3931 214 1733 
15153 0.43339796691369736 0.21354019437949756 0.956065272943889 0 0 0 0.21 124 1633 175 1026 176 2337 231 608 
15154 0.4365920895881292 0.2128908205553521 0.9548986736453985 0 0 0 0.08 124 1634 176 2338 231 609 
15155 0.5299735147549473 0.19742355634569014 0.9318364958862547 0 0 0 0.26 124 1635 157 2120 231 610 
15156 0.3886527127710913 0.22558992343557874 0.9692408081078422 0 0 0 0.06 124 1636 157 2121 231 611 
15157 0.3543794738697471 0.23324963598877663 0.9750508015849376 0 0 0 0.27 124 1637 194 1324 214 1734 
15158 0.29040101624601433 0.2474195607974846 1.004447593978471 0 0 0 0.24 124 1638 128 1576 176 2339 213 3932 98 1149 157 2122 
15159 0.30325096965340537 0.24597455744566102 0.9995448308361548 0 0 0 0.19 124 1639 136 1444 214 1735 39 458 
15160 0.44479469734579236 0.22058078281547108 0.9518364816746555 0 0 0 0.17 124 1640 157 2123 231 612 39 459 
15161 0.4800759357302496 0.21432974425096943 0.9402074186370851 0 0 0 0.3 124 1641 146 3451 157 2124 231 613 187 1110 201 469 
15162 0.2529085714516601 0.2840807559061929 1.0106699778976558 0 0 0 0.37 124 1642 146 3452 200 1531 98 1150 
15163 0.6161544383062699 0.22717632793408152 0.8872432321498049 0 0 0 0.15 124 1643 175 1027 200 1532 
15164 0.4342907258725699 0.26357231141997095 0.9369958270228057 0 0 0 0.3 124 1644 157 2125 175 1028 187 1111 201 470 
