# 3D point list with one line of data per point:
#   POINT3D_ID, X, Y, Z, R, G, B, ERROR, TRACK[] as (IMAGE_ID, POINT2D_IDX)
# Number of points: 207, mean track length: 15.58
772 0.3802499286000971 -0.007387872497651697 0.8319037756843553 102 96 103 0.35 46 630 47 651 48 659 49 654 50 629 51 594 52 514 53 382 54 344 57 362 58 340 59 254 60 294 61 176 62 334 63 340 64 336 65 334 66 352 67 398 68 384 69 312 70 288 71 211 72 155 
773 0.2092080484218437 0.0837431403724892 0.5553469330094629 124 127 130 0.64 54 345 57 363 58 341 59 255 60 295 62 335 63 341 64 337 65 335 66 353 67 399 68 385 70 289 71 212 
774 0.5386726203718448 0.030544756944128285 0.9813062007682001 120 117 122 0.57 46 631 47 652 48 660 49 655 50 630 51 595 52 515 53 383 54 346 57 364 58 342 59 256 60 296 61 177 62 336 63 342 64 338 65 336 66 354 67 400 68 386 69 313 70 290 71 213 72 156 
775 0.38596885497912364 0.16203165591255578 0.7857383637444099 162 157 151 0.31 46 632 47 653 48 661 49 656 50 631 51 596 52 516 53 384 54 347 57 365 58 343 59 257 60 297 61 178 62 337 63 343 64 339 65 337 66 355 67 401 68 387 69 314 
776 0.37499127053687686 0.014151413175617212 0.819775547854639 165 166 165 0.37 46 633 47 654 48 662 49 657 50 632 51 597 52 517 53 385 54 348 57 366 58 344 59 258 60 298 61 179 62 338 63 344 64 340 65 338 66 356 67 402 68 388 69 315 70 291 71 214 72 157 
777 0.41995172487532206 -0.015684353529435566 0.8743631263249264 162 156 153 0.35 46 634 47 655 48 663 49 658 50 633 51 598 52 518 53 386 54 349 57 367 58 345 59 259 60 299 61 180 62 339 63 345 64 341 65 339 66 357 67 403 68 389 69 316 70 292 71 215 72 158 
778 0.24189409231247216 0.17546502120201307 0.6468365221666823 47 29 33 0.53 51 599 52 519 53 387 54 350 57 368 58 346 59 260 60 300 62 340 63 346 64 342 65 340 66 358 67 404 68 390 69 317 70 293 
779 0.5046103629580361 0.30097497229787895 0.8641085966651308 81 91 98 0.68 46 635 47 656 48 664 49 659 50 634 51 600 52 520 53 388 54 351 57 369 58 347 59 261 62 341 63 347 64 343 65 341 66 359 67 405 68 391 70 294 71 216 72 159 
780 0.14701065009313097 -0.11399779616903083 0.6301003709301292 176 176 174 0.49 46 636 47 657 48 665 49 660 50 635 51 601 52 521 53 389 54 352 57 370 58 348 59 262 60 301 62 342 63 348 64 344 65 342 66 360 67 406 68 392 69 318 70 295 71 217 
781 0.27587372820445993 0.10465646394826779 0.6974642422845817 59 43 55 0.3 47 658 48 666 49 661 50 636 51 602 52 522 53 390 54 353 57 371 58 349 59 263 60 302 62 343 63 349 64 345 65 343 66 361 67 407 68 393 69 319 70 296 
782 0.49512755322694124 0.24995257182913072 0.8765657383827026 40 26 29 0.42 46 637 47 659 48 667 49 662 50 637 51 603 52 523 53 391 54 354 57 372 58 350 59 264 61 181 62 344 63 350 64 346 65 344 66 362 72 160 
783 0.14267032051735576 -0.03283546123637037 0.6023090554002194 67 64 70 0.61 46 638 47 660 48 668 49 663 50 638 51 604 52 524 53 392 54 355 57 373 58 351 59 265 60 303 62 345 63 351 64 347 65 345 66 363 67 408 68 394 69 320 70 297 71 218 
784 0.3769982547228915 0.04250805311474825 0.8122901960787867 96 79 76 0.41 46 639 47 661 48 669 49 664 50 639 51 605 52 525 53 393 54 356 57 374 58 352 59 266 60 304 61 182 62 346 63 352 64 348 65 346 66 364 67 409 68 395 69 321 70 298 
785 0.44702395812307666 0.14243255599604268 0.8614599614985268 75 57 70 0.34 46 640 47 662 48 670 49 665 50 640 51 606 52 526 53 394 54 357 57 375 58 353 59 267 60 305 61 183 62 347 63 353 64 349 65 347 66 365 67 410 68 396 
786 0.2648260207108005 -0.034252104023336095 0.7237384811166007 167 165 165 0.53 46 641 47 663 48 671 49 666 50 641 51 607 52 527 53 395 54 358 57 376 58 354 59 268 60 306 61 184 62 348 63 354 64 350 65 348 66 366 67 411 68 397 69 322 70 299 71 219 72 161 
787 0.28420799641162325 0.01511277906954952 0.7275932471743438 94 78 79 0.45 46 642 47 664 48 672 49 667 50 642 51 608 52 528 53 396 54 359 57 377 58 355 59 269 60 307 61 185 62 349 63 355 64 351 65 349 66 367 67 412 68 398 69 323 70 300 71 220 
788 0.19797119194072904 0.06528613494481182 0.6270965755286406 166 165 166 0.42 50 643 51 609 52 529 53 397 54 360 57 378 58 356 59 270 60 308 62 350 63 356 64 352 65 350 66 368 67 413 68 399 69 324 70 301 
789 0.3159993334843932 0.1516973541723702 0.7191390968930196 169 172 173 0.31 47 665 48 673 49 668 50 644 51 610 52 530 53 398 54 361 57 379 58 357 59 271 60 309 61 186 62 351 63 357 64 353 65 351 66 369 67 414 68 400 69 325 70 302 
790 0.4281374546247058 -0.07660028870129518 0.9017425576427838 181 183 183 0.43 46 643 47 666 48 674 49 669 50 645 51 611 52 531 53 399 54 362 57 380 58 358 59 272 60 310 61 187 62 352 63 358 64 354 65 352 66 370 67 415 68 401 69 326 70 303 71 221 72 162 
791 0.4765044587422926 0.01679838707460089 0.9213400981445151 97 92 99 0.41 46 644 47 667 48 675 49 670 50 646 51 612 52 532 53 400 54 363 57 381 58 359 59 273 60 311 61 188 62 353 63 359 64 355 65 353 66 371 67 416 68 402 69 327 70 304 71 222 72 163 
792 0.36893569130682036 0.005586946639424083 0.8168700495165789 80 74 81 0.34 46 645 47 668 48 676 49 671 50 647 51 613 52 533 53 401 54 364 57 382 58 360 59 274 60 312 61 189 62 354 63 360 64 356 65 354 66 372 67 417 68 403 69 328 70 305 71 223 72 164 
793 0.171585123878936 -0.0724500795241144 0.6415944838411538 97 89 96 0.48 46 646 47 669 48 677 49 672 50 648 51 614 52 534 53 402 54 365 57 383 58 361 59 275 60 313 62 355 63 361 64 357 65 355 66 373 67 418 68 404 69 329 70 306 71 224 
794 0.6525310922494987 -0.10187867339861653 1.1313988602327592 214 238 251 0.95 46 647 47 670 48 678 49 673 50 649 51 615 52 535 53 403 54 366 57 384 59 276 61 190 
795 0.32589355791871005 -0.08502479505661965 0.8005486589683355 190 190 184 0.47 46 648 47 671 48 679 49 674 50 650 51 616 52 536 53 404 54 367 57 385 58 362 59 277 60 314 61 191 62 356 63 362 64 358 65 356 66 374 67 419 68 405 69 330 70 307 71 225 72 165 
796 0.6513501560641356 -0.09648681955156373 1.1315642722826624 19 19 19 0.88 46 649 47 672 48 680 49 675 50 651 51 617 52 537 53 405 54 368 57 386 59 278 61 192 
797 0.4877431227161187 0.11883413069731734 0.9114952257273103 52 38 41 0.52 46 650 47 673 48 681 49 676 50 652 51 618 52 538 53 406 54 369 57 387 58 363 59 279 60 315 61 193 62 357 63 363 64 359 65 357 66 375 67 420 68 406 72 166 
798 0.35217740599190167 -0.07362134113380162 0.823516531492946 163 164 163 0.44 46 651 47 674 48 682 49 677 50 653 51 619 52 539 53 407 54 370 57 388 58 364 59 280 60 316 61 194 62 358 63 364 64 360 65 358 66 376 67 421 68 407 69 331 70 308 71 226 72 167 
799 0.3887065917118442 -0.02922426222857295 0.846623276538264 88 89 100 0.29 46 652 47 675 48 683 49 678 50 654 51 620 52 540 53 408 54 371 57 389 58 365 59 281 60 317 61 195 62 359 63 365 64 361 65 359 66 377 67 422 68 408 69 332 70 309 71 227 72 168 
800 0.5181654439933393 0.22834387986223964 0.5760056518916181 101 89 96 1.41 52 541 54 372 59 282 62 360 64 362 65 360 66 378 67 423 
801 0.6299466157244844 0.013520172804762516 1.0816839489523644 98 90 94 0.89 46 653 47 676 48 684 49 679 50 655 51 621 52 542 53 409 54 373 57 390 59 283 61 196 63 366 64 363 65 361 66 379 67 424 68 409 69 333 70 310 71 228 73 78 74 89 
802 0.40051521029099396 0.016298970488736936 0.8451862602805366 99 98 110 0.3 46 654 47 677 48 685 49 680 50 656 51 622 52 543 53 410 54 374 57 391 58 366 59 284 60 318 61 197 62 361 63 367 64 364 65 362 66 380 67 425 68 410 69 334 70 311 71 229 72 169 
803 0.5433614034423507 0.235731193446464 0.6097219060424327 109 97 108 1.71 52 544 54 375 59 285 62 362 64 365 65 363 66 381 67 426 
804 0.49720606829646136 -0.020495133124895853 0.9548982615481927 139 134 135 0.3 46 655 47 678 48 686 49 681 50 657 51 623 52 545 53 411 54 376 57 392 58 367 59 286 60 319 61 198 62 363 63 368 64 366 65 364 66 382 67 427 68 411 69 335 70 312 71 230 72 170 
805 0.5556760856636108 0.2990405333079083 0.8542278445311202 79 79 84 0.94 46 656 47 679 48 687 49 682 50 658 51 624 52 546 53 412 54 377 57 393 58 368 59 287 62 364 63 369 64 367 65 365 66 383 67 428 68 412 70 313 
806 0.541742760680916 -0.012137752605132763 0.998034827177868 174 175 173 0.44 46 657 47 680 48 688 49 683 50 659 51 625 52 547 53 413 54 378 57 394 58 369 59 288 60 320 61 199 62 365 63 370 64 368 65 366 66 384 67 429 68 413 69 336 70 314 71 231 72 171 
807 0.25067043357263946 0.05926680432266774 0.6821212667475479 25 20 21 0.43 46 658 47 681 48 689 49 684 50 660 51 626 52 548 53 414 54 379 57 395 58 370 59 289 60 321 62 366 63 371 64 369 65 367 66 385 67 430 68 414 69 337 70 315 
808 0.3311343574213736 0.0956148546007608 0.7505008193439687 147 144 146 0.26 46 659 47 682 48 690 49 685 50 661 51 627 52 549 53 415 54 380 57 396 58 371 59 290 60 322 61 200 62 367 63 372 64 370 65 368 66 386 67 431 68 415 69 338 70 316 
809 0.1991631859923712 0.11309611689527034 0.6103174286997599 144 142 140 0.61 53 416 54 381 57 397 58 372 59 291 60 323 62 368 63 373 64 371 65 369 66 387 67 432 68 416 69 339 70 317 
810 0.1873194438357584 -0.026562742936693636 0.6445740512315776 169 171 174 0.65 46 660 47 683 48 691 49 686 50 662 51 628 52 550 53 417 54 382 57 398 58 373 59 292 60 324 62 369 63 374 64 372 65 370 66 388 67 433 68 417 69 340 70 318 71 232 
811 0.3001855583883852 0.17080311815522414 0.6978086060928927 113 111 114 0.42 47 684 48 692 49 687 50 663 51 629 52 551 53 418 54 383 57 399 58 374 59 293 60 325 61 201 62 370 63 375 64 373 65 371 66 389 67 434 68 418 69 341 70 319 
812 0.46422649779198905 0.01215161414467734 0.9106713032055131 162 161 161 0.33 46 661 47 685 48 693 49 688 50 664 51 630 52 552 53 419 54 384 57 400 58 375 59 294 60 326 61 202 62 371 63 376 64 374 65 372 66 390 67 435 68 419 69 342 70 320 71 233 72 172 
813 0.5601961289050614 0.05697802204740874 0.9949615264809648 75 79 94 0.73 46 662 47 686 48 694 49 689 50 665 51 631 52 553 53 420 54 385 57 401 58 376 59 295 60 327 61 203 62 372 63 377 64 375 65 373 66 391 67 436 68 420 69 343 70 321 71 234 72 173 
814 0.497509377766397 -0.0006323993100821613 0.9492803200971072 117 113 115 0.43 46 663 47 687 48 695 49 690 50 666 51 632 52 554 53 421 54 386 57 402 58 377 59 296 60 328 61 204 62 373 63 378 64 376 65 374 66 392 67 437 68 421 69 344 70 322 71 235 72 174 
815 0.3981153836317911 0.2666202256094327 0.7407778416426968 171 186 188 0.64 46 664 47 688 48 696 49 691 50 667 51 633 52 555 53 422 54 387 57 403 58 378 59 297 62 374 63 379 64 377 65 375 66 393 67 438 68 422 69 345 
816 0.6447579733717732 0.1593744868110474 0.919722962585004 130 133 136 1.36 46 665 48 697 49 692 50 668 51 634 52 556 53 423 59 298 61 205 63 380 64 378 65 376 66 394 67 439 68 423 69 346 70 323 72 175 
817 0.48325681684075933 0.06401040276500426 0.915496341717099 82 75 83 0.34 46 666 47 689 48 698 49 693 50 669 51 635 52 557 53 424 54 388 57 404 58 379 59 299 60 329 61 206 62 375 63 381 64 379 65 377 66 395 67 440 68 424 69 347 70 324 71 236 72 176 
818 0.45446072066482057 -0.018357356338831215 0.9093787362724732 184 183 179 0.29 46 667 47 690 48 699 49 694 50 670 51 636 52 558 53 425 54 389 57 405 58 380 59 300 60 330 61 207 62 376 63 382 64 380 65 378 66 396 67 441 68 425 69 348 70 325 71 237 72 177 
819 0.26876023508662206 -0.009765152151842548 0.7198076433171688 96 99 108 0.45 46 668 47 691 48 700 49 695 50 671 51 637 52 559 53 426 54 390 57 406 58 381 59 301 60 331 61 208 62 377 63 383 64 381 65 379 66 397 67 442 68 426 69 349 70 326 71 238 
820 0.45335653640641776 0.14230407896614666 0.8686206322762423 66 44 51 0.37 46 669 47 692 48 701 49 696 50 672 51 638 52 560 53 427 54 391 57 407 58 382 59 302 60 332 61 209 62 378 63 384 64 382 65 380 66 398 67 443 68 427 
821 0.37347371845433625 0.21325416898646735 0.7574677287430683 145 142 139 0.42 46 670 47 693 48 702 49 697 50 673 51 639 52 561 53 428 54 392 57 408 58 383 59 303 61 210 62 379 63 385 64 383 65 381 66 399 67 444 68 428 69 350 
822 0.38469155241742137 0.10533845774221105 0.8008028689019759 158 155 157 0.25 46 671 47 694 48 703 49 698 50 674 51 640 52 562 53 429 54 393 57 409 58 384 59 304 60 333 61 211 62 380 63 386 64 384 65 382 66 400 67 445 68 429 69 351 
823 0.6420225699772344 0.08294211031556091 1.0757056718851759 96 95 90 0.81 46 672 47 695 48 704 49 699 50 675 51 641 52 563 53 430 54 394 59 305 61 212 63 387 64 385 65 383 66 401 67 446 68 430 69 352 70 327 71 239 
824 0.5552739666678668 0.047296965732549864 0.9930553552323687 168 164 162 0.57 46 673 47 696 48 705 49 700 50 676 51 642 52 564 53 431 54 395 57 410 58 385 59 306 60 334 61 213 62 381 63 388 64 386 65 384 66 402 67 447 68 431 69 353 70 328 71 240 72 178 
825 0.50879407986548 0.23082819632526774 0.5858785815301439 69 73 84 1.47 49 701 50 677 51 643 52 565 54 396 59 307 62 382 63 389 64 387 65 385 66 403 67 448 
826 0.42319481510347634 0.26032276775538565 0.7942121327425745 48 44 46 0.46 46 674 47 697 48 706 49 702 50 678 51 644 52 566 53 432 54 397 57 411 58 386 59 308 62 383 63 390 64 388 65 386 66 404 67 449 68 432 72 179 
827 0.393510126340948 0.07995247098858367 0.8179500365324447 154 148 152 0.31 46 675 47 698 48 707 49 703 50 679 51 645 52 567 53 433 54 398 57 412 58 387 59 309 60 335 61 214 62 384 63 391 64 389 65 387 66 405 67 450 68 433 69 354 70 329 
828 0.3265614222615011 -0.10246986997527421 0.8068314817129487 179 179 177 0.55 46 676 47 699 48 708 49 704 50 680 51 646 52 568 53 434 54 399 57 413 58 388 59 310 60 336 61 215 62 385 63 392 64 390 65 388 66 406 67 451 68 434 69 355 70 330 71 241 72 180 
829 0.37944867886402744 0.15234960385783472 0.7817266604784382 69 65 69 0.29 46 677 47 700 48 709 49 705 50 681 51 647 52 569 53 435 54 400 57 414 58 389 59 311 60 337 61 216 62 386 63 393 64 391 65 389 66 407 67 452 68 435 69 356 
830 0.21124226778701954 0.024723697620567423 0.6538913532926414 138 140 143 0.45 46 678 47 701 48 710 49 706 50 682 51 648 52 570 53 436 54 401 57 415 58 390 59 312 60 338 62 387 63 394 64 392 65 390 66 408 67 453 68 436 69 357 70 331 
831 0.3625933861358193 0.2597154737295537 0.7054357522989453 160 177 175 0.69 46 679 47 702 48 711 49 707 50 683 51 649 52 571 53 437 54 402 57 416 58 391 59 313 62 388 63 395 64 393 65 391 66 409 67 454 68 437 69 358 
832 0.6437255399780104 -0.09362512825817093 1.1227016456746621 75 76 74 0.81 46 680 47 703 48 712 49 708 50 684 51 650 52 572 53 438 54 403 57 417 59 314 61 217 
833 0.38500242942968865 0.17550784484791337 0.780301959971771 136 130 131 0.36 46 681 47 704 48 713 49 709 50 685 51 651 52 573 53 439 54 404 57 418 58 392 59 315 60 339 61 218 62 389 63 396 64 394 65 392 66 410 67 455 68 438 69 359 
834 0.5951353783539916 -0.06618747131097398 1.0709979371381964 160 161 157 0.41 46 682 47 705 48 714 49 710 50 686 51 652 52 574 53 440 54 405 57 419 59 316 60 340 61 219 63 397 64 395 67 456 
835 0.20715975574672962 0.16941138592239882 0.6048128040527696 90 73 66 0.48 54 406 57 420 58 393 59 317 60 341 62 390 63 398 64 396 65 393 66 411 67 457 68 439 69 360 70 332 
836 0.19889959221810072 0.17370396557742238 0.5917566992683865 111 111 116 0.78 54 407 57 421 58 394 59 318 62 391 63 399 64 397 65 394 66 412 67 458 68 440 69 361 70 333 
837 0.129100860336691 -0.09783232326903574 0.6048992483778409 159 153 157 0.56 46 683 47 706 48 715 49 711 50 687 51 653 52 575 53 441 54 408 57 422 58 395 59 319 60 342 62 392 63 400 64 398 65 395 66 413 67 459 68 441 69 362 70 334 71 242 
838 0.5020311840284201 0.13544189443987398 0.9131102805630054 159 142 141 0.46 46 684 47 707 48 716 49 712 50 688 51 654 52 576 53 442 54 409 57 423 58 396 59 320 60 343 61 220 62 393 63 401 64 399 65 396 66 414 67 460 72 181 73 79 
839 0.19443515432205932 -0.009522467157861678 0.6473648451874371 155 156 160 0.47 46 685 47 708 48 717 49 713 50 689 51 655 52 577 53 443 54 410 57 424 58 397 59 321 60 344 62 394 63 402 64 400 65 397 66 415 67 461 68 442 69 363 70 335 71 243 
840 0.2593247890498743 0.19147358555038985 0.6571934188931213 65 53 66 0.46 50 690 51 656 52 578 53 444 54 411 57 425 58 398 59 322 62 395 63 403 64 401 65 398 66 416 67 462 68 443 69 364 70 336 
841 0.21597959879557452 0.029597983028140547 0.6567844880751026 108 95 97 0.33 46 686 47 709 48 718 49 714 50 691 51 657 52 579 53 445 54 412 57 426 58 399 59 323 60 345 62 396 63 404 64 402 65 399 66 417 67 463 68 444 69 365 70 337 
842 0.1732087285432131 -0.05197099609475222 0.6392999978631749 132 125 128 0.39 46 687 47 710 48 719 49 715 50 692 51 658 52 580 53 446 54 413 57 427 58 400 59 324 60 346 62 397 63 405 64 403 65 400 66 418 67 464 68 445 69 366 70 338 71 244 
843 0.39355955273461496 0.22184694183640685 0.7761172141462549 147 144 140 0.4 46 688 47 711 48 720 49 716 50 693 51 659 52 581 53 447 54 414 57 428 58 401 59 325 61 221 62 398 63 406 64 404 65 401 66 419 67 465 68 446 69 367 
844 0.2119917903465979 0.23149268367090525 0.5940506242905446 43 44 48 0.62 49 717 52 582 53 448 54 415 57 429 58 402 59 326 62 399 63 407 64 405 65 402 66 420 67 466 68 447 69 368 70 339 
845 0.5970454996536408 -0.10126270993979035 1.0816777579674932 139 133 128 0.57 46 689 47 712 48 721 49 718 50 694 51 660 52 583 53 449 54 416 57 430 59 327 60 347 61 222 63 408 
846 0.35785692341975206 0.14394787634697373 0.7621702729083152 151 148 143 0.35 46 690 47 713 48 722 49 719 50 695 51 661 52 584 53 450 54 417 57 431 58 403 59 328 60 348 61 223 62 400 63 409 64 406 65 403 66 421 67 467 68 448 69 369 
847 0.2953624036770827 -0.05596901661896498 0.7599224775442933 104 99 102 0.51 46 691 47 714 48 723 49 720 50 696 51 662 52 585 53 451 54 418 57 432 58 404 59 329 60 349 61 224 62 401 63 410 64 407 65 404 66 422 67 468 68 449 69 370 70 340 71 245 72 182 
848 0.4384340514456773 0.11889385862828734 0.8582945783133671 46 35 40 0.42 46 692 47 715 48 724 49 721 50 697 51 663 52 586 53 452 54 419 57 433 58 405 59 330 60 350 61 225 62 402 63 411 64 408 65 405 66 423 67 469 68 450 69 371 
849 0.19561934502451594 0.034598237700322367 0.6349678069782502 154 148 148 0.4 46 693 47 716 48 725 49 722 50 698 51 664 52 587 53 453 54 420 57 434 58 406 59 331 60 351 62 403 63 412 64 409 65 406 66 424 67 470 68 451 69 372 70 341 
850 0.5781015225816961 0.17404966424822033 0.9675377670999783 56 60 54 1.73 46 694 47 717 48 726 49 723 50 699 51 665 52 588 53 454 54 421 57 435 59 332 61 226 71 246 
851 0.3838922572913218 -0.023870701925944527 0.8394671188364218 187 189 185 0.3 46 695 47 718 48 727 49 724 50 700 51 666 52 589 53 455 54 422 57 436 58 407 59 333 60 352 61 227 62 404 63 413 64 410 65 407 66 425 67 471 68 452 69 373 70 342 71 247 72 183 
852 0.19513644860172677 0.04117672218190372 0.6310189364684329 157 163 171 0.42 46 696 47 719 48 728 49 725 50 701 51 667 52 590 53 456 54 423 57 437 58 408 59 334 60 353 62 405 63 414 64 411 65 408 66 426 67 472 68 453 69 374 70 343 
853 0.5285421134852172 -0.007388315620736882 0.9836939167422467 116 121 125 0.57 46 697 47 720 48 729 49 726 50 702 51 668 52 591 53 457 54 424 57 438 58 409 59 335 60 354 61 228 62 406 63 415 64 412 65 409 66 427 67 473 68 454 69 375 70 344 71 248 72 184 
854 0.4056931620163218 0.0038047935175788885 0.8537175159641809 165 175 178 0.3 46 698 47 721 48 730 49 727 50 703 51 669 52 592 53 458 54 425 57 439 58 410 59 336 60 355 61 229 62 407 63 416 64 413 65 410 66 428 67 474 68 455 69 376 70 345 71 249 72 185 
855 0.45065748683243445 0.2340798183719744 0.8377440453326803 64 48 58 0.47 46 699 47 722 48 731 49 728 50 704 51 670 52 593 53 459 54 426 57 440 58 411 59 337 61 230 62 408 63 417 64 414 65 411 66 429 67 475 68 456 
856 0.3799246542357841 -0.0969993775886909 0.8588135500476611 141 143 148 0.43 46 700 47 723 48 732 49 729 50 705 51 671 52 594 53 460 54 427 57 441 58 412 59 338 60 356 61 231 62 409 63 418 64 415 65 412 66 430 67 476 68 457 69 377 70 346 71 250 72 186 
857 0.3749048148429154 0.07072483559653918 0.802716343513959 166 173 186 0.26 46 701 47 724 48 733 49 730 50 706 51 672 52 595 53 461 54 428 57 442 58 413 59 339 60 357 61 232 62 410 63 419 64 416 65 413 66 431 67 477 68 458 69 378 70 347 
858 0.4272381095421944 -0.07354102184455003 0.8997734671276899 83 82 92 0.41 46 702 47 725 48 734 49 731 50 707 51 673 52 596 53 462 54 429 57 443 58 414 59 340 60 358 61 233 62 411 63 420 64 417 65 414 66 432 67 478 68 459 69 379 70 348 71 251 72 187 
859 0.4032547576247603 0.218041291442592 0.7861709775240617 132 128 128 0.37 46 703 47 726 48 735 49 732 50 708 51 674 52 597 53 463 54 430 57 444 58 415 59 341 61 234 62 412 63 421 64 418 65 415 66 433 67 479 68 460 
860 0.36962309902401136 0.2632214940626198 0.693342893878833 27 24 24 0.81 46 704 47 727 48 736 49 733 50 709 51 675 52 598 53 464 54 431 57 445 58 416 59 342 62 413 63 422 64 419 65 416 66 434 67 480 68 461 69 380 70 349 
861 0.46380026677793795 0.02461754704379309 0.9059742336374437 185 188 190 0.34 46 705 47 728 48 737 49 734 50 710 51 676 52 599 53 465 54 432 57 446 58 417 59 343 60 359 61 235 62 414 63 423 64 420 65 417 66 435 67 481 68 462 69 381 70 350 71 252 72 188 
862 0.19118566946444862 0.11153517682051585 0.6025311966807275 134 125 123 0.53 54 433 57 447 58 418 59 344 60 360 62 415 63 424 64 421 65 418 66 436 67 482 68 463 69 382 70 351 
863 0.3388590464572573 0.25748420329167426 0.6592593514912101 105 109 116 0.62 46 706 47 729 48 738 49 735 50 711 51 677 52 600 53 466 54 434 57 448 58 419 59 345 62 416 63 425 64 422 65 419 66 437 67 483 68 464 69 383 70 352 
864 0.2754626493467442 0.083681884794347 0.70362028641381 51 34 39 0.54 46 707 47 730 48 739 49 736 50 712 51 678 52 601 53 467 54 435 57 449 58 420 59 346 60 361 61 236 62 417 63 426 64 423 65 420 66 438 67 484 68 465 69 384 70 353 
865 0.24505948408475323 -0.047524832493379965 0.7068705358120799 135 127 132 0.6 46 708 47 731 48 740 49 737 50 713 51 679 52 602 53 468 54 436 57 450 58 421 59 347 60 362 62 418 63 427 64 424 65 421 66 439 67 485 68 466 69 385 70 354 71 253 72 189 
866 0.5439047623656048 0.06053002297753138 0.9780071019021991 79 72 80 0.7 46 709 47 732 48 741 49 738 50 714 51 680 52 603 53 469 54 437 57 451 58 422 59 348 60 363 61 237 62 419 63 428 64 425 65 422 66 440 67 486 68 467 69 386 70 355 71 254 72 190 
867 0.6001429680247059 0.06094560428324168 1.036196486442116 79 58 61 0.5 46 710 47 733 48 742 49 739 50 715 51 681 52 604 53 470 54 438 57 452 59 349 61 238 63 429 64 426 65 423 66 441 67 487 68 468 69 387 70 356 71 255 
868 0.34429114895351287 0.2579350791289595 0.662954256420853 100 106 111 0.57 46 711 47 734 48 743 49 740 50 716 51 682 52 605 53 471 54 439 57 453 58 423 59 350 62 420 63 430 64 427 65 424 66 442 67 488 68 469 69 388 70 357 
869 0.37830050432000517 0.02059111973449291 0.8212113111022128 85 83 92 0.39 46 712 47 735 48 744 49 741 50 717 51 683 52 606 53 472 54 440 57 454 58 424 59 351 60 364 61 239 62 421 63 431 64 428 65 425 66 443 67 489 68 470 69 389 70 358 71 256 72 191 
870 0.15067117533463337 -0.0428009581075786 0.6146173279205623 170 177 181 0.41 46 713 47 736 48 745 49 742 50 718 51 684 52 607 53 473 54 441 57 455 58 425 59 352 60 365 62 422 63 432 64 429 65 426 66 444 67 490 68 471 69 390 70 359 71 257 
871 0.4173095509120792 0.09547985008636191 0.8374916002814364 56 50 53 0.4 46 714 47 737 48 746 49 743 50 719 51 685 52 608 53 474 54 442 57 456 58 426 59 353 60 366 61 240 62 423 63 433 64 430 65 427 66 445 67 491 68 472 69 391 72 192 
872 0.19761542963799814 0.10877478310668223 0.6098876217765131 151 148 144 0.55 53 475 54 443 57 457 58 427 59 354 60 367 62 424 63 434 64 431 65 428 66 446 67 492 68 473 69 392 70 360 
873 0.3552922163918668 0.20029562992953862 0.7439390656009218 144 136 135 0.36 46 715 47 738 48 747 49 744 50 720 51 686 52 609 53 476 54 444 57 458 58 428 59 355 60 368 61 241 62 425 63 435 64 432 65 429 66 447 67 493 68 474 69 393 
874 0.48324623756203594 0.15237094380633973 0.8962684782472339 59 40 50 0.44 46 716 47 739 48 748 49 745 50 721 51 687 52 610 53 477 54 445 57 459 58 429 59 356 60 369 61 242 62 426 63 436 64 433 65 430 66 448 67 494 72 193 
875 0.48999063102065454 0.11764066894720761 0.9134492362962116 46 31 34 0.48 46 717 47 740 48 749 49 746 50 722 51 688 52 611 53 478 54 446 57 460 58 430 59 357 60 370 61 243 62 427 63 437 64 434 65 431 66 449 67 495 68 475 
876 0.3373629151813938 -0.09468000341241924 0.8154385114842141 167 170 165 0.41 46 718 47 741 48 750 49 747 50 723 51 689 52 612 53 479 54 447 57 461 58 431 59 358 60 371 61 244 62 428 63 438 64 435 65 432 66 450 67 496 68 476 69 394 70 361 71 258 72 194 
877 0.5730984197927367 0.30033271377336523 0.8871762771788815 71 66 66 1.16 46 719 47 742 48 751 49 748 50 724 51 690 52 613 53 480 54 448 57 462 59 359 62 429 63 439 64 436 65 433 66 451 67 497 72 195 
878 0.32551029634474477 0.12015912873639034 0.7375102619925137 161 162 166 0.23 46 720 47 743 48 752 49 749 50 725 51 691 52 614 53 481 54 449 57 463 58 432 59 360 60 372 61 245 62 430 63 440 64 437 65 434 66 452 67 498 68 477 69 395 70 362 
879 0.40775609610679947 0.2106148957258498 0.7931704308609289 154 149 145 0.34 46 721 47 744 48 753 49 750 50 726 51 692 52 615 53 482 54 450 57 464 58 433 59 361 60 373 61 246 62 431 63 441 64 438 65 435 66 453 67 499 68 478 
880 0.36006094007727735 -0.007729234284344587 0.8118779768154528 179 182 181 0.48 46 722 47 745 48 754 49 751 50 727 51 693 52 616 53 483 54 451 57 465 58 434 59 362 60 374 61 247 62 432 63 442 64 439 65 436 66 454 67 500 68 479 69 396 70 363 71 259 72 196 
881 0.4064911617984352 0.26899443934968514 0.7405835330799614 36 38 33 0.74 46 723 47 746 48 755 49 752 50 728 51 694 52 617 53 484 54 452 57 466 58 435 59 363 62 433 63 443 64 440 65 437 66 455 67 501 68 480 69 397 
882 0.4738651671172071 0.26725569463090393 0.8532695207260955 85 74 80 0.45 46 724 47 747 48 756 49 753 50 729 51 695 52 618 53 485 54 453 57 467 58 436 59 364 62 434 63 444 64 441 65 438 66 456 67 502 72 197 
883 0.41747941770818586 0.2743910022331238 0.7785913654258533 128 125 124 0.6 46 725 47 748 48 757 49 754 50 730 51 696 52 619 53 486 54 454 57 468 58 437 59 365 62 435 63 445 64 442 65 439 66 457 67 503 68 481 69 398 
884 0.4215790165635548 0.23581444412248107 0.801249443198406 57 37 39 0.4 46 726 47 749 48 758 49 755 50 731 51 697 52 620 53 487 54 455 57 469 58 438 59 366 61 248 62 436 63 446 64 443 65 440 66 458 67 504 68 482 
885 0.277172047035439 -0.07946457200528591 0.7494892275279952 172 169 169 0.63 46 727 47 750 48 759 49 756 50 732 51 698 52 621 53 488 54 456 57 470 58 439 59 367 60 375 61 249 62 437 63 447 64 444 65 441 66 459 67 505 68 483 69 399 70 364 71 260 72 198 
886 0.5120246086001178 0.1372917823014793 0.9224130904998491 184 183 180 0.51 46 728 47 751 48 760 49 757 50 733 51 699 52 622 53 489 54 457 57 471 58 440 59 368 60 376 61 250 62 438 63 448 64 445 65 442 66 460 67 506 71 261 72 199 
887 0.2843156183390814 -0.06966838764490858 0.7534139833350897 185 188 183 0.63 46 729 47 752 48 761 49 758 50 734 51 700 52 623 53 490 54 458 57 472 58 441 59 369 60 377 61 251 62 439 63 449 64 446 65 443 66 461 67 507 68 484 69 400 70 365 71 262 72 200 
888 0.4623651639414928 0.250193864219208 0.8438836644091706 55 63 79 0.5 46 730 47 753 48 762 49 759 50 735 51 701 52 624 53 491 54 459 57 473 58 442 59 370 61 252 62 440 63 450 64 447 65 444 66 462 67 508 72 201 
889 0.5565510559674232 0.03129078059553903 0.999419480411919 178 182 183 0.6 46 731 47 754 48 763 49 760 50 736 51 702 52 625 53 492 54 460 57 474 58 443 59 371 60 378 61 253 62 441 63 451 64 448 65 445 66 463 67 509 68 485 69 401 70 366 71 263 72 202 
890 0.323802203128767 0.03739942176922501 0.7600546035753871 92 78 81 0.32 46 732 47 755 48 764 49 761 50 737 51 703 52 626 53 493 54 461 57 475 58 444 59 372 60 379 61 254 62 442 63 452 64 449 65 446 66 464 67 510 68 486 69 402 70 367 
891 0.19103586755193694 0.22349540028841522 0.5602162076652736 44 47 52 1.14 51 704 54 462 57 476 58 445 59 373 62 443 63 453 64 450 65 447 66 465 67 511 68 487 69 403 70 368 
892 0.22137107949784768 0.0414436724941809 0.6567718580611976 66 63 75 0.32 46 733 47 756 48 765 49 762 50 738 51 705 52 627 53 494 54 463 57 477 58 446 59 374 60 380 62 444 63 454 64 451 65 448 66 466 67 512 68 488 69 404 70 369 
893 0.4347492777156602 0.021672218617026232 0.8779008993026564 171 171 172 0.35 46 734 47 757 48 766 49 763 50 739 51 706 52 628 53 495 54 464 57 478 58 447 59 375 60 381 61 255 62 445 63 455 64 452 65 449 66 467 67 513 68 489 69 405 70 370 71 264 72 203 
894 0.29337250043861735 0.2088197502553816 0.6815648079273591 60 38 42 0.33 48 767 49 764 50 740 51 707 52 629 53 496 54 465 57 479 58 448 59 376 62 446 63 456 64 453 65 450 66 468 67 514 68 490 69 406 
895 0.4810962447163431 0.06663941893748908 0.9121613516907647 145 148 150 0.33 46 735 47 758 48 768 49 765 50 741 51 708 52 630 53 497 54 466 57 480 58 449 59 377 60 382 61 256 62 447 63 457 64 454 65 451 66 469 67 515 68 491 69 407 70 371 71 265 72 204 
896 0.4000400446639326 0.27050582093420106 0.7214128863174248 23 31 28 0.73 47 759 48 769 49 766 50 742 51 709 52 631 53 498 54 467 57 481 58 450 59 378 62 448 63 458 64 455 65 452 66 470 67 516 68 492 69 408 
897 0.3366017690666485 -0.08379171538747 0.8108288334705399 193 192 188 0.35 46 736 47 760 48 770 49 767 50 743 51 710 52 632 53 499 54 468 57 482 58 451 59 379 60 383 61 257 62 449 63 459 64 456 65 453 66 471 67 517 68 493 69 409 70 372 71 266 72 205 
898 0.5888594831412415 -0.016758415013691744 1.0504561314062695 116 95 102 0.63 46 737 47 761 48 771 49 768 50 744 51 711 52 633 53 500 54 469 57 483 59 380 60 384 61 258 62 450 63 460 64 457 65 454 66 472 67 518 68 494 69 410 70 373 71 267 72 206 
899 0.5213305820642531 -0.04866285601183711 0.987743679216172 172 178 177 0.54 46 738 47 762 48 772 49 769 50 745 51 712 52 634 53 501 54 470 57 484 58 452 59 381 60 385 61 259 62 451 63 461 64 458 65 455 66 473 67 519 68 495 69 411 70 374 71 268 72 207 
900 0.5448618526389888 -0.05810811183199359 1.0167184574041628 107 110 117 0.63 46 739 47 763 48 773 49 770 50 746 51 713 52 635 53 502 54 471 57 485 58 453 59 382 60 386 61 260 62 452 63 462 64 459 65 456 66 474 67 520 68 496 69 412 70 375 71 269 72 208 
901 0.2883309307034617 0.014574042720515835 0.7319206875993569 146 148 155 0.41 46 740 47 764 48 774 49 771 50 747 51 714 52 636 53 503 54 472 57 486 58 454 59 383 60 387 61 261 62 453 63 463 64 460 65 457 66 475 67 521 68 497 69 413 70 376 
902 0.48607473156327813 0.04295814629837954 0.9244367290662591 152 161 171 0.41 46 741 47 765 48 775 49 772 50 748 51 715 52 637 53 504 54 473 57 487 58 455 59 384 60 388 61 262 62 454 63 464 64 461 65 458 66 476 67 522 68 498 69 414 70 377 71 270 72 209 
903 0.35192801385404604 0.23562835429393886 0.7297732753615402 116 100 99 0.4 46 742 47 766 48 776 49 773 50 749 51 716 52 638 53 505 54 474 57 488 58 456 59 385 62 455 63 465 64 462 65 459 66 477 67 523 68 499 69 415 
904 0.42763625856171894 0.06665508520716551 0.8575477947711543 153 154 153 0.34 46 743 47 767 48 777 49 774 50 750 51 717 52 639 53 506 54 475 57 489 58 457 59 386 60 389 61 263 62 456 63 466 64 463 65 460 66 478 67 524 68 500 69 416 72 210 
905 0.5204733806907613 -0.04563904566959579 0.9860604711684319 108 105 108 0.57 46 744 47 768 48 778 49 775 50 751 51 718 52 640 53 507 54 476 57 490 58 458 59 387 60 390 61 264 62 457 63 467 64 464 65 461 66 479 67 525 68 501 69 417 70 378 71 271 72 211 
906 0.1928411914448897 0.07822031016191924 0.6174208308875548 146 150 152 0.4 52 641 53 508 54 477 57 491 58 459 59 388 60 391 62 458 63 468 64 465 65 462 66 480 67 526 68 502 69 418 70 379 
907 0.200127896115822 0.06296043429418409 0.6293677084840136 60 48 56 0.4 49 776 50 752 51 719 52 642 53 509 54 478 57 492 58 460 59 389 60 392 62 459 63 469 64 466 65 463 66 481 67 527 68 503 69 419 70 380 
908 0.27623638392617034 0.046662931596221265 0.7103636196018723 158 144 132 0.29 46 745 47 769 48 779 49 777 50 753 51 720 52 643 53 510 54 479 57 493 58 461 59 390 60 393 61 265 62 460 63 470 64 467 65 464 66 482 67 528 68 504 69 420 70 381 
909 0.36897284878419895 0.05246533018514539 0.8017210611817392 187 195 201 0.37 46 746 47 770 48 780 49 778 50 754 51 721 52 644 53 511 54 480 57 494 58 462 59 391 60 394 61 266 62 461 63 471 64 468 65 465 66 483 67 529 68 505 69 421 70 382 
910 0.1564251930559375 0.0459325191286436 0.5920065473105692 159 158 157 0.79 46 747 47 771 48 781 49 779 50 755 54 481 57 495 58 463 59 392 60 395 62 462 63 472 64 469 65 466 66 484 67 530 68 506 69 422 70 383 
911 0.43197171258400463 0.2777263876999108 0.7452758961115445 107 110 116 0.81 47 772 48 782 49 780 50 756 51 722 52 645 53 512 54 482 57 496 58 464 59 393 62 463 63 473 64 470 65 467 66 485 67 531 68 507 69 423 
912 0.6059635034889492 -0.009022553178934361 1.0633432331607138 98 84 90 0.57 46 748 47 773 48 783 49 781 50 757 51 723 52 646 53 513 54 483 57 497 59 394 61 267 63 474 64 471 65 468 66 486 67 532 68 508 69 424 70 384 71 272 
913 0.31496446389002836 0.130889850160071 0.7241252809992351 167 165 165 0.32 46 749 47 774 48 784 49 782 50 758 51 724 52 647 53 514 54 484 57 498 58 465 59 395 60 396 61 268 62 464 63 475 64 472 65 469 66 487 67 533 68 509 69 425 70 385 
914 0.40351614931025165 -0.01972920312377616 0.8583277982109138 170 161 158 0.35 46 750 47 775 48 785 49 783 50 759 51 725 52 648 53 515 54 485 57 499 58 466 59 396 60 397 61 269 62 465 63 476 64 473 65 470 66 488 67 534 68 510 69 426 70 386 71 273 72 212 
915 0.3138246496243001 0.07286534693700666 0.7390790139674787 132 119 118 0.29 46 751 47 776 48 786 49 784 50 760 51 726 52 649 53 516 54 486 57 500 58 467 59 397 60 398 61 270 62 466 63 477 64 474 65 471 66 489 67 535 68 511 69 427 70 387 
916 0.18149143930413086 -0.024749097675380236 0.6385838174464101 146 153 159 0.45 46 752 47 777 48 787 49 785 50 761 51 727 52 650 53 517 54 487 57 501 58 468 59 398 60 399 62 467 63 478 64 475 65 472 66 490 67 536 68 512 69 428 70 388 71 274 
917 0.46491322591098866 0.07707086618006966 0.8922154044647419 49 40 52 0.35 46 753 47 778 48 788 49 786 50 762 51 728 52 651 53 518 54 488 57 502 58 469 59 399 60 400 61 271 62 468 63 479 64 476 65 473 66 491 67 537 68 513 69 429 71 275 72 213 
918 0.513251920183416 0.2957280931144344 0.8771163772050051 66 58 59 0.61 46 754 47 779 48 789 49 787 50 763 51 729 52 652 53 519 54 489 57 503 58 470 59 400 62 469 63 480 64 477 65 474 66 492 67 538 71 276 72 214 
919 0.19693683455249247 0.029529101111014738 0.638116410627127 175 176 177 0.43 46 755 47 780 48 790 49 788 50 764 51 730 52 653 53 520 54 490 57 504 58 471 59 401 60 401 62 470 63 481 64 478 65 475 66 493 67 539 68 514 69 430 70 389 
920 0.5684372340456441 -0.05792587196627571 1.0388433170981053 160 159 159 0.6 46 756 47 781 48 791 49 789 50 765 51 731 52 654 53 521 54 491 57 505 58 472 59 402 60 402 61 272 62 471 63 482 64 479 65 476 66 494 67 540 68 515 69 431 70 390 71 277 72 215 
921 0.541040300944792 0.029169937208443082 0.9837468746251309 163 164 161 0.67 46 757 47 782 48 792 49 790 50 766 51 732 52 655 53 522 54 492 57 506 58 473 59 403 60 403 61 273 62 472 63 483 64 480 65 477 66 495 67 541 68 516 69 432 70 391 71 278 72 216 
922 0.2729598930679253 0.016261628873927497 0.7163243078656474 157 154 154 0.41 46 758 47 783 48 793 49 791 50 767 51 733 52 656 53 523 54 493 57 507 58 474 59 404 60 404 61 274 62 473 63 484 64 481 65 478 66 496 67 542 68 517 69 433 70 392 71 279 
923 0.15054545602720212 -0.06869519266562886 0.6202125734586043 74 77 90 0.52 46 759 47 784 48 794 49 792 50 768 51 734 52 657 53 524 54 494 57 508 58 475 59 405 60 405 62 474 63 485 64 482 65 479 66 497 67 543 68 518 69 434 70 393 71 280 
924 0.3643551954081273 0.2623111488164231 0.6925303648399149 157 169 171 0.82 46 760 47 785 48 795 49 793 50 769 51 735 52 658 53 525 54 495 57 509 58 476 59 406 62 475 63 486 64 483 65 480 66 498 67 544 68 519 69 435 70 394 
925 0.45211646724024634 -0.0952439942803777 0.9326033763777136 95 93 101 0.41 46 761 47 786 48 796 49 794 50 770 51 736 52 659 53 526 54 496 57 510 58 477 59 407 60 406 61 275 62 476 63 487 64 484 65 481 66 499 67 545 68 520 69 436 70 395 71 281 72 217 
926 0.28758303570654326 -0.03054348065462661 0.7440697364545958 187 186 181 0.58 46 762 47 787 48 797 49 795 50 771 51 737 52 660 53 527 54 497 57 511 58 478 59 408 60 407 61 276 62 477 63 488 64 485 65 482 66 500 67 546 68 521 69 437 70 396 71 282 72 218 
927 0.5964573966638037 0.11553073107671535 1.0155410791175548 90 92 83 0.87 46 763 47 788 48 798 49 796 50 772 51 738 52 661 53 528 54 498 57 512 59 409 61 277 63 489 64 486 65 483 66 501 67 547 68 522 69 438 70 397 71 283 72 219 
928 0.1459592498877837 -0.15195337242320578 0.6411895680904209 104 102 108 0.72 46 764 47 789 48 799 49 797 50 773 51 739 52 662 53 529 57 513 58 479 59 410 60 408 62 478 63 490 64 487 65 484 66 502 67 548 68 523 69 439 70 398 
929 0.3759147535444292 0.2622774068821898 0.7146416174334659 18 22 16 0.71 47 790 48 800 49 798 50 774 51 740 52 663 53 530 54 499 57 514 58 480 59 411 62 479 63 491 64 488 65 485 66 503 67 549 68 524 69 440 
930 0.18589615464473938 0.07628474935276235 0.607123226894228 108 105 106 0.7 52 664 53 531 54 500 57 515 58 481 59 412 60 409 62 480 63 492 64 489 65 486 66 504 67 550 68 525 69 441 70 399 
931 0.44729796161170937 0.153859162196467 0.8585643157242863 56 37 43 0.33 46 765 47 791 48 801 49 799 50 775 51 741 52 665 53 532 54 501 57 516 58 482 59 413 60 410 61 278 62 481 63 493 64 490 65 487 66 505 67 551 68 526 
932 0.5953323581272565 -0.06500731382856893 1.0712905025084924 77 82 89 0.58 46 766 47 792 48 802 49 800 50 776 51 742 52 666 53 533 54 502 57 517 59 414 60 411 61 279 63 494 64 491 67 552 71 284 72 220 
933 0.16008334661762952 -0.13273164869246282 0.6488099985607957 165 167 168 0.46 46 767 47 793 48 803 49 801 50 777 51 743 52 667 53 534 57 518 58 483 59 415 60 412 62 482 63 495 64 492 65 488 66 506 67 553 68 527 69 442 70 400 71 285 
934 0.5556088674840038 0.03413045192620912 0.9972771419967925 107 103 108 0.63 46 768 47 794 48 804 49 802 50 778 51 744 52 668 53 535 54 503 57 519 58 484 59 416 60 413 61 280 62 483 63 496 64 493 65 489 66 507 67 554 68 528 69 443 70 401 71 286 72 221 
935 0.3865619893277189 0.06865910086474765 0.8147141815782293 131 120 120 0.29 46 769 47 795 48 805 49 803 50 779 51 745 52 669 53 536 54 504 57 520 58 485 59 417 60 414 61 281 62 484 63 497 64 494 65 490 66 508 67 555 68 529 69 444 70 402 
936 0.41044057639950965 0.2718153398873718 0.7354808668064509 31 36 32 0.72 47 796 48 806 49 804 50 780 51 746 52 670 53 537 54 505 57 521 58 486 59 418 62 485 63 498 64 495 65 491 66 509 67 556 68 530 69 445 
937 0.4573508704574305 0.03706731035137821 0.8960044857994502 143 139 135 0.28 46 770 47 797 48 807 49 805 50 781 51 747 52 671 53 538 54 506 57 522 58 487 59 419 60 415 61 282 62 486 63 499 64 496 65 492 66 510 67 557 68 531 69 446 70 403 71 287 72 222 
938 0.40732822441611477 -0.09240964648397174 0.8858975710904747 165 157 155 0.46 46 771 47 798 48 808 49 806 50 782 51 748 52 672 53 539 54 507 57 523 58 488 59 420 60 416 61 283 62 487 63 500 64 497 65 493 66 511 67 558 68 532 69 447 70 404 71 288 72 223 
939 0.21971361373917442 0.09352192867338864 0.6467366314595674 73 56 68 0.35 50 783 51 749 52 673 53 540 54 508 57 524 58 489 59 421 60 417 62 488 63 501 64 498 65 494 66 512 67 559 68 533 69 448 70 405 
940 0.3784236014394514 -0.10034941391614823 0.8588350078190643 179 179 177 0.42 46 772 47 799 48 809 49 807 50 784 51 750 52 674 53 541 54 509 57 525 58 490 59 422 60 418 61 284 62 489 63 502 64 499 65 495 66 513 67 560 68 534 69 449 70 406 71 289 72 224 
941 0.5986104109865602 0.10284976951989572 1.0238419072856877 150 131 128 0.5 46 773 47 800 48 810 49 808 50 785 51 751 52 675 53 542 54 510 57 526 59 423 61 285 63 503 64 500 65 496 66 514 67 561 68 535 69 450 70 407 71 290 72 225 
942 0.1847940411005599 -0.13368765245213082 0.6752386832169807 167 163 161 0.39 46 774 47 801 48 811 49 809 50 786 51 752 52 676 53 543 57 527 58 491 59 424 60 419 62 490 63 504 64 501 65 497 66 515 67 562 68 536 69 451 70 408 71 291 
943 0.3417359518381562 -0.04344055154562746 0.8025521061099702 105 103 107 0.41 46 775 47 802 48 812 49 810 50 787 51 753 52 677 53 544 54 511 57 528 58 492 59 425 60 420 61 286 62 491 63 505 64 502 65 498 66 516 67 563 68 537 69 452 70 409 71 292 72 226 
944 0.46440022279232396 -0.05483697341265403 0.9316399400115846 159 162 165 0.32 46 776 47 803 48 813 49 811 50 788 51 754 52 678 53 545 54 512 57 529 58 493 59 426 60 421 61 287 62 492 63 506 64 503 65 499 66 517 67 564 68 538 69 453 70 410 71 293 72 227 
945 0.38339449878861226 0.047907208136232865 0.81769510350453 148 147 153 0.35 46 777 47 804 48 814 49 812 50 789 51 755 52 679 53 546 54 513 57 530 58 494 59 427 60 422 61 288 62 493 63 507 64 504 65 500 66 518 67 565 68 539 69 454 70 411 
946 0.5112430441997131 0.25303641954344225 0.8857180512378658 155 149 147 0.57 46 778 47 805 48 815 49 813 50 790 51 756 52 680 53 547 54 514 57 531 58 495 59 428 61 289 62 494 63 508 64 505 65 501 66 519 72 228 
947 0.32666874399527 0.059624856645705944 0.7571853884442233 181 174 170 0.3 46 779 47 806 48 816 49 814 50 791 51 757 52 681 53 548 54 515 57 532 58 496 59 429 60 423 61 290 62 495 63 509 64 506 65 502 66 520 67 566 68 540 69 455 70 412 
948 0.4847214680396612 -0.056932222340670906 0.9533299088829357 138 137 140 0.29 46 780 47 807 48 817 49 815 50 792 51 758 52 682 53 549 54 516 57 533 58 497 59 430 60 424 61 291 62 496 63 510 64 507 65 503 66 521 67 567 68 541 69 456 70 413 71 294 72 229 
949 0.2924772353764445 0.1832371745358664 0.6876505757833966 49 31 38 0.53 48 818 49 816 50 793 51 759 52 683 53 550 54 517 57 534 58 498 59 431 60 425 61 292 62 497 63 511 64 508 65 504 66 522 67 568 68 542 69 457 70 414 
950 0.38779568783237417 0.2641918219713983 0.7376492257879229 30 34 28 0.65 46 781 47 808 48 819 49 817 50 794 51 760 52 684 53 551 54 518 57 535 58 499 59 432 62 498 63 512 64 509 65 505 66 523 67 569 68 543 69 458 
951 0.5149793160149829 0.05953002388346079 0.9487646294617819 90 91 96 0.58 46 782 47 809 48 820 49 818 50 795 51 761 52 685 53 552 54 519 57 536 58 500 59 433 60 426 61 293 62 499 63 513 64 510 65 506 66 524 67 570 68 544 69 459 70 415 71 295 72 230 
952 0.548903774791914 -0.00341048620207621 1.0025757436016065 88 91 102 0.48 46 783 47 810 48 821 49 819 50 796 51 762 52 686 53 553 54 520 57 537 58 501 59 434 60 427 61 294 62 500 63 514 64 511 65 507 66 525 67 571 68 545 69 460 70 416 71 296 72 231 
953 0.6525340705385532 0.2710847303482767 0.900553304604071 40 41 39 1.58 63 515 64 512 65 508 66 526 67 572 71 297 
954 0.319291413847854 0.17303255869262846 0.7163777691777025 111 104 105 0.3 47 811 48 822 49 820 50 797 51 763 52 687 53 554 54 521 57 538 58 502 59 435 60 428 61 295 62 501 63 516 64 513 65 509 66 527 67 573 68 546 69 461 
955 0.48303324997290786 0.15090306257465158 0.896931203140303 75 55 67 0.46 46 784 47 812 48 823 49 821 50 798 51 764 52 688 53 555 54 522 57 539 58 503 59 436 60 429 61 296 62 502 63 517 64 514 65 510 66 528 67 574 72 232 
956 0.37245497016722656 -0.058520235959464484 0.8392130012813102 72 81 97 0.48 46 785 47 813 48 824 49 822 50 799 51 765 52 689 53 556 54 523 57 540 58 504 59 437 60 430 61 297 62 503 63 518 64 515 65 511 66 529 67 575 68 547 69 462 70 417 71 298 72 233 
957 0.47661219843292335 -0.11101224437658155 0.96090364866801 174 171 170 0.6 46 786 47 814 48 825 49 823 50 800 51 766 52 690 53 557 54 524 57 541 58 505 59 438 60 431 61 298 63 519 64 516 65 512 66 530 67 576 68 548 69 463 70 418 71 299 72 234 
958 0.5161506116248308 0.0597826204976798 0.9499885314964148 68 65 74 0.63 46 787 47 815 48 826 49 824 50 801 51 767 52 691 53 558 54 525 57 542 58 506 59 439 60 432 61 299 62 504 63 520 64 517 65 513 66 531 67 577 68 549 69 464 70 419 71 300 72 235 
959 0.35647794077652634 0.05327530233109025 0.7888135240500351 194 202 209 0.31 46 788 47 816 48 827 49 825 50 802 51 768 52 692 53 559 54 526 57 543 58 507 59 440 60 433 61 300 62 505 63 521 64 518 65 514 66 532 67 578 68 550 69 465 70 420 
960 0.29682444220402376 -0.009722796293020086 0.7471549736567423 172 175 177 0.44 46 789 47 817 48 828 49 826 50 803 51 769 52 693 53 560 54 527 57 544 58 508 59 441 60 434 61 301 62 506 63 522 64 519 65 515 66 533 67 579 68 551 69 466 70 421 71 301 72 236 
961 0.5266715977449835 0.3015714681930681 0.8771776491286954 57 54 53 0.83 46 790 47 818 48 829 49 827 50 804 51 770 52 694 53 561 54 528 57 545 58 509 59 442 62 507 63 523 64 520 65 516 66 534 67 580 68 552 70 422 71 302 72 237 
962 0.6714153156668448 -0.06577384019876246 1.1799670850694504 79 96 71 0.57 54 529 59 443 61 302 
963 0.3919112953671467 0.009368585690448824 0.8382505304374737 170 172 173 0.3 46 791 47 819 48 830 49 828 50 805 51 771 52 695 53 562 54 530 57 546 58 510 59 444 60 435 61 303 62 508 63 524 64 521 65 517 66 535 67 581 68 553 69 467 70 423 71 303 72 238 
964 0.4677203434378672 0.23652329464481825 0.8555750425409286 82 65 79 0.33 46 792 47 820 48 831 49 829 50 806 51 772 52 696 53 563 54 531 57 547 58 511 59 445 61 304 62 509 63 525 64 522 65 518 66 536 67 582 
965 0.5614273294330211 0.055585972792329304 0.9965684195518867 142 148 154 0.71 46 793 47 821 48 832 49 830 50 807 51 773 52 697 53 564 54 532 57 548 58 512 59 446 60 436 61 305 62 510 63 526 64 523 65 519 66 537 67 583 68 554 69 468 70 424 71 304 72 239 
966 0.287879724542391 0.010183580682636046 0.7326276860475972 69 74 85 0.33 46 794 47 822 48 833 49 831 50 808 51 774 52 698 53 565 54 533 57 549 58 513 59 447 60 437 61 306 62 511 63 527 64 524 65 520 66 538 67 584 68 555 69 469 70 425 
967 0.4715121758430069 0.0498682478782713 0.9074064878775107 54 53 66 0.39 46 795 47 823 48 834 49 832 50 809 51 775 52 699 53 566 54 534 57 550 58 514 59 448 60 438 61 307 62 512 63 528 64 525 65 521 66 539 67 585 68 556 69 470 70 426 71 305 72 240 
968 0.5941055253933618 -0.08098113171590123 1.0734199752041123 81 66 78 0.46 46 796 47 824 48 835 49 833 50 810 51 776 52 700 53 567 54 535 57 551 59 449 60 439 61 308 63 529 67 586 
969 0.2200509546056523 0.04524638629350438 0.6535664491320331 85 79 88 0.32 46 797 47 825 48 836 49 834 50 811 51 777 52 701 53 568 54 536 57 552 58 515 59 450 60 440 62 513 63 530 64 526 65 522 66 540 67 587 68 557 69 471 70 427 
970 0.5198453295144131 0.23582028342586692 0.6080701618092087 89 78 87 1.57 50 812 52 702 54 537 57 553 58 516 59 451 62 514 63 531 64 527 65 523 66 541 67 588 
971 0.4750875334365722 -0.10805068044768527 0.9595311983959388 125 123 134 0.62 46 798 47 826 48 837 49 835 50 813 51 778 52 703 53 569 54 538 57 554 58 517 59 452 60 441 61 309 62 515 63 532 64 528 65 524 66 542 67 589 68 558 69 472 70 428 71 306 72 241 
972 0.28878654093844686 0.09165592392029998 0.7116342142046773 72 55 63 0.26 46 799 47 827 48 838 49 836 50 814 51 779 52 704 53 570 54 539 57 555 58 518 59 453 60 442 61 310 62 516 63 533 64 529 65 525 66 543 67 590 68 559 69 473 70 429 
973 0.3925264539695332 0.22441623092304633 0.7746139434510618 84 54 56 0.41 46 800 47 828 48 839 49 837 50 815 51 780 52 705 53 571 54 540 57 556 58 519 59 454 61 311 62 517 63 534 64 530 65 526 66 544 67 591 68 560 69 474 
974 0.6371666542428048 -0.0014496774438564914 1.0974007604209501 81 67 75 0.73 46 801 47 829 48 840 49 838 50 816 51 781 52 706 53 572 54 541 57 557 59 455 61 312 63 535 64 531 65 527 66 545 67 592 68 561 69 475 70 430 71 307 
975 0.43065739365609884 0.008825283371230128 0.8779726916310585 182 181 173 0.31 46 802 47 830 48 841 49 839 50 817 51 782 52 707 53 573 54 542 57 558 58 520 59 456 60 443 61 313 62 518 63 536 64 532 65 528 66 546 67 593 68 562 69 476 70 431 71 308 72 242 
976 0.40295440388438025 0.19302260246722056 0.7934760585786492 140 133 133 0.39 46 803 47 831 48 842 49 840 50 818 51 783 52 708 53 574 54 543 57 559 58 521 59 457 60 444 61 314 62 519 63 537 64 533 65 529 66 547 67 594 68 563 69 477 
977 0.3155877153514528 0.0044086700871096875 0.7616392811285566 76 75 83 0.41 46 804 47 832 48 843 49 841 50 819 51 784 52 709 53 575 54 544 57 560 58 522 59 458 60 445 61 315 62 520 63 538 64 534 65 530 66 548 67 595 68 564 69 478 70 432 71 309 
978 0.31687496575615665 0.029107476122286497 0.7562422285953118 164 157 157 0.37 46 805 47 833 48 844 49 842 50 820 51 785 52 710 53 576 54 545 57 561 58 523 59 459 60 446 61 316 62 521 63 539 64 535 65 531 66 549 67 596 68 565 69 479 70 433 
