# 3D point list with one line of data per point:
#   POINT3D_ID, X, Y, Z, R, G, B, ERROR, TRACK[] as (IMAGE_ID, POINT2D_IDX)
# Number of points: 343, mean track length: 7.92
37 -0.36684229421899855 -0.14686671404322066 0.9677775654465284 0 0 0 0.29 0 37 224 8 232 19 
38 -0.4008604958319528 -0.14416638305455443 0.9591723085032832 0 0 0 0.37 0 38 194 1 213 16 221 9 
39 -0.33993287674045575 -0.14636535124690073 0.9744859963742162 0 0 0 0.5 0 39 190 12 217 10 224 9 219 9 
40 -0.4741746324777092 -0.13852527090896272 0.9412873599495504 0 0 0 0.53 0 40 204 14 221 10 224 10 227 16 232 20 
41 -0.3394992431430538 -0.1431240890869486 0.9762701256683863 0 0 0 0.18 0 41 190 13 204 15 224 11 227 17 
42 0.008810185384723083 -0.1616381543343446 1.1002594748943668 0 0 0 0.35 0 42 213 17 221 11 232 21 11 1 38 0 50 2 67 2 77 1 112 0 118 3 158 1 182 0 190 14 220 11 
43 -0.2693600180791688 -0.1441673165739354 0.993904437935589 0 0 0 0.44 0 43 213 18 217 11 232 22 
44 -0.28461877177478473 -0.1413682957199519 0.987015988123837 0 0 0 0.35 0 44 185 2 204 16 219 10 220 12 
45 -0.27230117032426876 -0.14130566561625083 0.9931349723407888 0 0 0 0.32 0 45 204 17 213 19 219 11 220 13 221 12 224 12 232 23 
46 -0.2179211389814262 -0.14324471486093412 1.00973383806505 0 0 0 0.2 0 46 190 15 213 20 227 18 232 24 
47 -0.202626116462766 -0.14435850830187677 1.0155997197811013 0 0 0 0.26 0 47 219 12 227 19 
48 -0.26139149810263385 -0.1407661659647529 0.9945561763260351 0 0 0 0.55 0 48 204 18 219 13 232 25 
49 -0.3829978213980827 -0.13589981058224906 0.9624716032180524 0 0 0 0.41 0 49 204 19 219 14 220 14 221 13 227 20 3 3 17 2 50 3 118 4 127 2 146 0 157 1 162 4 164 3 
50 -0.1649963251481974 -0.14185231828149364 1.0277806561346192 0 0 0 0.4 0 50 185 3 190 16 194 2 204 20 213 21 214 0 217 12 219 15 220 15 221 14 222 2 224 13 227 21 232 26 11 2 15 2 17 3 29 2 33 2 38 1 40 0 44 1 50 4 53 2 60 2 63 2 71 3 77 2 85 0 92 0 96 4 97 1 110 1 112 1 113 2 118 5 127 3 128 0 146 1 147 4 152 2 157 2 162 5 164 4 176 2 
51 -0.4634405529931167 -0.1297101979571874 0.9425318860056486 0 0 0 0.38 0 51 190 17 213 22 227 22 
52 -0.3250800117590984 -0.13326469238802896 0.9733256129500396 0 0 0 0.21 0 52 204 21 221 15 
53 0.04574772652071198 -0.15369210182290108 1.1115706155383063 0 0 0 0.13 0 53 204 22 232 27 
54 -0.47674018913895866 -0.12758736407202226 0.940941157540695 0 0 0 0.17 0 54 221 16 232 28 
55 -0.02726107158310183 -0.14749675390866598 1.0833635498981227 0 0 0 0.23 0 55 190 18 217 13 227 23 208 1 220 16 
56 0.12377910696790405 -0.15403190250190085 1.1450585953819328 0 0 0 0.11 0 56 190 19 213 23 
57 -0.24731359571690065 -0.12831721100419954 0.9914032210808381 0 0 0 0.2 0 57 190 20 204 23 213 24 219 16 232 29 
58 0.048343286363242706 -0.14503218644594568 1.1138913642082064 0 0 0 0.25 0 58 213 25 221 17 227 24 232 30 190 21 204 24 222 3 11 3 15 3 17 4 29 3 33 3 67 3 118 6 127 4 181 0 1 1 56 2 89 1 128 1 62 0 63 3 97 2 105 0 164 5 172 2 
59 -0.07277554985436073 -0.13687529048176467 1.0612808680456243 0 0 0 0.34 0 59 185 4 204 25 213 26 217 14 220 17 221 18 222 4 227 25 232 31 1 2 11 4 15 4 17 5 29 4 38 2 44 2 50 5 71 4 77 3 85 1 96 5 97 3 111 2 113 3 118 7 147 5 152 3 157 3 158 2 159 0 164 6 
60 -0.2129515078897044 -0.12754938440929667 0.9994874038929844 0 0 0 0.22 0 60 213 27 232 32 
61 0.12360327040830615 -0.14701056610248353 1.1414036814980721 0 0 0 0.2 0 61 190 22 227 26 232 33 
62 -0.07566986479923127 -0.13418592705123608 1.0624912931508714 0 0 0 0.13 0 62 204 26 213 28 217 15 219 17 222 5 15 5 97 4 
63 -0.17956026308892442 -0.12581966261877436 1.0186455281587277 0 0 0 0.2 0 63 190 23 204 27 213 29 219 18 221 19 232 34 
64 -0.1496754562403761 -0.12736312915274428 1.030314776672013 0 0 0 0.24 0 64 204 28 213 30 219 19 222 6 
65 -0.053125798576855385 -0.13333612503259962 1.0725087457465525 0 0 0 0.31 0 65 185 5 194 3 204 29 222 7 227 27 
66 -0.16964881183322705 -0.12560948775398456 1.0249741896706626 0 0 0 0.23 0 66 190 24 204 30 213 31 219 20 221 20 227 28 232 35 
67 -0.16590362617943977 -0.1257991142125127 1.0252925956545447 0 0 0 0.2 0 67 190 25 213 32 232 36 152 4 181 1 217 16 
68 -0.033117509744877247 -0.13387962600371903 1.092119112011356 0 0 0 0.72 0 68 190 26 219 21 
69 0.12589720232229065 -0.14100158665246854 1.1426384291330751 0 0 0 0.18 0 69 190 27 213 33 220 18 227 29 232 37 
70 -0.024353061911522398 -0.13210772904502596 1.0839209321837413 0 0 0 0.24 0 70 194 4 204 31 213 34 217 17 220 19 227 30 234 0 
71 -0.01816283365077419 -0.13180143262346836 1.08598087255687 0 0 0 0.26 0 71 194 5 204 32 213 35 219 22 220 20 221 21 227 31 232 38 234 1 
72 -0.007658882883913473 -0.13153720262664412 1.089675153217383 0 0 0 0.3 0 72 185 6 194 6 204 33 213 36 219 23 222 8 232 39 234 2 
73 -0.4732796514440646 -0.11219345836775575 0.9388983819301212 0 0 0 0.28 0 73 220 21 221 22 227 32 
74 -0.12344341259383718 -0.12348881863991332 1.0421570367174704 0 0 0 0.15 0 74 190 28 204 34 213 37 217 18 219 24 232 40 
75 0.010799377589843716 -0.13079056814728113 1.0977629869080445 0 0 0 0.69 0 75 185 7 190 29 194 7 204 35 217 19 221 23 234 3 158 3 162 6 182 1 220 22 1 3 25 0 56 3 67 4 69 0 96 6 97 5 110 2 111 3 127 5 148 0 152 5 163 1 165 0 208 2 227 33 235 0 
76 0.019913598769737747 -0.13046323272447857 1.1008138597615815 0 0 0 0.45 0 76 185 8 190 30 194 8 204 36 213 38 217 20 221 24 222 9 227 34 232 41 12 1 60 3 71 5 73 1 89 2 91 0 96 7 118 8 129 0 158 4 184 0 197 0 208 3 220 23 235 1 
77 0.03703080813223767 -0.13001464912999552 1.1089640038986608 0 0 0 0.23 0 77 204 37 217 21 227 35 158 5 162 7 164 7 182 2 214 1 
78 -0.0942372018077289 -0.12209753524598685 1.0520999891094156 0 0 0 0.24 0 78 190 31 213 39 217 22 232 42 1 4 11 5 50 6 97 6 118 9 152 6 157 4 25 1 26 1 56 4 65 1 89 3 91 1 111 4 158 6 198 1 208 4 
79 0.058861668288344236 -0.1294995029907063 1.1174694126813272 0 0 0 0.3 0 79 194 9 204 38 213 40 217 23 12 2 33 4 40 1 44 3 50 7 73 2 127 6 89 4 208 5 
80 -0.04976297424261024 -0.12172850994975172 1.0750846536659937 0 0 0 0.33 0 80 204 39 213 41 232 43 
81 0.09573768350574972 -0.12746188946476228 1.1305191732150215 0 0 0 0.09 0 81 204 40 213 42 
82 0.11988028184255234 -0.12900439446071094 1.1464727412773064 0 0 0 0.45 0 82 217 24 232 44 67 5 89 5 111 5 162 8 208 6 
83 -0.020804231282977252 -0.1200179682626354 1.0833433238009609 0 0 0 0.21 0 83 190 32 220 24 221 25 
84 0.07560807099849366 -0.12268946119365859 1.1238008784679252 0 0 0 0.4 0 84 204 41 222 10 227 36 232 45 56 5 69 1 81 0 89 6 128 2 172 3 208 7 
85 0.14320023682480446 -0.12889913541851689 1.1780311255927671 0 0 0 0.27 0 85 190 33 204 42 227 37 
86 -0.010634922537046353 -0.1149428533748781 1.088114984719806 0 0 0 0.21 0 86 213 43 219 25 232 46 
87 0.07140251524500801 -0.11622528520125802 1.118463544645505 0 0 0 0.35 0 87 190 34 204 43 213 44 217 25 222 11 232 47 11 6 29 5 40 2 43 2 71 6 73 3 111 6 164 8 60 4 63 4 91 2 126 0 162 9 165 1 184 1 198 2 208 8 221 26 
88 -0.08371683865495484 -0.10915486396951098 1.0627091484644355 0 0 0 0.2 0 88 213 45 232 48 
89 0.06677305149919432 -0.11389754441715323 1.1162593657999584 0 0 0 0.35 0 89 199 1 222 12 
90 0.015505381751854775 -0.10931793258482819 1.0979363199417604 0 0 0 0.14 0 90 190 35 204 44 222 13 
91 -0.03302615865264712 -0.10687630356855918 1.0829348206552818 0 0 0 0.26 0 91 232 49 234 4 
92 -0.11236007338945538 -0.09764752792216377 1.0480402162916764 0 0 0 0.22 0 92 204 45 219 26 
93 -0.4218387720957681 -0.08745396985637215 0.9515421987633611 0 0 0 0.26 0 93 221 27 232 50 
94 0.14981689187011044 -0.1107752819164434 1.1795263882603637 0 0 0 0.12 0 94 190 36 221 28 
95 0.16726420044088677 -0.1114824907180238 1.1956935264359005 0 0 0 0.25 0 95 190 37 227 38 232 51 
96 -0.3607338197720855 -0.08724336095921345 0.9648097689611544 0 0 0 0.31 0 96 204 46 221 29 232 52 
97 -0.3284656388903924 -0.0878287190516319 0.9750374121416434 0 0 0 0.19 0 97 190 38 204 47 213 46 220 25 224 14 232 53 
98 0.11140362217385746 -0.1008839011643603 1.1410339355765557 0 0 0 0.09 0 98 213 47 221 30 
99 -0.3210191395196046 -0.08414694254310533 0.9741942751537707 0 0 0 0.18 0 99 190 39 204 48 213 48 219 27 227 39 232 54 
100 -0.3773280854015277 -0.0823466051990269 0.9664898197089388 0 0 0 0.16 0 100 204 49 227 40 
101 0.1793680586715913 -0.10262719471065782 1.2092033283540298 0 0 0 0.31 0 101 217 26 221 31 227 41 232 55 56 6 62 1 67 6 89 7 103 0 111 7 118 10 129 1 147 6 152 7 165 2 182 3 
102 -0.1934642024359347 -0.08254999279113284 1.014680236317851 0 0 0 0.35 0 102 214 2 217 27 221 32 
103 -0.37406828400941294 -0.07834054668431373 0.9624059788355616 0 0 0 0.25 0 103 213 49 221 33 224 15 232 56 
104 -0.25817966375363954 -0.08052877079459195 0.9922048690276477 0 0 0 0.23 0 104 213 50 232 57 
105 -0.377946326910887 -0.0774549309653682 0.9637930711737868 0 0 0 0.18 0 105 190 40 227 42 232 58 
106 0.033064717587071 -0.08764816123408653 1.1071894032796639 0 0 0 0.12 0 106 190 41 213 51 234 5 
107 -0.36482464424907823 -0.07514958465426452 0.9625902192227289 0 0 0 0.46 0 107 219 28 232 59 1 5 26 2 56 7 67 7 127 7 164 9 217 28 220 26 221 34 224 16 88 0 118 11 128 3 
108 0.1597061162621631 -0.09400054484569977 1.1869264680611789 0 0 0 0.33 0 108 190 42 217 29 221 35 222 14 227 43 232 60 56 8 71 7 73 4 100 0 103 1 105 1 111 8 118 12 128 4 129 2 147 7 152 8 162 10 164 10 165 3 182 4 198 3 235 2 
109 0.11136833791391913 -0.08790060418692588 1.1410987930766252 0 0 0 0.04 0 109 213 52 222 15 
110 0.154812171109801 -0.09138023830376021 1.18250598150332 0 0 0 0.14 0 110 222 16 232 61 
111 -0.23884025579028284 -0.07451770682762526 0.9921744577769839 0 0 0 0.19 0 111 190 43 204 50 213 53 
112 -0.03601345168766269 -0.07986943929037234 1.074498870484656 0 0 0 0.13 0 112 204 51 219 29 
113 0.13509312928322315 -0.08631570005197292 1.1571033069218934 0 0 0 0.31 0 113 190 44 204 52 217 30 221 36 222 17 232 62 56 9 62 2 71 8 73 5 89 8 97 7 103 2 111 9 118 13 147 8 162 11 164 11 165 4 182 5 197 1 235 3 
114 -0.44756878337885203 -0.06767181181451658 0.9374491712847242 0 0 0 0.14 0 114 213 54 217 31 232 63 
115 -0.03867693012294676 -0.07733206392562157 1.0741285361468522 0 0 0 0.17 0 115 190 45 232 64 
116 -0.010006118091144685 -0.07793487680653947 1.0849409216471055 0 0 0 0.22 0 116 204 53 213 55 219 30 222 18 232 65 
117 0.11141659549207569 -0.07786774023035842 1.1367183373780578 0 0 0 0.32 0 117 198 4 199 2 221 37 222 19 227 44 232 66 
118 -0.4563059631511834 -0.06031301985912049 0.9366699391946521 0 0 0 0.3 0 118 213 56 220 27 221 38 232 67 
119 -0.0002266578765850261 -0.07029817612273268 1.091665959335176 0 0 0 0.2 0 119 204 54 219 31 222 20 
120 0.07840071883490238 -0.07256835709239963 1.1228407008586714 0 0 0 0.09 0 120 217 32 232 68 
121 -0.4538101798925703 -0.05745333771164594 0.9381214701013477 0 0 0 0.41 0 121 220 28 221 39 232 69 
122 0.08836303358584244 -0.07086813909298117 1.1262927054379241 0 0 0 0.45 0 122 213 57 234 6 
123 -0.04251686398843031 -0.0658613108413786 1.0709915993408168 0 0 0 0.29 0 123 190 46 213 58 217 33 232 70 60 5 63 5 71 9 208 9 222 21 
124 -0.014377010773834296 -0.06470102863586807 1.083917691621443 0 0 0 0.33 0 124 190 47 213 59 232 71 
125 0.12153027700290059 -0.06823303300557856 1.1388239845265276 0 0 0 0.35 0 125 190 48 204 55 213 60 221 40 222 22 232 72 56 10 65 2 67 8 89 9 103 3 111 10 118 14 127 8 128 5 147 9 164 12 165 5 181 2 197 2 199 3 235 4 
126 0.057401065899671436 -0.06296336086549423 1.1142839841292358 0 0 0 0.16 0 126 204 56 232 73 
127 -0.03897320346989102 -0.05708849813631893 1.0709803505755386 0 0 0 0.29 0 127 190 49 213 61 217 34 232 74 1 6 25 2 56 11 69 2 73 6 89 10 118 15 182 6 197 3 
128 0.04454603416644535 -0.057746104360351026 1.1074691683323763 0 0 0 0.34 0 128 222 23 227 45 
129 0.13479989549728688 -0.054380606444861444 1.1564689923706784 0 0 0 0.29 0 129 190 50 204 57 217 35 222 24 232 75 56 12 60 6 63 6 65 3 67 9 69 3 71 10 89 11 91 3 103 4 105 2 111 11 118 16 126 1 128 6 134 0 147 10 152 9 162 12 163 2 164 13 165 6 182 7 197 4 198 5 220 29 227 46 235 5 
130 0.1959486024791755 -0.05792444341356956 1.227239678434867 0 0 0 0.31 0 130 190 51 232 76 
131 0.13764977546803703 -0.050518329564046026 1.1633769257642657 0 0 0 0.11 0 131 204 58 222 25 
132 0.12207844971436987 -0.045628955559588895 1.1412442772037747 0 0 0 0.28 0 132 204 59 213 62 222 26 232 77 56 13 60 7 63 7 67 10 71 11 73 7 89 12 91 4 103 5 105 3 111 12 118 17 147 11 152 10 162 13 164 14 165 7 181 3 190 52 197 5 198 6 199 4 220 30 221 41 235 6 
133 0.17834689675097604 -0.04546239685648762 1.204724890987639 0 0 0 0.84 0 133 190 53 217 36 221 42 
134 0.15207413853504906 -0.04331377711783197 1.177298896692923 0 0 0 0.24 0 134 190 54 204 60 217 37 
135 -0.3852014112198897 -0.03209232470130289 0.9495685966648225 0 0 0 0.58 0 135 204 61 213 63 221 43 227 47 232 78 
136 -0.3224232041679065 -0.032287883087321306 0.9649746095161585 0 0 0 0.4 0 136 204 62 213 64 
137 0.19148213674246523 -0.043541014092045575 1.2116277975906162 0 0 0 0.18 0 137 190 55 227 48 
138 -0.3517222007935826 -0.03092451699194413 0.9559767913135695 0 0 0 0.28 0 138 190 56 204 63 213 65 221 44 227 49 232 79 
139 -0.37691588884839766 -0.02802416948014059 0.9456212844625501 0 0 0 0.33 0 139 213 66 221 45 232 80 
140 0.0023001418106932954 -0.03278225655922129 1.0897517168119284 0 0 0 0.63 0 140 217 38 221 46 
141 -0.2240773441107275 -0.027587326160163444 0.9977727785043004 0 0 0 0.18 0 141 213 67 219 32 
142 -0.4491204751207184 -0.024345447865982178 0.9264899187646133 0 0 0 0.12 0 142 213 68 232 81 
143 -0.29992410076797055 -0.02563235978577652 0.9757130786501259 0 0 0 0.12 0 143 190 57 213 69 
144 -0.19327415473753096 -0.02657140880386615 1.0078986449379712 0 0 0 0.16 0 144 221 47 232 82 
145 -0.18855121982787387 -0.024669131893324953 1.006556708270299 0 0 0 0.3 0 145 190 58 213 70 232 83 56 14 111 13 127 9 152 11 158 7 164 15 217 39 103 6 128 7 224 17 
146 -0.1322258962067939 -0.02441423332756705 1.0284651270414444 0 0 0 0.31 0 146 190 59 204 64 232 84 213 71 219 33 221 48 234 7 25 3 56 15 118 18 128 8 220 31 
147 0.1272107638250615 -0.029126304101136175 1.1450908122201982 0 0 0 0.5 0 147 204 65 222 27 232 85 56 16 65 4 71 12 73 8 105 4 118 19 134 1 147 12 158 8 164 16 165 8 190 60 235 7 
148 -0.3750115156326407 -0.020408076069869333 0.951243731195326 0 0 0 0.25 0 148 213 72 219 34 232 86 
149 -0.0732088213626862 -0.01907633757152355 1.0479901891514016 0 0 0 0.18 0 149 204 66 232 87 3 4 50 8 53 3 146 2 152 12 176 3 190 61 222 28 
150 0.1272909527872335 -0.020757147824237723 1.1448772595160366 0 0 0 0.42 0 150 190 62 204 67 232 88 56 17 63 8 69 4 71 13 103 7 158 9 164 17 165 9 221 49 235 8 
151 -0.016225216362681857 -0.01859572065402894 1.0726226466866264 0 0 0 0.38 0 151 190 63 213 73 217 40 220 32 222 29 227 50 232 89 1 7 11 7 17 6 33 5 41 0 50 9 71 14 73 9 111 14 112 2 118 20 128 9 146 3 147 13 152 13 157 5 164 18 181 4 182 8 25 4 56 18 69 5 88 1 96 8 138 0 158 10 165 10 208 10 235 9 26 3 60 8 
152 0.0019599983626078054 -0.018846171201080765 1.0937962009896105 0 0 0 0.33 0 152 190 64 232 90 
153 -0.2427083495352787 -0.014639832767068447 0.9827159075144801 0 0 0 0.13 0 153 204 68 227 51 
154 -0.3474901554617361 -0.012871091905873763 0.9568205533567077 0 0 0 0.13 0 154 190 65 194 10 204 69 213 74 219 35 232 91 
155 0.12311380563087124 -0.016448276494646575 1.1411985056945115 0 0 0 0.32 0 155 213 75 232 92 
156 -0.4439322030465373 -0.010340487325807826 0.9313222909038961 0 0 0 0.27 0 156 213 76 232 93 
157 -0.2869746818659995 -0.01076593799760491 0.9729355560808957 0 0 0 0.25 0 157 190 66 204 70 213 77 219 36 227 52 232 94 
158 0.1889853664503367 -0.015312144191327984 1.2143319471867613 0 0 0 0.14 0 158 222 30 232 95 
159 -0.45152378011061745 -0.009430058593273978 0.9297952726877807 0 0 0 0.62 0 159 190 67 217 41 221 50 224 18 227 53 232 96 
160 -0.4390575210958633 -0.008527639010510867 0.9344974086634346 0 0 0 0.27 0 160 190 68 204 71 213 78 220 33 232 97 
161 0.05662069708212912 -0.010560368860663832 1.1085708704288988 0 0 0 0.11 0 161 213 79 222 31 
162 0.08435399890349878 -0.009818499951929037 1.1203879214856782 0 0 0 0.25 0 162 222 32 232 98 234 8 
163 -0.11358403974822637 -0.007726257696530465 1.0337066691387318 0 0 0 0.12 0 163 204 72 219 37 
164 0.11126411017657617 -0.009081560271108978 1.1372378632796467 0 0 0 0.48 0 164 204 73 221 51 
165 0.12322619406940045 -0.008519232795604657 1.1430677951480261 0 0 0 0.33 0 165 190 69 232 99 
166 -0.4443397671842323 0.0015399242024911929 0.9215650787603633 0 0 0 0.34 0 166 213 80 219 38 227 54 232 100 
167 -0.00977293009045524 0.004321404676039814 1.07403874920735 0 0 0 0.22 0 167 222 33 234 9 
168 -0.42250909039549733 0.0057943931727917845 0.9366224085209897 0 0 0 0.22 0 168 204 74 219 39 
169 0.09699876167403626 0.00619958818889257 1.1178544119672342 0 0 0 0.53 0 169 204 75 222 34 227 55 234 10 
170 -0.4187890699432803 0.008080811161622929 0.9349240774414538 0 0 0 0.73 0 170 217 42 220 34 221 52 
171 -0.44434936446659323 0.007988444002120862 0.9203090832941497 0 0 0 0.29 0 171 213 81 232 101 
172 0.12028183796786979 0.01319204458887481 1.1311649133032944 0 0 0 0.4 0 172 190 70 198 7 213 82 217 43 221 53 222 35 56 19 71 15 73 10 100 1 105 5 110 3 118 21 128 10 129 3 147 14 164 19 165 11 197 6 235 10 
173 -0.3560635360071688 0.017664288691535718 0.9410277843459025 0 0 0 0.23 0 173 219 40 227 56 
174 0.12008521711336541 0.01939265479086623 1.1314916265280797 0 0 0 0.61 0 174 190 71 198 8 217 44 
175 -0.4164954163788261 0.020210842260947073 0.9350207983092069 0 0 0 0.36 0 175 204 76 219 41 227 57 232 102 
176 0.11027342490072758 0.02233871000883221 1.1296957359446347 0 0 0 0.35 0 176 222 36 227 58 
177 0.09672005700169792 0.02908561035488974 1.1164414745053843 0 0 0 0.44 0 177 190 72 213 83 220 35 222 37 56 20 63 9 71 16 73 11 91 5 105 6 118 22 162 14 165 12 197 7 227 59 235 11 
178 -0.28370044023493957 0.027017395361835266 0.9697410157547548 0 0 0 0.39 0 178 219 42 232 103 
179 -0.3640654871799465 0.027791099395517795 0.9505319108092425 0 0 0 0.15 0 179 227 60 232 104 
180 0.10983219341995851 0.04208500264813509 1.1250846209758245 0 0 0 0.2 0 180 213 84 222 38 
181 0.11987430660041787 0.04484192564835318 1.1306455900636156 0 0 0 0.35 0 181 198 9 213 85 217 45 56 21 60 9 65 5 69 6 73 12 129 4 147 15 163 3 165 13 197 8 235 12 
182 -0.4137282733707328 -0.2299431724671979 0.7816260236893672 0 0 0 0.59 0 182 227 61 232 105 
183 -0.10240505075647614 -0.22295052924085335 1.1084270509774943 0 0 0 0.31 0 183 204 77 227 62 232 106 
184 -0.07342647277521724 -0.21281008305758714 1.073420076801166 0 0 0 0.23 0 184 204 78 227 63 232 107 
185 -0.44447635427116394 -0.19295760141183207 0.9776661944973333 0 0 0 0.19 0 185 213 86 232 108 
186 -0.37844136001113093 -0.1914327702559876 0.9713584141442316 0 0 0 0.71 0 186 213 87 224 19 
187 -0.39779145376586134 -0.18771307990788275 0.9627595932012581 0 0 0 0.37 0 187 204 79 213 88 219 43 221 54 227 64 232 109 3 5 12 3 29 6 33 6 53 4 60 10 67 11 96 9 97 8 118 23 152 14 162 15 220 36 
188 -0.07039292765331892 -0.20869466508238724 1.0744301154125409 0 0 0 0.52 0 188 213 89 219 44 221 55 232 110 
189 -0.476105727465499 -0.17562247327861952 0.9417280167249927 0 0 0 0.37 0 189 190 73 204 80 227 65 
190 -0.3017508224442701 -0.18398895061559997 0.9905604370684561 0 0 0 0.41 0 190 213 90 217 46 128 11 152 15 157 6 162 16 164 20 176 4 179 0 224 20 190 74 204 81 219 45 1 8 25 5 56 22 65 6 67 12 71 17 96 10 97 9 199 5 60 11 111 15 
191 -0.2957316433486218 -0.1835532128308587 0.99016185372789 0 0 0 0.37 0 191 190 75 213 91 217 47 221 56 227 66 232 111 1 9 3 6 11 8 17 7 32 1 33 7 38 3 44 4 50 10 60 12 77 4 81 1 88 2 96 11 97 10 111 16 127 10 63 10 71 18 110 4 128 12 146 4 152 16 157 7 162 17 176 5 179 1 181 5 220 37 164 21 172 4 199 6 204 82 219 46 56 23 89 13 147 16 25 6 26 4 
192 -0.3982153634910632 -0.17757044004791428 0.9665230880755984 0 0 0 0.42 0 192 204 83 227 67 232 112 1 10 3 7 17 8 33 8 43 3 50 11 53 5 64 0 65 7 77 5 92 1 97 11 111 17 113 4 127 11 152 17 157 8 158 11 162 18 213 92 219 47 56 24 67 13 71 19 88 3 103 8 128 13 221 57 
193 -0.31712430582411555 -0.18021273750756156 0.9854775215754604 0 0 0 0.24 0 193 190 76 213 93 217 48 11 9 41 1 152 18 179 2 
194 -0.2985682862492418 -0.17945449160080115 0.9897627884004526 0 0 0 0.12 0 194 185 9 227 68 
195 -0.4014935252030071 -0.17402331324566878 0.965429719927896 0 0 0 0.63 0 195 204 84 219 48 227 69 53 6 67 14 118 24 128 14 146 5 157 9 
196 -0.4790911810280337 -0.16866631248038066 0.9469928625926332 0 0 0 0.41 0 196 221 58 227 70 232 113 
197 -0.39846541779450095 -0.16901518333114723 0.9640612687528126 0 0 0 0.16 0 197 213 94 232 114 217 49 
198 -0.11448693004864684 -0.18137137457428346 1.045679781188184 0 0 0 0.92 0 198 198 10 199 7 204 85 217 50 227 71 181 6 25 7 56 25 65 8 129 5 
199 -0.4737398191181457 -0.1633750183744569 0.9485651827295566 0 0 0 0.21 0 199 190 77 221 59 227 72 232 115 
200 -0.06718178169669332 -0.18303645529721307 1.0705441690563928 0 0 0 0.54 0 200 190 78 221 60 222 39 1 11 56 26 60 13 63 11 71 20 73 13 81 2 96 12 147 17 208 11 217 51 227 73 
201 0.08309458530998841 -0.20424467112437159 1.209346637409045 0 0 0 0.3 0 201 204 86 227 74 
202 -0.012171016718467785 -0.18006519656050343 1.0946491067155257 0 0 0 0.74 0 202 190 79 221 61 
203 -0.008628507219814448 -0.17310343944441658 1.0807823841455622 0 0 0 0.28 0 203 204 87 221 62 
204 -0.11104784453632054 -0.16180584011953691 1.0497618745139519 0 0 0 0.71 0 204 185 10 204 88 213 95 217 52 219 49 220 38 221 63 222 40 227 75 232 116 234 11 11 10 15 6 17 9 29 7 33 9 38 4 40 3 44 5 50 12 53 7 60 14 63 12 73 14 77 6 85 2 96 13 97 12 110 5 111 18 113 5 118 25 127 12 146 6 147 18 152 19 157 10 164 22 198 11 25 8 26 5 56 27 69 7 89 14 126 2 158 12 162 19 172 5 208 12 
205 -0.44838224245853875 -0.14548209888488048 0.947933669541778 0 0 0 0.32 0 205 190 80 204 89 220 39 224 21 227 76 
206 -0.18947266864383802 -0.15391617038652416 1.0169051166031273 0 0 0 0.19 0 206 213 96 232 117 
207 -0.23344922477503705 -0.14905042899431756 1.0020516252711091 0 0 0 0.36 0 207 185 11 190 81 194 11 198 12 204 90 213 97 219 50 222 41 224 22 232 118 
208 -0.01467953417669204 -0.16357223210849195 1.0908534660172524 0 0 0 0.31 0 208 213 98 232 119 1 12 81 3 164 23 182 9 56 28 69 8 147 19 217 53 
209 0.036595972628523814 -0.16697227454396896 1.1125805603812566 0 0 0 0.36 0 209 185 12 190 82 204 91 213 99 232 120 1 13 56 29 67 15 73 15 81 4 96 14 111 19 128 15 134 2 147 20 164 24 182 10 197 9 208 13 
210 0.06696381384600915 -0.1656225202822115 1.1238844986032912 0 0 0 0.39 0 210 222 42 232 121 3 8 33 10 50 13 67 16 73 16 81 5 127 13 147 21 1 14 56 30 60 15 89 15 126 3 152 20 181 7 208 14 
211 -0.2077903544385971 -0.14612433837117844 1.0105604887890438 0 0 0 0.37 0 211 198 13 213 100 220 40 222 43 224 23 232 122 1 15 26 6 56 31 63 13 71 21 88 4 118 26 127 14 152 21 158 13 164 25 199 8 217 54 
212 -0.4505457189268783 -0.13371108002882687 0.9443801181790022 0 0 0 0.34 0 212 204 92 213 101 227 77 232 123 
213 0.11521027504389822 -0.1610672225700845 1.1467498810344374 0 0 0 0.44 0 213 190 83 213 102 234 12 56 32 67 17 69 9 97 13 103 9 111 20 134 3 152 22 163 4 164 26 172 6 182 11 197 10 235 13 
214 -0.4510029522479384 -0.1290572880657986 0.9432578681269086 0 0 0 0.2 0 214 213 103 227 78 232 124 
215 -0.4413186922539705 -0.12542504156736584 0.9488469410798355 0 0 0 0.29 0 215 221 64 227 79 1 16 3 9 73 17 81 6 96 15 118 27 
216 0.057318634187454476 -0.145287112143254 1.1182168865489435 0 0 0 0.64 0 216 190 84 204 93 227 80 
217 -0.07423810972030437 -0.12859259445957028 1.060621688609767 0 0 0 0.32 0 217 219 51 227 81 11 11 17 10 40 4 41 2 81 7 111 21 164 27 172 7 176 6 56 33 138 1 
218 -0.15245801163465272 -0.1245174152967856 1.030605818949672 0 0 0 0.25 0 218 204 94 217 55 232 125 219 52 1 17 26 7 56 34 60 16 65 9 118 28 129 6 198 14 220 41 
219 -0.13695535938699868 -0.12515955957525068 1.0364282681786736 0 0 0 0.22 0 219 190 85 213 104 221 65 232 126 
220 -0.11943028018651847 -0.12350206270480286 1.0487085209788212 0 0 0 0.25 0 220 221 66 232 127 
221 -0.11176253647074487 -0.12283755485637445 1.0451501584611376 0 0 0 0.26 0 221 190 86 213 105 221 67 232 128 56 35 198 15 
222 0.16329804032085277 -0.1423689176633158 1.1903768215969088 0 0 0 0.13 0 222 190 87 221 68 232 129 
223 -0.13357897947951847 -0.1217235816324163 1.0421153972991863 0 0 0 0.37 0 223 213 106 221 69 232 130 
224 -0.08320730558829328 -0.12188631337529518 1.059109681529766 0 0 0 0.33 0 224 213 107 217 56 219 53 128 16 152 23 157 11 176 7 198 16 1 18 25 9 56 36 60 17 71 22 89 16 103 10 118 29 147 22 163 5 164 28 
225 -0.06909366619443615 -0.12140328316240846 1.0614915259683073 0 0 0 0.38 0 225 213 108 217 57 147 23 172 8 232 131 1 19 25 10 26 8 56 37 60 18 65 10 71 23 73 18 91 6 96 16 103 11 111 22 118 30 126 4 128 17 162 20 163 6 179 3 190 88 208 15 220 42 222 44 227 82 
226 -0.04032918901554679 -0.12102803408429876 1.0745109495147815 0 0 0 0.54 0 226 199 9 204 95 217 58 219 54 220 43 221 70 56 38 96 17 
227 -0.12927528384225243 -0.1079247261303593 1.0384508125308372 0 0 0 0.32 0 227 213 109 221 71 232 132 1 20 56 39 73 19 
228 -0.01592072190599991 -0.11215018766408835 1.0843765961198844 0 0 0 0.44 0 228 190 89 199 10 213 110 222 45 1 21 15 7 40 5 44 6 118 31 157 12 158 14 162 21 164 29 182 12 
229 -0.4376857434507961 -0.09642236708359343 0.9471416918111685 0 0 0 0.18 0 229 190 90 204 96 213 111 232 133 
230 -0.4309522595913648 -0.09658243422219073 0.9486454999721629 0 0 0 0.29 0 230 213 112 217 59 232 134 
231 0.11969112525961981 -0.1175495451155093 1.146022807339294 0 0 0 0.49 0 231 190 91 198 17 204 97 213 113 217 60 221 72 222 46 232 135 56 40 65 11 67 18 69 10 89 17 111 23 118 32 128 18 147 24 152 24 197 11 
232 0.12452284522904733 -0.11647530232563467 1.1477984515495556 0 0 0 0.5 0 232 213 114 227 83 232 136 56 41 69 11 89 18 97 14 
233 0.11146611819165661 -0.11287134724559594 1.138647891427051 0 0 0 0.36 0 233 190 92 217 61 232 137 56 42 62 3 81 8 89 19 118 33 152 25 158 15 164 30 172 9 
234 -0.4380784240456831 -0.07981375717323726 0.9464789629437201 0 0 0 0.35 0 234 220 44 221 73 224 24 232 138 
235 -0.33623845541536984 -0.08140699121673145 0.9720672022048713 0 0 0 0.47 0 235 204 98 217 62 219 55 221 74 232 139 
236 -0.2501849843035061 -0.08273261596867565 0.9914248581514612 0 0 0 0.25 0 236 190 93 213 115 219 56 232 140 
237 -0.44390108543182993 -0.07749788903337167 0.9498950711110774 0 0 0 0.24 0 237 204 99 227 84 
238 -0.3303151087771804 -0.08087589305418136 0.9736716387510053 0 0 0 0.48 0 238 190 94 213 116 217 63 219 57 232 141 56 43 60 19 65 12 81 9 111 24 179 4 
239 0.14961246458159655 -0.0990280295362145 1.17293790761789 0 0 0 0.27 0 239 227 85 232 142 
240 0.16328138837792242 -0.0909286097788052 1.1892848085087455 0 0 0 0.41 0 240 190 95 232 143 217 64 221 75 222 47 56 44 63 14 65 13 69 12 71 24 73 20 89 20 91 7 103 12 105 7 111 25 128 19 134 4 147 25 152 26 162 22 163 7 164 31 165 14 181 8 182 13 184 2 197 12 235 14 
241 -0.37813106239249206 -0.06874537706082791 0.9617532224579464 0 0 0 0.36 0 241 190 96 232 144 
242 -0.19268135265608416 -0.07105458507218042 1.013352655542406 0 0 0 0.33 0 242 213 117 221 76 222 48 
243 -0.13723110754556084 -0.06825839242399262 1.0342261123263614 0 0 0 0.39 0 243 190 97 213 118 219 58 221 77 222 49 232 145 1 22 56 45 65 14 81 10 152 27 158 16 181 9 234 13 
244 -0.13317936266531588 -0.0670754390779137 1.0350171641047212 0 0 0 0.26 0 244 185 13 190 98 204 100 213 119 214 3 219 59 222 50 232 146 
245 -0.0383185243605942 -0.06590754534369195 1.0729122467167471 0 0 0 0.28 0 245 198 18 199 11 213 120 217 65 222 51 1 23 56 46 69 13 71 25 100 2 103 13 118 34 138 2 152 28 165 15 172 10 179 5 182 14 190 99 
246 -0.026009986121041252 -0.06549272732919413 1.0803788000727133 0 0 0 0.28 0 246 198 19 199 12 213 121 221 78 222 52 227 86 232 147 234 14 128 20 152 29 157 13 172 11 176 8 182 15 197 13 204 101 219 60 1 24 56 47 69 14 
247 -0.029180372593195544 -0.060991582482145236 1.084588074834074 0 0 0 0.31 0 247 219 61 227 87 232 148 
248 0.12861383188171932 -0.06590769275379632 1.1497113699165291 0 0 0 0.29 0 248 190 100 204 102 213 122 222 53 232 149 56 48 60 20 62 4 63 15 67 19 71 26 89 21 91 8 97 15 100 3 103 14 105 8 111 26 118 35 126 5 128 21 129 7 147 26 152 30 162 23 163 8 165 16 172 12 184 3 197 14 198 20 199 13 220 45 221 79 235 15 
249 0.1241046466732401 -0.061701112757602684 1.147008242844923 0 0 0 0.08 0 249 198 21 204 103 
250 -0.45611638253029135 -0.04681103624604672 0.9352713918672683 0 0 0 0.39 0 250 190 101 213 123 217 66 220 46 224 25 227 88 232 150 
251 -0.04171713200011559 -0.0540209466316824 1.0682090859982298 0 0 0 0.38 0 251 217 67 221 80 222 54 232 151 
252 -0.35180905182724836 -0.04658517642296333 0.9611644785260348 0 0 0 0.22 0 252 190 102 213 124 
253 -0.453225769542537 -0.04509207476115315 0.937056591208999 0 0 0 0.38 0 253 213 125 220 47 224 26 
254 0.18407730240108836 -0.06105296508118813 1.2105074195347445 0 0 0 0.42 0 254 190 103 227 89 56 49 103 15 111 27 129 8 147 27 
255 -0.039321586047055566 -0.05088674987908604 1.07348806366368 0 0 0 0.24 0 255 198 22 199 14 234 15 
256 0.0021993490566032583 -0.049163263137599916 1.0918995467317993 0 0 0 0.45 0 256 198 23 199 15 221 81 234 16 
257 -0.042648464519089956 -0.045653866334542804 1.0684367158774282 0 0 0 0.19 0 257 204 104 222 55 227 90 
258 0.13024995129018968 -0.046629351620831934 1.1474610981190552 0 0 0 0.41 0 258 190 104 227 91 56 50 62 5 67 20 71 27 73 21 89 22 91 9 105 9 118 36 126 6 134 5 147 28 162 24 165 17 182 16 184 4 198 24 199 16 221 82 222 56 232 152 235 16 
259 0.19339625861825332 -0.04856992198966794 1.2166475337376939 0 0 0 0.23 0 259 227 92 232 153 
260 -0.44781436828391336 -0.033321324347133675 0.9310869362322611 0 0 0 0.58 0 260 213 126 217 68 221 83 232 154 
261 -0.41540664491458446 -0.03125816726992783 0.9379454904747536 0 0 0 0.17 0 261 217 69 227 93 
262 -0.3754149784021321 -0.0311610043014472 0.9525388160907634 0 0 0 0.27 0 262 190 105 204 105 213 127 232 155 25 11 56 51 
263 0.1861939563439364 -0.04067762718575047 1.2121492493368276 0 0 0 0.46 0 263 221 84 222 57 232 156 
264 -0.28054353953944566 -0.0285619588101398 0.9767163391572957 0 0 0 0.17 0 264 190 106 204 106 213 128 227 94 
265 -0.2428122166257572 -0.02758208605262638 0.9841211649060069 0 0 0 0.3 0 265 190 107 213 129 222 58 232 157 
266 -0.23881084543794925 -0.026698744354792022 0.9874761607244955 0 0 0 0.38 0 266 185 14 213 130 221 85 232 158 
267 -0.06891560299959838 -0.026993920638631274 1.05342586584929 0 0 0 0.27 0 267 204 107 213 131 219 62 221 86 232 159 
268 0.18965708046214363 -0.03304223011102311 1.2154640823536953 0 0 0 0.39 0 268 221 87 232 160 
269 -0.4073228574025881 -0.02161533138377888 0.9438055867777688 0 0 0 0.31 0 269 217 70 220 48 
270 -0.16605023598058924 -0.02366636086999435 1.0171738566461028 0 0 0 0.07 0 270 190 108 204 108 219 63 
271 0.10999748120495302 -0.026928288733147676 1.1328071336505168 0 0 0 0.29 0 271 213 132 217 71 221 88 56 52 69 15 89 23 100 4 111 28 118 37 128 22 147 29 152 31 165 18 198 25 199 17 235 17 
272 -0.10774554536362987 -0.022831456522679122 1.0391437207122356 0 0 0 0.18 0 272 204 109 213 133 232 161 11 12 15 8 64 1 
273 -0.07907604484923539 -0.021190824221099937 1.050477638979117 0 0 0 0.09 0 273 204 110 213 134 
274 -0.026895100658484543 -0.020756975940295432 1.0787958050752744 0 0 0 0.13 0 274 213 135 232 162 
275 -0.06887203236818888 -0.019607614859444438 1.0520419501438305 0 0 0 0.46 0 275 213 136 219 64 221 89 222 59 
276 -0.4507705015677949 -0.014687517219403139 0.9280328302400914 0 0 0 0.24 0 276 190 109 213 137 217 72 219 65 232 163 
277 0.006412669122379806 -0.017637778843119338 1.0862516894734402 0 0 0 0.36 0 277 190 110 213 138 
278 -0.12039458325638427 -0.015423848515278046 1.0355492890396498 0 0 0 0.28 0 278 190 111 194 12 204 111 213 139 214 4 217 73 219 66 220 49 221 90 222 60 232 164 234 17 1 25 11 13 15 9 17 11 29 8 33 11 38 5 44 7 50 14 77 7 85 3 110 6 113 6 118 38 128 23 146 7 152 32 158 17 164 32 172 13 176 9 181 10 25 12 26 9 56 53 69 16 73 22 81 11 88 5 127 15 147 30 
279 -0.11556412310954349 -0.015571971869119485 1.0358453679905577 0 0 0 0.4 0 279 190 112 204 112 213 140 214 5 217 74 221 91 234 18 1 26 11 14 15 10 17 12 29 9 50 15 110 7 113 7 118 39 146 8 147 31 152 33 158 18 176 10 200 0 
280 -0.11113954933083259 -0.012668815587358847 1.0355368179450952 0 0 0 0.38 0 280 204 113 219 67 222 61 227 95 3 10 40 6 43 4 53 8 63 16 85 4 96 18 97 16 111 29 112 3 113 8 127 16 148 1 152 34 158 19 176 11 181 11 185 15 208 16 
281 -0.4135118851478859 -0.009537023373519984 0.9393985122994136 0 0 0 0.42 0 281 190 113 204 114 232 165 
282 -0.47026978130154784 -0.006485496421227636 0.9289605207867874 0 0 0 0.86 0 282 220 50 221 92 232 166 
283 -0.4247636170214716 -0.0073133636925193195 0.9566830938301675 0 0 0 0.45 0 283 190 114 204 115 
284 -0.28660872344727073 -0.006685157049189373 0.9701443480154824 0 0 0 0.25 0 284 221 93 232 167 
285 -0.4556657189434944 -0.004683043230655795 0.9185857788680282 0 0 0 0.31 0 285 190 115 219 68 227 96 
286 -0.4199226830098902 0.0023286542115085796 0.9368732978955082 0 0 0 0.34 0 286 190 116 221 94 
287 -0.43440903067463155 0.006987426252436027 0.935214747396746 0 0 0 0.48 0 287 190 117 204 116 217 75 227 97 232 168 
288 -0.3698161945956251 0.008429251032022295 0.9531391275518771 0 0 0 0.38 0 288 204 117 217 76 232 169 
289 -0.3606467594376508 0.009108319718475994 0.954368905923246 0 0 0 0.41 0 289 190 118 217 77 
290 -0.3281806734776984 0.008914761492683445 0.9509470517540543 0 0 0 0.15 0 290 213 141 232 170 
291 -0.45408988169018116 0.010702673672851208 0.9257253158881344 0 0 0 0.3 0 291 213 142 217 78 
292 0.12751137983026614 0.013950716317962504 1.1415860620160667 0 0 0 0.4 0 292 198 26 222 62 
293 -0.28658226480139765 0.018745091190025136 0.9707253066909292 0 0 0 0.56 0 293 204 118 221 95 
294 -0.37465315520417375 0.020324212686314135 0.9510496557361605 0 0 0 0.53 0 294 204 119 217 79 219 69 232 171 
295 -0.24529679834440746 -0.20490959484213755 1.0058766788343907 0 0 0 0.34 0 295 190 119 198 27 213 143 232 172 147 32 152 35 217 80 222 63 1 27 12 4 25 13 56 54 81 12 89 24 96 19 127 17 
296 -0.07776698710297589 -0.20822528577185356 1.069262783105047 0 0 0 0.24 0 296 190 120 227 98 
297 -0.34461706234326245 -0.16754903069068744 0.9793849420517314 0 0 0 0.49 0 297 198 28 224 27 1 28 11 15 63 17 67 21 77 8 81 13 128 24 146 9 152 36 172 14 176 12 204 120 219 70 
298 -0.18269555935561968 -0.17348969387288013 1.0212113519202874 0 0 0 0.41 0 298 185 16 198 29 199 18 204 121 213 144 217 81 219 71 220 51 221 96 1 29 3 11 11 16 15 11 17 13 29 10 33 12 38 6 43 5 44 8 50 16 53 9 63 18 71 28 77 9 81 14 85 5 88 6 92 2 97 17 111 30 112 4 113 9 118 40 128 25 129 9 146 10 147 33 152 37 157 14 158 20 164 33 172 15 176 13 190 121 214 6 
299 -0.051035958175691364 -0.18260932406224056 1.0800085059759066 0 0 0 0.73 0 299 190 122 213 145 221 97 147 34 148 2 1 30 25 14 26 10 56 55 71 29 81 15 164 34 
300 -0.1694088652325476 -0.16658484528801754 1.0279494615979585 0 0 0 0.35 0 300 190 123 198 30 213 146 217 82 220 52 222 64 224 28 232 173 204 122 214 7 219 72 221 98 129 10 147 35 152 38 157 15 176 14 1 31 25 15 56 56 65 15 69 17 88 7 97 18 118 41 127 18 164 35 181 12 
301 -0.14301764218347163 -0.16581606083180594 1.0389926516294532 0 0 0 0.52 0 301 190 124 198 31 199 19 204 123 213 147 217 83 221 99 232 174 146 11 152 39 157 16 164 36 1 32 56 57 127 19 158 21 208 17 222 65 65 16 234 19 
302 -0.2522332623151319 -0.1575772653709369 0.9967583322766794 0 0 0 0.45 0 302 185 17 222 66 
303 -0.0010952325250065745 -0.17832867027357266 1.120694249997305 0 0 0 0.36 0 303 190 125 204 124 221 100 232 175 1 33 56 58 81 16 89 25 118 42 147 36 152 40 182 17 197 15 
304 -0.22639113226924537 -0.15468379329049176 1.0065061099086419 0 0 0 0.81 0 304 190 126 199 20 221 101 227 99 232 176 1 34 3 12 11 17 29 11 33 13 44 9 67 22 71 30 88 8 96 20 97 19 111 31 112 5 128 26 129 11 147 37 152 41 158 22 172 16 222 67 56 59 89 26 198 32 234 20 
305 -0.4625216761701001 -0.14409399553399213 0.9478661856506106 0 0 0 0.29 0 305 190 127 213 148 227 100 232 177 56 60 96 21 128 27 
306 -0.10688686960630903 -0.15864068765049988 1.0511171515333568 0 0 0 0.46 0 306 185 18 199 21 204 125 213 149 214 8 217 84 219 73 220 53 221 102 222 68 227 101 234 21 3 13 11 18 17 14 29 12 32 2 33 14 38 7 40 7 44 10 50 17 53 10 73 23 77 10 81 17 85 6 88 9 96 22 97 20 110 8 111 32 112 6 113 10 118 43 146 12 147 38 152 42 157 17 158 23 159 1 164 37 172 17 176 15 12 5 25 16 26 11 56 61 60 21 69 18 190 128 208 18 
307 -0.2201924361659859 -0.15190909773129962 1.008206031126339 0 0 0 0.4 0 307 198 33 232 178 190 129 217 85 224 29 146 13 152 43 162 25 164 38 172 18 
308 -0.14155819611347545 -0.15271378282052497 1.038180872987629 0 0 0 0.55 0 308 222 69 232 179 234 22 1 35 29 13 33 15 38 8 40 8 44 11 50 18 73 24 77 11 81 18 88 10 111 33 113 11 15 12 127 20 146 14 152 44 157 18 164 39 198 34 213 150 214 9 220 54 221 103 217 86 56 62 
309 -0.20388668270778337 -0.14800922923044274 1.013240221424263 0 0 0 0.43 0 309 204 126 213 151 217 87 219 74 222 70 232 180 1 36 15 13 29 14 32 3 33 16 38 9 43 6 44 12 50 19 63 19 71 31 85 7 92 3 112 7 113 12 118 44 127 21 146 15 147 39 152 45 157 19 158 24 164 40 176 16 190 130 214 10 26 12 56 63 224 30 
310 -0.2439844565870355 -0.14049930509405725 0.9975617218315977 0 0 0 0.26 0 310 190 131 194 13 204 127 213 152 217 88 220 55 221 104 222 71 227 102 232 181 
311 -0.03833340701552199 -0.14973020118581648 1.0834924905073295 0 0 0 0.25 0 311 227 103 232 182 
312 0.03223189990756307 -0.15391917700190302 1.1109674397355462 0 0 0 0.22 0 312 204 128 227 104 15 14 50 20 81 19 85 8 129 12 182 18 222 72 
313 0.11868256960920139 -0.15687939286700145 1.1465145867832451 0 0 0 0.27 0 313 190 132 204 129 232 183 234 23 56 64 103 16 128 28 134 6 
314 -0.17597219742271594 -0.13046500924346535 1.0212437629959283 0 0 0 0.31 0 314 194 14 204 130 217 89 219 75 220 56 43 7 63 20 81 20 88 11 92 4 172 19 176 17 25 17 56 65 138 3 147 40 199 22 208 19 
315 -0.0986545141624873 -0.13605035237726046 1.053569993134993 0 0 0 0.95 0 315 199 23 234 24 146 16 158 25 176 18 217 90 219 76 12 6 81 21 96 23 111 34 162 26 208 20 227 105 56 66 69 19 73 25 
316 -0.0868527033764682 -0.12726464538725396 1.055708963841092 0 0 0 0.4 0 316 194 15 198 35 204 131 217 91 219 77 220 57 227 106 1 37 3 14 29 15 32 4 33 17 38 10 40 9 41 3 43 8 44 13 50 21 60 22 63 21 73 26 85 9 92 5 111 35 113 13 129 13 146 17 152 46 157 20 158 26 162 27 176 19 179 6 197 16 214 11 25 18 56 67 69 20 81 22 89 27 91 10 96 24 163 9 208 21 
317 -0.3945830953821303 -0.084202023140455 0.7337103790326448 0 0 0 0.62 0 317 190 133 227 107 
318 -0.16156040084311238 -0.12189097424006945 1.0293788342906476 0 0 0 0.26 0 318 190 134 213 153 3 15 11 19 15 15 17 15 50 22 118 45 147 41 152 47 158 27 
319 0.12531405709374108 -0.12969122864970734 1.1449400714485327 0 0 0 0.16 0 319 190 135 227 108 
320 -0.4536952043643204 -0.10444377896686138 0.9424076404301271 0 0 0 0.12 0 320 220 58 221 105 
321 0.025487980401894258 -0.12294598285536056 1.1012463643957169 0 0 0 0.27 0 321 190 136 198 36 217 92 220 59 221 106 222 73 232 184 
322 0.14682202065761787 -0.1307779361076401 1.1724199639319293 0 0 0 0.21 0 322 204 132 232 185 227 109 
323 -0.0717726411632026 -0.11351764330564211 1.0617185242605927 0 0 0 0.36 0 323 185 19 198 37 213 154 219 78 220 60 221 107 232 186 1 38 3 16 11 20 15 16 17 16 29 16 38 11 40 10 50 23 63 22 71 32 73 27 111 36 118 46 152 48 157 21 164 41 172 20 217 93 25 19 26 13 56 68 69 21 81 23 127 22 158 28 163 10 208 22 222 74 
324 -0.13645912627359888 -0.10847043048144886 1.0374769068044278 0 0 0 0.25 0 324 213 155 232 187 1 39 25 20 56 69 60 23 65 17 69 22 118 47 127 23 164 42 179 7 217 94 220 61 
325 -0.1860369366640432 -0.09843283652628722 1.0180061197650647 0 0 0 0.17 0 325 214 12 221 108 234 25 
326 -0.3834268164060952 -0.08503564560042243 0.9571223243684254 0 0 0 0.39 0 326 204 133 219 79 221 109 227 110 232 188 
327 -0.3652314870064313 -0.07852436444533285 0.9624859289051151 0 0 0 0.07 0 327 190 137 204 134 232 189 
328 -0.45617607618936373 -0.07073393350188477 0.9367349971575268 0 0 0 0.25 0 328 190 138 213 156 217 95 219 80 220 62 232 190 
329 -0.24611211758436083 -0.07496226103200634 0.9897113754644348 0 0 0 0.18 0 329 213 157 219 81 222 75 232 191 
330 -0.16454628515749878 -0.07691815041402679 1.0226696169858147 0 0 0 0.6 0 330 190 139 198 38 234 26 63 23 148 3 158 29 162 28 208 23 222 76 
331 -0.09927718095653032 -0.07314359923795519 1.0483567597435204 0 0 0 0.29 0 331 190 140 204 135 214 13 219 82 220 63 221 110 222 77 232 192 146 18 147 42 152 49 157 22 158 30 164 43 172 21 197 17 213 158 60 24 96 25 111 37 208 24 227 111 
332 -0.16485854880681555 -0.06979303750866195 1.022803272517262 0 0 0 0.26 0 332 190 141 204 136 213 159 217 96 219 83 221 111 222 78 232 193 
333 -0.050051261259444826 -0.07072230904027411 1.068394748629237 0 0 0 0.38 0 333 190 142 199 24 213 160 217 97 220 64 221 112 222 79 
334 -0.009290382710154334 -0.06510088450041082 1.084826291415096 0 0 0 0.27 0 334 194 16 219 84 221 113 222 80 232 194 157 23 182 19 204 137 
335 0.0014608472244105526 -0.06462484452979513 1.0914133138396171 0 0 0 0.16 0 335 198 39 222 81 227 112 
336 -0.06012067359794673 -0.061467969557090614 1.0625013731580761 0 0 0 0.54 0 336 190 143 213 161 219 85 220 65 222 82 232 195 11 21 17 17 29 17 41 4 50 24 63 24 77 12 97 21 118 48 146 19 152 50 158 31 159 2 199 25 214 14 157 24 162 29 164 44 176 20 185 20 197 18 221 114 
337 -0.03350938498651237 -0.0604359694282107 1.0767505742118224 0 0 0 0.55 0 337 198 40 232 196 
338 -0.4162365172412573 -0.04891847082555593 0.946107329620701 0 0 0 0.16 0 338 198 41 213 162 232 197 
339 0.1312326959596013 -0.06011456637941416 1.1536051346539296 0 0 0 0.55 0 339 190 144 204 138 217 98 221 115 222 83 232 198 56 70 62 6 63 25 67 23 71 33 89 28 111 38 127 24 129 14 147 43 162 30 163 11 164 45 181 13 197 19 198 42 220 66 
340 -0.4065233874141146 -0.03131715240770779 0.9417660635356943 0 0 0 0.17 0 340 190 145 217 99 227 113 232 199 
341 0.1587086873200694 -0.04155042802109312 1.1845907114507022 0 0 0 0.1 0 341 190 146 232 200 
342 0.17631179639533123 -0.0390632356384854 1.2009486630874184 0 0 0 0.43 0 342 217 100 222 84 56 71 134 7 182 20 
343 -0.3095740717034287 -0.02790555121664456 0.970829788680294 0 0 0 0.27 0 343 190 147 213 163 232 201 56 72 129 15 158 32 
344 -0.27572782669005697 -0.028002155837606787 0.9812887063104427 0 0 0 0.08 0 344 198 43 199 26 
345 -0.15684389941693233 -0.022414431689734438 1.0189011651134918 0 0 0 0.44 0 345 190 148 213 164 232 202 234 27 25 21 56 73 65 18 69 23 158 33 
346 -0.04995578188071727 -0.02022793356321727 1.0641656096617618 0 0 0 0.23 0 346 204 139 219 86 232 203 56 74 89 29 96 26 
347 0.1576300424128648 -0.024096503288308514 1.1806899197539598 0 0 0 0.35 0 347 190 149 232 204 
348 -0.021275131904914073 -0.019065102517789624 1.0731531220986126 0 0 0 0.3 0 348 204 140 219 87 232 205 1 40 56 75 65 19 69 24 73 28 103 17 118 49 134 8 138 4 147 44 152 51 158 34 172 22 182 21 190 150 217 101 221 116 
349 0.001877670627681562 0.004742936780410447 1.0842876835761177 0 0 0 0.34 0 349 198 44 199 27 213 165 221 117 232 206 1 41 56 76 103 18 222 85 
350 -0.38404199506964204 0.008139769740064428 0.9248359527775043 0 0 0 0.24 0 350 219 88 227 114 
351 -0.39345930655896366 0.017829178355352162 0.9429259031779826 0 0 0 0.68 0 351 213 166 217 102 219 89 221 118 232 207 
352 -0.31826017518011435 0.019238029189664527 0.962322021786926 0 0 0 0.51 0 352 190 151 227 115 219 90 220 67 
353 -0.32861786095622225 0.020278674150127796 0.958494359791108 0 0 0 0.24 0 353 198 45 204 141 219 91 
354 0.10136478821794703 0.04329555384569739 1.1172925283122581 0 0 0 0.47 0 354 217 103 227 116 63 26 71 34 73 29 81 24 129 16 162 31 165 19 198 46 208 25 
355 0.3523339179182294 -0.2112310559442109 0.9700972433186134 0 0 0 0.81 0 355 227 117 234 28 
356 -0.24314508083519618 -0.21772179402547548 1.0169783680568076 0 0 0 0.77 0 356 227 118 232 208 56 77 65 20 67 24 111 39 129 17 138 5 147 45 181 14 190 152 222 86 
357 -0.19411464697552783 -0.2136904853767519 1.0277519470147014 0 0 0 0.47 0 357 204 142 219 92 
358 -0.4500719782302314 -0.19823922009704795 0.9787788566040637 0 0 0 0.62 0 358 227 119 232 209 17 18 118 50 12 7 26 14 56 78 71 35 73 30 81 25 96 27 128 29 181 15 208 26 65 21 
359 -0.1243981392889411 -0.20849028586939763 1.0375758361844585 0 0 0 0.32 0 359 190 153 204 143 
360 -0.3106341022117435 -0.19033997741870395 0.9887272072248486 0 0 0 0.34 0 360 190 154 204 144 219 93 224 31 232 210 1 42 67 25 81 26 88 12 152 52 198 47 220 68 25 22 26 15 56 79 60 25 127 25 181 16 
361 -0.2866736779152016 -0.18976551777511474 0.9947887708176374 0 0 0 0.21 0 361 190 155 204 145 213 167 219 94 232 211 1 43 25 23 26 16 56 80 198 48 
362 -0.4560491872796138 -0.16890191020915055 0.9524998784006206 0 0 0 0.21 0 362 190 156 227 120 
363 -0.25256582453409454 -0.1754685932562799 1.0021256630764306 0 0 0 0.63 0 363 213 168 219 95 221 119 222 87 227 121 232 212 25 24 26 17 56 81 67 26 81 27 89 30 96 28 118 51 127 26 208 27 
364 -0.3776301321644103 -0.16829791399823357 0.9712136972566352 0 0 0 0.41 0 364 199 28 204 146 213 169 219 96 224 32 232 213 1 44 3 17 33 18 50 25 67 27 77 13 81 28 88 13 127 27 128 30 152 53 162 32 179 8 26 18 56 82 
365 -0.31974760308266736 -0.16547344926446228 0.9765130602817433 0 0 0 0.14 0 365 204 147 219 97 
366 -0.23237464828860233 -0.16922007718913504 0.9997443142132146 0 0 0 0.58 0 366 204 148 222 88 227 122 
367 -0.4683304914517585 -0.1578488526119829 0.9419995957459262 0 0 0 0.27 0 367 204 149 227 123 232 214 
368 -0.18920592663390035 -0.17121672891935885 1.0191144036048534 0 0 0 0.47 0 368 190 157 198 49 199 29 217 104 219 98 222 89 227 124 232 215 1 45 26 19 56 83 71 36 81 29 88 14 89 31 96 29 97 22 111 40 118 52 147 46 152 54 158 35 172 23 221 120 234 29 
369 -0.2712313166084346 -0.16303687054585425 0.9817783974666239 0 0 0 0.24 0 369 204 150 227 125 
370 -0.26397032352130145 -0.16465622900478652 0.9982607586371415 0 0 0 0.43 0 370 213 170 217 105 219 99 221 121 227 126 232 216 26 20 56 84 63 27 71 37 81 30 89 32 96 30 111 41 164 46 220 69 
371 -0.2876521134703881 -0.1597626051997077 0.9895232016990523 0 0 0 0.33 0 371 224 33 227 127 1 46 25 25 56 85 118 53 164 47 220 70 232 217 71 38 217 106 
372 -0.26728380903129334 -0.15781033873758582 0.995290835996872 0 0 0 0.25 0 372 198 50 199 30 204 151 213 171 219 100 227 128 232 218 1 47 25 26 26 21 56 86 63 28 65 22 67 28 81 31 88 15 96 31 118 54 127 28 128 31 158 36 181 17 217 107 220 71 224 34 
373 -0.25931910298770533 -0.15825868426092912 1.0005353880894012 0 0 0 0.49 0 373 190 158 198 51 204 152 213 172 217 108 219 101 227 129 232 219 1 48 25 27 26 22 56 87 63 29 65 23 67 29 71 39 81 32 88 16 96 32 118 55 128 32 129 18 147 47 172 24 181 18 199 31 220 72 
374 -0.06587407199068332 -0.16925203077436562 1.0696901798443437 0 0 0 0.51 0 374 190 159 204 153 213 173 219 102 1 49 11 22 88 17 97 23 127 29 129 19 158 37 164 48 181 19 56 88 69 25 89 33 
375 -0.4709531629446025 -0.14157834817636206 0.9432570875864961 0 0 0 0.39 0 375 190 160 204 154 219 103 227 130 232 220 
376 -0.45856091353549916 -0.1414318652478313 0.9520712665936434 0 0 0 0.42 0 376 227 131 232 221 1 50 56 89 81 33 96 33 118 56 172 25 
377 -0.32357805641017934 -0.07324502678284847 0.5394989431936921 0 0 0 0.18 0 377 204 155 232 222 
378 -0.43062530372782726 -0.13826835315421154 0.9504850436158212 0 0 0 0.34 0 378 199 32 204 156 219 104 220 73 221 122 227 132 232 223 1 51 3 18 17 19 29 18 32 5 33 19 41 5 60 26 64 2 71 40 81 34 88 18 92 6 110 9 111 42 113 14 118 57 146 20 172 26 179 9 190 161 26 23 56 90 76 0 
379 -0.4769358453651873 -0.13519473643691415 0.9438787879804059 0 0 0 0.27 0 379 190 162 219 105 227 133 232 224 
