# 3D point list with one line of data per point:
#   POINT3D_ID, X, Y, Z, R, G, B, ERROR, TRACK[] as (IMAGE_ID, POINT2D_IDX)
# Number of points: 421, mean track length: 6.69
1601 0.28147367516740995 0.32397839914840143 1.2618744765760974 0 0 0 0.15 53 1236 146 233 148 321 
1602 0.4039539607998321 0.29455035408608116 1.2096549439179234 0 0 0 0.31 53 1237 60 593 85 203 92 316 96 415 147 290 159 180 164 422 172 377 
1603 0.49822182854491026 0.27559724486112264 1.1786287884863744 0 0 0 0.22 53 1238 60 594 77 379 92 317 103 272 111 329 147 291 159 181 162 322 172 378 176 338 
1604 0.7977424845788034 0.21650641720297353 1.0992576861183225 0 0 0 0.16 53 1239 54 228 61 421 77 380 92 318 118 546 128 271 146 234 148 322 170 25 182 112 
1605 0.803887376922105 0.21539205356675273 1.0981421288946063 0 0 0 0.39 53 1240 128 272 172 379 
1606 0.8686476731155385 0.17454691593282215 0.971440198459111 0 0 0 0.1 53 1241 91 169 165 285 
1607 0.8710919613622196 0.16859628991634223 0.9506257901739869 0 0 0 0.36 53 1242 118 547 141 123 
1608 0.4946151367744749 0.2782510030805106 1.1776915067130345 0 0 0 0.42 53 1243 60 595 92 319 96 416 103 273 164 423 
1609 0.8345934680643987 0.21426377275757658 1.0970332806441998 0 0 0 0.1 53 1244 103 274 176 339 
1610 0.3693443448998239 0.3063841099653667 1.2234954815483 0 0 0 0.26 53 1245 92 320 93 85 
1611 0.873450084554346 0.15799849891308707 0.9032613872794355 0 0 0 0.18 53 1246 118 548 165 286 
1612 0.47724498057382575 0.2842678895603445 1.1854384149820303 0 0 0 0.11 53 1247 92 321 128 273 
1613 0.8131377547971931 0.2191357859223059 1.0961624460454058 0 0 0 0.29 53 1248 69 109 82 49 111 330 118 549 152 176 158 248 172 380 176 340 182 113 
1614 0.4916375597633152 0.28155915529631453 1.1774005919347883 0 0 0 0.51 53 1249 54 229 96 417 147 292 172 381 176 341 
1615 0.5709539304703104 0.26731140323989944 1.1583488653279648 0 0 0 0.24 53 1250 96 418 176 342 
1616 0.7808947601539128 0.22685787861789888 1.1031068533287443 0 0 0 0.18 53 1251 54 230 124 97 141 124 146 235 170 26 172 382 176 343 
1617 0.8867943278165877 0.21449795070090452 1.1053267094729222 0 0 0 0.23 53 1252 54 231 61 422 77 381 
1618 0.8742253516797917 0.16398975798558643 0.9167636844800654 0 0 0 0.2 53 1253 97 302 141 125 
1619 0.19358621770928744 0.3373845596721587 1.242260660735641 0 0 0 0.71 53 1254 65 186 118 550 
1620 0.9015831642258741 0.21437653371483695 1.10973924221991 0 0 0 0.36 53 1255 54 232 61 423 62 133 71 312 82 50 92 322 111 331 152 177 162 323 172 383 
1621 0.9414399045082824 0.21083576595809628 1.1150878460848255 0 0 0 0.26 53 1256 82 51 182 114 
1622 0.8785959701705551 0.1619022268023249 0.908095724978313 0 0 0 0.26 53 1257 103 275 118 551 
1623 0.7108778487967632 0.2406050731453255 1.1187643454668506 0 0 0 0.25 53 1258 54 233 77 382 96 419 103 276 118 552 128 274 157 217 158 249 164 424 172 384 176 344 
1624 0.7656001824421004 0.23029749189085733 1.1041212456013765 0 0 0 0.49 53 1259 61 424 111 332 128 275 
1625 0.933157217109886 0.21283594606748363 1.1141324992445734 0 0 0 0.4 53 1260 82 52 89 166 141 126 
1626 0.5645084862125479 0.2712671650615744 1.1611260914682553 0 0 0 0.21 53 1261 77 383 96 420 
1627 0.1512588361205585 0.3061067262865769 1.1012863358556921 0 0 0 0.43 53 1262 96 421 118 553 172 385 
1628 0.1511720148625862 0.30563753069836197 1.100352352862994 0 0 0 0.25 53 1263 96 422 118 554 
1629 0.7847011952331786 0.22936073218952321 1.1020720751810922 0 0 0 0.29 53 1264 62 134 69 110 71 313 77 384 92 323 146 236 147 293 152 178 165 287 170 27 
1630 0.7969288546198661 0.22587969962363993 1.0934818102751893 0 0 0 0.28 53 1265 60 596 147 294 
1631 0.16384848538859673 0.31821731426329536 1.1387253341609662 0 0 0 0.4 53 1266 61 425 118 555 128 276 
1632 0.9389178053663966 0.21799448657199438 1.1124936007519268 0 0 0 0.16 53 1267 82 53 170 28 
1633 0.17287498648134214 0.32545588013958365 1.1618225159493545 0 0 0 0.32 53 1268 61 426 118 556 
1634 0.8873634474445351 0.22738312534184846 1.0996897404208763 0 0 0 0.15 53 1269 91 170 103 277 
1635 0.8759421922289051 0.17572929338462573 0.9138431195979981 0 0 0 0.36 53 1270 97 303 118 557 
1636 0.6927802305152636 0.2574135749272537 1.122938437879131 0 0 0 0.27 53 1271 54 234 71 314 96 423 
1637 0.8427064605260243 0.2315301097349949 1.0913629711626969 0 0 0 0.59 53 1272 54 235 71 315 163 132 
1638 0.48712184376717754 0.29714361548558654 1.1698025341851088 0 0 0 0.22 53 1273 92 324 96 424 135 14 
1639 0.8719484237719983 0.19009758922992412 0.949730595984645 0 0 0 0.12 53 1274 118 558 165 288 
1640 0.8731027956196244 0.18230521736341718 0.9203831783645444 0 0 0 0.32 53 1275 118 559 165 289 
1641 0.8754255728667717 0.1445172623369324 0.7898877323845507 0 0 0 0.24 53 1276 91 171 165 290 
1642 0.8766793136050863 0.2339266041072989 1.0958723376010742 0 0 0 0.32 53 1277 61 427 92 325 118 560 
1643 0.17268963653812347 0.3330616362665289 1.1557379667328804 0 0 0 0.27 53 1278 118 561 128 277 
1644 0.8761083702452498 0.18923272937072103 0.9354079756114537 0 0 0 0.22 53 1279 118 562 165 291 
1645 0.8741910503443261 0.18893153546895386 0.9336140037358526 0 0 0 0.35 53 1280 54 236 118 563 165 292 
1646 0.6498523082836103 0.26953923610514746 1.1257758472909682 0 0 0 0.21 53 1281 73 157 118 564 172 386 
1647 0.822532565910116 0.24098706635768793 1.0815743274334033 0 0 0 0.32 53 1282 54 237 60 597 65 187 77 385 103 278 111 333 118 565 127 124 128 278 136 204 141 127 147 295 162 324 163 133 164 425 165 293 170 29 176 345 182 115 
1648 0.8761358486550671 0.1492234012263402 0.7890314618899249 0 0 0 0.09 53 1283 91 172 165 294 
1649 0.9050096649978202 0.24078178563779287 1.0966887201848126 0 0 0 0.42 53 1284 54 238 61 428 82 54 107 68 111 334 182 116 
1650 0.9035197931756719 0.24775901069189132 1.096609579953792 0 0 0 0.84 53 1285 82 55 85 204 92 326 
1651 0.9179677327581915 0.24732141886670772 1.0965084333580075 0 0 0 0.33 53 1286 61 429 82 56 92 327 147 296 
1652 0.9570162433124908 0.243838989633454 1.0980314378832345 0 0 0 0.57 53 1287 118 566 182 117 
1653 0.6492217772636633 0.28500057815444874 1.1170569465429057 0 0 0 0.25 53 1288 61 430 96 425 118 567 172 387 182 118 
1654 0.46012578367140416 0.32202720502618487 1.1665674970919346 0 0 0 0.26 53 1289 96 426 128 279 176 346 
1655 0.23343103096716325 0.3739609273435236 1.2553969990661609 0 0 0 0.35 53 1290 96 427 172 388 176 347 
1656 0.28733880342060925 0.363555267588082 1.241680932756304 0 0 0 0.25 53 1291 96 428 176 348 
1657 0.30937754767458936 0.3581111872978884 1.229645064933259 0 0 0 0.2 53 1292 118 568 128 280 158 250 
1658 0.6060584595704008 0.29483827144298086 1.1245058417604135 0 0 0 0.07 53 1293 92 328 96 429 
1659 0.26729058259412986 0.36687481684935236 1.2401722409345466 0 0 0 0.41 53 1294 96 430 176 349 
1660 0.35927313293812596 0.3462662084879534 1.2044261857858651 0 0 0 0.22 53 1295 61 431 96 431 97 304 158 251 
1661 0.8421305215312335 0.2576145276282811 1.080559455540661 0 0 0 0.29 53 1296 172 389 182 119 
1662 0.2916667052186779 0.3643202992736603 1.2351502952173274 0 0 0 0.2 53 1297 96 432 113 28 118 569 146 237 
1663 0.36322290355242237 0.34790982016509 1.2056117144500036 0 0 0 0.48 53 1298 96 433 176 350 
1664 0.28146213845400087 0.3672618024203168 1.2417035143636703 0 0 0 0.28 53 1299 61 432 77 386 92 329 96 434 97 305 113 29 128 281 148 323 164 426 176 351 
1665 0.6989427408086086 0.28029712350946845 1.1018062969826106 0 0 0 0.15 53 1300 96 435 182 120 
1666 0.7381989101552512 0.27459646358419937 1.0933624672282016 0 0 0 0.06 53 1301 73 158 77 387 164 427 
1667 0.8729041090770894 0.19889966164335804 0.8938383913007973 0 0 0 0.05 53 1302 62 135 118 570 
1668 0.8294085035798726 0.2606463784087112 1.0764265937241515 0 0 0 0.38 53 1303 61 433 71 316 73 159 82 57 92 330 107 69 128 282 152 179 158 252 165 295 170 30 
1669 0.08193540309448713 0.2762226179897765 0.8754592905088047 0 0 0 0.88 53 1304 65 188 118 571 
1670 0.2760218256890276 0.37062916093076864 1.239269657061714 0 0 0 0.35 53 1305 61 434 148 324 172 390 176 352 
1671 0.1646077210229151 0.3460270770322204 1.121564990018744 0 0 0 0.75 53 1306 61 435 65 189 118 572 
1672 0.37700173868473086 0.34824508110325064 1.1997951531165438 0 0 0 0.12 53 1307 93 86 96 436 164 428 
1673 0.39934116146959414 0.3413691297027825 1.1851163572215884 0 0 0 0.35 53 1308 60 598 92 331 96 437 124 98 172 391 176 353 
1674 0.5040181685351064 0.32247026208923807 1.1567071103150683 0 0 0 0.19 53 1309 96 438 146 238 176 354 
1675 0.5067166855254672 0.32191182890000725 1.1551458349265613 0 0 0 0.24 53 1310 96 439 176 355 
1676 0.1798037148256987 0.36008721478047134 1.1692102044538721 0 0 0 0.32 53 1311 61 436 172 392 
1677 0.6493637963485417 0.29474478627158 1.1105001891743715 0 0 0 0.25 53 1312 69 111 96 440 128 283 158 253 176 356 182 121 
1678 0.6586211808999143 0.2946758331711196 1.114495890345146 0 0 0 0.18 53 1313 61 437 128 284 172 393 182 122 
1679 0.39701111239285514 0.34506049591987314 1.1889161194993179 0 0 0 0.27 53 1314 61 438 172 394 176 357 
1680 0.4293509986954869 0.3358796792779433 1.1680354913812083 0 0 0 0.28 53 1315 60 599 92 332 96 441 100 47 128 285 146 239 158 254 164 429 172 395 176 358 
1681 0.47112397483268753 0.32961993496677033 1.1628470944938691 0 0 0 0.35 53 1316 60 600 96 442 103 279 158 255 164 430 
1682 0.3834135706564461 0.3497805789251537 1.1957349422117736 0 0 0 0.15 53 1317 60 601 96 443 
1683 0.5202943238982044 0.3194583989746825 1.1458529710356122 0 0 0 0.33 53 1318 60 602 96 444 152 180 172 396 
1684 0.5169034484360933 0.32125309942761604 1.146162841406428 0 0 0 0.31 53 1319 92 333 96 445 146 240 172 397 176 359 
1685 0.8757593105456675 0.21668629758071997 0.9275643212120932 0 0 0 0.37 53 1320 62 136 118 573 165 296 
1686 0.23183799449970022 0.38512733990171827 1.2559546298389095 0 0 0 0.39 53 1321 61 439 92 334 128 286 176 360 
1687 0.8169363376936172 0.26829036060861405 1.0732725802376497 0 0 0 0.28 53 1322 61 440 77 388 118 574 148 325 
1688 0.9360330016216074 0.26248933103289385 1.0930762786046109 0 0 0 0.69 53 1323 82 58 158 256 
1689 0.8738640904655294 0.22048000593905093 0.9383329229802013 0 0 0 0.25 53 1324 97 306 118 575 
1690 0.8731439658315341 0.19264405181783542 0.8502987036931644 0 0 0 0.2 53 1325 62 137 165 297 
1691 0.5743957704115373 0.31243384895658616 1.1315293868615086 0 0 0 0.32 53 1326 61 441 92 335 93 87 96 446 111 335 135 15 146 241 
1692 0.43137025123008454 0.33815168865879847 1.1660193344448393 0 0 0 0.27 53 1327 61 442 158 257 176 361 
1693 0.7375839619894785 0.2828494799836064 1.0879542234921933 0 0 0 0.36 53 1328 103 280 134 48 
1694 0.7633174649686435 0.2778368345295916 1.0794162737268276 0 0 0 0.21 53 1329 73 160 107 70 128 287 141 128 
1695 0.13993832405890894 0.32782752489853195 1.0371096598477267 0 0 0 0.85 53 1330 65 190 128 288 
1696 0.37056640959943876 0.3561900326053779 1.197202383740418 0 0 0 0.2 53 1331 60 603 146 242 
1697 0.5595330087218376 0.3175519387840439 1.136429169481721 0 0 0 0.24 53 1332 89 167 118 576 158 258 176 362 
1698 0.25073059231527256 0.38506792952438124 1.2494216375896807 0 0 0 0.36 53 1333 164 431 172 398 176 363 
1699 0.3823619984466324 0.35467799792331667 1.1939859951494127 0 0 0 0.4 53 1334 92 336 93 88 135 16 136 205 162 325 164 432 
1700 0.39144694655972984 0.3508729827514365 1.186050456070363 0 0 0 0.19 53 1335 61 443 96 447 
1701 0.6837406581502976 0.2957327488243527 1.1045958746757853 0 0 0 0.23 53 1336 118 577 176 364 
1702 0.7009895270960615 0.29109120048375803 1.096507601876541 0 0 0 0.42 53 1337 60 604 96 448 165 298 172 399 176 365 
1703 0.8741065925905372 0.2212014151398353 0.9303253661645642 0 0 0 0.66 53 1338 62 138 118 578 
1704 0.8851736066301107 0.2691807726949703 1.0811685393266597 0 0 0 0.23 53 1339 103 281 163 134 165 299 
1705 0.7576707220724266 0.28118440766668706 1.0780750369206278 0 0 0 0.1 53 1340 118 579 141 129 
1706 0.4315101551337421 0.3416350981948468 1.1636355746517375 0 0 0 0.06 53 1341 96 449 100 48 
1707 0.4698193528394 0.3369512549291122 1.1617995997913588 0 0 0 0.12 53 1342 118 580 176 366 
1708 0.58042597247461 0.31446086188434164 1.1260346632250164 0 0 0 0.17 53 1343 96 450 172 400 
1709 0.6402788198842838 0.3032613526786674 1.1066303214953104 0 0 0 0.38 53 1344 92 337 152 181 158 259 172 401 182 123 
1710 0.5467991453684498 0.3228034841308886 1.138224650987392 0 0 0 0.17 53 1345 92 338 135 17 
1711 0.5557984929556085 0.3202802806710479 1.1334510140990648 0 0 0 0.1 53 1346 96 451 135 18 
1712 0.7928528691105523 0.2767690065778044 1.0706848569870564 0 0 0 0.25 53 1347 77 389 103 282 128 289 147 297 165 300 
1713 0.24932680330714557 0.3876717068596002 1.2471278453158623 0 0 0 0.43 53 1348 77 390 92 339 96 452 162 326 172 402 176 367 
1714 0.2534614235024127 0.3871323281684252 1.2464586751121993 0 0 0 0.37 53 1349 118 581 159 182 176 368 
1715 0.25793646025062317 0.3854412953864126 1.2421350782414182 0 0 0 0.2 53 1350 92 340 113 30 176 369 
1716 0.3154497497510635 0.372337982955377 1.2169844758869246 0 0 0 0.37 53 1351 113 31 176 370 
1717 0.3538703233250904 0.36334453143282786 1.201444681644878 0 0 0 0.12 53 1352 61 444 96 453 
1718 0.6606745232515181 0.3033907486112266 1.1078428936638227 0 0 0 0.35 53 1353 54 239 92 341 103 283 147 298 158 260 159 183 
1719 0.15715735791402233 0.34844996757340513 1.0918023298457673 0 0 0 0.1 53 1354 96 454 118 582 
1720 0.23701733014911144 0.39146656520163037 1.248543502922538 0 0 0 0.39 53 1355 61 445 92 342 113 32 162 327 164 433 176 371 
1721 0.23702694812559233 0.3915142271177833 1.2485422989922512 0 0 0 0.34 53 1356 61 446 92 343 164 434 176 372 
1722 0.12880448135581926 0.32541674120403774 1.00798319084779 0 0 0 1.19 53 1357 65 191 128 290 
1723 0.8747750971537991 0.22543971409319 0.9251094047006502 0 0 0 0.27 53 1358 62 139 97 307 118 583 165 301 
1724 0.4078623103800677 0.35408231546216273 1.1785066339395311 0 0 0 0.24 53 1359 60 605 92 344 158 261 176 373 
1725 0.6523447650189667 0.3071199606730895 1.1080765678032582 0 0 0 0.14 53 1360 96 455 147 299 
1726 0.23477275853925914 0.3941754813906013 1.2493687384959773 0 0 0 0.38 53 1361 61 447 92 345 113 33 118 584 176 374 
1727 0.2815793108827301 0.38418885321479807 1.2316664512704327 0 0 0 0.23 53 1362 92 346 103 284 164 435 
1728 0.7873004762070718 0.28326353751473476 1.0724587106165469 0 0 0 0.28 53 1363 92 347 147 300 164 436 165 302 
1729 0.34718656272009113 0.3703798946415224 1.206102806725633 0 0 0 0.23 53 1364 92 348 176 375 
1730 0.37606537604861656 0.36384647026778677 1.1943501724642276 0 0 0 0.24 53 1365 96 456 118 585 176 376 
1731 0.4707581843494214 0.3420173351566249 1.1563301880409567 0 0 0 0.21 53 1366 92 349 146 243 
1732 0.5235344199198163 0.33297998691108205 1.1429259470817452 0 0 0 0.09 53 1367 118 586 146 244 
1733 0.612086279752414 0.31682051675924616 1.1133987965334478 0 0 0 0.41 53 1368 77 391 85 205 96 457 118 587 128 291 146 245 164 437 176 377 
1734 0.7199348653497429 0.29719805683362743 1.084348325588416 0 0 0 0.25 53 1369 61 448 147 301 182 124 
1735 0.409256254655369 0.3588517861823179 1.17976572070434 0 0 0 0.04 53 1370 71 317 118 588 172 403 
1736 0.5417673501636707 0.3315416817203776 1.1356942950742042 0 0 0 0.19 53 1371 118 589 172 404 
1737 0.6518276229324891 0.3118650285095299 1.1073854774624854 0 0 0 0.16 53 1372 77 392 92 350 118 590 128 292 
1738 0.5582063973503305 0.32965947289611053 1.133303208717409 0 0 0 0.2 53 1373 103 285 118 591 
1739 0.5673670287843665 0.3309871302671206 1.1396296042040546 0 0 0 0.14 53 1374 118 592 147 302 
1740 0.6789696763760092 0.3060899359558834 1.0950195428199558 0 0 0 0.24 53 1375 92 351 118 593 146 246 176 378 
1741 0.23476638319191537 0.3988922167258545 1.2477395744651403 0 0 0 0.32 53 1376 118 594 157 218 172 405 
1742 0.6064834612925218 0.3198970671771772 1.1132763736566584 0 0 0 0.13 53 1377 96 458 103 286 
1743 0.7915218929784377 0.2876030529497469 1.06557300384818 0 0 0 0.15 53 1378 91 173 128 293 136 206 165 303 
1744 0.27126598572165195 0.39211060210344684 1.2324113781093142 0 0 0 0.51 53 1379 77 393 85 206 92 352 93 89 107 71 113 34 118 595 128 294 157 219 159 184 162 328 164 438 172 406 176 379 
1745 0.8144995184315674 0.2858851404335743 1.0634899725872804 0 0 0 0.32 53 1380 107 72 163 135 
1746 0.8157795470766614 0.28630158347532986 1.065102967578882 0 0 0 0.28 53 1381 107 73 111 336 162 329 
1747 0.4733364378299394 0.34856804624044 1.1554590909501459 0 0 0 0.19 53 1382 96 459 176 380 
1748 0.3602256811385553 0.3720954527772727 1.1937672249998286 0 0 0 0.07 53 1383 92 353 176 381 
1749 0.5769488571503699 0.32986059318686445 1.1215556906172048 0 0 0 0.29 53 1384 103 287 110 196 
1750 0.7124969820867941 0.30618916912892613 1.0868131982209668 0 0 0 0.26 53 1385 54 240 61 449 146 247 182 125 
1751 0.6788888750039557 0.3129210674489249 1.095195626154556 0 0 0 0.15 53 1386 92 354 163 136 
1752 0.8764866981432757 0.25270375215219665 0.9675221454656879 0 0 0 0.5 53 1387 97 308 107 74 163 137 
1753 0.7290006418492638 0.30654438540430373 1.081752414435806 0 0 0 0.18 53 1388 54 241 62 140 71 318 103 288 128 295 
1754 0.43465657267352475 0.3597678752700747 1.1576216239443162 0 0 0 0.29 53 1389 92 355 146 248 
1755 0.8657694880120157 0.20880759545938832 0.8237041423719178 0 0 0 0.21 53 1390 62 141 165 304 
1756 0.8238728353075148 0.29302685860697125 1.059159704734739 0 0 0 0.54 53 1391 54 242 61 450 71 319 73 161 77 394 85 207 107 75 118 596 120 37 136 207 147 303 162 330 
1757 0.8498648743663935 0.29369699471448113 1.0667179415807388 0 0 0 0.44 53 1392 69 112 71 320 85 208 107 76 147 304 164 439 
1758 0.36223567898993514 0.3821119582325598 1.1934672936688187 0 0 0 0.55 53 1393 158 262 176 382 
1759 0.4944630165856956 0.35269153720844626 1.1427532916304812 0 0 0 0.34 53 1394 69 113 77 395 148 326 164 440 
1760 0.5163687981459507 0.34911391143853293 1.136639371894408 0 0 0 0.11 53 1395 118 597 172 407 
1761 0.36645720707490764 0.38222784580182134 1.1862579008865122 0 0 0 0.47 53 1396 60 606 96 460 146 249 158 263 164 441 176 383 
1762 0.941534212529131 0.29575070003171333 1.0785381061054573 0 0 0 0.39 53 1397 77 396 82 59 118 598 147 305 
1763 0.24414125685033758 0.41102975480811077 1.2363195575764465 0 0 0 0.33 53 1398 61 451 176 384 
1764 0.3909630888848402 0.3789330637765233 1.180486930597359 0 0 0 0.27 53 1399 110 197 128 296 147 306 176 385 
1765 0.3824549388829368 0.38135044336539037 1.1833874932066955 0 0 0 0.34 53 1400 92 356 96 461 97 309 118 599 172 408 176 386 
1766 0.49832872205470413 0.35632575127558525 1.139875363771882 0 0 0 0.35 53 1401 61 452 69 114 118 600 147 307 
1767 0.47675429232511984 0.36169574967572016 1.147365813552104 0 0 0 0.5 53 1402 96 462 172 409 
1768 0.23556985019844648 0.4147355465604965 1.2395999709839562 0 0 0 0.5 53 1403 118 601 164 442 176 387 
1769 0.4175200016841632 0.3757993703963931 1.1688849878872154 0 0 0 0.47 53 1404 77 397 85 209 96 463 136 208 164 443 172 410 
1770 0.5801104035288196 0.3442925436410647 1.1159641630164479 0 0 0 0.35 53 1405 77 398 92 357 110 198 118 602 164 444 
1771 0.24241356443170312 0.4155686893260957 1.236328382919306 0 0 0 0.24 53 1406 92 358 113 35 176 388 
1772 0.3557860722104774 0.3905969631986713 1.1943576781807026 0 0 0 0.34 53 1407 111 337 176 389 
1773 0.2515973331692646 0.4166916234211506 1.2366315888239958 0 0 0 0.4 53 1408 71 321 77 399 113 36 172 411 
1774 0.4004344069847928 0.38120488632048877 1.1718490859421868 0 0 0 0.43 53 1409 110 199 147 308 
1775 0.805494622885332 0.30772669858119045 1.0585334302751095 0 0 0 0.35 53 1410 118 603 147 309 
1776 0.3067488386065279 0.4022443624016776 1.2072865213870327 0 0 0 0.13 53 1411 96 464 176 390 
1777 0.30454125543528726 0.404302923102141 1.2088215473854933 0 0 0 0.33 53 1412 92 359 96 465 113 37 118 604 172 412 176 391 
1778 0.31741256375398 0.4016463895308169 1.2038449883684712 0 0 0 0.32 53 1413 96 466 176 392 
1779 0.253801224774591 0.4175780402922677 1.232817021711498 0 0 0 0.47 53 1414 77 400 92 360 118 605 162 331 164 445 
1780 0.33148137918565135 0.4028088763644845 1.2056150165460269 0 0 0 0.3 53 1415 61 453 97 310 
1781 0.34316132616899014 0.398165951228131 1.19590656490697 0 0 0 0.3 53 1416 61 454 92 361 96 467 113 38 118 606 124 99 157 220 158 264 162 332 164 446 176 393 
1782 0.416936696807564 0.3821456430405065 1.1661746488397113 0 0 0 0.35 53 1417 92 362 110 200 146 250 176 394 
1783 0.42660879315034106 0.3799063058671086 1.1616745500470336 0 0 0 0.46 53 1418 164 447 176 395 
1784 0.6449166896573418 0.33983353577971676 1.0950382629371014 0 0 0 0.37 53 1419 91 174 110 201 118 607 
1785 0.6451646233936922 0.33986688808821497 1.0955386812155519 0 0 0 0.29 53 1420 91 175 118 608 
1786 0.875799143449475 0.2554724184345791 0.9098850871826316 0 0 0 0.25 53 1421 62 142 118 609 165 305 
1787 0.5682958361275198 0.3555513854579783 1.1184426488577806 0 0 0 0.45 53 1422 92 363 96 468 172 413 
1788 0.8310383374184847 0.311839867164198 1.0544478630604017 0 0 0 0.22 53 1423 61 455 128 297 147 310 
1789 0.8739131639464277 0.2491676938587549 0.8878215159149923 0 0 0 0.33 53 1424 54 243 62 143 165 306 
1790 0.6067234701737624 0.3487116343957333 1.1048254801812067 0 0 0 0.3 53 1425 110 202 172 414 
1791 0.3918296005501581 0.390424411456906 1.1731698808890816 0 0 0 0.39 53 1426 92 364 96 469 110 203 118 610 172 415 
1792 0.859097847382232 0.3127662360688524 1.0599817297838394 0 0 0 0.19 53 1427 128 298 141 130 
1793 0.5045196180880062 0.36892640611919175 1.136911615594614 0 0 0 0.44 53 1428 85 210 97 311 110 204 118 611 
1794 0.2977917974259592 0.4124402701666287 1.207748134176336 0 0 0 0.3 53 1429 92 365 113 39 
1795 0.5286922181609108 0.3656391049522247 1.1276477812679613 0 0 0 0.43 53 1430 96 470 118 612 
1796 0.5783178062721869 0.35595876241406477 1.111169787732411 0 0 0 0.44 53 1431 60 607 89 168 92 366 93 90 96 471 103 289 110 205 124 100 127 125 135 19 136 209 146 251 
1797 0.5755786769930019 0.35784014963411576 1.1159394397086349 0 0 0 0.38 53 1432 96 472 118 613 136 210 146 252 
1798 0.8051294529020514 0.3161756187815795 1.0514766911791014 0 0 0 0.47 53 1433 61 456 147 311 
1799 0.7351050105699076 0.32884242733739927 1.070242406281377 0 0 0 0.25 53 1434 118 614 128 299 172 416 
1800 0.9425640204041426 0.31482116818327094 1.0740074489581353 0 0 0 0.2 53 1435 97 312 141 131 
1801 0.3364944116448998 0.4063736238786306 1.1930431338225185 0 0 0 0.28 53 1436 61 457 176 396 
1802 0.3359438253327993 0.4058858647469872 1.1908009449841437 0 0 0 0.2 53 1437 96 473 176 397 
1803 0.8742838041957501 0.26208412941808956 0.9086462319057502 0 0 0 0.11 53 1438 62 144 165 307 
1804 0.6140765640641306 0.35191309899255474 1.0993706743725458 0 0 0 0.23 53 1439 110 206 118 615 
1805 0.7011496820475941 0.3372153943476645 1.0784811036086388 0 0 0 0.63 53 1440 61 458 77 401 110 207 
1806 0.7466828093522385 0.3305192999838439 1.0693395559130516 0 0 0 0.41 53 1441 54 244 62 145 
1807 0.29764864647449196 0.41639011800888254 1.205765735568064 0 0 0 0.24 53 1442 118 616 172 417 
1808 0.9138701674997741 0.3172128983852857 1.0611634420914304 0 0 0 0.47 53 1443 107 77 141 132 147 312 
1809 0.872214722001525 0.26319758380339203 0.9038964126742222 0 0 0 0.32 53 1444 62 146 97 313 118 617 
1810 0.3507289124382086 0.40589225367799897 1.184206129996816 0 0 0 0.19 53 1445 77 402 92 367 176 398 
1811 0.5465336230355524 0.3683206830523662 1.120567719746927 0 0 0 0.56 53 1446 118 618 164 448 
1812 0.8184287613857625 0.322480970029833 1.0493351279840937 0 0 0 0.26 53 1447 118 619 136 211 148 327 
1813 0.3002346753242881 0.4194848763718038 1.205533262480122 0 0 0 0.52 53 1448 77 403 92 368 111 338 146 253 148 328 176 399 
1814 0.8735124579852721 0.26679801798180547 0.9051877088687468 0 0 0 0.31 53 1449 62 147 141 133 
1815 0.8566911586988578 0.3226440977222227 1.0547743990481546 0 0 0 0.53 53 1450 54 245 61 459 82 60 97 314 103 290 111 339 118 620 141 134 147 313 164 449 165 308 170 31 
1816 0.5181058208602206 0.37445059388123053 1.1259110325194894 0 0 0 0.31 53 1451 96 474 146 254 172 418 
1817 0.5829388205233672 0.36204700944714713 1.1042382076717212 0 0 0 0.41 53 1452 92 369 96 475 
1818 0.9031439138172753 0.32276372271770765 1.0601333896550769 0 0 0 0.29 53 1453 61 460 77 404 85 211 111 340 163 138 165 309 170 32 
1819 0.3070828637155287 0.4213709703907093 1.2031844256942297 0 0 0 0.38 53 1454 77 405 172 419 176 400 
1820 0.503797390277996 0.3788322078221995 1.1252544884838838 0 0 0 0.93 53 1455 93 91 96 476 
1821 0.5798351854201527 0.36786182159986147 1.1087018730262168 0 0 0 0.36 53 1456 111 341 118 621 
1822 0.6974939356777587 0.3462694707087395 1.0752359598752521 0 0 0 0.51 53 1457 54 246 60 608 61 461 71 322 91 176 105 51 107 78 110 208 111 342 127 126 158 265 162 333 
1823 0.7302852924129764 0.34194481709038255 1.068762452082848 0 0 0 0.21 53 1458 71 323 105 52 118 622 
1824 0.8533146116393894 0.3284607202348477 1.0509082744449676 0 0 0 0.41 53 1459 61 462 71 324 77 406 82 61 85 212 105 53 107 79 110 209 111 343 136 212 158 266 164 450 165 310 
1825 0.8165397881030056 0.3305923944281804 1.0475002680791767 0 0 0 0.25 53 1460 54 247 73 162 97 315 103 291 148 329 165 311 
1826 0.32099890720084806 0.4101499446938116 1.1591970973686387 0 0 0 0.24 53 1461 118 623 128 300 
1827 0.5805352019644591 0.37332964442567534 1.1073007358748295 0 0 0 0.13 53 1462 96 477 118 624 
1828 0.4223672998676662 0.3857434237098172 1.1078946545317658 0 0 0 0.2 53 1463 118 625 176 401 
1829 0.8096548522693588 0.3387583963282226 1.0436148748875493 0 0 0 0.92 53 1464 61 463 71 325 77 407 110 210 111 344 
1830 0.9087455808410246 0.3405480234782338 1.056793410777916 0 0 0 0.24 53 1465 61 464 77 408 
1831 0.8750216740705546 0.2975336133876379 0.9335704939861912 0 0 0 0.41 53 1466 54 248 97 316 118 626 170 33 
1832 0.8512464851412157 0.3425446392097329 1.0464136575596452 0 0 0 0.31 53 1467 71 326 77 409 
1833 0.8757604534967823 0.30221172075503727 0.9454573114280038 0 0 0 0.5 53 1468 107 80 163 139 182 126 
1834 0.583944588588534 0.38509732557939047 1.108944175022139 0 0 0 0.34 53 1469 118 627 135 20 
1835 0.9097883477949658 0.3434324070526445 1.055038989104582 0 0 0 0.26 53 1470 105 54 165 312 
1836 0.8544994902577021 0.34433869262378497 1.0454944837801814 0 0 0 0.26 53 1471 54 249 61 465 107 81 
1837 0.8264570409823401 0.3490499017280608 1.040278245476289 0 0 0 0.48 53 1472 54 250 61 466 71 327 164 451 165 313 
1838 0.5503550231080815 0.3913984330825132 1.102681241985717 0 0 0 0.19 53 1473 61 467 118 628 146 255 
1839 0.5495007364886572 0.39098687055262416 1.1013288309590563 0 0 0 0.1 53 1474 124 101 146 256 
1840 0.08913394192285477 0.053326321524006084 1.0147116540017043 0 0 0 1.09 53 1475 64 63 97 317 103 292 118 629 
1841 0.051367907702990635 0.08925543876925818 0.8995648721462332 0 0 0 0.45 53 1476 65 192 96 478 118 630 
1842 0.05475678074917853 0.09280395845500784 0.9093785180917473 0 0 0 0.26 53 1477 96 479 118 631 
1843 0.05197737212086017 0.10074983555403348 0.8977607831688944 0 0 0 0.5 53 1478 61 468 118 632 
1844 0.8709718758639667 -0.030226668826819417 0.8806088948179968 0 0 0 0.3 53 1479 62 148 67 173 147 314 165 314 
1845 0.13878590658047874 0.16128441979723598 1.1454545962230296 0 0 0 0.5 53 1480 61 469 118 633 157 221 172 420 
1846 0.07512747325551741 0.1460263933622053 0.9249424480221613 0 0 0 0.28 53 1481 61 470 118 634 
1847 0.8745817084055761 -0.009481713724839455 0.8742248805463687 0 0 0 0.24 53 1482 62 149 64 64 141 135 
1848 0.8684713397588374 -0.002752081095599957 0.8820807268865486 0 0 0 0.13 53 1483 62 150 105 55 163 140 
1849 0.15216256835397046 0.18473437789840988 1.1723627389202553 0 0 0 0.32 53 1484 118 635 128 301 
1850 0.8654979432432597 0.00882430082572691 0.8502816466263968 0 0 0 0.23 53 1485 54 251 62 151 147 315 165 315 
1851 0.08886240741993574 0.17022414727939728 0.9656728969500469 0 0 0 0.31 53 1486 61 471 118 636 
1852 0.2813985235606005 0.19832343762912 1.3776277100774346 0 0 0 0.26 53 1487 61 472 65 193 118 637 
1853 0.5490908436782249 0.12540618944285845 1.2196571791896238 0 0 0 0.29 53 1488 73 163 118 638 146 257 152 182 
1854 0.14114880004435956 0.18963611194225866 1.1315495059259009 0 0 0 0.28 53 1489 118 639 157 222 
1855 0.607787499586061 0.12334097058625983 1.2478163885916098 0 0 0 0.25 53 1490 61 473 69 115 89 169 96 480 97 318 118 640 128 302 147 316 152 183 172 421 
1856 0.8647673364862879 0.014876092127697674 0.857738429547379 0 0 0 0.26 53 1491 54 252 62 152 141 136 147 317 165 316 
1857 0.09495248985204094 0.17507593312044176 0.9789736090762159 0 0 0 0.54 53 1492 118 641 172 422 
1858 0.8692704809986601 0.020167903426523078 0.8849377503710151 0 0 0 0.25 53 1493 141 137 147 318 163 141 170 34 
1859 0.13351673427521146 0.19136436063493328 1.1142183291238041 0 0 0 0.45 53 1494 128 303 172 423 
1860 0.6099994580601054 0.1209092615612685 1.20145778242071 0 0 0 0.26 53 1495 61 474 73 164 96 481 118 642 
1861 0.6121259661525379 0.12779027833104276 1.238650602147682 0 0 0 0.32 53 1496 64 65 89 170 118 643 138 47 
1862 0.11172726200416948 0.18202756663935843 1.0163526814636965 0 0 0 1.06 53 1497 61 475 97 319 
1863 0.6161116892748616 0.13205137007969348 1.2511739770005896 0 0 0 0.38 53 1498 89 171 96 482 118 644 
1864 0.36378566910313015 0.18194085534382096 1.2711256336624446 0 0 0 0.29 53 1499 64 66 96 483 103 293 
1865 0.42414667423606756 0.17413004430637233 1.2450169197556868 0 0 0 0.19 53 1500 60 609 96 484 97 320 
1866 0.36720748474885295 0.19224029819722357 1.2741299422119092 0 0 0 0.42 53 1501 71 328 89 172 103 294 128 304 
1867 0.3874105257543879 0.18843212221619768 1.2689622772969895 0 0 0 0.3 53 1502 118 645 128 305 
1868 0.25865467357886845 0.22264130400968443 1.3238088675452826 0 0 0 1.32 53 1503 71 329 176 402 
1869 0.27913625508568757 0.22225153822947397 1.2998326035700585 0 0 0 0.33 53 1504 61 476 97 321 118 646 157 223 
1870 0.2303638894011324 0.2350594158218767 1.320015490487878 0 0 0 0.13 53 1505 65 194 128 306 
1871 0.8125683948458495 0.11566692746952743 1.1912431368375271 0 0 0 0.42 53 1506 97 322 118 647 
1872 0.2815054933828613 0.2261169762563728 1.3032432529537201 0 0 0 0.21 53 1507 97 323 103 295 118 648 152 184 157 224 
1873 0.5065174043623412 0.17151755280956194 1.2116986392336735 0 0 0 0.61 53 1508 54 253 61 477 69 116 71 330 77 410 110 211 148 330 152 185 157 225 158 267 159 185 162 334 164 452 
1874 0.5185002851121545 0.16917784475359096 1.2093563570499974 0 0 0 0.52 52 205 53 1509 54 254 60 610 71 331 73 165 85 213 96 485 111 345 124 102 152 186 159 186 172 424 
1875 0.49971704450086496 0.1740863978615945 1.2153311757535117 0 0 0 0.61 53 1510 54 255 77 411 92 370 96 486 147 319 148 331 158 268 164 453 
1876 0.20396452203873697 0.2464934593859705 1.333123113831507 0 0 0 0.32 53 1511 65 195 118 649 138 48 157 226 
1877 0.6524244083370923 0.1451550059872461 1.1725378182425077 0 0 0 0.38 53 1512 77 412 96 487 157 227 
1878 0.8684260278931974 0.05011013481479145 0.8609330980412161 0 0 0 0.3 53 1513 62 153 147 320 165 317 
1879 0.14127409735582305 0.2209779555783814 1.120545526657894 0 0 0 0.36 53 1514 61 478 157 228 
1880 0.1405044161250476 0.2203626365315006 1.1145966056386627 0 0 0 0.17 53 1515 157 229 172 425 
1881 0.5177468225264974 0.17624095352564703 1.210289472420139 0 0 0 0.43 53 1516 61 479 92 371 96 488 
1882 0.2873687920936966 0.23128683192644858 1.2919226694178483 0 0 0 0.38 53 1517 97 324 103 296 111 346 127 127 128 307 152 187 157 230 158 269 
1883 0.8672522926089563 0.05932510225764269 0.892164636792858 0 0 0 0.49 53 1518 62 154 67 174 97 325 138 49 165 318 182 127 
1884 0.7345705721998841 0.13128699234661317 1.1539576076489886 0 0 0 0.23 53 1519 61 480 62 155 67 175 71 332 89 173 96 489 165 319 
1885 0.8616890069340895 0.04939157842673373 0.8333269651985651 0 0 0 0.21 53 1520 54 256 62 156 147 321 
1886 0.46492306631362784 0.19075377732300328 1.223226771898365 0 0 0 0.47 53 1521 96 490 158 270 162 335 
1887 0.5466516479415924 0.17386174997380505 1.2023363149497843 0 0 0 0.38 53 1522 77 413 92 372 
1888 0.5466516479415914 0.1738617499738046 1.2023363149497772 0 0 0 0.38 53 1523 77 414 92 373 
1889 0.7251667089081473 0.13737840917550032 1.1539576764525714 0 0 0 0.45 53 1524 60 611 67 176 81 148 111 347 
1890 0.7381019577551081 0.13375235903734942 1.1500750241204258 0 0 0 0.26 53 1525 89 174 96 491 152 188 158 271 182 128 
1891 0.15372059131165786 0.23030438641743906 1.1522407231018463 0 0 0 0.46 53 1526 61 481 157 231 
1892 0.8625043014863729 0.05791744422662803 0.8539659088118741 0 0 0 0.09 53 1527 62 157 147 322 
1893 0.11631360642010319 0.21684475751792665 1.037834307895613 0 0 0 0.5 53 1528 96 492 118 650 157 232 
1894 0.22281647232311336 0.25474623733881047 1.3177247158075076 0 0 0 0.25 53 1529 64 67 96 493 103 297 111 348 128 308 138 50 
1895 0.2816091211297716 0.24057258389937147 1.2964243398866682 0 0 0 0.19 53 1530 71 333 111 349 118 651 152 189 176 403 
1896 0.5914737809049124 0.16785352810541823 1.1708980998417533 0 0 0 0.45 53 1531 61 482 152 190 
1897 0.1210076134772442 0.22207339923180044 1.0558535525135926 0 0 0 0.21 53 1532 118 652 157 233 172 426 
1898 0.3956390499669544 0.21536645302422888 1.2422551482745463 0 0 0 0.19 53 1533 71 334 118 653 128 309 176 404 
1899 0.25921744085533466 0.24903916214857133 1.2959776519951742 0 0 0 0.2 53 1534 110 212 146 258 176 405 
1900 0.3017412795922749 0.24011662455339167 1.279937779879098 0 0 0 0.53 53 1535 71 335 97 326 
1901 0.6093290322004226 0.1696117185401997 1.1754060344353474 0 0 0 0.15 53 1536 61 483 73 166 
1902 0.35849259900503294 0.2252973872744612 1.248481373393135 0 0 0 0.11 53 1537 61 484 97 327 176 406 
1903 0.3703121484152699 0.2249286545200817 1.2534844544297172 0 0 0 0.23 53 1538 60 612 96 494 110 213 
1904 0.39596620962806073 0.21786844591482646 1.2360502335614958 0 0 0 0.17 53 1539 61 485 71 336 97 328 100 49 103 298 118 654 128 310 146 259 147 323 176 407 
1905 0.5640858057209384 0.18143299516858613 1.190695513491153 0 0 0 0.41 53 1540 61 486 92 374 93 92 96 495 97 329 110 214 124 103 146 260 157 234 158 272 176 408 
1906 0.4158790783967537 0.21264586637192356 1.2253752880523068 0 0 0 0.3 53 1541 60 613 61 487 71 337 77 415 89 175 92 375 96 496 103 299 110 215 111 350 118 655 127 128 136 213 147 324 148 332 162 336 172 427 176 409 
1907 0.4853953660971754 0.19935106612613718 1.2122108449490911 0 0 0 0.58 53 1542 92 376 96 497 97 330 146 261 158 273 172 428 176 410 
1908 0.5573091838636177 0.18395989551916353 1.1911864669195127 0 0 0 0.42 53 1543 61 488 92 377 93 93 110 216 124 104 176 411 
1909 0.13548204496017183 0.23132875917507015 1.0947940662571038 0 0 0 0.6 53 1544 61 489 172 429 
1910 0.12800334426072493 0.22946446411911905 1.0734206415798069 0 0 0 0.19 53 1545 65 196 118 656 157 235 
1911 0.14442951527353168 0.2387796687661254 1.120992643880904 0 0 0 0.17 53 1546 118 657 128 311 157 236 
1912 0.5326989323391388 0.1940818169662459 1.197214417160197 0 0 0 0.5 53 1547 61 490 89 176 96 498 97 331 146 262 158 274 172 430 176 412 
1913 0.5314075791194995 0.19388084102805628 1.1957741869326082 0 0 0 0.36 53 1548 85 214 92 378 97 332 172 431 176 413 
1914 0.1359105712253493 0.23569439066670053 1.092932566499602 0 0 0 0.23 53 1549 65 197 118 658 157 237 
1915 0.24073254586651585 0.2627869876249255 1.3035538776449915 0 0 0 0.23 53 1550 110 217 111 351 118 659 148 333 159 187 
1916 0.869270557716126 0.08624719959914962 0.9257664362178262 0 0 0 0.4 53 1551 62 158 97 333 138 51 163 142 182 129 
1917 0.8687943296812011 0.09409142748942076 0.9550812095847494 0 0 0 0.49 53 1552 54 257 67 177 82 62 97 334 103 300 111 352 147 325 163 143 165 320 
1918 0.8697992229732655 0.09393671519340095 0.9558424168036839 0 0 0 0.15 53 1553 64 68 82 63 141 138 147 326 
1919 0.21676157283398165 0.2717151024320275 1.3144551083699552 0 0 0 0.58 53 1554 64 69 65 198 67 178 128 312 138 52 176 414 
1920 0.5932554420200915 0.18446068387135903 1.1772641566707711 0 0 0 0.5 53 1555 61 491 71 338 118 660 
1921 0.8662990341397008 0.09022177385136626 0.9316235961362198 0 0 0 0.34 53 1556 62 159 67 179 69 117 97 335 118 661 165 321 182 130 
1922 0.23188006669927375 0.2679907425913246 1.3042174418690813 0 0 0 0.25 53 1557 96 499 128 313 157 238 158 275 
1923 0.24517142033300712 0.2651494599828276 1.3005273341957113 0 0 0 0.44 53 1558 61 492 71 339 73 167 77 416 85 215 92 379 96 500 103 301 111 353 127 129 146 263 157 239 158 276 159 188 172 432 176 415 
1924 0.26044932391378206 0.261513450038687 1.2940706512003493 0 0 0 0.37 53 1559 71 340 85 216 92 380 93 94 96 501 146 264 152 191 157 240 158 277 164 454 
1925 0.6443609735070916 0.17448188578602838 1.1599880456715537 0 0 0 0.29 53 1560 61 493 92 381 96 502 128 314 146 265 165 322 181 109 
1926 0.2778992499543442 0.25764949565677964 1.28575751595059 0 0 0 0.31 53 1561 61 494 71 341 77 417 92 382 96 503 118 662 127 130 128 315 146 266 157 241 158 278 159 189 164 455 176 416 
1927 0.22573195382199146 0.27381375740255054 1.3161834973454323 0 0 0 0.32 53 1562 65 199 128 316 138 53 157 242 172 433 
1928 0.20338604964439605 0.2788626635645282 1.317779626619478 0 0 0 0.48 53 1563 65 200 67 180 71 342 96 504 111 354 118 663 157 243 159 190 172 434 176 417 
1929 0.719568341992462 0.16152350639785212 1.138894107003087 0 0 0 0.23 53 1564 61 495 176 418 
1930 0.8174601497980045 0.1444671715322759 1.1321526794921524 0 0 0 0.25 53 1565 97 336 172 435 
1931 0.8889599994353609 0.10642483480924418 0.9767445099987644 0 0 0 0.24 53 1566 64 70 97 337 118 664 
1932 0.8615074440453283 0.08743476275818764 0.869098995138264 0 0 0 0.41 53 1567 62 160 64 71 65 201 97 338 141 139 147 327 165 323 
1933 0.08753158316786004 0.21925168810944173 0.9364548732745158 0 0 0 0.53 53 1568 96 505 118 665 128 317 
1934 0.22928377625112187 0.2792218102707122 1.2990436464804787 0 0 0 0.37 53 1569 60 614 61 496 67 181 77 418 92 383 96 506 103 302 110 218 111 355 127 131 128 318 138 54 157 244 162 337 164 456 172 436 176 419 
1935 0.6850607447254047 0.18061064740387528 1.1506197923626507 0 0 0 0.39 53 1570 54 258 60 615 71 343 73 168 77 419 85 217 87 19 96 507 97 339 105 56 118 666 120 38 146 267 148 334 159 191 162 338 163 144 165 324 172 437 
1936 0.6904212195562173 0.17949496340290005 1.1493165525275726 0 0 0 0.38 53 1571 54 259 69 118 77 420 85 218 92 384 146 268 159 192 162 339 
1937 0.08883077098765328 0.2210482058401249 0.9313997370943888 0 0 0 0.28 53 1572 118 667 128 319 
1938 0.7012304608622291 0.17786771407881413 1.1460033173661037 0 0 0 0.39 53 1573 96 508 105 57 118 668 164 457 172 438 
1939 0.4244150786107522 0.23507107086742454 1.2166090202140019 0 0 0 0.23 53 1574 60 616 61 497 67 182 89 177 96 509 100 50 111 356 118 669 136 214 158 279 172 439 176 420 
1940 0.7512056021418551 0.1693410724820223 1.1334238583063752 0 0 0 0.19 53 1575 54 260 71 344 85 219 91 177 118 670 147 328 159 193 176 421 
1941 0.7551137949078138 0.16797914359271693 1.1286945080879094 0 0 0 0.54 53 1576 54 261 71 345 97 340 
1942 0.7573752586230613 0.16866000739248338 1.1323200877398125 0 0 0 0.58 53 1577 54 262 71 346 91 178 118 671 147 329 176 422 
1943 0.762847975363897 0.16768874151587249 1.129081446510023 0 0 0 0.34 53 1578 54 263 71 347 91 179 92 385 97 341 118 672 146 269 147 330 148 335 159 194 176 423 
1944 0.7719295172989653 0.1664804272233738 1.1292845643246288 0 0 0 0.42 53 1579 54 264 91 180 97 342 148 336 
1945 0.47753836193457067 0.22575052034562054 1.198621247340914 0 0 0 0.2 53 1580 100 51 147 331 172 440 
1946 0.7781875137657909 0.16434982221571595 1.1216329442131303 0 0 0 0.55 53 1581 54 265 97 343 118 673 
1947 0.7821304057866698 0.16485458592630267 1.1267072622833982 0 0 0 0.86 53 1582 54 266 67 183 97 344 176 424 
1948 0.5114094554979409 0.2204255350062975 1.192636930147842 0 0 0 0.31 53 1583 61 498 92 386 96 510 172 441 
1949 0.7975423915322785 0.1626615655378706 1.1222141040259055 0 0 0 0.49 53 1584 61 499 73 169 77 421 92 387 118 674 147 332 
1950 0.50762300202595 0.22135571261061737 1.193199296225794 0 0 0 0.24 53 1585 96 511 147 333 172 442 
1951 0.870946927507766 0.12660123078942945 1.0056310210083774 0 0 0 0.24 53 1586 89 178 123 11 129 101 147 334 
1952 0.8117945364474667 0.16032897211583255 1.1158370945044171 0 0 0 0.57 53 1587 61 500 77 422 141 140 158 280 
1953 0.8670265077901054 0.12813655408672478 1.0085166651517752 0 0 0 0.2 53 1588 97 345 165 325 
1954 0.5379923681077486 0.21706470711688725 1.1854631439410206 0 0 0 0.35 53 1589 92 388 97 346 172 443 176 425 
1955 0.8609823764003228 0.15770567690866835 1.1342854871258294 0 0 0 0.33 53 1590 67 184 89 179 128 320 172 444 182 131 
1956 0.16105691796467939 0.2667573381898287 1.1591223496776364 0 0 0 0.27 53 1591 61 501 118 675 128 321 157 245 
1957 0.16036292327568577 0.26578170465845097 1.1537530949116768 0 0 0 0.34 53 1592 65 202 118 676 128 322 
1958 0.587873041637487 0.20870360503515828 1.1721984998405242 0 0 0 0.2 53 1593 92 389 96 512 172 445 
1959 0.6000068597488817 0.20634126163578237 1.1678487686010022 0 0 0 0.1 53 1594 103 303 172 446 
1960 0.13595338540578225 0.25321199546654194 1.0774528818200695 0 0 0 0.32 53 1595 65 203 118 677 157 246 172 447 
1961 0.8691842023684855 0.1214167626411759 0.9636658661570421 0 0 0 0.31 53 1596 64 72 97 347 118 678 138 55 147 335 165 326 
1962 0.12962331931144783 0.25270954899560716 1.0662862237689255 0 0 0 0.47 53 1597 128 323 157 247 
1963 0.12942062747616026 0.25242513053557536 1.064600616811992 0 0 0 0.37 53 1598 61 502 118 679 128 324 157 248 172 448 
1964 0.13257874850891685 0.25483800471021817 1.0682630567316622 0 0 0 0.24 53 1599 118 680 128 325 172 449 
1965 0.7256053367958967 0.18558360030024487 1.1350486170664715 0 0 0 0.36 53 1600 60 617 61 503 67 185 89 180 97 348 141 141 146 270 157 249 158 281 172 450 176 426 
1966 0.7386376717136443 0.1842905870330907 1.1306550612194775 0 0 0 0.52 53 1601 60 618 62 161 85 220 91 181 110 219 111 357 118 681 148 337 159 195 162 340 163 145 164 458 165 327 
1967 0.7925284110767001 0.17414404058857738 1.1146772662161821 0 0 0 0.36 53 1602 62 162 67 186 73 170 91 182 111 358 162 341 163 146 164 459 165 328 172 451 
1968 0.8657923593495391 0.1381113478435268 1.0078716280144449 0 0 0 0.19 53 1603 82 64 97 349 
1969 0.7974529716307717 0.1755343433115852 1.114360902492685 0 0 0 0.28 120 39 123 12 158 282 
1970 0.12226984140662166 0.2542197355591737 1.0388067295462895 0 0 0 0.49 53 1604 65 204 118 682 128 326 
1971 0.8674919620160803 0.13976166833938425 1.002245240481275 0 0 0 0.19 53 1605 54 267 62 163 118 683 147 336 165 329 
1972 0.22523533641122595 0.3029000470395826 1.2958304487814825 0 0 0 0.15 53 1606 61 504 97 350 110 220 128 327 
1973 0.8641460272254217 0.1723929781475932 1.119472112040235 0 0 0 0.27 53 1607 61 505 71 348 82 65 89 181 97 351 123 13 
1974 0.1299216435293619 0.26271694256414074 1.0623287997812132 0 0 0 0.23 53 1608 118 684 157 250 172 452 
1975 0.12906190776829193 0.26070952311299483 1.0535444235772677 0 0 0 0.18 53 1609 96 513 118 685 
1976 0.8634027158018551 0.1736093987355789 1.1125124559315025 0 0 0 0.3 53 1610 61 506 164 460 
1977 0.870190038774278 0.13085042452865633 0.9389263215278886 0 0 0 0.25 53 1611 62 164 91 183 97 352 118 686 165 330 
1978 0.21992394566768952 0.3082463571904493 1.2987656198161404 0 0 0 0.3 53 1612 61 507 146 271 
1979 0.3043686658079215 0.28830919317622167 1.264785010371604 0 0 0 0.15 53 1613 96 514 97 353 
1980 0.6882691027137657 0.20684227247174025 1.145924117712614 0 0 0 0.19 53 1614 61 508 147 337 
1981 0.6792276272716338 0.2074809519580567 1.1439361998872108 0 0 0 0.19 53 1615 96 515 118 687 147 338 157 251 
1982 0.24530525419809704 0.30380310910376496 1.288532194705907 0 0 0 0.28 53 1616 61 509 71 349 
1983 0.9056150721870426 0.17665276747874387 1.1268893566433476 0 0 0 0.34 53 1617 54 268 62 165 65 205 71 350 77 423 89 182 91 184 97 354 103 304 118 688 134 49 147 339 152 192 165 331 172 453 182 132 
1984 0.8723717920314071 0.1328294045129974 0.925459737778377 0 0 0 0.41 53 1618 54 269 69 119 118 689 165 332 
1985 0.6148939079720707 0.22313962751601812 1.1512436492756593 0 0 0 0.36 53 1619 97 355 172 454 
1986 0.7975944289772563 0.18892152083677738 1.1123792608412642 0 0 0 0.35 53 1620 61 510 73 171 118 690 128 328 164 461 172 455 182 133 
1987 0.15956648646540275 0.2844452798609048 1.144296248690719 0 0 0 0.29 53 1621 61 511 157 252 
1988 0.8677033788867983 0.15549706591734874 1.0082940171853811 0 0 0 0.13 53 1622 118 691 165 333 
1989 0.8683012539818409 0.15547615379719928 1.0089631313354483 0 0 0 0.19 53 1623 118 692 147 340 165 334 
1990 0.8688562549697393 0.15498729185111612 0.9999193483069448 0 0 0 0.32 53 1624 62 166 141 142 147 341 165 335 
1991 0.14438692300507563 0.27728531490725616 1.0985150601106137 0 0 0 0.19 53 1625 128 329 172 456 
1992 0.24203465640790098 0.31258677851139255 1.284561468627306 0 0 0 0.12 53 1626 61 512 71 351 172 457 
1993 0.9000061541150042 0.1826692620491074 1.1168069093945232 0 0 0 0.18 53 1627 61 513 92 390 
1994 0.08039046578193175 0.23844326254929352 0.9006834030974461 0 0 0 0.25 53 1628 61 514 118 693 
1995 0.2836379664383768 0.3041921425472271 1.2685751427971936 0 0 0 0.17 53 1629 61 515 96 516 
1996 0.8691185273118336 0.14718795026002643 0.9521197390489069 0 0 0 0.3 53 1630 91 185 118 694 147 342 
1997 0.8671848913272266 0.18858336858688965 1.1125730852687636 0 0 0 0.33 53 1631 67 187 89 183 
1998 0.8709099221753415 0.19060589470670222 1.1103457397181296 0 0 0 0.31 53 1632 89 184 97 356 164 462 165 336 
1999 0.24241509385072818 0.3178412929982467 1.2812490683775593 0 0 0 0.25 53 1633 92 391 96 517 97 357 159 196 
2000 0.3596990480445356 0.289453305550612 1.2287465585286403 0 0 0 0.28 53 1634 96 518 158 283 
2001 0.8861054381624013 0.1911492152090983 1.1151562173219833 0 0 0 0.31 53 1635 67 188 82 66 89 185 92 392 158 284 172 458 
2002 0.29273815425627453 0.30702827912421277 1.2581763841899636 0 0 0 0.23 53 1636 64 73 97 358 158 285 172 459 176 427 
2003 0.06983487202883157 0.23593970749026943 0.8670307141808706 0 0 0 0.24 53 1637 61 516 118 695 
2004 0.12275588279855384 0.2709817365019784 1.0268846104941658 0 0 0 0.28 53 1638 118 696 128 330 
2005 0.25639442222008635 0.31655808406015934 1.2692367148120733 0 0 0 0.24 53 1639 96 519 118 697 158 286 172 460 176 428 
2006 0.36782333648650223 0.2912048967785632 1.2289122979628118 0 0 0 0.27 53 1640 89 186 92 393 97 359 110 221 124 105 157 253 176 429 
2007 0.8705812313475857 0.14693124962823562 0.9221174079801046 0 0 0 0.38 53 1641 97 360 141 143 165 337 
2008 0.3240116422947931 0.30270910214077884 1.2434469275970308 0 0 0 0.36 53 1642 60 619 67 189 71 352 77 424 81 149 97 361 103 305 111 359 128 331 146 272 148 338 159 197 162 342 164 463 172 461 176 430 
2009 0.635100633116347 0.23798145027587175 1.1484061904285199 0 0 0 0.5 53 1643 71 353 118 698 157 254 159 198 172 462 182 134 
2010 0.8692469960667849 0.17259935253247113 1.0096409813620013 0 0 0 0.12 53 1644 97 362 118 699 
2011 0.8226892492733359 0.2026253394911324 1.0995355801487965 0 0 0 0.21 53 1645 54 270 73 172 77 425 89 187 103 306 111 360 147 343 164 464 165 338 
2012 0.3677377153106181 0.2960187925288831 1.22632773767194 0 0 0 0.14 53 1646 110 222 157 255 158 287 172 463 
2013 0.12309414211797731 0.27487017056786117 1.0258787893608257 0 0 0 0.11 53 1647 118 700 172 464 
2014 0.8703231011739221 0.14986835891305142 0.9081865782919735 0 0 0 0.21 53 1648 97 363 118 701 147 344 
2015 0.4837282451751174 0.2715677704830048 1.1831402721426612 0 0 0 0.42 53 1649 89 188 100 52 
2016 0.24627259877238336 0.3285163843331968 1.2753623365225186 0 0 0 0.08 53 1650 97 364 113 40 172 465 
2017 0.28377906620398263 0.3208587543086748 1.2620087850724044 0 0 0 0.27 53 1651 96 520 162 343 
2018 0.7106159864622813 0.23087451185207253 1.1224259935960526 0 0 0 0.22 53 1652 54 271 61 517 69 120 77 426 89 189 96 521 134 50 146 273 147 345 157 256 165 339 172 466 176 431 182 135 
2019 0.7253911628950468 0.22902263944487045 1.121633314508894 0 0 0 0.24 53 1653 54 272 61 518 69 121 71 354 73 173 77 427 96 522 128 332 141 144 146 274 147 346 152 193 157 257 158 288 165 340 172 467 176 432 
2020 0.4387429312125839 0.2860477245962206 1.1979140670499882 0 0 0 0.18 53 1654 147 347 172 468 176 433 
2021 0.7559596477465206 0.22441812593058597 1.115275925123785 0 0 0 0.29 53 1655 89 190 107 82 165 341 
