# 3D point list with one line of data per point:
#   POINT3D_ID, X, Y, Z, R, G, B, ERROR, TRACK[] as (IMAGE_ID, POINT2D_IDX)
# Number of points: 346, mean track length: 7.65
719 -0.47531138536265066 -0.007810253527305381 1.036293091701792 0 0 0 0.14 68 719 140 227 151 172 161 105 173 98 
720 -0.4894831290064756 -0.005179421598026236 1.0118714920380478 0 0 0 0.22 68 720 143 100 144 189 145 64 
721 -0.4146306380164615 0.01328288233520763 1.2159005642193206 0 0 0 0.38 68 721 116 116 122 65 143 101 150 198 151 173 131 121 
722 -0.4778103087522329 0.01014070704208959 1.0303866690335435 0 0 0 0.18 68 722 72 94 102 34 193 150 218 93 
723 -0.1693024770135369 0.02933596192028189 1.2912185258208246 0 0 0 0.26 68 723 106 175 140 228 177 168 180 144 
724 -0.3684283080139769 0.02673107890882561 1.3378816923867867 0 0 0 0.24 68 724 139 147 143 102 202 150 212 137 216 199 226 72 57 180 72 95 99 149 144 190 150 199 177 169 189 120 
725 -0.48873548032954983 0.012373327662645678 0.8333249152045843 0 0 0 0.24 68 725 139 148 178 92 202 151 228 212 
726 -0.48942245959193154 0.014172284151424025 0.8560781151995129 0 0 0 0.27 68 726 90 44 211 112 
727 -0.4549380529196483 0.03165857559194305 1.147696528569976 0 0 0 0.29 68 727 131 122 177 170 202 152 
728 -0.45985376253571 0.030423589671111265 1.0007148033003763 0 0 0 0.36 68 728 140 229 143 103 151 174 193 151 
729 -0.4457403496291092 0.03634652121417226 1.0822095472303936 0 0 0 0.3 68 729 131 123 143 104 193 152 
730 -0.4469771097248799 0.03819579484105338 1.1042520138033851 0 0 0 0.21 68 730 116 117 140 230 151 175 212 138 
731 -0.43994743082285376 0.04555707521311502 1.1376347985966753 0 0 0 0.19 68 731 140 231 166 121 
732 -0.44073812405558277 0.048703772129207616 1.111619136388856 0 0 0 0.09 68 732 144 191 228 213 
733 -0.14767805272198134 0.06501597656971274 1.2900842564454775 0 0 0 0.19 68 733 137 138 177 171 
734 -0.03125676242250456 0.07267440835656325 1.2658406054393703 0 0 0 0.17 68 734 106 176 202 153 191 113 
735 -0.2895207763186224 0.07277287840462815 1.3058620911260783 0 0 0 0.27 68 735 161 106 180 145 
736 -0.2830584674525372 0.0732782430482412 1.3144208494562968 0 0 0 0.21 68 736 144 192 161 107 216 200 
737 -0.49707225799503413 0.04025066186161166 0.8030736004096446 0 0 0 0.31 68 737 106 177 202 154 
738 -0.40689373429762754 0.0695950652909918 1.2256709453601733 0 0 0 0.43 68 738 116 118 143 105 226 73 
739 -0.3685617632634566 0.07712050086600013 1.3296009226450025 0 0 0 0.39 68 739 119 114 186 49 228 214 140 232 191 114 
740 -0.32305238067701875 0.08294752882916513 1.3185257483361792 0 0 0 0.25 68 740 137 139 228 215 78 89 
741 -0.4776500051910942 0.0685841575413359 1.0486722129986517 0 0 0 0.65 68 741 151 176 202 155 
742 -0.4472230453803392 0.0700416785347283 1.025507943960838 0 0 0 0.21 68 742 125 117 139 149 140 233 150 200 151 177 216 201 228 216 233 157 
743 -0.4741993502783432 0.07046787013425461 0.8990262938429205 0 0 0 0.22 68 743 90 45 131 124 202 156 
744 -0.49251336118727185 0.08142539102819084 0.8295355246764057 0 0 0 0.2 68 744 125 118 139 150 228 217 
745 -0.47652727741155015 0.09038065872480561 0.9173741188515433 0 0 0 0.16 68 745 166 122 211 113 228 218 
746 -0.47152562818672605 -0.23554792282263703 0.9549726645922021 0 0 0 0.36 68 746 161 108 205 88 
747 -0.49647572216791336 -0.21882315197463242 0.8944960984063818 0 0 0 0.66 68 747 149 109 150 201 211 114 233 158 
748 -0.41880934268184794 -0.2739440391904479 1.2536387894607701 0 0 0 0.67 68 748 137 140 140 234 150 202 171 51 
749 -0.4957223048055653 -0.18656338990850502 0.8360569627483875 0 0 0 0.37 68 749 137 141 180 146 145 65 205 89 
750 -0.4965395330932924 -0.18645999574289945 0.8633451132962359 0 0 0 0.46 68 750 186 50 202 157 
751 -0.5132341594852093 -0.2336147684674179 1.073967843345507 0 0 0 0.24 68 751 125 119 228 219 
752 -0.5113459821916313 -0.17642693707570156 0.8385362319354278 0 0 0 0.34 68 752 137 142 151 178 161 109 
753 -0.5411372319370445 -0.16092645854894347 0.7468903750626742 0 0 0 0.33 68 753 140 235 205 90 
754 -0.4787506583109995 -0.18628011941325098 0.9269011474173154 0 0 0 0.34 68 754 122 66 144 193 149 110 151 179 161 110 193 153 202 158 216 202 226 74 233 159 
755 -0.4953779548113534 -0.15466500278550444 0.832671719101264 0 0 0 0.17 68 755 90 46 116 119 
756 -0.47770611634403 -0.18801321186793055 1.1340903613054143 0 0 0 0.25 68 756 122 67 150 203 216 203 
757 -0.4716508721635668 -0.15024523577247653 0.9464578105608634 0 0 0 0.24 68 757 150 204 151 180 161 111 180 147 205 91 
758 -0.4630584218482664 -0.1302150465557981 0.9264229634603506 0 0 0 0.31 68 758 139 151 161 112 211 115 
759 -0.5328841528021288 -0.11962358863444339 0.8118300163724759 0 0 0 0.2 68 759 137 143 205 92 216 204 233 160 
760 -0.48021811186181207 -0.1320488724333911 1.0509368236209777 0 0 0 0.29 68 760 140 236 150 205 193 154 205 93 
761 -0.09884187835373572 -0.1260417458467429 1.2991511615140732 0 0 0 0.22 68 761 189 121 191 115 72 96 78 90 168 59 
762 -0.36952011864648343 -0.1327919620643046 1.3618492588556532 0 0 0 0.27 68 762 122 68 131 125 
763 -0.490460233975314 -0.08480190293625246 1.003156592554558 0 0 0 0.37 68 763 191 116 216 205 94 75 
764 -0.4162218660666414 -0.08933157872957048 1.2283527512858465 0 0 0 0.41 68 764 94 76 125 120 143 106 150 206 166 123 211 116 
765 -0.41225187512207057 -0.08909741426896751 1.2373198800293888 0 0 0 0.25 68 765 125 121 137 144 144 194 150 207 189 122 202 159 211 117 233 161 
766 -0.35579143780574396 -0.09204782467156183 1.3454978690635562 0 0 0 0.09 68 766 137 145 186 51 
767 -0.054081394507862965 -0.06561994371014587 1.2890931803007746 0 0 0 0.33 68 767 106 178 202 160 30 144 31 182 57 181 72 97 78 91 79 18 80 31 99 150 140 237 168 60 177 172 189 123 191 117 
768 -0.34697479951156157 -0.07946419503143842 1.3465622619242383 0 0 0 0.49 68 768 99 151 131 126 171 52 178 93 180 148 202 161 210 30 225 28 233 162 
769 -0.29481748179435513 -0.07297348639113689 1.3249314751257153 0 0 0 0.85 68 769 161 113 177 173 225 29 
770 -0.37859473082656614 -0.07062506189882096 1.3494320345054516 0 0 0 0.23 68 770 86 50 122 69 131 127 137 146 
771 -0.11141741931944382 -0.04988770593121485 1.3006962008568248 0 0 0 0.21 68 771 140 238 202 162 
772 -0.3614415935347153 -0.05403321618206089 1.3468636034572086 0 0 0 0.22 68 772 140 239 150 208 178 94 
773 -0.2025497520299051 -0.034153018581936354 1.2999785932968053 0 0 0 0.45 68 773 106 179 137 147 143 107 150 209 78 92 168 61 191 118 
774 -0.4929870201492526 -0.032215260103258245 0.8226050878797228 0 0 0 0.53 68 774 211 118 233 163 
775 -0.10995962275183215 -0.009049843975052251 1.283194957355409 0 0 0 0.13 68 775 99 152 150 210 
776 -0.49095295164993275 -0.017993307943522496 0.8581206472069897 0 0 0 0.24 68 776 119 115 137 148 177 174 191 119 228 220 
777 -0.49358774409100964 -0.013460279074358797 0.8679709763040357 0 0 0 0.2 68 777 137 149 216 206 
778 -0.4413228387730572 -0.014988954684327068 1.322345809443056 0 0 0 0.87 68 778 119 116 202 163 226 75 233 164 
779 -0.4170770235970414 0.0013940657403955098 1.2195032422677279 0 0 0 0.17 68 779 116 120 125 122 139 152 228 221 
780 -0.3904123784405461 0.013758440060676764 1.34649299685866 0 0 0 0.72 68 780 143 108 150 211 180 149 189 124 191 120 193 155 202 164 99 153 106 180 233 165 
781 -0.5281976346146839 0.005635694632636893 0.717828672900409 0 0 0 0.6 68 781 205 94 233 166 
782 -0.23586174734335563 0.03646783794247822 1.3161932413830684 0 0 0 0.23 68 782 140 240 144 195 212 139 
783 -0.11107284994893316 0.08616674517846525 1.2755329216793705 0 0 0 0.21 68 783 99 154 191 121 
784 -0.3140517774855101 0.09390809524826188 1.3204212379847053 0 0 0 0.67 68 784 180 150 189 125 31 183 57 182 140 241 168 62 178 95 191 122 228 222 
785 -0.5355976799519834 -0.16063504305799245 0.795935764114829 0 0 0 0.29 68 785 90 47 149 111 205 95 233 167 
786 -0.5366324840382359 -0.09400951150685535 0.7410970463744224 0 0 0 0.46 68 786 161 114 211 119 
787 -0.5378468848510171 -0.09302804164880464 0.7764664593009567 0 0 0 0.34 68 787 137 150 139 153 161 115 186 52 205 96 211 120 233 168 
788 -0.540334993538055 -0.0924798883115846 0.7916894480774161 0 0 0 0.41 68 788 125 123 233 169 
789 -0.07642492604274911 -0.07564460096783915 1.2930119585768107 0 0 0 0.51 68 789 150 212 191 123 31 184 55 118 78 93 80 32 99 155 
790 -0.37622272396991624 -0.09821619250466297 1.3435495959144452 0 0 0 0.39 68 790 178 96 202 165 
791 -0.4716935056145951 -0.05252288887199554 0.9330810466415351 0 0 0 0.3 68 791 90 48 150 213 161 116 180 151 233 170 
792 -0.4295523667350903 -0.05186403961540404 1.37184106141428 0 0 0 0.17 68 792 119 117 191 124 
793 -0.1860224234887423 -0.03454897527003886 1.3010588010407245 0 0 0 0.25 68 793 106 181 140 242 150 214 180 152 78 94 
794 -0.3681814824140311 -0.04583291009331529 1.33946582539095 0 0 0 0.29 68 794 116 121 137 151 
795 -0.5453493670647349 -0.03230970275997075 0.744184257034522 0 0 0 0.16 68 795 177 175 228 223 
796 -0.5434070245472475 -0.03214232916162817 0.7494896434810375 0 0 0 0.47 68 796 131 128 140 243 144 196 145 66 161 117 
797 -0.0037571027302175505 -0.0008447486835614603 1.2790543630098576 0 0 0 0.3 68 797 99 156 202 166 
798 -0.2966713478050092 -0.009671128275814513 1.3119199408249187 0 0 0 0.23 68 798 202 167 212 140 
799 -0.4560318984826916 -0.007625451102713029 1.1290766535343542 0 0 0 0.33 68 799 125 124 150 215 212 141 233 171 
800 -0.015634817883893995 0.012642288130429294 1.2775367144053191 0 0 0 0.17 68 800 99 157 202 168 
801 -0.24002685705977211 0.022486063685123105 1.2992848259427427 0 0 0 0.52 68 801 189 126 31 185 57 183 78 95 99 158 140 244 150 216 177 176 228 224 
802 -0.35926626927197663 0.02839375027842888 1.3397440580203468 0 0 0 0.31 68 802 139 154 144 197 202 169 57 184 106 182 143 109 177 177 189 127 
803 -0.37490007547146914 0.04501108353080702 1.336885391480301 0 0 0 0.3 68 803 131 129 140 245 189 128 30 145 150 217 168 63 177 178 180 153 191 125 
804 -0.35730044395488664 0.05615376786423592 1.3451061202450016 0 0 0 0.34 68 804 72 98 102 35 116 122 131 130 143 110 144 198 154 83 173 99 178 97 180 154 191 126 193 156 202 170 212 142 216 207 24 129 31 186 57 185 59 182 119 118 137 152 140 246 150 218 168 64 177 179 189 129 228 225 
805 -0.5048556111563789 0.03565825029895218 0.8638356660590714 0 0 0 0.4 68 805 151 181 212 143 
806 -0.47951783383446456 -0.1448521054073516 0.9236637111309799 0 0 0 0.13 68 806 122 70 216 208 
807 -0.5319941984543372 -0.12175161317986802 0.7631852657549735 0 0 0 0.15 68 807 125 125 149 112 210 31 212 144 
808 -0.4577100254022445 -0.10823505910645419 1.1529373675955674 0 0 0 0.19 68 808 150 219 151 182 193 157 
809 -0.5172804676757795 -0.0473120137733163 0.824387597780801 0 0 0 0.43 68 809 139 155 145 67 151 183 161 118 183 59 205 97 
810 -0.4549815071978765 -0.059612053651959825 1.1370106277308807 0 0 0 0.4 68 810 106 183 131 131 193 158 8 80 31 187 37 93 72 99 86 51 102 36 133 33 137 153 140 247 143 111 149 113 150 220 154 84 168 65 173 100 177 180 202 171 212 145 216 209 225 30 226 76 
811 -0.38100283275695324 0.028052162929852516 1.3447910864103045 0 0 0 0.25 68 811 139 156 144 199 
812 -0.5541914559718999 -0.23054991965311744 0.854262620758096 0 0 0 0.29 68 812 161 119 183 60 205 98 
813 -0.4838858376028862 -0.23167397076377005 0.9280407310534611 0 0 0 0.27 68 813 211 121 233 172 
814 -0.5169716049453882 -0.2700649224764591 1.247112015797927 0 0 0 0.68 68 814 150 221 151 184 178 98 
815 -0.37923096715231774 -0.14932612888178867 1.3732707483314177 0 0 0 0.57 68 815 131 132 151 185 212 146 
816 -0.4307080171872923 -0.10904404632738297 1.2165536499487521 0 0 0 0.43 68 816 177 181 178 99 193 159 216 210 34 178 37 94 72 100 102 37 137 154 140 248 143 112 168 66 218 94 226 77 
817 -0.4885526819562192 0.04616619528663448 0.8170397597906397 0 0 0 0.64 68 817 90 49 183 61 
818 -0.5454763119946268 -0.31070714172603525 1.174226449923455 0 0 0 0.48 68 818 144 200 216 211 
819 -0.5027166403039783 -0.2629825709718424 1.148233011014524 0 0 0 0.68 68 819 151 186 161 120 150 222 
820 -0.5101920138703628 -0.22623140308465328 1.1147220747786997 0 0 0 0.41 68 820 150 223 233 173 
821 -0.4925751383211956 -0.18102608115169114 0.9388155632134888 0 0 0 0.24 68 821 161 121 205 99 
822 -0.4880832170342568 -0.18786028408422312 1.0788385831727736 0 0 0 0.22 68 822 144 201 150 224 
823 -0.4744380053131374 -0.03397395689983764 0.9512422673616003 0 0 0 0.76 68 823 144 202 191 127 228 226 
824 -0.06954577261251724 -0.001955462280858482 1.270935385451308 0 0 0 0.34 68 824 140 249 202 172 
825 -0.531564062395359 0.0006414527104205353 0.78975637084166 0 0 0 0.43 68 825 139 157 144 203 228 227 233 174 
826 -0.33111984589808363 0.015442140119691408 1.3448629569451966 0 0 0 0.56 68 826 137 155 178 100 212 147 24 130 30 146 31 188 59 183 99 159 121 14 139 158 140 250 144 204 150 225 154 85 168 67 180 155 216 212 228 228 
827 -0.20642935666156442 -0.15498411967817324 1.3257766479810933 0 0 0 0.22 68 827 106 184 180 156 
828 -0.19426197608699783 0.061899134931434285 1.3096444552624944 0 0 0 0.61 68 828 140 251 150 226 189 130 191 128 137 156 
829 -0.5301313502998317 -0.31203768841145707 1.1121026354494015 0 0 0 0.79 68 829 119 119 145 68 
830 -0.46983317592008284 0.06421323730263812 1.1381750483564201 0 0 0 0.3 68 830 133 34 144 205 193 160 
831 -0.5249259560786069 -0.3152451270074655 1.2170411563955206 0 0 0 1.23 68 831 145 69 150 227 216 213 228 229 
832 -0.4684809399710796 -0.24704996574154955 0.9495530294039808 0 0 0 0.42 23 121 34 179 37 95 59 184 72 101 86 52 94 77 115 7 125 126 144 206 150 228 151 187 154 86 166 124 168 68 173 101 177 182 178 101 183 62 191 129 193 161 212 148 218 95 228 230 
833 -0.4766214430931023 -0.14249982687082616 1.0458000896615354 0 0 0 0.63 24 131 55 119 72 102 125 127 168 69 183 63 
834 -0.4695965706674217 -0.05605072835620245 1.0698332728004543 0 0 0 0.41 37 96 140 252 143 113 150 229 168 70 173 102 177 183 218 96 
835 -0.5892191948150063 -0.05563724551571552 0.5291124061011947 0 0 0 0.06 153 0 168 71 178 102 
836 -0.5812529233218655 -0.02915822455914035 0.563210177082349 0 0 0 0.3 8 81 23 122 24 132 59 185 72 103 125 128 131 133 143 114 153 1 168 72 173 103 180 157 193 162 212 149 218 97 
837 -0.5263385258355047 -0.09328429989019117 0.827423345221672 0 0 0 0.4 8 82 57 186 99 160 131 134 143 115 168 73 193 163 
838 -0.5470013758362622 -0.06753587028632782 0.6902857205674562 0 0 0 0.54 8 83 23 123 30 147 37 97 46 116 72 104 86 53 99 161 102 38 116 123 119 120 125 129 131 135 137 157 139 159 140 253 143 116 149 114 153 2 154 87 166 125 168 74 171 53 173 104 177 184 178 103 180 158 183 64 193 164 210 32 212 150 216 214 218 98 226 78 228 231 233 175 
839 -0.4779100617526021 -0.22837196849113175 0.8924672031986549 0 0 0 0.64 23 124 57 187 59 186 72 105 86 54 94 78 102 39 115 8 116 124 131 136 166 126 168 75 173 105 177 185 178 104 180 159 191 130 202 173 210 33 212 151 228 232 133 35 
840 -0.31989531462422166 -0.0878610080433528 1.3314547694144991 0 0 0 0.66 55 120 102 40 119 121 133 36 168 76 171 54 177 186 
841 -0.29581029716633994 -0.08923711082647354 1.3285825320181428 0 0 0 0.85 55 121 72 106 102 41 140 254 168 77 143 117 
842 -0.5077520921720786 -0.029456555149963627 0.8379293714791373 0 0 0 0.57 24 133 30 148 57 188 59 187 72 107 94 79 116 125 125 130 131 137 133 37 140 255 166 127 168 78 173 106 177 187 180 160 183 65 193 165 202 174 211 122 212 152 216 215 218 99 226 79 228 233 
843 -0.45801038881332384 -0.008488380108668508 1.110066288560162 0 0 0 0.54 23 125 72 108 143 118 149 115 166 128 168 79 173 107 177 188 178 105 226 80 55 122 133 38 154 88 
844 -0.47963623857444665 -0.016085417999567687 0.8742391319981405 0 0 0 0.75 8 84 23 126 30 149 37 98 46 117 55 123 57 189 59 188 72 109 102 42 119 122 125 131 131 138 133 39 137 158 139 160 140 256 143 119 144 207 149 116 166 129 168 80 177 189 183 66 191 131 193 166 202 175 210 34 211 123 212 153 216 216 218 100 226 81 228 234 233 176 
845 -0.59129706190955 -0.1506321115975855 0.5403406163077715 0 0 0 0.31 8 85 23 127 24 134 72 110 86 55 131 139 153 3 168 81 173 108 178 106 180 161 
846 -0.5906445352486855 -0.1436237885813604 0.5386622929791521 0 0 0 0.34 8 86 23 128 24 135 72 111 86 56 143 120 153 4 166 130 168 82 173 109 178 107 180 162 212 154 218 101 
847 -0.4866749062139648 -0.12402271633738392 0.9217855123555667 0 0 0 0.94 8 87 23 129 143 121 168 83 173 110 225 31 
848 -0.5871924852077205 -0.07913407429890863 0.5213093965992441 0 0 0 0.32 8 88 23 130 24 136 34 180 72 112 131 140 137 159 143 122 144 208 151 188 153 5 154 89 168 84 171 55 173 111 178 108 180 163 193 167 202 176 
849 -0.5787650707274711 -0.03138165227646008 0.5483792382474251 0 0 0 0.29 8 89 23 131 24 137 37 99 46 118 59 189 72 113 102 43 119 123 125 132 131 141 143 123 153 6 166 131 168 85 171 56 173 112 180 164 191 132 193 168 202 177 212 155 216 217 226 82 228 235 
850 -0.5603331446155372 -0.1704184509833662 0.6782039320195905 0 0 0 0.29 8 90 72 114 102 44 115 9 119 124 154 90 168 86 183 67 
851 -0.5779929421597154 -0.12019631982689563 0.5553622987411982 0 0 0 0.21 8 91 23 132 24 138 34 181 57 190 72 115 102 45 121 15 131 142 168 87 193 169 212 156 226 83 
852 -0.5751976418128644 -0.11041705337797846 0.5570841183655977 0 0 0 0.19 59 190 153 7 168 88 178 109 202 178 218 102 
853 -0.5904813992366255 -0.10660159670408485 0.5248285516187248 0 0 0 0.38 8 92 24 139 72 116 94 80 102 46 119 125 166 132 168 89 218 103 
854 -0.4794437902801171 -0.015518774286519321 1.0415806954940026 0 0 0 0.23 8 93 31 189 149 117 168 90 173 113 178 110 180 165 72 117 131 143 144 209 218 104 233 177 
855 -0.4285204354610714 0.0010936418159764032 1.20867962530682 0 0 0 0.31 8 94 23 133 24 140 30 150 31 190 34 182 37 100 46 119 55 124 57 191 59 191 72 118 94 81 99 162 102 47 116 126 119 126 121 16 125 133 131 144 133 40 137 160 139 161 140 257 143 124 144 210 150 230 151 189 154 91 166 133 168 91 171 57 173 114 177 190 178 111 180 166 191 133 193 170 202 179 210 35 211 124 212 157 216 218 218 105 226 84 228 236 233 178 
856 -0.43866507824922146 0.0021318415408566834 1.1965006173828026 0 0 0 0.51 8 95 23 134 24 141 37 101 55 125 59 192 119 127 125 134 131 145 133 41 139 162 143 125 144 211 154 92 168 92 173 115 180 167 216 219 
857 -0.4947807205441411 0.003804219664931795 1.001626348394879 0 0 0 0.28 8 96 23 135 31 191 72 119 168 93 173 116 218 106 
858 -0.4519605291759689 0.026773877125392666 1.1842774657826223 0 0 0 0.22 8 97 23 136 168 94 173 117 180 168 
859 -0.44282185031939086 0.04078846286500006 1.0688724914043983 0 0 0 0.25 8 98 24 142 46 120 57 192 59 193 116 127 125 135 131 146 140 258 143 126 149 118 166 134 168 95 177 191 178 112 180 169 191 134 193 171 216 220 218 107 233 179 
860 -0.49241573968489993 0.02533163291256518 0.831556889417711 0 0 0 0.45 8 99 23 137 72 120 102 48 168 96 171 58 173 118 177 192 178 113 218 108 
861 -0.5434539967594756 -0.1508512790698989 0.7508009169847385 0 0 0 0.32 8 100 23 138 34 183 37 102 59 194 72 121 86 57 94 82 102 49 115 10 116 128 119 128 125 136 131 147 137 161 140 259 143 127 144 212 149 119 151 190 153 8 154 93 166 135 168 97 173 119 177 193 178 114 180 170 183 68 191 135 193 172 202 180 210 36 211 125 218 109 226 85 228 237 233 180 
862 -0.5464793766878061 -0.08083069809383715 0.6922595006536315 0 0 0 0.26 8 101 23 139 72 122 102 50 153 9 168 98 226 86 
863 -0.4758058310859395 -0.060329404988335375 0.9204793293296367 0 0 0 0.34 8 102 24 143 31 192 37 103 46 121 55 126 57 193 72 123 86 58 94 83 102 51 116 129 119 129 125 137 131 148 133 42 144 213 168 99 171 59 173 120 180 171 183 69 191 136 193 173 210 37 212 158 218 110 228 238 
864 -0.5605132679356477 -0.034857846350797805 0.6200801677181397 0 0 0 0.21 8 103 23 140 24 144 72 124 154 94 168 100 173 121 180 172 218 111 
865 -0.576772213531704 -0.03455044799493976 0.5536436559130663 0 0 0 0.37 8 104 23 141 34 184 57 194 59 195 72 125 102 52 125 138 131 149 144 214 151 191 153 10 166 136 168 101 171 60 173 122 178 115 180 173 193 174 202 181 212 159 218 112 226 87 
866 -0.4921890918377159 0.007236100350422551 0.8417751112196624 0 0 0 0.23 8 105 23 142 34 185 72 126 131 150 143 128 144 215 166 137 168 102 173 123 178 116 212 160 218 113 
867 -0.4796018722635873 0.013229707956780613 0.9500730633460914 0 0 0 0.32 8 106 143 129 168 103 178 117 
868 -0.406949072506694 0.0327291823988683 1.220293159341849 0 0 0 0.61 8 107 57 195 143 130 144 216 154 95 168 104 
869 -0.4704008671712796 0.02604985390071736 1.0863507146474303 0 0 0 0.35 8 108 23 143 72 127 99 163 102 53 116 130 143 131 168 105 173 124 177 194 226 88 
870 -0.49034458977000234 0.07265259143759033 0.8227022894810301 0 0 0 0.4 8 109 24 145 31 193 34 186 99 164 139 163 144 217 168 106 171 61 180 174 183 70 
871 -0.5770208171776797 -0.15361141849377213 0.5760529558456006 0 0 0 0.35 8 110 23 144 34 187 57 196 59 196 72 128 94 84 116 131 125 139 133 43 151 192 153 11 166 138 168 107 178 118 216 221 
872 -0.5565079761096836 -0.15719394188902278 0.682424801531408 0 0 0 0.28 8 111 55 127 72 129 102 54 115 11 131 151 133 44 140 260 143 132 144 218 153 12 154 96 168 108 173 125 177 195 178 119 183 71 193 175 228 239 
873 -0.5701778410661539 -0.046376749483762726 0.6139401829601417 0 0 0 0.57 8 112 24 146 34 188 57 197 59 197 102 55 116 132 131 152 133 45 143 133 144 219 153 13 154 97 168 109 173 126 193 176 218 114 226 89 228 240 
874 -0.5433296665276628 -0.0378435450620955 0.6822323054696462 0 0 0 0.28 8 113 23 145 24 147 72 130 140 261 144 220 153 14 168 110 173 127 177 196 178 120 193 177 202 182 212 161 218 115 
875 -0.5932969253019702 -0.03899856826028502 0.5135880996725912 0 0 0 0.43 8 114 34 189 37 104 57 198 72 131 102 56 125 140 143 134 144 221 151 193 153 15 166 139 168 111 171 62 173 128 178 121 202 183 218 116 226 90 228 241 
876 -0.5315372146972788 -0.0288158542102159 0.789909469036745 0 0 0 0.7 8 115 102 57 119 130 154 98 168 112 173 129 178 122 226 91 23 146 
877 -0.4072929031530831 0.07433885468066413 1.205789575347819 0 0 0 0.49 8 116 23 147 24 148 30 151 34 190 37 105 57 199 59 198 99 165 116 133 131 153 143 135 144 222 151 194 154 99 166 140 168 113 173 130 180 175 202 184 226 92 228 242 
878 -0.5738935877921039 0.023069267925072755 0.46165974216043304 0 0 0 0.77 8 117 34 191 37 106 46 122 55 128 59 199 121 17 131 154 137 162 144 223 151 195 166 141 168 114 171 63 211 126 212 162 216 222 218 117 228 243 
879 -0.5321252045346012 -0.13829620161971168 0.7651271807634477 0 0 0 0.38 8 118 37 107 57 200 94 85 102 58 116 134 125 141 131 155 144 224 149 120 154 100 166 142 168 115 177 197 178 123 210 38 216 223 23 148 30 152 72 132 115 12 119 131 139 164 140 262 151 196 173 131 180 176 191 137 193 178 212 163 218 118 226 93 233 181 
880 -0.47809225596549704 -0.10575614675998307 0.8861374733296445 0 0 0 0.46 8 119 31 194 59 200 72 133 102 59 131 156 166 143 168 116 177 198 178 124 212 164 218 119 57 201 99 166 116 135 121 18 125 142 133 46 140 263 144 225 149 121 151 197 154 101 173 132 193 179 202 185 210 39 216 224 226 94 
881 -0.5456828710971428 -0.10197434489856758 0.7060152734090299 0 0 0 0.19 8 120 23 149 72 134 153 16 168 117 173 133 
882 -0.5327608621723237 -0.09641965407056469 0.8174197947624862 0 0 0 0.73 8 121 34 192 46 123 55 129 57 202 94 86 125 143 131 157 140 264 154 102 166 144 168 118 177 199 180 177 183 72 191 138 193 180 210 40 216 225 218 120 226 95 228 244 
883 -0.5320206741868198 -0.017159394784800608 0.8089864510559639 0 0 0 0.44 8 122 72 135 99 167 102 60 121 19 143 136 168 119 173 134 178 125 202 186 171 64 180 178 
884 -0.525378363476931 -0.0008565566279841205 0.8181633376088968 0 0 0 0.9 8 123 23 150 31 195 37 108 72 136 168 120 173 135 178 126 
885 -0.5036087253629165 0.015610383465168227 0.8132579409269527 0 0 0 0.34 8 124 23 151 72 137 131 158 144 226 168 121 173 136 177 200 218 121 
886 -0.5468870229074935 -0.12290904895591541 0.6923276863479393 0 0 0 0.49 8 125 23 152 59 201 72 138 86 59 131 159 143 137 151 198 153 17 168 122 177 201 178 127 183 73 193 181 202 187 212 165 218 122 226 96 228 245 
887 -0.5627840552494382 -0.10893347718183335 0.6411015156558766 0 0 0 0.36 8 126 23 153 72 139 86 60 102 61 151 199 153 18 166 145 168 123 173 137 178 128 180 179 212 166 218 123 
888 -0.5624926842401328 -0.10701019203932674 0.6822116754908628 0 0 0 0.43 8 127 72 140 102 62 153 19 168 124 173 138 
889 -0.5735791587064409 -0.08604417539757737 0.5661824053911167 0 0 0 0.58 8 128 24 149 72 141 131 160 143 138 153 20 168 125 173 139 180 180 212 167 218 124 226 97 
890 -0.49473116438750114 -0.01709833042595178 0.8288415071471563 0 0 0 0.46 8 129 23 154 24 150 30 153 31 196 34 193 55 130 57 203 59 202 72 142 102 63 116 136 131 161 140 265 143 139 144 227 149 122 151 200 168 126 173 140 177 202 178 129 180 181 193 182 211 127 212 168 216 226 218 125 
891 -0.5759060133838845 -0.02128811145249504 0.5843193195042355 0 0 0 0.68 8 130 72 143 102 64 131 162 153 21 168 127 173 141 226 98 23 155 
892 -0.5724786631109231 -0.11480843782646087 0.6068522296865646 0 0 0 0.53 8 131 23 156 59 203 72 144 153 22 168 128 171 65 173 142 178 130 180 182 218 126 
893 -0.5877282499715332 -0.07902727261347776 0.5078801701631669 0 0 0 0.48 8 132 24 151 55 131 72 145 143 140 168 129 171 66 34 194 37 109 57 204 59 204 86 61 94 87 116 137 125 144 131 163 144 228 151 201 166 146 180 183 191 139 193 183 202 188 212 169 218 127 228 246 
894 -0.5654259135130351 -0.039899447678605496 0.6180781408009072 0 0 0 0.56 8 133 102 65 131 164 133 47 168 130 173 143 180 184 183 74 193 184 218 128 233 182 
895 -0.5712589785631386 -0.020961547480119035 0.5972476044129139 0 0 0 0.73 8 134 23 157 59 205 153 23 168 131 173 144 180 185 218 129 
896 -0.49085770882200924 0.02843791473106091 0.8336532035912997 0 0 0 0.59 8 135 23 158 24 152 30 154 34 195 57 205 59 206 99 168 102 66 116 138 121 20 139 165 143 141 144 229 168 132 177 203 180 186 183 75 191 140 193 185 202 189 218 130 
897 -0.4884292822621939 -0.15225687281503616 0.8836802070602343 0 0 0 0.49 23 159 31 197 72 146 131 165 140 266 168 133 173 145 177 204 178 131 193 186 216 227 
898 -0.5384646620870601 -0.11492349096855738 0.7894482071262924 0 0 0 0.33 23 160 72 147 99 169 102 67 154 103 166 147 168 134 177 205 
899 -0.4780551529757089 0.004311086744553298 0.9498922748325291 0 0 0 0.29 23 161 31 198 72 148 168 135 173 146 178 132 
900 -0.5783903720828055 -0.17401432521817678 0.5744722833244236 0 0 0 0.16 23 162 72 149 143 142 168 136 173 147 
901 -0.5641246456194647 -0.17069174236642556 0.6498252924456452 0 0 0 0.21 23 163 72 150 102 68 168 137 173 148 226 99 
902 -0.5804300678317889 -0.15934885866529785 0.620532783689063 0 0 0 0.27 23 164 72 151 168 138 173 149 
903 -0.5602326632243334 -0.15184858946388927 0.6812017139100847 0 0 0 0.37 23 165 55 132 57 206 72 152 102 69 115 13 131 166 137 163 144 230 153 24 166 148 168 139 173 150 177 206 178 133 180 187 193 187 218 131 226 100 
904 -0.5729957690652232 -0.14306286292980944 0.6145790445213809 0 0 0 0.21 23 166 72 153 102 70 153 25 168 140 178 134 202 190 
905 -0.47282227477150907 -0.14047315496775067 0.9841509090299899 0 0 0 0.6 23 167 72 154 115 14 131 167 168 141 173 151 177 207 218 132 225 32 
906 -0.575195886590928 -0.10787511766183308 0.6150137980098214 0 0 0 0.49 23 168 24 153 57 207 153 26 168 142 178 135 180 188 226 101 171 67 
907 -0.5672847399202274 -0.10427250580836905 0.6515853258143078 0 0 0 0.12 23 169 131 168 168 143 178 136 143 143 
908 -0.010148229992238123 -0.11209177207436961 1.2943949143623414 0 0 0 0.25 23 170 24 154 57 208 72 155 140 267 150 231 168 144 177 208 202 191 
909 -0.5640627967651313 -0.06943958738521278 0.6145869551836827 0 0 0 0.28 23 171 72 156 86 62 116 139 119 132 131 169 143 144 153 27 154 104 168 145 178 137 191 141 193 188 202 192 212 170 216 228 
910 -0.5502926516545 -0.06633517685419517 0.6840592459940159 0 0 0 0.25 23 172 34 196 59 207 102 71 140 268 143 145 151 202 153 28 154 105 168 146 173 152 178 138 180 189 202 193 212 171 
911 0.0452823573836014 -0.054275952025954484 1.2810331259805023 0 0 0 0.53 23 173 24 155 57 209 78 96 80 33 99 170 106 185 140 269 168 147 177 209 189 131 202 194 72 157 
912 -0.48194006152183455 -0.04176260781006635 0.8721353717400706 0 0 0 0.23 23 174 24 156 57 210 121 21 131 170 140 270 144 231 168 148 173 153 212 172 218 133 226 102 228 247 
913 -0.5595757696135465 -0.012771221915173846 0.49337431693199607 0 0 0 0.46 23 175 153 29 168 149 173 154 
914 -0.47529353197464624 0.01885375187492828 0.915257562233608 0 0 0 0.36 23 176 31 199 34 197 59 208 72 158 102 72 116 140 119 133 140 271 143 146 151 203 168 150 177 210 178 139 193 189 218 134 226 103 233 183 
915 -0.4466176048565815 0.03927796724343128 1.1312169994326056 0 0 0 0.27 23 177 34 198 55 133 57 211 59 209 125 145 131 171 140 272 144 232 150 232 166 149 168 151 173 155 191 142 193 190 228 248 
916 -0.44435785239859493 0.0436546884237358 1.1069981806634244 0 0 0 0.81 57 212 144 233 168 152 
917 -0.35322522874214457 0.06542507320242363 1.327332452044031 0 0 0 0.2 23 178 106 186 119 134 131 172 168 153 177 211 212 173 
918 -0.49579123301975486 -0.26702599409764866 0.8964315983512466 0 0 0 0.84 23 179 115 15 168 154 173 156 
919 -0.4755536992857922 -0.2243615212229221 0.9397994449730787 0 0 0 0.4 23 180 31 200 72 159 94 88 102 73 115 16 154 106 168 155 173 157 193 191 202 195 228 249 
920 -0.5910804642837657 -0.16398598556316912 0.5468468275706709 0 0 0 0.44 23 181 24 157 59 210 72 160 119 135 144 234 154 107 168 156 173 158 178 140 180 190 193 192 
921 -0.5622008381597707 -0.16973644090050946 0.6565152134925005 0 0 0 0.26 23 182 72 161 102 74 168 157 173 159 218 135 226 104 
922 -0.5921244082082684 -0.14965947849972414 0.5524637482854544 0 0 0 0.18 23 183 153 30 168 158 173 160 
923 -0.5873908643032217 -0.14206690891629634 0.5278970743068648 0 0 0 0.19 23 184 72 162 102 75 153 31 168 159 173 161 180 191 191 143 193 193 202 196 218 136 
924 -0.48660418631034297 -0.16629096210891767 0.8651243062220693 0 0 0 0.35 23 185 72 163 131 173 168 160 173 162 177 212 218 137 225 33 
925 -0.5589952181837414 -0.1444381410086009 0.6846817224433681 0 0 0 0.37 23 186 59 211 94 89 131 174 154 108 166 150 168 161 177 213 178 141 180 192 202 197 218 138 228 250 
926 -0.5760018146251573 -0.12313987000558953 0.5601565202102797 0 0 0 0.22 23 187 24 158 72 164 86 63 102 76 131 175 153 32 166 151 168 162 171 68 173 163 178 142 180 193 193 194 202 198 212 174 218 139 226 105 
927 -0.5341410924333333 -0.10677892546549961 0.7679107483442273 0 0 0 0.26 23 188 102 77 115 17 131 176 168 163 173 164 178 143 218 140 
928 -0.5614470647429068 -0.06905274214688534 0.6200114809780384 0 0 0 0.34 23 189 72 165 153 33 168 164 171 69 180 194 202 199 226 106 
929 -0.4449582255163207 0.008231674176596107 1.1316105051868135 0 0 0 0.63 23 190 31 201 57 213 72 166 168 165 173 165 178 144 
930 0.07012920789772353 0.037976906810806274 1.2704004449049011 0 0 0 0.26 23 191 57 214 168 166 
931 -0.4833877843737651 0.019293988266753836 1.019195734772932 0 0 0 0.31 23 192 72 167 116 141 133 48 143 147 168 167 173 166 218 141 34 199 59 212 
932 -0.4447308189094265 0.041272848076439765 1.1654371262819128 0 0 0 0.18 23 193 24 159 168 168 180 195 218 142 
933 -0.5727425912821229 -0.1727339604540805 0.6244125408269692 0 0 0 0.37 23 194 72 168 102 78 115 18 153 34 168 169 173 167 178 145 226 107 
934 -0.5315044696761313 -0.12162041740326461 0.7625801148932922 0 0 0 0.25 23 195 72 169 86 64 99 171 102 79 115 19 131 177 153 35 154 109 168 170 173 168 177 214 178 146 180 196 
935 -0.09404150888727826 -0.06474927753046392 1.27883550882554 0 0 0 0.72 23 196 140 273 168 171 
936 -0.5554550063445393 -0.060074187155842125 0.6689117325441073 0 0 0 0.5 23 197 24 160 37 110 57 215 59 213 72 170 86 65 94 90 99 172 116 142 119 136 125 146 140 274 144 235 149 123 151 204 153 36 166 152 168 172 171 70 173 169 178 147 180 197 191 144 193 195 210 41 211 128 218 143 228 251 
937 -0.5841360963327483 -0.03901110177458997 0.5793331318475451 0 0 0 0.36 23 198 72 171 153 37 168 173 173 170 180 198 102 80 131 178 
938 -0.4519448369023138 0.0345474008289611 1.119485307289339 0 0 0 0.5 23 199 46 124 59 214 102 81 116 143 131 179 168 174 173 171 177 215 212 175 37 111 57 216 133 49 216 229 218 144 228 252 
939 -0.5717867805856476 -0.16265833682751743 0.6161699341619882 0 0 0 0.25 23 200 72 172 102 82 115 20 131 180 168 175 173 172 226 108 
940 -0.531828946884026 -0.09650565915066345 0.7761665150574848 0 0 0 0.19 23 201 131 181 168 176 218 145 
941 -0.42963315968982074 -0.05427842513060734 1.2138729441047222 0 0 0 0.36 23 202 31 202 37 112 46 125 59 215 72 173 86 66 99 173 102 83 119 137 121 22 125 147 131 182 140 275 151 205 166 153 168 177 173 173 178 148 180 199 191 145 202 200 210 42 225 34 228 253 
942 -0.5696936634241558 -0.04443455552005662 0.6484857752602223 0 0 0 0.22 23 203 153 38 168 178 173 174 140 276 178 149 
943 -0.5317118111643842 0.0020593344529245897 0.8072272419909873 0 0 0 0.38 23 204 55 134 133 50 143 148 168 179 178 150 202 201 
944 -0.5732244644752202 -0.042174699525706946 0.5509410111722196 0 0 0 0.54 23 205 72 174 131 183 153 39 168 180 178 151 193 196 218 146 226 109 
945 -0.4764288456407918 -0.01673664319469776 1.0136540685220417 0 0 0 0.18 23 206 72 175 168 181 173 175 
946 -0.5553215775900069 -0.06432640578432582 0.6707673072785948 0 0 0 0.4 23 207 24 161 34 200 57 217 72 176 94 91 119 138 133 51 139 166 140 277 143 149 144 236 149 124 151 206 153 40 166 154 168 182 171 71 173 176 178 152 180 200 183 76 193 197 202 202 218 147 226 110 
947 -0.5754102300815088 -0.039696722615714795 0.5843155718987252 0 0 0 0.74 23 208 72 177 102 84 119 139 153 41 168 183 178 153 216 230 133 52 226 111 
948 -0.5607651659772905 -0.040806596825829135 0.6741582058723653 0 0 0 0.38 23 209 72 178 102 85 131 184 133 53 143 150 168 184 226 112 
949 -0.40677619827488964 0.06513172271632102 1.198224663256901 0 0 0 0.8 23 210 121 23 131 185 154 110 168 185 
950 -0.4214896450913733 0.06397215833842902 1.170566076578587 0 0 0 0.3 23 211 168 186 173 177 
951 -0.6024622657386951 -0.12022097453827434 0.5166882089292635 0 0 0 0.28 24 162 153 42 168 187 173 178 
952 -0.60036991897937 -0.12139179889720379 0.5478521108588654 0 0 0 0.38 59 216 168 188 178 154 
953 -0.4629062173670576 -0.11465300506328623 1.1117498732583018 0 0 0 0.26 24 163 57 218 102 86 154 111 168 189 178 155 
954 -0.484010074751596 -0.0862716572576772 0.8801553980229264 0 0 0 0.27 24 164 34 201 37 113 57 219 59 217 72 179 94 92 99 174 102 87 116 144 119 140 137 164 139 167 140 278 143 151 144 237 151 207 154 112 166 155 168 190 171 72 177 216 193 198 202 203 210 43 211 129 212 176 216 231 228 254 233 184 
955 -0.41561666210523773 -0.08504704816431417 1.369380043221077 0 0 0 0.11 24 165 57 220 59 218 168 191 
956 0.06248014638178406 -0.05864868294747628 1.281587797375327 0 0 0 0.17 24 166 168 192 191 146 
957 -0.48646862827548887 -0.04036001556710434 0.8623862156534008 0 0 0 0.22 24 167 131 186 168 193 
958 -0.580150815600214 -0.12429809607431426 0.5539020650967599 0 0 0 0.31 24 168 37 114 46 126 57 221 59 219 86 67 94 93 116 145 121 24 125 148 149 125 154 113 166 156 168 194 171 73 180 201 191 147 202 204 212 177 216 232 218 148 226 113 228 255 
959 -0.5879002215728911 -0.06657422629208386 0.5163672798944341 0 0 0 0.22 24 169 72 180 168 195 173 179 226 114 
960 -0.5874607676346291 -0.019611821332827267 0.5353272000646802 0 0 0 0.2 24 170 143 152 168 196 173 180 
961 -0.4242406341178291 -0.0057791931683032795 1.2175608065058807 0 0 0 0.52 24 171 72 181 99 175 125 149 143 153 166 157 168 197 171 74 178 156 211 130 212 178 
962 -0.5711311027376124 0.011548825917308691 0.4677663239929171 0 0 0 0.43 24 172 34 202 72 182 166 158 168 198 178 157 218 149 
963 -0.3465572137436652 0.11343479606735804 1.324618914552888 0 0 0 0.3 24 173 99 176 121 25 137 165 168 199 180 202 
964 -0.44332519134699777 0.04082278845114654 1.1783444417604005 0 0 0 0.64 24 174 31 203 99 177 131 187 168 200 173 181 191 148 218 150 
965 -0.5603888936773119 -0.08480651726425494 0.6598972986270217 0 0 0 0.36 24 175 59 220 168 201 171 75 178 158 180 203 202 205 212 179 
966 -0.5957000277413144 -0.16014235762168785 0.5125719958533062 0 0 0 0.59 24 176 37 115 59 221 72 183 86 68 94 94 102 88 116 146 125 150 133 54 151 208 168 202 173 182 178 159 180 204 202 206 
967 -0.5908000639398377 -0.1585406222569223 0.5450766143421574 0 0 0 0.3 24 177 72 184 102 89 131 188 133 55 153 43 168 203 173 183 178 160 216 233 218 151 226 115 
968 -0.5718255083802087 -0.05024071947473434 0.5627414818683871 0 0 0 0.35 24 178 168 204 173 184 180 205 
969 0.02205644942243487 0.01938659614609417 1.2883915146456213 0 0 0 0.64 24 179 72 185 140 279 168 205 
970 0.0827275022613713 0.04168592715302777 1.2805057329575118 0 0 0 0.3 24 180 57 222 168 206 
971 0.08283122109203267 0.06546585558796608 1.2746842141382737 0 0 0 0.29 24 181 57 223 168 207 
972 -0.4720112774518136 0.06460653291432918 0.9222546238136026 0 0 0 0.5 24 182 37 116 57 224 121 26 131 189 168 208 180 206 202 207 
973 -0.012882461931870098 -0.10652395426393332 1.2900327932672448 0 0 0 0.3 30 155 72 186 80 34 99 178 140 280 150 233 
974 -0.022168271467695382 -0.10680805549861411 1.2912407681638804 0 0 0 0.26 30 156 57 225 78 97 80 35 99 179 140 281 
975 -0.02795683967264306 -0.10662535609948562 1.2912920569167257 0 0 0 0.31 30 157 78 98 80 36 99 180 140 282 
976 -0.07563080260181763 -0.08880046058398157 1.2906989116663814 0 0 0 0.39 30 158 78 99 79 19 80 37 140 283 150 234 
977 -0.19587638919409703 -0.09664386526256814 1.3035514624289806 0 0 0 0.28 30 159 78 100 99 181 140 284 150 235 31 204 72 187 80 38 106 187 
978 0.026921192475920352 -0.0786481351536086 1.284842917758677 0 0 0 0.23 30 160 72 188 78 101 79 20 140 285 31 205 80 39 99 182 106 188 
979 0.02961114134254317 -0.07537467836030355 1.2829974400895645 0 0 0 0.66 30 161 31 206 78 102 79 21 80 40 99 183 106 189 140 286 189 132 
980 -0.04798057158247451 -0.07798628093102548 1.2924235197189275 0 0 0 0.2 30 162 78 103 80 41 
981 -0.13962854508022798 -0.08290093026097194 1.2981800562344121 0 0 0 0.26 30 163 78 104 79 22 80 42 99 184 140 287 150 236 177 217 216 234 
982 -0.017802482551400323 -0.06732773518374073 1.2875770830210853 0 0 0 0.4 30 164 78 105 79 23 80 43 99 185 
983 -0.02433559499867896 -0.06744170201373113 1.2894357973379067 0 0 0 0.24 30 165 78 106 99 186 
984 -0.3425903521632924 -0.06993912412995243 1.340493977834 0 0 0 0.23 30 166 72 189 99 187 140 288 233 185 
985 -0.159126166831586 -0.055672109747470507 1.2978963540356119 0 0 0 0.24 30 167 78 107 106 190 140 289 143 154 150 237 177 218 
986 -0.3034776531955296 -0.06080440364032559 1.322137681618414 0 0 0 0.46 30 168 31 207 78 108 99 188 140 290 150 238 212 180 233 186 
987 -0.3302997843485927 -0.05965845259027632 1.3261943086282346 0 0 0 0.1 30 169 140 291 143 155 
988 -0.19392509521898266 -0.05140555598745119 1.2993944336302035 0 0 0 0.59 30 170 78 109 233 187 
989 0.1409410359543602 -0.028243993450392677 1.273302792440008 0 0 0 0.34 30 171 78 110 79 24 106 191 150 239 
990 0.13274380737371405 -0.0285130915474937 1.273135225658602 0 0 0 0.42 30 172 31 208 78 111 79 25 106 192 150 240 
991 -0.2637708810851057 -0.03885711708651719 1.3144227298997915 0 0 0 0.29 30 173 99 189 140 292 150 241 177 219 
992 0.14397449179194083 -0.015412134535531852 1.2724891126542373 0 0 0 0.34 30 174 78 112 79 26 
993 -0.05440956775046492 -0.024635090237540486 1.2865726500921078 0 0 0 0.39 30 175 78 113 80 44 106 193 
994 -0.24837864204983132 -0.029937262810645505 1.3135997470199947 0 0 0 0.27 30 176 80 45 106 194 140 293 150 242 
995 0.009561404057173862 -0.010571395178142592 1.2775119952482925 0 0 0 0.27 30 177 57 226 78 114 80 46 140 294 191 149 
996 -0.34285358961215945 -0.023627813426320275 1.3384504939386581 0 0 0 0.24 30 178 72 190 78 115 79 27 99 190 106 195 119 141 140 295 144 238 150 243 189 133 212 181 216 235 228 256 
997 0.006831476245027155 -0.006608451974386037 1.277273500989977 0 0 0 0.32 30 179 72 191 78 116 79 28 191 150 
998 0.1503002416694177 0.0018494488954080796 1.2646204969025117 0 0 0 0.4 30 180 57 227 78 117 
999 0.08951171813553813 0.005637206929659018 1.2737684504058253 0 0 0 0.36 30 181 78 118 79 29 140 296 150 244 
1000 0.07566071040886317 0.005883752134371394 1.2753955326756836 0 0 0 0.26 30 182 78 119 79 30 80 47 140 297 150 245 
1001 -0.38482389404991085 0.0075322666820863545 1.3467372031969589 0 0 0 0.36 30 183 31 209 79 31 144 239 150 246 
1002 -0.03143250740995958 0.029096266086373706 1.2782071120289045 0 0 0 0.28 30 184 78 120 99 191 
1003 -0.0542356324921195 0.03482908822101121 1.2782266217630633 0 0 0 0.24 30 185 31 210 72 192 78 121 79 32 80 48 99 192 106 196 140 298 177 220 191 151 
1004 -0.06094782750411426 0.04375603974017591 1.27687108303765 0 0 0 0.28 30 186 78 122 79 33 80 49 99 193 
1005 -0.3952010156091037 0.04994489247552863 1.3443472124721738 0 0 0 0.14 30 187 72 193 99 194 177 221 233 188 
1006 -0.2720183865577566 0.06923991778798658 1.304847137212881 0 0 0 0.39 30 188 78 123 99 195 119 142 140 299 144 240 177 222 
1007 -0.34057050663609884 0.07901937569487628 1.3260952111500477 0 0 0 0.4 30 189 31 211 57 228 78 124 79 34 99 196 143 156 150 247 189 134 191 152 228 257 
1008 -0.06059668566332019 0.08109593914154659 1.2736059709868979 0 0 0 0.41 30 190 57 229 72 194 78 125 80 50 99 197 177 223 189 135 
1009 0.026850190011702045 0.09220571814113679 1.269039935225609 0 0 0 0.4 30 191 31 212 78 126 79 35 80 51 99 198 140 300 
1010 0.0202097408471362 0.09273527630088771 1.2694770208773807 0 0 0 0.57 30 192 78 127 79 36 80 52 99 199 
1011 -0.10704924656008614 0.09652410790596783 1.276887984924854 0 0 0 0.18 30 193 78 128 79 37 80 53 140 301 
1012 -0.07828662962178368 0.10008389150674109 1.2740364304795622 0 0 0 0.32 30 194 31 213 57 230 78 129 80 54 99 200 106 197 
1013 -0.1894693566924417 0.09922299888266949 1.279023965244283 0 0 0 0.14 30 195 80 55 99 201 
1014 -0.2005803250130143 0.11493921825768844 1.2870893537409285 0 0 0 0.44 30 196 57 231 78 130 80 56 140 302 177 224 189 136 
1015 0.16480435361194692 -0.06139431946077648 1.27499672092788 0 0 0 0.33 30 197 78 131 150 248 
1016 -0.035341914689027774 -0.07611168328325302 1.2893335789249285 0 0 0 0.26 30 198 57 232 80 57 99 202 189 137 
1017 0.11987498283772369 -0.06120522485469617 1.2773230139900447 0 0 0 0.23 30 199 57 233 78 132 79 38 106 198 150 249 
1018 0.10069260661386635 -0.06071880085121335 1.278451261900046 0 0 0 0.44 30 200 78 133 80 58 
1019 -0.24887815828261625 -0.08190835957692583 1.3135154632572792 0 0 0 0.25 30 201 55 135 78 134 106 199 140 303 150 250 177 225 212 182 216 236 
1020 -0.006796708823287245 -0.059793031470009125 1.2840699968870455 0 0 0 0.35 30 202 78 135 80 59 140 304 189 138 
1021 -0.060622990992507605 -0.05563820325236351 1.2864062981579258 0 0 0 0.3 30 203 57 234 72 195 78 136 80 60 99 203 106 200 140 305 177 226 189 139 
1022 0.13093191085895578 -0.04271225557767666 1.2793981987257717 0 0 0 0.14 30 204 31 214 57 235 
1023 0.14959486735268443 -0.03548146825743192 1.2755390572688943 0 0 0 0.41 30 205 31 215 55 136 57 236 78 137 79 39 106 201 150 251 177 227 189 140 
1024 -0.26205849334417275 -0.053963961871697615 1.3094833897413978 0 0 0 0.39 30 206 31 216 78 138 99 204 143 157 177 228 189 141 
1025 0.13245925805788183 -0.020836920525386785 1.273067064527927 0 0 0 0.32 30 207 57 237 72 196 78 139 79 40 106 202 150 252 189 142 
1026 0.15293481460468877 -0.01460918441725569 1.268489234458809 0 0 0 0.37 30 208 78 140 79 41 
1027 0.12561161846763222 -0.008128125000705307 1.270319934998251 0 0 0 0.39 30 209 78 141 79 42 
1028 0.11497705417420596 -0.007948903488103048 1.2681131478295349 0 0 0 0.34 30 210 57 238 78 142 80 61 106 203 150 253 
1029 0.136926988915801 -0.0061175698234803505 1.269248951773206 0 0 0 0.26 30 211 31 217 55 137 57 239 78 143 106 204 
1030 -0.05156937159211809 -0.009958872127844185 1.2828513056077175 0 0 0 0.22 30 212 55 138 57 240 78 144 79 43 80 62 99 205 140 306 177 229 189 143 
1031 0.0358167872533226 -0.005603672354688778 1.2771297445458871 0 0 0 0.36 30 213 31 218 80 63 99 206 
1032 -0.0026864289047238876 -0.0068367969947930925 1.2784003749921637 0 0 0 0.29 30 214 78 145 79 44 80 64 
1033 0.11967985628592177 0.005023869879677085 1.2712814286312097 0 0 0 0.24 30 215 57 241 78 146 79 45 
1034 -0.3902042798781134 -0.009315088280385934 1.348960295118048 0 0 0 0.33 30 216 99 207 106 205 
1035 -0.2661156043222775 0.002234840793039843 1.3100539874028287 0 0 0 0.18 30 217 31 219 57 242 99 208 140 307 150 254 177 230 189 144 
1036 -0.244513416752129 0.014476482483359535 1.2986759271458175 0 0 0 0.84 30 218 31 220 78 147 80 65 106 206 140 308 144 241 150 255 191 153 228 258 
1037 -0.34682865388197737 0.015127825170281793 1.33682208792264 0 0 0 0.14 30 219 57 243 72 197 99 209 106 207 140 309 143 158 144 242 177 231 
1038 0.012301843974021294 0.03434182337180838 1.273590344542949 0 0 0 0.3 30 220 78 148 80 66 99 210 191 154 
1039 -0.03202508370800059 0.03458662388410649 1.276933044790107 0 0 0 0.25 30 221 78 149 79 46 140 310 191 155 
1040 -0.0564731559039778 0.03973071283243894 1.2763469650085195 0 0 0 0.26 30 222 57 244 72 198 78 150 80 67 99 211 140 311 177 232 191 156 
1041 -0.29097649041599155 0.0730512221652602 1.3111665507163999 0 0 0 0.26 30 223 57 245 78 151 177 233 228 259 
1042 -0.33318242295509504 0.07871423622874359 1.326261484941411 0 0 0 0.31 30 224 31 221 57 246 72 199 78 152 79 47 99 212 140 312 143 159 150 256 189 145 191 157 212 183 216 237 228 260 
1043 -0.3107158158690739 0.07782134700583139 1.3134155435293178 0 0 0 0.1 30 225 99 213 140 313 
1044 -0.002058876355346345 0.0863362824748277 1.2715543875777977 0 0 0 0.31 30 226 78 153 79 48 80 68 99 214 
1045 -0.08405728962686619 0.0958907923664235 1.2777238707237768 0 0 0 0.33 30 227 78 154 106 208 
1046 0.14313770539824672 -0.14694268591186935 1.2972429691348986 0 0 0 0.35 30 228 78 155 150 257 189 146 
1047 -0.1585925950579887 -0.09134443245595636 1.2970054413478291 0 0 0 0.24 30 229 78 156 150 258 
1048 0.07066998482215857 -0.06536826950078575 1.2774434676306625 0 0 0 0.24 30 230 78 157 79 49 80 69 
1049 0.16004960344698235 -0.05351239553929866 1.2725335366215649 0 0 0 0.47 30 231 31 222 78 158 
1050 0.09581872559692732 -0.05490073838375292 1.2772354388978548 0 0 0 0.18 30 232 78 159 189 147 
1051 -0.015829001218048637 -0.05479373524375119 1.2849676317776788 0 0 0 0.27 30 233 78 160 80 70 99 215 191 158 
1052 0.11980401252810413 -0.044671360172571416 1.2722747399633292 0 0 0 0.3 30 234 55 139 57 247 78 161 106 209 150 259 189 148 
1053 0.146144056139186 -0.038613082857795245 1.2721466203984357 0 0 0 0.28 30 235 57 248 78 162 106 210 150 260 189 149 
1054 -0.14749878542015132 -0.04810668410449307 1.2998125618605572 0 0 0 0.29 30 236 78 163 177 234 
1055 -0.15255604832939265 -0.04476541877984846 1.2962086620192432 0 0 0 0.32 30 237 78 164 79 50 106 211 150 261 216 238 
1056 -0.3450515857079411 -0.05627041213254162 1.3399924389375337 0 0 0 0.39 30 238 78 165 99 216 106 212 140 314 
1057 -0.261813298658568 -0.04853306108736998 1.312471041983925 0 0 0 0.43 30 239 57 249 78 166 99 217 106 213 140 315 144 243 150 262 177 235 189 150 212 184 228 261 
1058 -0.14671599848631525 -0.03335023673037958 1.29647713835737 0 0 0 0.4 30 240 78 167 106 214 143 160 150 263 189 151 191 159 216 239 
1059 0.13013265963108306 -0.015878531563893412 1.2721868804752103 0 0 0 0.38 30 241 31 223 57 250 72 200 78 168 79 51 150 264 189 152 
1060 -0.15681311250296726 -0.02263252493840601 1.293987667013686 0 0 0 0.26 30 242 31 224 55 140 72 201 78 169 80 71 99 218 106 215 140 316 177 236 189 153 216 240 
1061 0.1494737265723141 -0.00745218046272975 1.265518167032637 0 0 0 0.3 30 243 31 225 57 251 78 170 106 216 177 237 189 154 
1062 0.03176611223557326 -0.010789949104530227 1.2766959329309102 0 0 0 0.3 30 244 31 226 57 252 72 202 78 171 80 72 99 219 140 317 177 238 189 155 
1063 0.03844500133871875 -0.010623916539908468 1.2777231585719637 0 0 0 0.55 30 245 31 227 55 141 57 253 72 203 78 172 106 217 140 318 189 156 80 73 99 220 
1064 0.1415845160076247 -0.0033362589215948212 1.2701692009304693 0 0 0 0.49 24 183 30 246 31 228 57 254 78 173 79 52 168 209 
