# 3D point list with one line of data per point:
#   POINT3D_ID, X, Y, Z, R, G, B, ERROR, TRACK[] as (IMAGE_ID, POINT2D_IDX)
# Number of points: 263, mean track length: 3.67
0 -0.08837158177431079 -0.15579746171869222 0.769340812420741 0 0 0 0.36 13 0 213 0 221 0 
1 -0.0016816735152910026 -0.08602271209284205 0.7606015756613489 0 0 0 0.37 13 1 213 1 224 0 231 0 
2 0.02098253667721158 -0.04847760272066216 0.7555599223096855 0 0 0 0.08 13 2 213 2 214 0 
3 0.20729945316580412 0.08156996195212753 0.7570966730652454 0 0 0 0.31 13 3 213 3 214 1 235 0 
4 0.19010436195153094 0.09912768352458227 0.7417312384326917 0 0 0 0.19 13 4 213 4 214 2 
5 0.2614900295780337 0.10830880503477942 0.7607191848055631 0 0 0 0.13 13 5 213 5 214 3 
6 0.2267822427575094 0.13772125694154616 0.7428722797234943 0 0 0 0.2 13 6 213 6 214 4 
7 0.22665307021474024 0.13759645610733875 0.7423058097232934 0 0 0 0.29 13 7 213 7 214 5 235 1 
8 -0.003216143022516986 -0.10106044687539043 0.7662694113465836 0 0 0 0.2 13 8 213 8 214 6 
9 -0.008854427996233979 -0.08411799933346828 0.7593037172892835 0 0 0 0.14 13 9 213 9 214 7 224 1 231 1 
10 0.03435338882602585 -0.08184919722448962 0.7683312049555224 0 0 0 0.77 13 10 220 0 223 0 
11 0.07067829968714234 -0.07956101813014284 0.7744592757450617 0 0 0 0.34 13 11 213 10 214 8 219 0 223 1 
12 0.08064358978489901 -0.07884696391993437 0.7777274578221551 0 0 0 0.19 13 12 213 11 214 9 219 1 
13 0.06277903249016478 -0.07414568030593288 0.7703046660815811 0 0 0 0.21 13 13 213 12 214 10 
14 0.10570237584629108 -0.07457074775605999 0.7814550856646427 0 0 0 0.32 13 14 213 13 214 11 220 1 
15 0.11065670679924867 -0.0741823309574882 0.7810630753601331 0 0 0 0.33 13 15 213 14 214 12 
16 0.12254416568887035 -0.07354700843236411 0.7822009293711113 0 0 0 0.36 13 16 213 15 214 13 
17 0.13942144751774319 -0.07231095092427516 0.7857396359103559 0 0 0 0.39 13 17 213 16 214 14 
18 0.13942144751774319 -0.07231095092427516 0.7857396359103559 0 0 0 0.39 13 18 213 17 214 15 
19 0.02139463661405317 -0.05199930844743556 0.7570753294491577 0 0 0 0.12 13 19 214 16 231 2 
20 0.11925605368132074 -0.002820453603379812 0.762341970513073 0 0 0 0.1 13 20 214 17 231 3 
21 0.01918653821838 0.004053661022008981 0.7394898710703769 0 0 0 0.26 13 21 213 18 214 18 
22 0.2411072683822285 0.010073195582278592 0.7911709892531358 0 0 0 0.6 13 22 214 19 223 2 
23 -0.07824947347806434 0.06149617990955054 0.7044330667530561 0 0 0 0.18 13 23 213 19 214 20 
24 0.07185119820297046 0.07482314606228302 0.7270733319741091 0 0 0 0.4 13 24 213 20 223 3 231 4 
25 0.06930310126782988 0.0757015736716434 0.7273505785568651 0 0 0 0.21 13 25 213 21 231 5 
26 0.06373699287806175 0.08028907137662736 0.7201391453213933 0 0 0 0.12 13 26 213 22 214 21 
27 0.10364201126922232 0.08129231635451507 0.7254320899251607 0 0 0 0.12 13 27 213 23 214 22 
28 0.18215073260850975 0.08683518603129103 0.7431155360311511 0 0 0 0.1 13 28 213 24 214 23 
29 0.25186195199568995 0.09759707189919106 0.7634252371188394 0 0 0 0.17 13 29 214 24 235 2 
30 0.14217737804482955 0.09474295301359907 0.7333055399511574 0 0 0 0.35 13 30 213 25 214 25 234 0 
31 0.22531600185159684 0.10192033436285679 0.7514352293717209 0 0 0 0.17 13 31 213 26 214 26 
32 0.26405364530425407 0.10674284965407138 0.7604998238926067 0 0 0 0.16 13 32 213 27 214 27 
33 -0.19431317094694156 0.09728675170299612 0.6806657266386104 0 0 0 0.27 13 33 213 28 214 28 
34 -0.19431317094694156 0.09728675170299612 0.6806657266386104 0 0 0 0.27 13 34 213 29 214 29 
35 -0.1944048404018685 0.1012848076899613 0.6792205694100004 0 0 0 0.23 13 35 213 30 214 30 
36 0.021863696116223904 0.11427926838905549 0.7054296435958183 0 0 0 0.28 13 36 213 31 214 31 231 6 
37 0.23360005176970608 0.12710380244083597 0.7455133384620433 0 0 0 0.2 13 37 213 32 214 32 223 4 
38 0.2742767973658485 0.12989680051122401 0.7553072875607192 0 0 0 0.1 13 38 213 33 235 3 
39 0.06953851059716488 0.12264917937288847 0.7111421005989619 0 0 0 0.16 13 39 213 34 231 7 
40 0.2844924696448289 0.1338046856002351 0.7608313747729603 0 0 0 0.14 13 40 213 35 214 33 
41 0.024075449622598295 0.1240004766861039 0.7020114964105356 0 0 0 0.24 13 41 213 36 214 34 231 8 
42 0.22454634849657262 0.1359786180478153 0.741710575612927 0 0 0 0.22 13 42 213 37 214 35 223 5 
43 0.09567619457559677 0.1327128612089817 0.7129623055432835 0 0 0 0.31 13 43 213 38 223 6 
44 0.14660709666573535 0.14714275775858623 0.7184768394935012 0 0 0 0.2 13 44 213 39 223 7 
45 0.2356790898343139 0.1519887024893798 0.7378794515931968 0 0 0 0.14 13 45 213 40 223 8 
46 0.23129636223695488 0.153836300826711 0.736010657566605 0 0 0 0.19 13 46 213 41 223 9 235 4 
47 0.06733047408793169 0.14897746057229372 0.7031961078381754 0 0 0 0.2 13 47 213 42 214 36 
48 -0.0578460835916122 0.14421420722447326 0.67976559031708 0 0 0 0.08 13 48 213 43 214 37 
49 -0.053739666301191605 0.1449649567553862 0.6804406045391942 0 0 0 0.15 13 49 213 44 214 38 
50 -0.06009290856301499 0.1470714919056163 0.6785245629098591 0 0 0 0.06 13 50 213 45 214 39 
51 -0.05418566682741544 0.14901349959960272 0.6794685795373798 0 0 0 0.24 13 51 213 46 214 40 
52 0.09843453837880485 0.1559044362425058 0.7076585771237708 0 0 0 0.34 13 52 213 47 214 41 223 10 
53 0.05612357382927782 0.1596480502711141 0.6982339345578037 0 0 0 0.5 13 53 213 48 214 42 
54 -0.07329458775579858 -0.09580177223283333 0.7516690342390198 0 0 0 0.27 13 54 213 49 214 43 224 2 
55 -0.2852179487764058 -0.09058055967787389 0.7347083302584202 0 0 0 0.3 13 55 213 50 219 2 220 2 224 3 
56 -0.28518415076040626 -0.09060754806679593 0.7346758820285915 0 0 0 0.29 13 56 213 51 219 3 220 3 224 4 227 0 
57 -0.23522377229558086 -0.08962770621619952 0.7375184171475729 0 0 0 0.25 13 57 213 52 220 4 224 5 232 0 
58 -0.20581831487397254 -0.08889383168263686 0.7412373168737467 0 0 0 0.15 13 58 213 53 219 4 
59 -0.1741077634622537 -0.08835295757351108 0.7437119741951804 0 0 0 0.17 13 59 213 54 224 6 
60 -0.1500850098808301 -0.08727781088807655 0.743556390412096 0 0 0 0.25 13 60 213 55 224 7 
61 -0.13078900660332565 -0.08727412704076598 0.7443112273297368 0 0 0 0.16 13 61 213 56 214 44 
62 -0.21597883351096892 -0.08647030385321174 0.7380805098808644 0 0 0 0.31 13 62 213 57 219 5 224 8 
63 -0.202045233772562 -0.08598510694510028 0.7380278971050162 0 0 0 0.38 13 63 220 5 232 1 
64 -0.12611241914621701 -0.08659699930616262 0.7455522537319269 0 0 0 0.1 13 64 213 58 214 45 
65 -0.020346775238094677 -0.08527364356575445 0.7574325180652338 0 0 0 0.39 13 65 214 46 224 9 
66 -0.07369867903906023 -0.08272402501510145 0.746954520273673 0 0 0 0.1 13 66 213 59 214 47 
67 -0.0037933853054968785 -0.08395535824034472 0.7605067345465959 0 0 0 0.32 13 67 213 60 214 48 220 6 224 10 
68 0.004562425815491808 -0.08354870066074739 0.7623831500963772 0 0 0 0.29 13 68 213 61 214 49 224 11 231 9 
69 -0.05215916547201731 -0.08172653249140985 0.751157198812968 0 0 0 0.21 13 69 213 62 214 50 
70 -0.052178773769575575 -0.08174975252386311 0.7509104459032871 0 0 0 0.2 13 70 213 63 214 51 224 12 231 10 
71 0.011957649215099052 -0.08314310078027443 0.7656617737486174 0 0 0 0.22 13 71 213 64 220 7 
72 0.01917403046952616 -0.08261260455299824 0.7654478458821002 0 0 0 0.06 13 72 213 65 214 52 
73 -0.031207394627516614 -0.07985452995875371 0.7527223072782796 0 0 0 0.09 13 73 224 13 231 11 
74 -0.016282017277820724 -0.07902011693471946 0.757216187719125 0 0 0 0.31 13 74 214 53 224 14 231 12 
75 -0.009311241515976695 -0.07847498355031501 0.7568759210980649 0 0 0 0.29 13 75 214 54 224 15 231 13 
76 -0.0041384197219759234 -0.07764866936441032 0.7552714701274931 0 0 0 0.72 13 76 223 11 224 16 231 14 
77 -0.0002557197296319612 -0.07750009418029974 0.7572894021086416 0 0 0 0.64 13 77 213 66 223 12 224 17 231 15 
78 0.0039679097527785204 -0.07716399665205917 0.7557150583926754 0 0 0 0.52 13 78 213 67 223 13 231 16 
79 0.0683895549959363 -0.07637147494746355 0.7715285221248493 0 0 0 0.45 13 79 213 68 214 55 223 14 
80 0.06835598687820572 -0.07647499108343571 0.7727044508884591 0 0 0 0.54 13 80 213 69 214 56 220 8 223 15 
81 0.11754238648073888 -0.07392067952962192 0.7839744558254337 0 0 0 0.46 13 81 213 70 214 57 219 6 220 9 
82 0.14896337726419934 -0.07177928286542412 0.7889547286844509 0 0 0 0.38 13 82 213 71 219 7 
83 0.16415268859204818 -0.0704875777255433 0.7968692482702948 0 0 0 0.23 13 83 213 72 234 1 235 5 
84 0.1870774121131251 -0.06887726241590389 0.8015308600601174 0 0 0 0.29 13 84 222 0 223 16 
85 0.15927945599547977 -0.06763488051523509 0.7910385998880188 0 0 0 0.48 13 85 213 73 214 58 
86 0.20512720628465628 -0.06748309979879767 0.8038605697491311 0 0 0 0.29 13 86 213 74 219 8 222 1 234 2 
87 0.2099117674772343 -0.06719239965225346 0.8046989744901789 0 0 0 0.22 13 87 213 75 222 2 234 3 235 6 
88 0.2190894614149917 -0.06667670838396925 0.8089658052735307 0 0 0 0.49 13 88 213 76 223 17 235 7 
89 0.22437306157275672 -0.06623905202095863 0.8077790469850489 0 0 0 0.19 13 89 213 77 222 3 234 4 235 8 
90 0.24024954020411718 -0.06520931981234043 0.8137213479728527 0 0 0 0.65 13 90 213 78 223 18 235 9 
91 0.24559944616570173 -0.06455656464718579 0.8148161664557704 0 0 0 1.12 13 91 220 10 223 19 
92 0.25014061655787234 -0.06443349421056853 0.8134495968366231 0 0 0 0.21 13 92 213 79 220 11 
93 0.24428573878800325 -0.061618241324141586 0.8148664365229223 0 0 0 0.91 13 93 213 80 223 20 
94 0.24428573878800325 -0.06161824132414159 0.8148664365229223 0 0 0 0.91 13 94 213 81 223 21 
95 0.2923302792373648 -0.06187378408837824 0.8235470534418982 0 0 0 0.14 13 95 222 4 234 5 
96 0.2923302792373647 -0.06187378408837822 0.8235470534418977 0 0 0 0.14 13 96 222 5 234 6 
97 0.19913932471723975 -0.059798262253453444 0.802525002799909 0 0 0 0.29 13 97 223 22 235 10 
98 0.20475856988301372 -0.059397745595678064 0.8017601306620427 0 0 0 0.44 13 98 213 82 232 2 
99 0.3503244835262856 -0.06185690006878892 0.8354218093792307 0 0 0 0.43 13 99 213 83 235 11 
100 0.31371911690078685 -0.06057802310781346 0.8276426384960406 0 0 0 0.34 13 100 213 84 221 1 222 6 
101 0.33502664058353204 -0.05939342276785333 0.8306863421246685 0 0 0 0.25 13 101 213 85 234 7 
102 0.34430385797667434 -0.05873720206502309 0.8343777030609488 0 0 0 0.34 13 102 213 86 227 1 235 12 
103 0.037730527448148025 -0.008295546424241868 0.7470647497179446 0 0 0 0.31 13 103 214 59 223 23 
104 0.20364117858848088 -0.0033428854582429873 0.7868169563368371 0 0 0 0.25 13 104 213 87 234 8 
105 0.07112818464613611 0.00496931979096709 0.7537878413708716 0 0 0 0.21 13 105 213 88 231 17 
106 0.24587269715472893 0.005778257853207062 0.7919228887020924 0 0 0 1.02 13 106 214 60 223 24 
107 -0.18419275878032768 0.06175817537719553 0.6930889234624159 0 0 0 0.21 13 107 213 89 219 9 220 12 
108 -0.046844078031262094 0.06435459953357871 0.7084441533086442 0 0 0 0.35 13 108 213 90 231 18 
109 0.16366434515203235 0.07243673058234919 0.7568991945973672 0 0 0 0.17 13 109 213 91 231 19 234 9 
110 0.07273583120118236 0.07252975750258013 0.7305312206397476 0 0 0 0.19 13 110 213 92 232 3 
111 0.14291367975729055 0.07408124042775474 0.7363783695644548 0 0 0 0.49 13 111 213 93 231 20 
112 -0.1487305530655739 0.07889514720126335 0.687993492557723 0 0 0 0.24 13 112 213 94 214 61 
113 -0.1487305530655739 0.07889514720126335 0.687993492557723 0 0 0 0.24 13 113 213 95 214 62 
114 -0.14554273565940906 0.07913017112699108 0.6888749145224203 0 0 0 0.19 13 114 213 96 214 63 
115 -0.14207042239771284 0.07898971538304056 0.6887528054163344 0 0 0 0.12 13 115 213 97 214 64 
116 -0.09865488526513434 0.07979188335819178 0.68836087553054 0 0 0 0.13 13 116 214 65 224 18 
117 0.10925185635040284 0.08910676772833903 0.7282326715255947 0 0 0 0.29 13 117 213 98 214 66 223 25 
118 0.22200689628113746 0.09403826769335095 0.7523548497875665 0 0 0 0.36 13 118 214 67 223 26 235 13 
119 0.21200616313886092 0.0944832486511214 0.7542832679225301 0 0 0 0.09 13 119 214 68 235 14 
120 0.1807789970978566 0.09384139328724252 0.742202808383533 0 0 0 0.17 13 120 213 99 235 15 
121 0.10251522113986411 0.09195744773743827 0.7258527800670117 0 0 0 0.2 13 121 213 100 214 69 223 27 
122 0.13698744769784663 0.09437312523353053 0.7316376812308742 0 0 0 0.16 13 122 213 101 214 70 
123 -0.1436317189600345 0.09025609177171794 0.6854961937877508 0 0 0 0.3 13 123 213 102 214 71 231 21 
124 -0.14396379600566153 0.09042321765735623 0.6862030838184954 0 0 0 0.17 13 124 213 103 214 72 
125 -0.19672221754173805 0.09912233728075943 0.6798405541917382 0 0 0 0.17 13 125 213 104 214 73 
126 0.061718802129069376 0.11500713702700595 0.7125804251062693 0 0 0 0.14 13 126 213 105 214 74 223 28 231 22 
127 0.007177065818120452 0.12196307534154754 0.7051059957136664 0 0 0 0.23 13 127 227 2 232 4 
128 0.2644800577418364 0.1332123080609021 0.7524869120640384 0 0 0 0.09 13 128 223 29 235 16 
129 0.06432795418755215 0.12585145412353563 0.7100218086263858 0 0 0 0.22 13 129 213 106 214 75 231 23 
130 0.0646089354714756 0.13026635540916 0.7089662079741216 0 0 0 0.17 13 130 213 107 214 76 231 24 
131 0.2639354575538983 0.13933635332284205 0.7506268521368107 0 0 0 0.24 13 131 213 108 214 77 
132 0.29230671159821275 0.1429841546420614 0.758863005872622 0 0 0 0.38 13 132 213 109 214 78 223 30 235 17 
133 0.2969332616075407 0.1426315127114019 0.7568161099464574 0 0 0 0.19 13 133 213 110 232 5 
134 0.10267515990134472 0.14369797195000103 0.7127457834657129 0 0 0 0.18 13 134 214 79 223 31 
135 0.10267515990134472 0.14369797195000103 0.7127457834657129 0 0 0 0.18 13 135 214 80 223 32 
136 -0.06080207115769136 0.1439223358589852 0.6827166471691517 0 0 0 0.66 13 136 213 111 214 81 223 33 
137 0.06130809331231858 0.15513770569865987 0.7006761474003689 0 0 0 0.32 13 137 213 112 214 82 223 34 232 6 
138 0.10267424910572782 0.1579154347217968 0.7073172132024557 0 0 0 0.26 13 138 214 83 223 35 234 10 
139 0.10531007179339871 0.15988866644577263 0.7074685724915973 0 0 0 0.25 13 139 214 84 223 36 
140 -0.06042343247802689 0.15318129676094994 0.6767585194576433 0 0 0 0.2 13 140 213 113 214 85 
141 0.10385686795871729 0.1626826741521692 0.7063141479074608 0 0 0 0.15 13 141 213 114 214 86 
142 0.12480359421841987 0.19558108834492738 0.7051961456483251 0 0 0 0.42 13 142 214 87 234 11 
143 -0.09080702730504502 -0.09857129993639649 0.7426870871301455 0 0 0 0.54 13 143 213 115 222 7 
144 -0.20243040589020495 -0.09234155393958818 0.7414523378767739 0 0 0 0.23 13 144 213 116 221 2 232 7 
145 -0.13389121640423995 -0.09090771345167302 0.7466461795485513 0 0 0 0.21 13 145 213 117 214 88 220 13 221 3 224 19 
146 -0.2738931701403013 -0.08739500989848732 0.734231364276593 0 0 0 0.34 13 146 213 118 220 14 224 20 227 3 232 8 
147 -0.20968288474330626 -0.08627752331283621 0.7385229401679931 0 0 0 0.21 13 147 213 119 220 15 224 21 232 9 
148 -0.17489412898944692 -0.08521405168280223 0.7407694327823252 0 0 0 0.19 13 148 213 120 220 16 224 22 227 4 
149 -0.17494892837690676 -0.08529870665529746 0.7407486042036531 0 0 0 0.08 13 149 213 121 220 17 
150 -0.2203655507002057 -0.08189109049538768 0.7367606740442205 0 0 0 0.04 13 150 220 18 232 10 
151 -0.08107874528157753 -0.07837668487548369 0.7446986595952626 0 0 0 0.15 13 151 213 122 214 89 
152 0.06446733768298553 -0.08021300123557025 0.773181067102861 0 0 0 0.39 13 152 213 123 219 10 222 8 227 5 232 11 
153 0.1531365909303006 -0.07578987156430303 0.794435340339577 0 0 0 0.17 13 153 223 37 232 12 
154 0.13545629415679653 -0.06992156880675836 0.7868096477418957 0 0 0 0.28 13 154 213 124 227 6 232 13 
155 0.22553554718220495 -0.07021470413596567 0.8120308548382141 0 0 0 0.51 13 155 220 19 221 4 223 38 234 12 235 18 
156 0.3087691816361237 -0.06173153842490818 0.8265336772961165 0 0 0 0.32 13 156 222 9 227 7 
157 0.030283188856691096 -0.0011430581435587829 0.7492266340431233 0 0 0 0.25 13 157 219 11 222 10 
158 0.05013532180235006 0.044873252194770355 0.7383599347326394 0 0 0 0.16 13 158 219 12 231 25 
159 -0.1728700137091184 0.058549777652853525 0.6980381942715764 0 0 0 0.31 13 159 213 125 214 90 
160 0.21577704672769998 0.08280738666280493 0.7588446661277876 0 0 0 0.26 13 160 213 126 214 91 232 14 235 19 
161 0.11298787683822237 0.0906360563290129 0.7301784817777385 0 0 0 0.1 13 161 214 92 219 13 
162 0.18412636922699233 0.09401185807343626 0.7428891524972507 0 0 0 0.19 13 162 213 127 214 93 234 13 
163 0.22543107860851458 0.09671053322921666 0.7524715323588721 0 0 0 0.22 13 163 214 94 223 39 232 15 234 14 
164 0.2255476114320044 0.09681501985638606 0.7531170890528731 0 0 0 0.18 13 164 213 128 214 95 235 20 
165 0.2555656163057627 0.10099293716995623 0.7638017529350983 0 0 0 0.07 13 165 222 11 232 16 
166 0.23507342465104655 0.10461588424004198 0.7548569841209407 0 0 0 0.22 13 166 213 129 221 5 222 12 232 17 
167 0.22522582779256312 0.11166810199587049 0.7506422797500858 0 0 0 0.27 13 167 213 130 214 96 220 20 221 6 222 13 223 40 232 18 234 15 235 21 
168 0.06509342128396454 0.11982945746773696 0.7149297648562623 0 0 0 0.18 13 168 227 8 231 26 232 19 
169 0.06147209531172631 0.12319568729379388 0.7089132404129257 0 0 0 0.08 13 169 227 9 231 27 
170 0.009986157489185231 0.12526872151981713 0.7079365163584882 0 0 0 0.28 13 170 219 14 227 10 231 28 232 20 
171 0.061525450684740954 0.12810227614621197 0.7087747981298075 0 0 0 0.18 13 171 213 131 214 97 223 41 
172 -0.08259443447890544 0.12143074298819245 0.6613106888119292 0 0 0 0.3 13 172 227 11 231 29 
173 0.08908496543490903 0.13336716531391984 0.7166490514226828 0 0 0 0.16 13 173 213 132 223 42 
174 0.05116238746451025 0.13357108824371103 0.7069782234721876 0 0 0 0.32 13 174 213 133 214 98 
175 0.13672549380641388 0.13945516453584883 0.7169242910963805 0 0 0 0.06 13 175 213 134 227 12 
176 0.26477366997516744 0.1458192987824123 0.7467102948584597 0 0 0 0.41 13 176 213 135 214 99 235 22 
177 0.21811044547678116 0.14510345253117846 0.7370842767887648 0 0 0 0.22 13 177 213 136 223 43 232 21 235 23 
178 0.09884653621309958 0.14514027290360795 0.7107886854644663 0 0 0 0.38 13 178 213 137 214 100 223 44 
179 -0.016319597659692497 0.14174427826942684 0.6878929997883446 0 0 0 0.26 13 179 214 101 231 30 
180 0.09953941057184638 0.15158078981290038 0.7089592498598568 0 0 0 0.33 13 180 213 138 214 102 
181 -0.14705055105321038 0.14769707324753872 0.6679397681849879 0 0 0 0.43 13 181 213 139 214 103 227 13 232 22 
182 0.099223622604722 0.1641962497494674 0.7066654940665594 0 0 0 0.39 13 182 213 140 214 104 220 21 223 45 232 23 
183 0.062215390331664934 0.16258453736624304 0.6984299436558191 0 0 0 0.18 13 183 214 105 227 14 232 24 
184 0.013972257626373176 -0.1353828080027542 0.7787143898063742 0 0 0 0.4 13 184 213 141 220 22 221 7 
185 -0.2563413245263477 -0.09394824528458963 0.7379282897467168 0 0 0 0.35 13 185 213 142 219 15 220 23 221 8 227 15 232 25 
186 -0.19237200338361465 -0.09245279794332946 0.739694928602804 0 0 0 0.2 13 186 221 9 227 16 
187 -0.17620787745404165 -0.09228686246559126 0.7431999075288332 0 0 0 0.28 13 187 213 143 224 23 
188 0.2071656083810437 -0.07182250631344389 0.8106450676980722 0 0 0 0.46 13 188 219 16 223 46 
189 0.21630520578609136 -0.07082385790575668 0.8084747349176842 0 0 0 0.19 13 189 213 144 234 16 
190 0.23120429234799267 -0.07016411369283806 0.8143383807871005 0 0 0 0.55 13 190 213 145 219 17 220 24 221 10 223 47 227 17 234 17 235 24 
191 0.2394530071111517 -0.0694708959293173 0.8120071236516034 0 0 0 0.29 13 191 213 146 219 18 234 18 235 25 
192 0.25397219048894437 -0.0689446860222754 0.8182701077519705 0 0 0 0.45 13 192 227 18 232 26 235 26 
193 0.31719109249406247 -0.06468396050881987 0.8318854352966951 0 0 0 0.18 13 193 213 147 227 19 
194 0.3346358226174909 -0.06383816729619331 0.8339327397963067 0 0 0 0.2 13 194 213 148 235 27 
195 0.15012124121179482 0.06866226180666588 0.7366057214490261 0 0 0 0.31 13 195 227 20 231 31 
196 0.17408844274202775 0.07220334127653644 0.7582831960936033 0 0 0 0.58 13 196 213 149 221 11 
197 0.09266931898361665 0.07386452091551976 0.7330021014977307 0 0 0 0.22 13 197 219 19 227 21 231 32 
198 0.08566468168397631 0.07495611574290754 0.7267075427627823 0 0 0 0.11 13 198 227 22 231 33 
199 0.21618675468336307 0.09716296937038155 0.7541793007480353 0 0 0 0.36 13 199 213 150 214 106 222 14 223 48 232 27 235 28 
200 0.29344195603803047 0.10278829373688082 0.7697722594119953 0 0 0 0.18 13 200 213 151 232 28 235 29 
201 0.0962806687275707 0.09883676912042237 0.7253783853690973 0 0 0 0.33 13 201 213 152 219 20 234 19 
202 0.22533416286547947 0.10517009864751771 0.7526656513349768 0 0 0 0.3 13 202 213 153 214 107 
203 0.2711282679692916 0.1116891811245676 0.7608765555033591 0 0 0 0.19 13 203 213 154 223 49 
204 -0.17348114927257346 0.10475857827508687 0.6809547630398622 0 0 0 0.46 13 204 213 155 220 25 
205 0.07352488805308559 0.12740672923835447 0.7130441298698075 0 0 0 0.27 13 205 227 23 231 34 
206 0.2930811189525183 0.13799047608561124 0.7600783505204854 0 0 0 0.37 13 206 213 156 221 12 222 15 227 24 232 29 234 20 235 30 
207 0.04620444648251155 0.1307341374095627 0.7115602782978943 0 0 0 0.29 13 207 219 21 227 25 
208 0.08264692373508341 0.13266546618386416 0.7178572185285302 0 0 0 0.25 13 208 213 157 227 26 
209 0.12813483925367902 0.13469567779842853 0.7241490481221851 0 0 0 0.36 13 209 213 158 214 108 227 27 234 21 
210 0.25891258493885877 0.1393588746841723 0.7496014118806209 0 0 0 0.35 13 210 213 159 214 109 232 30 
211 0.271748367719183 0.14615277107558533 0.7494215591941074 0 0 0 0.33 13 211 222 16 223 50 232 31 235 31 
212 0.27847173339528797 0.14709327315182333 0.7509656125862371 0 0 0 0.31 13 212 213 160 214 110 223 51 235 32 
213 0.2785540173400598 0.14681602119584766 0.7505374282528932 0 0 0 0.31 13 213 213 161 222 17 232 32 234 22 
214 0.23416276990439538 0.14533916444867465 0.7393017141533148 0 0 0 0.13 13 214 214 111 232 33 
215 0.26384240978118323 0.14907838109139954 0.7413769353074685 0 0 0 0.24 13 215 222 18 234 23 
216 0.31414822306141815 0.1520098276906071 0.7559569011830283 0 0 0 0.81 13 216 213 162 223 52 
217 0.013276638252252048 0.14321986342630297 0.6949451997911164 0 0 0 0.23 13 217 227 28 231 35 
218 0.018322326223208184 0.14842696896248742 0.6934057331537485 0 0 0 0.27 13 218 213 163 227 29 
219 -0.008930240302841003 -0.1307674798577518 0.7660647023749613 0 0 0 0.95 13 219 219 22 223 53 232 34 
220 0.06172771233919717 0.0622888886259538 0.7273727222756602 0 0 0 0.23 13 220 219 23 231 36 
221 0.14339613234176848 0.07013008911248295 0.7338487645460472 0 0 0 0.48 13 221 227 30 231 37 
222 0.0795464272919642 0.0759389993252612 0.7327974660095073 0 0 0 0.17 13 222 219 24 231 38 
223 0.17355997454785077 0.07989244714077401 0.7512803816067495 0 0 0 0.07 13 223 213 164 222 19 232 35 
224 0.09171918427870385 0.07923953333601175 0.7302724512733617 0 0 0 0.32 13 224 219 25 227 31 231 39 
225 0.0906438626085589 0.12030899647561463 0.7184977296791519 0 0 0 0.63 13 225 227 32 231 40 
226 -0.02350940871479095 0.1308189802054328 0.6935210144512055 0 0 0 0.1 13 226 227 33 231 41 
227 0.09114309780967371 0.13688354400271213 0.7133936298220034 0 0 0 0.26 13 227 213 165 232 36 
228 0.3235086927899764 0.1484752034972863 0.7646655250591904 0 0 0 0.36 13 228 227 34 234 24 
229 0.22301264574305502 0.14649227293832098 0.7358820000860329 0 0 0 0.22 13 229 213 166 222 20 223 54 227 35 232 37 234 25 235 33 
230 0.34687627750471384 0.15686465680855977 0.7629540844035826 0 0 0 0.58 13 230 213 167 223 55 227 36 235 34 
231 -0.01614011456103988 0.14645566397711987 0.6894517555238692 0 0 0 0.15 13 231 213 168 227 37 231 42 
232 0.10158514126252255 0.16411070686047913 0.7067576327475921 0 0 0 0.21 13 232 227 38 234 26 
233 -0.018058823526701347 -0.12790004680848463 0.7633147350143069 0 0 0 0.91 13 233 219 26 223 56 
234 -0.2600127462388015 -0.08505445602005347 0.7355341361805967 0 0 0 0.26 13 234 219 27 221 13 
235 -0.22288244733258522 -0.08437875117016413 0.7371137336527296 0 0 0 0.32 13 235 213 169 220 26 221 14 224 24 
236 0.037849427896633536 -0.07233065247800483 0.7628372362544554 0 0 0 0.38 13 236 214 112 223 57 
237 0.05608872705339273 0.1289997102503868 0.7055888770420343 0 0 0 0.2 13 237 214 113 227 39 
238 0.11545303877520659 0.13835844029504618 0.7161300860261246 0 0 0 0.29 13 238 227 40 234 27 
239 -0.27380487734535475 -0.07742338162571456 0.7356407505374454 0 0 0 0.35 13 239 219 28 221 15 
240 0.24561457092455463 -0.07952504235290073 0.8139016041694889 0 0 0 0.22 13 240 213 170 227 41 
241 0.008166054945985744 0.1326101715088064 0.6939158425430246 0 0 0 0.34 13 241 220 27 231 43 
242 -0.06054564657334886 -0.07841355239899578 0.7371040297651841 0 0 0 1.14 13 242 222 21 223 58 232 38 
243 0.27998776770073175 0.1374319741727284 0.7499659679596902 0 0 0 0.51 13 243 213 171 234 28 
244 0.1099111668600658 -0.09646479395891883 0.7878749638489065 0 0 0 0.69 13 244 219 29 227 42 
245 0.18490038401102094 0.10835264229611245 0.7399331398124255 0 0 0 0.27 13 245 213 172 222 22 232 39 
246 0.26487296464418475 0.1167685322830425 0.7584281381965935 0 0 0 0.23 13 246 213 173 223 59 235 35 
247 0.264927843575478 0.11666017971098232 0.7586046985547573 0 0 0 0.24 13 247 213 174 214 114 223 60 232 40 
248 0.3031682642711418 0.11885661903348206 0.7667236620926781 0 0 0 0.21 13 248 227 43 232 41 235 36 
249 0.30323843075786405 0.11894368678065828 0.7674096465076262 0 0 0 0.28 13 249 227 44 232 42 234 29 235 37 
250 0.12941054346533637 -0.10226449177953198 0.7918508455397565 0 0 0 0.3 13 250 221 16 232 43 
251 -0.08947634272746506 -0.08646013159409108 0.7444916598863339 0 0 0 1.02 13 251 213 175 214 115 219 30 232 44 
252 -0.0895010478861891 -0.08679690201379998 0.7454997203473388 0 0 0 1.0 13 252 214 116 219 31 
253 0.0029167996317343366 -0.06280976500586773 0.7491516154467767 0 0 0 0.7 13 253 222 23 232 45 
254 -0.14358397549209537 -0.04843633901469964 0.7316642664636932 0 0 0 0.2 13 254 221 17 232 46 
255 -0.14358397549209537 -0.04843633901469964 0.7316642664636932 0 0 0 0.2 13 255 221 18 232 47 
256 0.16477160998802803 0.1090618038388452 0.7340009524442809 0 0 0 0.31 13 256 214 117 231 44 
257 0.28391334046617284 0.11571528362394788 0.7624101207143715 0 0 0 0.05 13 257 213 176 235 38 
258 -0.07384329168929604 -0.03473300407851886 0.7326936586023608 0 0 0 0.47 13 258 214 118 221 19 232 48 
259 -0.07384329168929604 -0.03473300407851886 0.7326936586023608 0 0 0 0.47 13 259 214 119 221 20 232 49 
260 -0.03508735891127465 -0.03351370217541736 0.7379754989676782 0 0 0 0.42 13 260 214 120 221 21 
261 -0.03508735891127465 -0.03351370217541736 0.7379754989676782 0 0 0 0.42 13 261 214 121 221 22 
262 -0.14296350018254303 -0.015552720322772507 0.7230761975715101 0 0 0 0.43 13 262 214 122 232 50 
