# 3D point list with one line of data per point:
#   POINT3D_ID, X, Y, Z, R, G, B, ERROR, TRACK[] as (IMAGE_ID, POINT2D_IDX)
# Number of points: 412, mean track length: 6.52
84 -0.5023954684281225 0.025505366985361752 1.0091568443251209 0 0 0 0.05 21 40 148 16 209 61 
85 -0.4959482755871932 0.029794836029648136 1.0110335845931786 0 0 0 0.18 21 41 44 22 164 26 209 62 
86 -0.49734963407287763 0.03841329273349071 1.0049220185723784 0 0 0 0.28 21 42 164 27 209 63 
87 -0.4744042028348632 0.04374381926554124 1.0020788765717965 0 0 0 0.38 21 43 44 23 148 17 209 64 127 11 
88 -0.4290895623784767 0.06714865270229343 0.9963517748531485 0 0 0 0.12 21 44 44 24 209 65 
89 -0.38408146084639294 0.07621129636261678 0.99050987591298 0 0 0 0.17 21 45 50 22 61 10 209 66 
90 -0.3371024845000163 0.08862737187591406 0.9846024007342445 0 0 0 0.21 21 46 50 23 61 11 157 20 209 67 213 17 
91 -0.35238785961940433 0.08724046729456239 0.9862063074317852 0 0 0 0.05 21 47 50 24 61 12 209 68 224 20 
92 -0.34583795138577067 0.08874156212638033 0.9854801798127993 0 0 0 0.26 21 48 44 25 61 13 128 17 148 18 164 28 209 69 
93 -0.4743489436248777 0.06951211233240927 0.9960823571267328 0 0 0 0.22 21 49 209 70 221 15 
94 -0.3538559004855024 0.09245036304658506 0.9853333455853049 0 0 0 0.22 21 50 50 25 53 18 61 14 77 13 96 19 126 4 128 18 148 19 162 8 164 29 172 21 190 12 196 8 209 71 213 18 227 16 232 30 
95 -0.3530438614403394 0.0972633942723034 0.9833630638157466 0 0 0 0.34 21 51 44 26 148 20 164 30 209 72 
96 -0.3914606788812847 0.0946303600043179 0.9870158752793944 0 0 0 0.29 21 52 164 31 209 73 224 21 
97 -0.43945199862889395 0.09696522062291797 0.9845343952851401 0 0 0 0.27 21 53 61 15 77 14 118 25 128 19 164 32 209 74 213 19 
98 -0.44166423690556 0.10546652655792246 0.9818419556847799 0 0 0 0.22 21 54 61 16 209 75 213 20 
99 -0.4457850613837793 0.1048310888611214 0.9783708091061403 0 0 0 0.18 21 55 176 23 209 76 
100 -0.48111495908962143 0.10370789160877476 0.9860921808470507 0 0 0 0.17 21 56 114 31 209 77 
101 -0.3579298848881054 0.14521338368556508 0.9628516274686406 0 0 0 0.28 21 57 44 27 77 15 148 21 209 78 
102 -0.3785638121185509 0.1500590671444639 0.9685446517120637 0 0 0 0.21 21 58 44 28 50 26 61 17 77 16 113 14 118 26 128 20 148 22 157 21 164 33 172 22 176 24 204 8 209 79 213 21 219 15 224 22 
103 -0.3802005522407465 0.1526186522396877 0.9681566477213301 0 0 0 0.24 21 59 50 27 61 18 128 21 148 23 157 22 164 34 176 25 209 80 213 22 219 16 
104 -0.326968697086975 0.16091951662412393 0.957005780940477 0 0 0 0.11 21 60 209 81 219 17 
105 -0.3865170505851469 0.15946215482082313 0.9637545278500006 0 0 0 0.08 21 61 172 23 209 82 
106 -0.4312455124979665 0.16138327267520594 0.9640567404392445 0 0 0 0.32 21 62 172 24 209 83 224 23 
107 -0.4493840972064647 0.16265271195814743 0.9668040901154481 0 0 0 0.23 21 63 113 15 172 25 209 84 
108 -0.4409437750572577 0.16416963842482352 0.9632619251519849 0 0 0 0.35 21 64 43 13 209 85 
109 -0.35253736935548446 0.20419425469372657 0.945510886961719 0 0 0 0.05 21 65 50 28 209 86 
110 -0.36646796878582455 0.20531466446813618 0.9481689060187963 0 0 0 0.21 21 66 44 29 209 87 
111 -0.40463812017307327 0.20607215452318042 0.9507636298628336 0 0 0 0.13 21 67 44 30 209 88 224 24 
112 -0.41365358642884426 -0.14435706053520972 0.4076390229320716 0 0 0 0.27 21 68 209 89 224 25 
113 -0.41358347948334084 -0.14327666401234807 0.41148853489735704 0 0 0 0.17 21 69 209 90 224 26 
114 -0.4142358985969597 -0.14260349292121596 0.40940261427891217 0 0 0 0.37 21 70 209 91 224 27 
115 -0.2911604300303133 0.022337912122014143 0.9977272354567336 0 0 0 0.14 21 71 172 26 209 92 
116 -0.30983121284705406 0.019015101404818307 1.0004545403100522 0 0 0 0.29 21 72 111 33 162 9 172 27 209 93 179 15 
117 -0.4174455893820629 -0.044449110670733906 0.47094096314940853 0 0 0 0.09 21 73 209 94 224 28 
118 -0.501648226398014 -0.016185652439062018 1.0223049554370451 0 0 0 0.19 21 74 148 24 164 35 209 95 
119 -0.48527692317984283 -0.013603321543205663 1.017559931523987 0 0 0 0.46 21 75 25 12 71 20 77 17 92 12 96 20 127 12 209 96 217 34 232 31 73 13 198 4 81 17 
120 -0.48892855355931675 -0.010358090351248858 1.0177301112980346 0 0 0 0.23 21 76 43 14 65 15 96 21 103 17 111 34 114 32 118 27 148 25 164 36 209 97 217 35 232 32 
121 -0.374517350197395 0.019651919291911468 1.0035387953337882 0 0 0 0.26 21 77 111 35 172 28 209 98 
122 -0.40268292093119346 0.015734335724389974 1.0046217109890665 0 0 0 0.37 21 78 113 16 172 29 209 99 
123 -0.39162435983079447 0.019636766567339016 1.0052467731450976 0 0 0 0.29 21 79 96 22 111 36 113 17 114 33 172 30 190 13 209 100 
124 -0.4097512627194089 0.01964774882190994 1.0049308343438503 0 0 0 0.29 21 80 111 37 114 34 148 26 157 23 172 31 209 101 
125 -0.41411109456008666 -0.03981366459211609 0.3812839536615597 0 0 0 0.23 21 81 209 102 224 29 
126 -0.43807817821562806 0.02010411512050577 1.0061317445759377 0 0 0 0.25 21 82 111 38 172 32 209 103 
127 -0.4263660090571862 0.025542343034829808 1.0029357255792828 0 0 0 0.43 21 83 53 19 77 18 96 23 103 18 111 39 113 18 114 35 126 5 157 24 164 37 179 16 209 104 213 23 217 36 227 17 219 18 
128 -0.4973751529877759 0.01155605604555908 1.0119490852777233 0 0 0 0.32 21 84 44 31 92 13 164 38 209 105 
129 -0.43440572266333743 0.02923476526780388 1.0030362550636824 0 0 0 0.64 21 85 25 13 44 32 77 19 126 6 148 27 164 39 176 26 209 106 213 24 224 30 
130 -0.42982285072787335 0.03228664813425691 1.0015567606067388 0 0 0 0.27 21 86 44 33 77 20 103 19 111 40 118 28 126 7 148 28 164 40 209 107 
131 -0.49192818086830803 0.019949496062679404 1.0095842491789797 0 0 0 0.42 21 87 103 20 113 19 164 41 209 108 
132 -0.5010868828857277 0.020087868435159296 1.0110023012401432 0 0 0 0.2 21 88 44 34 111 41 209 109 
133 -0.47407839689379117 0.02810870221220398 1.0085826259111907 0 0 0 0.25 21 89 44 35 96 24 111 42 128 22 157 25 172 33 176 27 179 17 209 110 224 31 227 18 219 19 
134 -0.475256213947104 0.033485642203535566 1.0079008579858957 0 0 0 0.26 21 90 111 43 209 111 
135 -0.46817228333810906 0.037546543840049004 1.0074825850311522 0 0 0 0.27 21 91 103 21 111 44 127 13 128 23 157 26 176 28 209 112 232 33 
136 -0.4945820760806182 0.03460792308386189 1.008241303326721 0 0 0 0.16 21 92 25 14 44 36 71 21 164 42 209 113 
137 -0.4983714018488567 0.04362361171504525 1.0018124208813848 0 0 0 0.19 21 93 44 37 164 43 209 114 
138 -0.4279212958258495 0.08769308744544704 0.9891643574078618 0 0 0 0.24 21 94 77 21 111 45 118 29 128 24 148 29 164 44 196 9 209 115 213 25 224 32 
139 -0.3858629366839028 0.1442063073935459 0.9720599723316274 0 0 0 0.06 21 95 172 34 209 116 
140 -0.3883171287698815 0.14608672046222113 0.9696650156457669 0 0 0 0.24 21 96 50 29 172 35 209 117 
141 -0.393651179135539 0.14761747139712772 0.9642790062141404 0 0 0 0.16 21 97 111 46 209 118 
142 -0.4273516323926906 0.16299415802943806 0.9660943040276251 0 0 0 0.19 21 98 96 25 209 119 224 33 227 19 
143 -0.42896864757179165 0.16919742945108854 0.9621456217023054 0 0 0 0.21 21 99 71 22 111 47 118 30 204 9 209 120 224 34 227 20 232 34 
144 -0.4446093838729477 0.17688633569288473 0.9609936885048819 0 0 0 0.26 21 100 43 15 53 20 71 23 111 48 118 31 148 30 209 121 224 35 
145 -0.41334392112282003 0.1858952338745702 0.9590842610345628 0 0 0 0.36 21 101 61 19 113 20 157 27 209 122 
146 -0.4242284703566448 0.18688169312503705 0.9609291796327737 0 0 0 0.34 21 102 25 15 61 20 111 49 118 32 148 31 157 28 172 36 209 123 227 21 
147 -0.4492875777467581 0.19120335526755144 0.9588165890990582 0 0 0 0.24 21 103 111 50 113 21 114 36 148 32 209 124 224 36 172 37 227 22 
148 -0.45030953145928243 0.20732798298497487 0.954367212640197 0 0 0 0.15 21 104 111 51 209 125 217 37 
149 -0.4441238043972524 0.22472732922786737 0.9477796538951982 0 0 0 0.38 21 105 44 38 164 45 209 126 
150 -0.4121838434206492 -0.13948174177383318 0.385417084448962 0 0 0 0.14 21 106 209 127 224 37 
151 -0.31577113437467275 0.031887324907123635 0.9948386981084693 0 0 0 0.31 21 107 111 52 209 128 
152 -0.4694944307624991 0.012429914925631894 1.0146364896037317 0 0 0 0.29 21 108 53 21 96 26 111 53 114 37 176 29 209 129 219 20 227 23 
153 -0.49431575752802986 0.024958332783080333 1.0107921939190867 0 0 0 0.14 21 109 25 16 44 39 71 24 111 54 126 8 148 33 209 130 
154 -0.44744294098507936 0.0490813175902187 0.9967835133032109 0 0 0 0.31 21 110 111 55 209 131 232 35 
155 -0.42331025232858077 0.03602556668909448 0.568450746408525 0 0 0 0.27 21 111 209 132 224 38 
156 -0.44872989254011786 0.10182299540644058 0.9841749056073613 0 0 0 0.34 21 112 73 14 113 22 114 38 126 9 162 10 172 38 176 30 209 133 219 21 
157 -0.3272134497982289 0.14164592344939111 0.9647134915694158 0 0 0 0.17 21 113 61 21 209 134 
158 -0.3786187950634905 0.1441609153794564 0.9704665725425125 0 0 0 0.23 21 114 50 30 61 22 111 56 172 39 204 10 209 135 217 38 
159 -0.3566543201906836 0.15560654287097392 0.9612310941006782 0 0 0 0.18 21 115 111 57 209 136 227 24 
160 -0.39495012295168913 0.15638956357836512 0.964897616127606 0 0 0 0.08 21 116 111 58 209 137 
161 -0.3583813350279419 0.17699832143713612 0.9564745036591542 0 0 0 0.25 21 117 50 31 53 22 77 22 111 59 164 46 172 40 209 138 213 26 
162 -0.4213870741839792 0.07867753942117069 0.5090192763521595 0 0 0 0.1 21 118 73 15 209 139 224 39 
163 -0.38696392095700977 0.1866184566662436 0.9573733526258609 0 0 0 0.25 21 119 111 60 162 11 209 140 224 40 
164 -0.41393742236563025 0.19790480882700506 0.9558975368252379 0 0 0 0.43 21 120 73 16 77 23 81 18 92 14 111 61 164 47 176 31 204 11 209 141 217 39 
165 -0.4470010561695128 0.21034877962186954 0.9528206270682271 0 0 0 0.22 21 121 73 17 111 62 164 48 209 142 
166 -0.4414848719421084 0.2280300902955808 0.9424162500332351 0 0 0 0.3 21 122 92 15 164 49 209 143 
167 -0.41901177697871167 -0.1403993268429158 0.49854726301371577 0 0 0 0.37 21 123 25 17 73 18 81 19 209 144 221 16 
168 -0.37067612016553086 0.033328528007652014 0.9989914876030126 0 0 0 0.28 21 124 114 39 179 18 209 145 
169 -0.4523681819262734 0.018582357876333506 0.853950735247867 0 0 0 0.38 21 125 164 50 209 146 
170 -0.4444908893787589 0.04166062972611559 1.0017170147926566 0 0 0 0.37 21 126 65 16 81 20 103 22 111 63 113 23 118 33 127 14 157 29 162 12 164 51 172 41 176 32 179 19 209 147 221 17 232 36 92 16 
171 -0.42529245112780173 0.09194083487155447 0.9890149961102429 0 0 0 0.16 21 127 25 18 77 24 128 25 179 20 209 148 213 27 217 40 224 41 
172 -0.44477750077089206 0.11695729284932635 0.9808890440635799 0 0 0 0.3 21 128 43 16 73 19 77 25 96 27 111 64 113 24 172 42 190 14 209 149 227 25 
173 -0.33612990001894844 0.18606830569039734 0.9547557413053952 0 0 0 0.16 21 129 190 15 209 150 
174 -0.37054966191023314 0.20109286037483434 0.9503809071090712 0 0 0 0.43 21 130 50 32 111 65 157 30 209 151 217 41 224 42 
175 -0.42014686303359466 -0.03896797614644567 0.49515856424527954 0 0 0 0.34 21 131 71 25 73 20 209 152 221 18 224 43 
176 -0.48887069849591164 0.0007439449504439287 1.0156122061521276 0 0 0 0.23 21 132 43 17 44 40 71 26 73 21 77 26 81 21 92 17 198 5 199 4 209 153 111 66 126 10 148 34 164 52 224 44 
177 -0.38087072151356105 0.027961240414464454 1.0006350344352024 0 0 0 0.49 21 133 73 22 81 22 96 28 114 40 148 35 158 6 162 13 204 12 209 154 219 22 
178 -0.4732556280176732 0.07253604015039479 0.9952058563802711 0 0 0 0.32 21 134 71 27 113 25 114 41 209 155 
179 -0.430048875372922 0.09458234343827966 0.9868555658854752 0 0 0 0.22 21 135 44 41 50 33 65 17 71 28 73 23 77 27 81 23 114 42 128 26 148 36 162 14 164 53 176 33 199 5 204 13 209 156 217 42 219 23 
180 -0.3828162335183408 0.16191356059913964 0.9638754189232351 0 0 0 0.31 21 136 111 67 209 157 227 26 
181 -0.48786192137679096 -0.028703184661255758 1.0267234237645497 0 0 0 0.37 21 137 25 19 43 18 71 29 73 24 77 28 81 24 92 18 96 29 103 23 111 68 114 43 126 11 127 15 148 37 164 54 196 10 198 6 199 6 209 158 224 45 44 42 
182 -0.3058035962510807 0.02628916005197769 0.9974675371160661 0 0 0 0.17 21 138 44 43 53 23 77 29 128 27 162 15 209 159 213 28 
183 -0.34957844265668375 0.03348387774283528 1.000347287935778 0 0 0 0.24 21 139 71 30 81 25 114 44 162 16 209 160 227 27 
184 -0.38645472307538925 0.03371890472905288 1.0006650360439504 0 0 0 0.38 21 140 81 26 114 45 158 7 179 21 209 161 213 29 219 24 227 28 
185 -0.4129754196841384 0.03388788532837495 1.0035625370264334 0 0 0 0.3 21 141 111 69 114 46 164 55 176 34 198 7 209 162 217 43 224 46 
186 -0.42419051357636717 0.03386752801727975 1.0021750850163347 0 0 0 0.41 21 142 73 25 103 24 111 70 114 47 118 34 128 28 164 56 204 14 209 163 213 30 219 25 
187 -0.4901454735386568 0.02306146493134911 1.011100292735126 0 0 0 0.54 21 143 71 31 81 27 111 71 164 57 209 164 
188 -0.45134092918507074 0.07433306714401348 0.8269900017803574 0 0 0 0.06 21 144 111 72 209 165 
189 -0.47335593884833316 0.0998942460422328 0.9872883838843735 0 0 0 0.39 21 145 96 30 103 25 114 48 176 35 198 8 199 7 209 166 126 12 
190 -0.3850419043546735 0.20276044548588204 0.9506698415416294 0 0 0 0.42 21 146 111 73 176 36 209 167 157 31 
191 -0.318981142961521 0.014453350223870398 1.0009309550729195 0 0 0 0.45 21 147 162 17 209 168 
192 -0.44321211272250427 0.07414868367695154 0.7144382674971737 0 0 0 0.46 21 148 199 8 209 169 
193 -0.4216711173691936 0.07834841015310776 0.5032772808239252 0 0 0 0.15 21 149 73 26 209 170 
194 -0.3510166773019825 0.190197632588672 0.9558292051776073 0 0 0 0.53 21 150 44 44 77 30 111 74 162 18 209 171 217 44 232 37 53 24 81 28 96 31 
195 -0.36314028990702846 -0.007564309300308749 1.014293432639392 0 0 0 0.47 21 151 81 29 111 75 179 22 209 172 
196 -0.394646642418329 -0.009305311486005222 1.0124036947399495 0 0 0 0.33 21 152 162 19 172 43 209 173 
197 -0.43797814342245717 0.014035888720878653 0.6635095487876134 0 0 0 0.28 21 153 71 32 73 27 103 26 198 9 199 9 209 174 
198 -0.41983871817159796 0.19179309650919416 0.9567432251415426 0 0 0 0.68 21 154 111 76 209 175 217 45 43 19 118 35 128 29 224 47 
199 -0.37942959176564367 -0.00810499328414751 1.0136605672223433 0 0 0 0.28 21 155 103 27 111 77 172 44 179 23 209 176 114 49 
200 -0.45526005508780093 -0.007603463580188118 1.0140847899419316 0 0 0 0.23 21 156 103 28 209 177 73 28 
201 -0.4321583368686096 0.1908765602930674 0.9573850780972754 0 0 0 0.38 21 157 65 18 81 30 111 78 118 36 209 178 232 38 
202 -0.472737206117278 -0.012300736341516143 1.0230082267733045 0 0 0 0.21 25 20 53 25 71 33 81 31 114 50 118 37 157 32 179 24 209 179 217 46 219 26 227 29 
203 -0.3821715466097253 0.019725984592072233 1.0032572066546916 0 0 0 0.27 25 21 44 45 111 79 157 33 158 8 172 45 179 25 190 16 209 180 
204 -0.40488654314525774 0.08266018935384155 0.9864528029614871 0 0 0 0.36 25 22 50 34 71 34 92 19 113 26 114 51 118 38 126 13 176 37 204 15 209 181 213 31 219 27 232 39 
205 -0.4772278062996724 0.09170050992202801 0.9934009065476663 0 0 0 0.28 25 23 113 27 209 182 
206 -0.4392368128220082 0.10383055402467548 0.9829515224278738 0 0 0 0.44 25 24 61 23 111 80 172 46 209 183 227 30 
207 -0.4769387601595891 0.1221082750177036 0.9784876088700024 0 0 0 0.25 25 25 44 46 77 31 164 58 209 184 224 48 73 29 
208 -0.4709628922041093 0.17276143684475148 0.9672320905424548 0 0 0 0.27 25 26 53 26 61 24 71 35 73 30 77 32 96 32 111 81 118 39 148 38 209 185 232 40 43 20 44 47 162 20 190 17 
209 -0.40391334310487315 0.20002939257042718 0.9520047105429178 0 0 0 0.24 25 27 50 35 73 31 111 82 162 21 164 59 172 47 204 16 209 186 227 31 232 41 
210 -0.49420779660073283 -0.01385179277537943 1.0196365472303524 0 0 0 0.22 25 28 71 36 73 32 96 33 111 83 114 52 164 60 209 187 
211 -0.48081829257465525 0.027547192347138497 1.007171021676692 0 0 0 0.32 25 29 44 48 71 37 77 33 103 29 111 84 126 14 148 39 164 61 176 38 196 11 209 188 221 19 224 49 232 42 
212 -0.44237451214303386 0.029015370777753565 0.7229951744582912 0 0 0 0.53 25 30 73 33 103 30 199 10 209 189 224 50 
213 -0.47453368056883316 -0.008118694010142818 1.018953750771491 0 0 0 0.3 25 31 53 27 71 38 73 34 111 85 128 30 164 62 179 26 209 190 217 47 
214 -0.44366772039024843 0.026705363938615802 0.7152549167951522 0 0 0 0.44 25 32 71 39 73 35 103 31 126 15 198 10 199 11 209 191 
215 -0.4382537198929697 0.09181264184689533 0.9864162264772225 0 0 0 0.3 25 33 61 25 114 53 190 18 198 11 209 192 221 20 232 43 
216 -0.44138919772397517 0.06897001612290997 0.6999290236990914 0 0 0 0.59 25 34 73 36 198 12 199 12 209 193 224 51 
217 -0.4523162082505963 0.13096531922630744 0.7760362387294975 0 0 0 0.3 25 35 73 37 198 13 199 13 209 194 
218 -0.39147271582878834 0.21109248142197704 0.9470191011342383 0 0 0 0.25 25 36 50 36 209 195 213 32 
219 -0.4638136513262672 0.05867741263573894 0.997401729749022 0 0 0 0.41 25 37 43 21 50 37 53 28 71 40 73 38 81 32 92 20 96 34 111 86 113 28 118 40 148 40 164 63 176 39 196 12 198 14 199 14 209 196 219 28 221 21 224 52 232 44 
220 -0.440781021517693 0.10308774325608443 1.049472871912917 0 0 0 0.69 25 38 71 41 113 29 209 197 217 48 
221 -0.3236263993537731 0.0470819538223097 0.9930703655369876 0 0 0 0.15 148 41 157 34 209 198 
222 -0.4309444759184031 0.045081251228255216 1.0014523512864753 0 0 0 0.16 77 34 164 64 209 199 
223 -0.4013228908029977 0.08317615485768605 0.9860143878253353 0 0 0 0.16 50 38 61 26 164 65 209 200 213 33 
224 -0.4755884364774315 0.12535204660561167 0.9788381221124687 0 0 0 0.16 77 35 148 42 209 201 224 53 
225 -0.36376586477544637 0.170303910428754 0.9594417960995825 0 0 0 0.16 44 49 176 40 209 202 157 35 213 34 
226 -0.3209020717893456 -0.02293412240645525 1.015250055299026 0 0 0 0.39 92 21 164 66 176 41 209 203 
227 -0.4755925996854153 -0.01601851886711034 1.0224473995201298 0 0 0 0.17 53 29 61 27 96 35 103 32 118 41 128 31 157 36 176 42 179 27 209 204 227 32 232 45 
228 -0.49275862983229957 0.0066259001046200475 1.0140650139815606 0 0 0 0.19 44 50 77 36 103 33 111 87 114 54 164 67 209 205 224 54 
229 -0.4883578504954079 0.010652066874682424 1.0113203787040597 0 0 0 0.22 92 22 103 34 209 206 221 22 
230 -0.3802371248741779 0.02283942317699497 1.002147461081561 0 0 0 0.18 44 51 50 39 53 30 77 37 92 23 128 32 164 68 172 48 176 43 179 28 204 17 209 207 213 35 219 29 224 55 227 33 
231 -0.4534212995673792 0.03890920746668956 1.0048651398620618 0 0 0 0.31 77 38 92 24 111 88 127 16 164 69 172 49 176 44 209 208 224 56 
232 -0.4007604236755859 0.04951888949226208 0.9936538860850286 0 0 0 0.28 111 89 176 45 209 209 
233 -0.37018273394801965 0.07598568665064039 0.9911122364529014 0 0 0 0.15 127 17 209 210 213 36 
234 -0.4754070688781626 0.11217594595431818 0.9800055252186061 0 0 0 0.23 164 70 209 211 224 57 
235 -0.3621792124182691 0.14571499997290566 0.9637547236254042 0 0 0 0.14 118 42 209 212 213 37 
236 -0.43315462469987787 -0.014055184188836365 1.016609833694822 0 0 0 0.18 77 39 127 18 209 213 
237 -0.4463844226546339 0.00671360765798428 1.0066153420960104 0 0 0 0.26 71 42 111 90 114 55 209 214 217 49 113 30 
238 -0.46856317942811326 0.05739274146273007 1.0007224884525907 0 0 0 0.26 44 52 77 40 111 91 118 43 148 43 164 71 172 50 196 13 209 215 221 23 224 58 
239 -0.47597700805190546 0.1720164447503988 0.962188491133174 0 0 0 0.37 111 92 209 216 224 59 
240 -0.4344394975752383 -0.017693476782395485 1.0281199978465763 0 0 0 0.58 71 43 73 39 77 41 114 56 127 19 164 72 209 217 224 60 
241 -0.4078852786164975 0.033537086672408276 0.9998174086070799 0 0 0 0.15 50 40 73 40 114 57 157 37 209 218 
242 -0.4426620434199156 0.03724762781491049 1.003335320018812 0 0 0 0.46 44 53 71 44 73 41 77 42 209 219 224 61 227 34 
243 -0.3883093604428563 -0.007688599361106714 1.0161119326380976 0 0 0 0.37 50 41 71 45 73 42 81 33 209 220 217 50 227 35 
244 -0.4772079261567511 0.06683115419674843 0.9914653276327583 0 0 0 0.27 113 31 198 15 209 221 
245 -0.43134475621973406 -0.018913051687016687 1.0373094214588852 0 0 0 0.66 73 43 77 43 103 35 111 93 114 58 199 15 209 222 
246 -0.3922373227752772 0.1706909894077534 0.9580585209839242 0 0 0 0.25 50 42 61 28 81 34 103 36 111 94 209 223 213 38 227 36 
247 -0.46160695264112783 0.1791700937879356 0.9633102827379579 0 0 0 0.53 50 43 81 35 111 95 118 44 162 22 199 16 209 224 221 24 
248 -0.46940771735490205 -0.0013152749034060604 1.0210604110913577 0 0 0 0.24 53 31 65 19 71 46 73 44 81 36 111 96 114 59 118 45 128 33 172 51 176 46 179 29 209 225 217 51 219 30 232 46 103 37 
249 -0.4169881311900567 0.17495967508746765 0.9633529792541978 0 0 0 0.48 50 44 53 32 65 20 92 25 96 36 103 38 111 97 148 44 164 73 176 47 209 226 217 52 
250 -0.4307869335883436 -0.0335704077681308 1.0453736271795109 0 0 0 0.49 43 22 71 47 77 44 81 37 103 39 111 98 114 60 164 74 209 227 224 62 148 45 232 47 
251 -0.3180362281492085 -0.014359401410184356 1.0105884760032984 0 0 0 0.18 43 23 71 48 111 99 179 30 209 228 219 31 
252 -0.4761696116693883 0.0069713705106320125 1.0179087049300939 0 0 0 0.3 43 24 53 33 71 49 111 100 128 34 209 229 
253 -0.48135433821915874 0.01264166900794902 1.0111152645865111 0 0 0 0.33 43 25 50 45 73 45 103 40 111 101 148 46 164 75 196 14 209 230 224 63 
254 -0.48082989651167096 0.043514648183093814 1.0034804339315322 0 0 0 0.19 43 26 111 102 209 231 44 54 77 45 103 41 
255 -0.4108818676861787 0.08186415687781043 0.9868349232960966 0 0 0 0.29 43 27 53 34 172 52 176 48 209 232 219 32 
256 -0.4447332073949937 0.19394795698961553 0.9552287338309913 0 0 0 0.32 43 28 71 50 111 103 162 23 172 53 209 233 217 53 221 25 232 48 
257 -0.4923883162033365 -0.032054873946909666 1.0252940203166547 0 0 0 0.28 43 29 71 51 77 46 103 42 111 104 118 46 148 47 196 15 209 234 221 26 224 64 
258 -0.4802769570807247 0.023982900213370097 1.0082714975800344 0 0 0 0.31 43 30 44 55 65 21 71 52 73 46 77 47 81 38 92 26 96 37 111 105 118 47 126 16 148 48 164 76 176 49 196 16 209 235 221 27 232 49 
259 -0.40726273157931286 0.0914879242093161 0.9866710427379384 0 0 0 0.23 43 31 77 48 103 43 118 48 204 18 209 236 
260 -0.4577193907580248 0.19481349937770048 0.9503661546415798 0 0 0 0.44 43 32 71 53 209 237 111 106 
261 -0.28216454826521414 -0.03580370707867918 1.0164039302810615 0 0 0 0.63 44 56 128 35 209 238 
262 -0.3197295470358264 -0.01750578469287142 1.0098874755365403 0 0 0 0.32 44 57 77 49 209 239 
263 -0.49341455515332316 -0.004303454284195021 1.0181929091077815 0 0 0 0.39 44 58 92 27 209 240 
264 -0.5032219916548404 0.0008811111178563062 1.0193232167820832 0 0 0 0.42 44 59 71 54 77 50 92 28 111 107 164 77 209 241 
265 -0.3649393212872979 0.022501188240475093 1.0015261888935543 0 0 0 0.29 44 60 157 38 158 9 172 54 204 19 209 242 
266 -0.3563138125732982 0.024998853866696428 1.0010349465491726 0 0 0 0.4 44 61 50 46 148 49 157 39 164 78 172 55 176 50 179 31 209 243 
267 -0.36026622145815507 0.025037951069436005 1.0012857400301376 0 0 0 0.28 44 62 92 29 157 40 172 56 196 17 209 244 
268 -0.40569675566391467 0.025471524826827633 1.002065761778498 0 0 0 0.36 44 63 50 47 96 38 128 36 157 41 172 57 176 51 179 32 204 20 209 245 213 39 219 33 224 65 227 37 127 20 
269 -0.47094753951865825 0.04607322932473385 1.004119859812868 0 0 0 0.16 44 64 77 51 209 246 
270 -0.3932316365660089 0.0673815361918467 0.9910621021866777 0 0 0 0.18 44 65 50 48 157 42 209 247 
271 -0.34645562698360033 0.08633415529195151 0.9840139381429341 0 0 0 0.17 44 66 50 49 92 30 157 43 176 52 209 248 213 40 
272 -0.32878394066360134 0.1674696711769847 0.9580241020721887 0 0 0 0.38 44 67 50 50 162 24 176 53 209 249 
273 -0.3247771020514682 -0.014861303552017494 1.0117923705124088 0 0 0 0.14 44 68 176 54 209 250 
274 -0.35849952541093827 0.022651709889063027 1.0015043717352752 0 0 0 0.19 44 69 50 51 53 35 77 52 92 31 103 44 111 108 148 50 157 44 164 79 172 58 176 55 204 21 209 251 213 41 219 34 224 66 118 49 128 37 158 10 162 25 227 38 
275 -0.4231585926624406 0.02320702052465929 1.003963741172097 0 0 0 0.27 44 70 50 52 77 53 92 32 96 39 103 45 111 109 114 61 126 17 148 51 157 45 164 80 172 59 196 18 204 22 209 252 213 42 219 35 224 67 227 39 179 33 
276 -0.3858673117511297 0.02961028391793063 1.002655869626435 0 0 0 0.17 44 71 50 53 92 33 209 253 221 28 224 68 
277 -0.3803911802442222 0.029632351736849503 1.0013884182432218 0 0 0 0.36 44 72 53 36 162 26 172 60 176 56 204 23 209 254 224 69 
278 -0.3262183279069008 0.04669361297483416 0.9925924250360814 0 0 0 0.25 44 73 50 54 92 34 111 110 204 24 209 255 227 40 
279 -0.5019051982846205 0.0899856734771492 0.992776520330089 0 0 0 0.15 44 74 209 256 224 70 
280 -0.4288440478273792 0.09297851911117308 0.9880537477437735 0 0 0 0.14 44 75 77 54 128 38 209 257 
281 -0.4413801585591526 0.18053822450425927 0.959424588477722 0 0 0 0.31 44 76 53 37 61 29 71 55 111 111 118 50 157 46 164 81 209 258 227 41 232 50 
282 -0.4491856672008817 0.18270023640410635 0.9601207177916735 0 0 0 0.38 44 77 61 30 118 51 162 27 176 57 209 259 224 71 
283 -0.43837731415501263 0.22252545899823772 0.9482746802990464 0 0 0 0.3 44 78 50 55 111 112 209 260 
284 -0.35022906322801733 0.019522376511623023 1.0028756650166177 0 0 0 0.54 44 79 61 31 96 40 103 46 114 62 128 39 148 52 157 47 158 11 162 28 172 61 176 58 179 34 204 25 209 261 213 43 217 54 224 72 232 51 
285 -0.3506216806319012 0.09146531655704984 0.9860876957218482 0 0 0 0.31 44 80 53 38 71 56 77 55 92 35 96 41 111 113 113 32 118 52 126 18 148 53 157 48 162 29 164 82 176 59 179 35 190 19 196 19 209 262 213 44 221 29 224 73 227 42 232 52 
286 -0.36913878998629424 0.09150119222177495 0.9852488883582239 0 0 0 0.28 44 81 50 56 77 56 111 114 113 33 114 63 126 19 162 30 164 83 172 62 176 60 179 36 209 263 213 45 224 74 232 53 
287 -0.47370248578900187 0.12792593339796704 0.9789048471108202 0 0 0 0.3 44 82 77 57 103 47 148 54 196 20 209 264 227 43 
288 -0.36923656959935935 0.1661422867553177 0.9586182663692209 0 0 0 0.36 44 83 50 57 111 115 113 34 209 265 
289 -0.39473607687689816 0.20091094233738951 0.9513457060976784 0 0 0 0.28 44 84 77 58 164 84 172 63 209 266 224 75 
290 -0.44997910498815447 0.1779638240966603 0.9609559689453193 0 0 0 0.31 44 85 61 32 71 57 81 39 111 116 209 267 217 55 221 30 
291 -0.32100781105651327 -0.00608894358143104 1.0086667601517227 0 0 0 0.4 44 86 92 36 114 64 209 268 111 117 179 37 
292 -0.3972792990339212 0.12003306343104489 0.9799195222032584 0 0 0 0.27 44 87 81 40 162 31 209 269 
293 -0.40210578267524427 -0.0035690009670319425 1.012391536437673 0 0 0 0.14 50 58 176 61 209 270 213 46 
294 -0.33975942876395854 0.022491182237841537 1.0013665914926717 0 0 0 0.29 50 59 157 49 176 62 179 38 209 271 
295 -0.4403323780338978 0.02594373306307764 1.0050754365429044 0 0 0 0.21 118 53 128 40 157 50 164 85 209 272 213 47 148 55 219 36 
296 -0.31788785081514354 0.04607862084852189 0.9926114586845591 0 0 0 0.14 50 60 157 51 209 273 213 48 
297 -0.32041777487541323 0.047079980310937 0.9937136448808495 0 0 0 0.1 50 61 157 52 209 274 213 49 
298 -0.39137379235381503 0.07423406279865684 0.9931914569197565 0 0 0 0.26 50 62 61 33 118 54 164 86 172 64 209 275 224 76 227 44 
299 -0.3541688935721568 0.07354423591972208 0.9937300874621287 0 0 0 0.46 50 63 209 276 227 45 
300 -0.38722172618693185 0.07625475178008452 0.9905918458438085 0 0 0 0.16 50 64 61 34 113 35 209 277 213 50 
301 -0.3913617404360773 0.08060163463881187 1.039742633982521 0 0 0 1.25 50 65 176 63 209 278 
302 -0.37814787064847105 0.1531082664760271 0.9700452711957765 0 0 0 0.24 50 66 157 53 176 64 209 279 213 51 
303 -0.36380793112377946 0.17369660868358783 0.9589635547459356 0 0 0 0.27 50 67 157 54 176 65 209 280 213 52 
304 -0.4065689312754712 0.18508442600403122 0.9566928727839002 0 0 0 0.16 50 68 61 35 157 55 176 66 209 281 
305 -0.3812858355196386 0.1935394209527899 0.9562414822662881 0 0 0 0.31 50 69 61 36 209 282 224 77 
306 -0.36885285651059335 0.19588924467368582 0.951345553666325 0 0 0 0.37 50 70 61 37 176 67 209 283 227 46 
307 -0.350461554525827 0.2084147029824501 0.9484415496353834 0 0 0 0.11 50 71 196 21 209 284 
308 -0.46223103135029997 -0.0003501304738523913 1.019990069179936 0 0 0 0.17 50 72 53 39 61 38 96 42 103 48 128 41 157 56 172 65 179 39 209 285 213 53 227 47 
309 -0.4729617167423928 0.0014464494557706305 1.0189547652873867 0 0 0 0.58 53 40 103 49 128 42 179 40 209 286 219 37 
310 -0.45628311704295466 0.03742364731179307 1.0052972065069978 0 0 0 0.32 53 41 77 59 103 50 111 118 128 43 157 57 164 87 176 68 190 20 209 287 217 56 227 48 
311 -0.47660560159462756 0.041164985991633485 1.0015642837272791 0 0 0 0.58 77 60 113 36 127 21 128 44 209 288 224 78 148 56 
312 -0.3600909433633856 0.04069596817359197 0.99755821446695 0 0 0 0.22 50 73 118 55 209 289 224 79 
313 -0.32213216875532796 0.04147970923850642 0.9945261433297583 0 0 0 0.22 50 74 158 12 172 66 204 26 209 290 219 38 
314 -0.4052391369567191 0.07770798778643599 0.9879953724859838 0 0 0 0.22 50 75 61 39 128 45 209 291 
315 -0.3387000504853223 0.07883613854196853 0.986741886522115 0 0 0 0.23 50 76 158 13 209 292 213 54 219 39 
316 -0.36757896522121086 0.08548602583259304 0.9860618230830356 0 0 0 0.3 50 77 53 42 103 51 172 67 176 69 179 41 204 27 209 293 
317 -0.3537684437802332 0.18133882511328023 0.955025061899031 0 0 0 0.46 164 88 176 70 209 294 227 49 
318 -0.43846297170915716 -0.01785611344070455 1.0191710559072582 0 0 0 0.31 71 58 77 61 103 52 111 119 127 22 148 57 164 89 209 295 217 57 224 80 
319 -0.4541813627855869 0.026804178620567595 1.007847287459158 0 0 0 0.32 128 46 172 68 209 296 
320 -0.441344005910353 0.03248511223060636 1.0018214094251854 0 0 0 0.24 50 78 53 43 96 43 103 53 111 120 113 37 128 47 157 58 176 71 209 297 213 55 219 40 221 31 232 54 
321 -0.3275283398273292 0.03198981213731938 0.9952115340302798 0 0 0 0.35 50 79 61 40 157 59 158 14 209 298 227 50 
322 -0.3537401719951258 0.060094403441356394 0.9941853608932005 0 0 0 0.16 50 80 77 62 128 48 162 32 209 299 
323 -0.4484984361331888 0.06973136230416264 0.9948145212600968 0 0 0 0.28 71 59 92 37 111 121 113 38 114 65 164 90 172 69 176 72 179 42 209 300 219 41 224 81 232 55 
324 -0.3354233595779457 0.08084283219534343 0.9855227141426989 0 0 0 0.28 50 81 77 63 111 122 204 28 209 301 232 56 
325 -0.40170015673747345 0.09184001015848436 0.9843096935080347 0 0 0 0.46 50 82 96 44 113 39 118 56 164 91 172 70 179 43 209 302 227 51 
326 -0.351033332319162 0.1086356771897608 0.981028470612259 0 0 0 0.16 50 83 71 60 96 45 209 303 232 57 
327 -0.372123608304793 0.14374222544835666 0.9687243764083102 0 0 0 0.13 50 84 61 41 209 304 
328 -0.4448576172580083 0.16908815544485611 0.9630936513930493 0 0 0 0.29 111 123 113 40 190 21 209 305 227 52 
329 -0.38273797244864405 0.19819282850392458 0.9539974688761803 0 0 0 0.43 50 85 61 42 157 60 209 306 213 56 
330 -0.3781623150431895 -0.01609355237375087 1.0178901432036367 0 0 0 0.31 50 86 103 54 111 124 157 61 158 15 179 44 209 307 217 58 227 53 232 58 
331 -0.42420720201652395 0.04932554795356777 0.9985175778559403 0 0 0 0.39 50 87 114 66 118 57 176 73 209 308 
332 -0.41820449403806303 0.0735568610510834 0.9958193179217988 0 0 0 0.23 50 88 53 44 61 43 71 61 73 47 77 64 96 46 113 41 157 62 209 309 217 59 232 59 
333 -0.46437572807521377 0.006915490081642772 1.0210644638702637 0 0 0 0.54 53 45 65 22 81 41 114 67 118 58 128 49 157 63 176 74 179 45 190 22 209 310 217 60 227 54 
334 -0.44468002722638406 0.016279152486604682 1.0110226972989544 0 0 0 0.32 50 89 81 42 111 125 209 311 
335 -0.3327130113002707 0.032674003583759645 0.9962855026173894 0 0 0 0.3 50 90 81 43 164 92 179 46 190 23 209 312 227 55 
336 -0.39150924754664823 0.06615816082833043 0.9924023848868794 0 0 0 0.23 81 44 176 75 204 29 209 313 
337 -0.3694256226973912 0.10879734352050463 0.9815701663987586 0 0 0 0.28 50 91 111 126 209 314 
338 -0.4390783207887741 0.11237489627712663 0.980786324777741 0 0 0 0.32 73 48 157 64 209 315 
339 -0.4568599966306056 0.1835190721392631 0.9554134516811208 0 0 0 0.38 190 24 209 316 219 42 
340 -0.3399247041611372 0.03338925107398791 1.0030898654321632 0 0 0 0.3 172 71 179 47 198 16 209 317 227 56 
341 -0.48528021455958836 0.11191303456264368 0.9765055782625557 0 0 0 0.21 50 92 96 47 103 55 111 127 209 318 
342 -0.4240673705358211 0.15327371129507836 0.9765636761132437 0 0 0 0.62 50 93 111 128 172 72 209 319 
343 -0.4550675497991195 0.014941917887530236 1.0170251150101954 0 0 0 0.41 53 46 65 23 81 45 103 56 111 129 118 59 128 50 157 65 209 320 
344 -0.41857361984435 -0.18714236656536448 0.638053295240161 0 0 0 0.22 53 47 103 57 209 321 
345 -0.46420006990562596 0.022940583640879468 1.007400049340659 0 0 0 0.23 53 48 111 130 209 322 
346 -0.45497726141788625 0.03420273475170581 1.0063318226348632 0 0 0 0.24 53 49 103 58 157 66 172 73 176 76 179 48 209 323 213 57 219 43 
347 -0.44310728411561 0.1595057172325373 0.9647252531610849 0 0 0 0.21 53 50 61 44 209 324 
348 -0.3642613540918869 0.20817060247071634 0.9482690808310567 0 0 0 0.51 53 51 179 49 209 325 
349 -0.45833528642301247 0.02003834662184039 1.0138228319861988 0 0 0 0.28 53 52 128 51 179 50 209 326 227 57 
350 -0.42260671687237744 0.019819097281535532 1.0063445923806398 0 0 0 0.4 53 53 61 45 71 62 73 49 77 65 96 48 128 52 157 67 172 74 176 77 179 51 204 30 209 327 213 58 221 32 224 82 227 58 
351 -0.36741880845485586 0.0790924286932347 0.9875036016556854 0 0 0 0.41 53 54 92 38 114 68 172 75 176 78 209 328 
352 -0.445265928526418 0.16316546574606453 0.9657087978192425 0 0 0 0.18 53 55 61 46 96 49 111 131 113 42 172 76 190 25 209 329 213 59 217 61 
353 -0.4814878023256958 -0.025139438373035 1.029439932511505 0 0 0 0.35 53 56 65 24 73 50 81 46 103 59 111 132 127 23 199 17 209 330 
354 -0.4924098174621783 0.016834058674396826 1.010095621059472 0 0 0 0.23 77 66 148 58 209 331 
355 -0.41110081113435176 0.08871135376049892 0.9877749930264557 0 0 0 0.22 172 77 176 79 209 332 
356 -0.44165606523260204 0.1694053985453785 0.9622279492711753 0 0 0 0.17 172 78 190 26 209 333 227 59 
357 -0.4907013270038534 -0.007361398994582915 1.0160660929250294 0 0 0 0.1 127 24 176 80 209 334 
358 -0.3241827408358656 0.02499471751699528 0.9989604401762757 0 0 0 0.21 111 133 114 69 162 33 172 79 179 52 209 335 
359 -0.3718647277198796 0.022562542355731463 1.0033487958740865 0 0 0 0.48 172 80 204 31 209 336 219 44 
360 -0.4949687332513885 0.04197303620585838 1.005298541290924 0 0 0 0.14 111 134 164 93 209 337 
361 -0.34099689536019456 0.09446859372576913 0.9872372986432212 0 0 0 0.27 113 43 179 53 209 338 219 45 
362 -0.3671905506024743 -0.013586215312005656 1.011961227788905 0 0 0 0.34 61 47 77 67 111 135 128 53 157 68 164 94 172 81 176 81 179 54 204 32 209 339 213 60 
363 -0.4946179294897621 -0.022120114730830084 1.0236455981876238 0 0 0 0.25 71 63 77 68 96 50 103 60 114 70 164 95 209 340 
364 -0.49762054796161176 -0.01767588546584505 1.022182117072817 0 0 0 0.12 71 64 111 136 114 71 209 341 
365 -0.4806010906118261 0.038158873067103305 1.0037695180384667 0 0 0 0.21 77 69 164 96 209 342 224 83 
366 -0.5020702130309468 -0.009320290358371352 1.0200990334276399 0 0 0 0.23 71 65 73 51 111 137 209 343 127 25 
367 -0.47680805882824473 0.04774456694307553 0.997374112954434 0 0 0 0.23 111 138 126 20 209 344 
368 -0.3376292012325466 0.19605418984053768 0.9558109477608066 0 0 0 0.41 61 48 96 51 176 82 209 345 
369 -0.4694062984758366 0.028941613788757273 1.0085564852102602 0 0 0 0.31 96 52 103 61 128 54 164 97 209 346 224 84 232 60 
370 -0.45576939736322947 0.051259854982278884 0.9984617216087357 0 0 0 0.2 61 49 198 17 209 347 
371 -0.34249666655821454 0.15471776041298457 0.9667681354588815 0 0 0 0.19 61 50 96 53 209 348 
372 -0.4447469994706253 0.10888007803538818 0.9838810793816994 0 0 0 0.3 61 51 81 47 103 62 111 139 114 72 172 82 209 349 
373 -0.4234161913504147 0.1691836503113148 0.9630669571254623 0 0 0 0.2 61 52 111 140 204 33 209 350 
374 -0.3709125946247442 0.06795472667139715 0.9916714772669468 0 0 0 0.29 61 53 190 27 209 351 
375 -0.47610011149855264 0.1318304670817062 0.9827518586864024 0 0 0 0.61 65 25 118 60 209 352 
376 -0.47401959104270314 0.03502591502689457 1.000512805445632 0 0 0 0.72 65 26 71 66 103 63 209 353 
377 -0.5036251853970595 0.007601436961142828 1.0175829495749178 0 0 0 0.09 71 67 111 141 209 354 
378 -0.42323054344736605 0.026348489904957462 0.5801517124107989 0 0 0 0.19 71 68 73 52 209 355 
379 -0.44289107048621984 0.06395868536009469 0.7051134511107453 0 0 0 0.33 71 69 96 54 209 356 
380 -0.3805459349315441 0.14725437784340625 0.9694255223071969 0 0 0 0.31 71 70 118 61 164 98 176 83 190 28 209 357 213 61 224 85 
381 -0.4342717888685436 -0.029502719343754456 1.0466911344786 0 0 0 0.32 71 71 73 53 81 48 103 64 114 73 209 358 217 62 
382 -0.4310296026733249 -0.006077186784260775 1.0195463858120926 0 0 0 0.45 71 72 128 55 209 359 
383 -0.4725238772132339 0.05195291625541824 1.0046275525934625 0 0 0 0.29 71 73 81 49 96 55 209 360 221 33 
384 -0.4488997527216917 0.07096296328165455 0.7382895389343013 0 0 0 0.49 71 74 81 50 198 18 199 18 209 361 
385 -0.48015575683556455 0.07504912126024739 1.041246497691689 0 0 0 0.2 71 75 113 44 209 362 
386 -0.41355740873339303 -0.011781158520224922 0.45207559692204713 0 0 0 0.15 71 76 209 363 224 86 
387 -0.44110150808837256 -0.10857752070132873 0.7054271057790488 0 0 0 0.19 73 54 199 19 209 364 
388 -0.4273722162856166 0.03320285089926697 0.6030860355577851 0 0 0 0.32 73 55 103 65 209 365 
389 -0.4181879285719161 -0.06157233365250261 0.5002611632503229 0 0 0 0.4 73 56 209 366 224 87 
390 -0.42439015703694744 -0.024637663335700836 0.5280938999764483 0 0 0 0.14 73 57 209 367 221 34 
391 -0.42179020946813306 0.07822529381461726 0.5201567566722507 0 0 0 0.17 73 58 209 368 224 88 
392 -0.4168709683874192 -0.04073950702046005 0.46627035110910714 0 0 0 0.26 73 59 198 19 199 20 209 369 
393 -0.4574537489807375 -0.008123412466969468 0.8796859248339445 0 0 0 0.09 73 60 199 21 209 370 
394 -0.4521289435004432 -0.001186714178560764 0.8776501132110303 0 0 0 0.14 73 61 199 22 209 371 
395 -0.467100715026115 0.09809783674318655 0.9916009863421943 0 0 0 0.41 73 62 113 45 209 372 
396 -0.43107664718331934 0.14558265532680134 0.9581587236788879 0 0 0 0.24 73 63 111 142 209 373 
397 -0.44646266520200933 -0.0290644747294061 0.7984808567754144 0 0 0 0.38 73 64 198 20 199 23 209 374 221 35 
398 -0.4375973713807028 0.040369112047886645 0.729475537019803 0 0 0 0.57 73 65 96 56 209 375 
399 -0.45522192239714276 0.10623448438482094 0.8375435311654906 0 0 0 0.03 73 66 199 24 209 376 
400 -0.4181970464750615 -0.15032766940450393 0.5084060841085722 0 0 0 0.41 73 67 96 57 199 25 209 377 224 89 
401 -0.44880697098654443 0.012741077165162235 0.75386783856291 0 0 0 0.26 73 68 198 21 199 26 209 378 
402 -0.42978156838897075 -0.17872947473032696 0.6411833669521606 0 0 0 0.47 73 69 198 22 199 27 209 379 
403 -0.41493181763770165 0.03723310858384387 0.36122241955682916 0 0 0 0.61 73 70 198 23 209 380 224 90 
404 -0.44166844222125234 -0.09946835783085237 0.7191171685682277 0 0 0 0.48 73 71 96 58 199 28 209 381 221 36 
405 -0.4488534764033619 -0.07561999553431158 0.7640325975388814 0 0 0 0.34 73 72 199 29 209 382 
406 -0.43873129947124384 0.0653607811811522 0.9956058922095972 0 0 0 0.19 103 66 162 34 198 24 209 383 
407 -0.4769740024099739 0.1073639628290547 0.9829655115415091 0 0 0 0.46 111 143 148 59 164 99 209 384 
408 -0.44520719756624133 -0.09210911103616869 0.820122851576175 0 0 0 0.58 81 51 96 59 111 144 209 385 221 37 224 91 
409 -0.45443107824657164 0.06130256067994826 0.8499404935414623 0 0 0 0.2 111 145 198 25 199 30 209 386 
410 -0.4429134570936642 0.04870537590354205 0.721251006829781 0 0 0 0.47 198 26 209 387 224 92 
411 -0.45482023906185726 0.09492171424690299 0.8416138486976129 0 0 0 0.3 81 52 111 146 209 388 
412 -0.4498575281548589 -0.03919981490781321 0.8406531420148032 0 0 0 0.29 111 147 209 389 221 38 96 60 
413 -0.4489062541495249 -0.08164720058616297 0.8314614841422143 0 0 0 0.35 96 61 198 27 199 31 209 390 224 93 
414 -0.3853402317302633 -0.04895593848701596 1.019350736037775 0 0 0 0.15 77 70 148 60 209 391 
415 -0.503652538179606 -0.013548472164351791 1.0205013473627305 0 0 0 0.17 77 71 164 100 209 392 224 94 
416 -0.473940847324612 0.057432935645289486 0.9982575582321117 0 0 0 0.16 77 72 148 61 209 393 224 95 
417 -0.3904190395614703 0.10758189189753682 0.9822352250839177 0 0 0 0.43 77 73 148 62 176 84 209 394 
418 -0.4290455867207856 0.1080315781267184 0.9854242162050826 0 0 0 0.18 77 74 164 101 209 395 
419 -0.48496138265093125 -0.03558504678097517 1.0310306757543228 0 0 0 0.33 77 75 111 148 196 22 209 396 
420 -0.4832625978019235 0.00043819137454468486 1.0156325608304473 0 0 0 0.39 77 76 111 149 114 74 118 62 126 21 209 397 
421 -0.36998763331809553 0.1926136656358799 0.9523150411286601 0 0 0 0.33 81 53 162 35 176 85 209 398 
422 -0.354279464072466 -0.007255628610061324 1.0157945709999596 0 0 0 0.46 81 54 92 39 111 150 162 36 179 55 209 399 
423 -0.31470174527825745 -0.006929737008227573 1.0112165861104228 0 0 0 0.25 81 55 92 40 176 86 209 400 219 46 
424 -0.3870452010355219 0.07182625615148414 0.9922960470164726 0 0 0 0.28 81 56 96 62 209 401 227 60 232 61 
425 -0.3869565727552269 0.2025484895646015 0.9534839181592593 0 0 0 0.1 81 57 209 402 213 62 
426 -0.39719354356824577 0.0023899261799935814 1.011701534080861 0 0 0 0.67 81 58 111 151 179 56 209 403 
427 -0.3905726979652658 -0.04794915650283775 1.017145904283949 0 0 0 0.35 92 41 148 63 209 404 
428 -0.37006701086413646 -0.003361535162823111 1.009603779167637 0 0 0 0.23 92 42 176 87 209 405 
429 -0.38794272812473457 0.1993443187269372 0.9568256110113994 0 0 0 0.21 92 43 148 64 157 69 209 406 
430 -0.3485003953624725 -0.015133355178741753 1.0155570211170721 0 0 0 0.42 96 63 172 83 176 88 204 34 209 407 
431 -0.3124457156443451 0.014958218291479988 1.0026764786645288 0 0 0 0.4 96 64 209 408 227 61 
432 -0.4118334960795682 0.025485322006928036 1.0069012510685524 0 0 0 0.38 96 65 204 35 209 409 
433 -0.47409147012417496 0.040645204625577865 1.0041604377611373 0 0 0 0.26 96 66 103 67 111 152 209 410 224 96 
434 -0.45338402303418496 0.0984513480073552 0.9851226349623626 0 0 0 0.31 96 67 162 37 209 411 
435 -0.45017062939782887 -0.007955189909323628 0.8229993233336809 0 0 0 0.22 96 68 209 412 221 39 
436 -0.43832444110245977 -0.08779606454682842 0.7284629831046693 0 0 0 0.4 96 69 199 32 209 413 221 40 
437 -0.33750727409409836 0.1881022930461866 0.9568783894005031 0 0 0 0.4 96 70 172 84 204 36 209 414 
438 -0.40755097378936667 0.14635961887345222 0.967523253525888 0 0 0 0.08 103 68 209 415 232 62 
439 -0.44727223397741056 0.002411885405685226 1.010151616598216 0 0 0 0.13 111 153 114 75 209 416 
440 -0.44062081556296473 0.13479834169992097 0.9703570256085602 0 0 0 0.05 111 154 172 85 209 417 
441 -0.34995756497812963 0.19742100837297688 0.9495535819694568 0 0 0 0.22 162 38 209 418 217 63 
442 -0.45098565661921525 0.05566647182620354 0.9950563544789143 0 0 0 0.23 176 89 209 419 213 63 
443 -0.3343534422486501 0.019451702623279887 1.002558211747808 0 0 0 0.21 111 155 114 76 157 70 158 16 164 102 204 37 209 420 227 62 
444 -0.44785474169454803 -0.10674256495912857 0.8203114410323853 0 0 0 0.38 111 156 209 421 221 41 232 63 
445 -0.4383385846171143 -0.0877950105722634 0.7372587852021881 0 0 0 0.4 111 157 209 422 221 42 
446 -0.4379385155706557 -0.014402775578967287 1.0157460638185642 0 0 0 0.3 111 158 164 103 209 423 
447 -0.4245239697088979 0.0730810811383361 0.5511307473264564 0 0 0 0.35 111 159 209 424 224 97 
448 -0.41686207178101004 0.07612445507110867 0.5554152665173011 0 0 0 0.13 111 160 209 425 224 98 
449 -0.42706254988100334 0.15676237210732222 0.9692799761242518 0 0 0 0.1 111 161 209 426 224 99 
450 -0.44388807140721037 -0.08773161836786025 0.8071140387323485 0 0 0 0.13 111 162 209 427 221 43 
451 -0.4303389315857323 0.02141734454437374 0.5599272612131307 0 0 0 0.32 111 163 199 33 209 428 
452 -0.47758201772900316 0.11607051362376081 0.9801153307717775 0 0 0 0.22 111 164 126 22 209 429 
453 -0.4123725864016423 0.07404347507796218 0.5587617732504728 0 0 0 0.18 111 165 209 430 224 100 
454 -0.3621679580433066 0.001407501576140578 1.0084514434413394 0 0 0 0.13 111 166 179 57 209 431 
455 -0.32226528618411615 0.03456257877505923 0.9961703104219218 0 0 0 0.37 111 167 209 432 217 64 
456 -0.35482379169396566 0.1421004864771187 0.9689275355304079 0 0 0 0.09 111 168 179 58 209 433 
457 -0.37417677179752046 0.14589549969091517 0.9711415390710005 0 0 0 0.15 111 169 179 59 209 434 227 63 
458 -0.3518030468249185 -0.017296492000174187 1.0135757094042073 0 0 0 0.1 111 170 176 90 209 435 
459 -0.42552027662098296 0.15007881131262032 0.95986357510026 0 0 0 0.26 111 171 114 77 209 436 
460 -0.4250714836305481 0.08522651243927314 0.5453366509116245 0 0 0 0.21 111 172 209 437 224 101 
461 -0.47396275038098323 0.10867796558847424 0.9851131168636494 0 0 0 0.27 111 173 198 28 209 438 224 102 
462 -0.4251067213725126 0.07931976470842114 0.5473476992732693 0 0 0 0.15 111 174 209 439 224 103 
463 -0.3981611289121774 0.15501389273384605 0.9571542221985807 0 0 0 0.39 111 175 209 440 227 64 
464 -0.42290317453559384 -0.1494772743617495 0.6377909942473665 0 0 0 0.34 111 176 198 29 209 441 
465 -0.3756074282986842 -0.005275861473927386 1.014361388546615 0 0 0 0.27 118 63 176 91 209 442 213 64 
466 -0.4207469711958231 0.18854480336621865 0.9587500370055801 0 0 0 0.17 113 46 164 104 209 443 
467 -0.3816289330751625 -0.012787485126381903 1.0162094258804535 0 0 0 0.55 114 78 157 71 172 86 179 60 209 444 
468 -0.4334758953766284 -0.023977442642876382 1.0302339123971422 0 0 0 0.42 114 79 176 92 209 445 
469 -0.37653059705359043 -0.01276127804662793 1.0219115713432254 0 0 0 0.74 118 64 176 93 209 446 213 65 
470 -0.4750638893124286 0.004045077081419339 1.0191589470363922 0 0 0 0.33 118 65 164 105 209 447 227 65 
471 -0.45267577427639466 0.05979282743957712 0.8429325902868477 0 0 0 0.17 126 23 148 65 164 106 209 448 
472 -0.4402401282444139 0.020401994268332703 0.6933110596649206 0 0 0 0.26 126 24 209 449 224 104 
473 -0.4152522292566072 0.16203649628938716 0.9640234706943849 0 0 0 0.13 176 94 209 450 213 66 
474 -0.44888525533313955 0.057526364304816044 0.9974413328271241 0 0 0 0.21 127 26 172 87 179 61 209 451 224 105 
475 -0.4614252442607963 0.012513627451180709 1.0171305133099993 0 0 0 0.28 128 56 172 88 179 62 209 452 
476 -0.33763914036644316 0.07616207683221356 0.9854143602608116 0 0 0 0.29 128 57 172 89 209 453 
477 -0.31707745216829114 -0.01029792111233638 1.0119284835593083 0 0 0 0.28 164 107 176 95 209 454 
478 -0.3619221904690799 0.17510613131464184 0.9585509931920602 0 0 0 0.09 157 72 209 455 213 67 
479 -0.4207642741410617 0.19538502096684707 0.9582075772357114 0 0 0 0.18 209 456 224 106 232 64 
480 -0.4164076878507574 0.07700943278654317 0.9917659612508837 0 0 0 0.38 204 38 209 457 221 44 232 65 
481 -0.45131726933417043 -0.11071552067694271 0.8215890154537063 0 0 0 0.43 148 66 209 458 221 45 232 66 
482 -0.3934086868159795 -0.041874163391120725 1.019971934493354 0 0 0 0.21 148 67 164 108 209 459 
483 -0.494584629989326 0.005106602134224888 1.0125546872065392 0 0 0 0.15 148 68 209 460 224 107 
484 -0.4283812783735324 0.04388418898298993 1.0017444932950945 0 0 0 0.17 157 73 209 461 224 108 
485 -0.33010261389778506 0.08731732234720622 0.9845788253478289 0 0 0 0.13 157 74 209 462 213 68 
486 -0.44927521710948853 0.030596985136676153 1.0060919715905856 0 0 0 0.2 157 75 176 96 209 463 
487 -0.3461166097982336 0.08059095090357632 0.9871815584912663 0 0 0 0.23 162 39 179 63 209 464 227 66 
488 -0.44192903756063784 0.18807677080539797 0.9576616347662185 0 0 0 0.3 164 109 172 90 209 465 
489 -0.44948542233081956 -0.034464921336738126 0.8413124474336452 0 0 0 0.1 164 110 209 466 224 109 
490 -0.34737335322112856 0.07664303940691268 0.9863468084715624 0 0 0 0.16 176 97 209 467 219 47 
491 -0.44152972929988893 0.029281497990291668 1.002633623911794 0 0 0 0.33 176 98 209 468 213 69 219 48 
492 -0.3443262719799372 0.07659193778651538 0.9901195263796085 0 0 0 0.24 179 64 204 39 209 469 
493 -0.42713108253042176 -0.1347182837206484 0.6415420173117361 0 0 0 0.3 198 30 199 34 209 470 
494 -0.4301778043596435 -0.16122918916900936 0.6352535738140537 0 0 0 0.47 198 31 199 35 209 471 
495 -0.43790481032841455 0.005570823819869224 0.6667017151684391 0 0 0 0.31 199 36 209 472 224 110 
