# 3D point list with one line of data per point:
#   POINT3D_ID, X, Y, Z, R, G, B, ERROR, TRACK[] as (IMAGE_ID, POINT2D_IDX)
# Number of points: 242, mean track length: 11.84
0 0.08009092509746552 0.09877358376979828 0.7518846988677979 52 58 54 1.56 79 0 80 0 81 0 82 0 83 0 84 0 85 0 88 0 
1 -0.033786557614803314 0.12761634588241577 0.6857096552848816 57 37 38 0.58 79 1 80 1 81 1 82 1 83 1 84 1 85 1 86 0 
2 -0.24237464368343353 0.0016543010715395212 0.6333464980125427 56 59 59 0.63 79 2 80 2 81 2 82 2 83 2 
3 -0.26422205567359924 -0.29859262704849243 0.6856317520141602 124 104 100 1.97 79 3 80 3 81 3 82 3 83 3 85 2 86 1 87 0 88 1 89 0 90 0 91 0 92 0 93 0 94 0 95 0 96 0 
4 0.05734895169734955 -0.23432201147079468 0.8071556091308594 138 158 180 3.69 79 4 80 4 81 4 82 4 83 4 84 2 85 3 86 2 87 1 88 2 89 1 90 1 91 1 92 1 93 1 94 1 95 1 96 1 97 0 
5 -0.07228969782590866 -0.08811396360397339 0.7146113514900208 119 105 101 1.66 79 5 80 5 81 5 82 5 83 5 84 3 85 4 90 2 91 2 92 2 93 2 94 2 95 2 
6 -0.27015772461891174 0.06758581101894379 0.3921816647052765 132 153 83 2.64 79 6 82 6 83 6 89 2 91 3 
7 0.25669246912002563 -0.16283342242240906 0.8617271184921265 58 64 77 1.84 79 7 80 6 81 6 84 4 85 5 86 3 87 2 88 3 89 3 90 3 91 4 92 3 93 3 94 3 95 3 96 2 97 1 
8 -0.138259619474411 0.10378076136112213 0.6653927564620972 143 150 166 0.74 79 8 80 7 81 7 82 7 83 7 84 5 85 6 86 4 87 3 
9 0.588362991809845 -0.3182416558265686 1.0106937885284424 84 71 65 2.98 79 9 80 8 81 8 84 6 85 7 86 5 87 4 88 4 89 4 90 4 91 5 92 4 93 4 94 4 95 4 
10 -0.05907735973596573 -0.09077519923448563 0.7202163934707642 155 150 149 1.65 79 10 80 9 81 9 82 8 83 8 84 7 85 8 89 5 90 5 91 6 92 5 93 5 94 5 95 5 
11 -0.20723770558834076 -0.20769035816192627 0.6892828941345215 156 157 158 1.42 79 11 80 10 81 10 82 9 83 9 84 8 85 9 86 6 87 5 88 5 89 6 90 6 91 7 92 6 93 6 94 6 95 6 96 3 
12 -0.3409595787525177 0.08408162742853165 0.5911653637886047 51 47 50 2.44 79 12 80 11 82 10 83 10 88 6 89 7 90 7 91 8 
13 0.1395350843667984 -0.034457821398973465 0.7856497764587402 77 71 80 1.91 79 13 80 12 81 11 87 6 88 7 89 8 90 8 91 9 92 7 93 7 94 7 95 7 96 4 
14 -0.34323614835739136 0.05255240574479103 0.6008134484291077 124 136 158 1.03 79 14 80 13 82 11 83 11 88 8 
15 -0.3512173295021057 -0.10347849875688553 0.6089844703674316 49 50 45 2.57 79 15 80 14 82 12 83 12 90 9 93 8 94 8 95 8 96 5 
16 0.050700344145298004 -0.0020812228322029114 0.7425796985626221 86 88 98 1.65 79 16 80 15 81 12 82 13 83 13 84 9 88 9 89 9 90 10 91 10 
17 -0.14511312544345856 0.11158858239650726 0.6472829580307007 99 86 84 1.39 79 17 80 16 81 13 82 14 83 14 84 10 85 10 86 7 87 7 88 10 
18 -0.24738405644893646 -0.1447972059249878 0.6606367826461792 153 149 147 1.94 79 18 80 17 81 14 82 15 83 15 85 11 86 8 87 8 88 11 89 10 90 11 91 11 92 8 93 9 94 9 95 9 96 6 
19 0.21525415778160095 -1.1047967745980714e-05 0.5017248392105103 76 85 49 4.54 79 19 80 18 81 15 83 16 84 11 85 12 86 9 87 9 88 12 89 11 90 12 91 12 92 9 93 10 94 10 
20 -0.27632468938827515 -0.21047541499137878 0.6739909052848816 109 126 150 2.42 79 20 80 19 81 16 82 16 83 17 85 13 86 10 87 10 88 13 89 12 90 13 91 13 92 10 93 11 94 11 95 10 96 7 
21 -0.0864453837275505 -0.2990671396255493 0.7530830502510071 109 97 98 1.2 79 21 80 20 81 17 82 17 83 18 84 12 85 14 86 11 87 11 88 14 89 13 90 14 91 14 92 11 93 12 94 12 95 11 96 8 
22 -0.11259476095438004 -0.01134282536804676 0.6864060759544373 125 117 118 0.92 79 22 80 21 81 18 82 18 83 19 84 13 85 15 86 12 91 15 
23 0.17653489112854004 0.0318819098174572 0.529557466506958 91 98 79 3.19 79 23 80 22 81 19 82 19 83 20 84 14 85 16 86 13 87 12 88 15 89 14 90 15 91 16 92 12 93 13 94 13 
24 0.23264841735363007 -0.025462280958890915 0.489272803068161 74 90 46 7.73 79 24 80 23 81 20 83 21 84 15 85 17 86 14 87 13 88 16 89 15 90 16 91 17 94 14 96 9 97 2 
25 -0.1564115285873413 -0.03324790671467781 0.6731451749801636 86 73 76 1.02 79 25 80 24 81 21 82 20 83 22 84 16 85 18 86 15 93 14 
26 -0.12790201604366302 0.003755092155188322 0.6982744932174683 61 70 65 1.21 79 26 80 25 81 22 82 21 83 23 84 17 85 19 86 16 91 18 
27 -0.36949804425239563 -0.25328534841537476 0.6376873850822449 140 140 140 3.19 79 27 80 26 82 22 83 24 88 17 89 16 90 17 91 19 92 13 93 15 94 15 95 12 96 10 
28 -0.11260632425546646 0.13857361674308777 0.6751139760017395 121 135 145 1.32 79 28 80 27 81 23 82 23 83 25 84 18 85 20 86 17 87 14 88 18 
29 -0.13654130697250366 -0.3018285930156708 0.7346879839897156 107 89 82 1.93 79 29 80 28 81 24 82 24 83 26 84 19 85 21 86 18 87 15 88 19 89 17 90 18 91 20 92 14 93 16 94 16 95 13 96 11 97 3 
30 -0.1884297877550125 -0.17373955249786377 0.6893826127052307 151 146 145 1.43 79 30 80 29 81 25 82 25 83 27 84 20 85 22 86 19 87 16 88 20 89 18 90 19 91 21 92 15 93 17 94 17 95 14 96 12 
31 -0.16396315395832062 -0.20297871530056 0.7057366967201233 166 166 166 1.32 79 31 80 30 81 26 82 26 83 28 84 21 85 23 86 20 87 17 88 21 89 19 90 20 91 22 92 16 93 18 94 18 95 15 96 13 
32 0.18907944858074188 0.028909992426633835 0.5282120108604431 56 70 52 4.33 79 32 80 31 81 27 82 27 83 29 84 22 85 24 86 21 87 18 88 22 89 20 90 21 91 23 92 17 93 19 94 19 
33 -0.21484851837158203 -0.03624573349952698 0.3477728068828583 96 111 81 2.52 79 33 82 28 83 30 
34 -0.2534365653991699 0.13966104388237 0.3895358145236969 61 68 34 3.0 79 34 82 29 83 31 89 21 
35 -0.18705657124519348 -0.08090409636497498 0.6709011793136597 119 93 87 1.74 79 35 80 32 81 28 82 30 83 32 84 23 85 25 86 22 93 20 94 20 95 16 
36 -0.14845027029514313 -0.0998324602842331 0.6874340176582336 54 43 34 1.58 79 36 80 33 81 29 82 31 83 33 84 24 85 26 86 23 88 23 90 22 91 24 92 18 93 21 94 21 95 17 
37 0.26913881301879883 0.03148092329502106 0.49994194507598877 109 98 93 7.54 79 37 80 34 81 30 83 34 84 25 85 27 88 24 89 22 90 23 91 25 92 19 93 22 94 22 
38 -0.29136404395103455 0.13074421882629395 0.6125747561454773 127 136 146 1.54 79 38 80 35 81 31 82 32 83 35 88 25 89 23 90 24 
39 -0.2814324200153351 -0.01204465888440609 0.6239975690841675 26 22 15 0.91 79 39 80 36 81 32 82 33 83 36 
40 -0.10291387885808945 -0.1799708753824234 0.7382286190986633 63 65 67 2.04 79 40 80 37 81 33 82 34 83 37 84 26 85 28 86 24 87 19 88 26 89 24 90 25 91 26 92 20 93 23 94 23 95 18 96 14 
41 -0.26812952756881714 -0.11570877581834793 0.6496450901031494 42 34 43 2.27 79 41 80 38 81 34 82 35 83 38 88 27 89 25 90 26 91 27 92 21 93 24 94 24 95 19 96 15 
42 0.05257138982415199 -0.27437880635261536 0.8014979362487793 75 71 79 1.89 79 42 80 39 81 35 82 36 83 39 84 27 85 29 86 25 87 20 88 28 89 26 90 27 91 28 92 22 93 25 94 25 95 20 96 16 97 4 
43 0.1338728666305542 0.03897387534379959 0.5697349905967712 45 56 28 5.13 79 43 80 40 81 36 82 37 83 40 84 28 85 30 86 26 87 21 88 29 89 27 90 28 91 29 
44 -0.15112949907779694 -0.17864161729812622 0.7088584899902344 102 103 116 1.42 79 44 80 41 81 37 82 38 83 41 84 29 85 31 86 27 87 22 88 30 89 28 90 29 91 30 92 23 93 26 94 26 95 21 96 17 
45 -0.18795639276504517 -0.31784895062446594 0.7163662314414978 55 64 68 1.71 79 45 80 42 81 38 82 39 83 42 84 30 85 32 86 28 87 23 88 31 89 29 90 30 91 31 92 24 93 27 94 27 95 22 96 18 
46 -0.06471297889947891 0.11806822568178177 0.6958512663841248 140 151 164 0.49 79 46 80 43 81 39 82 40 83 43 84 31 85 33 86 29 
47 -0.4117775857448578 -0.25239676237106323 0.6225552558898926 125 116 106 3.65 79 47 82 41 83 44 88 32 89 30 90 31 91 32 92 25 93 28 94 28 95 23 96 19 
48 0.23873920738697052 -0.2583523988723755 0.8735418319702148 168 156 150 1.69 79 48 80 44 81 40 84 32 85 34 86 30 87 24 88 33 89 31 90 32 91 33 92 26 93 29 94 29 95 24 96 20 97 5 
49 -0.18989038467407227 -0.16958574950695038 0.6878464221954346 98 90 92 1.43 79 49 80 45 81 41 82 42 83 45 84 33 85 35 86 31 87 25 88 34 89 32 90 33 91 34 92 27 93 30 94 30 95 25 96 21 
50 -0.32844823598861694 -0.020030392333865166 0.6068788170814514 133 131 130 0.67 79 50 80 46 82 43 83 46 
51 0.060095056891441345 -0.14631043374538422 0.7855374217033386 133 144 160 2.61 79 51 80 47 81 42 82 44 83 47 84 34 85 36 86 32 87 26 88 35 89 33 90 34 91 35 92 28 93 31 94 31 95 26 96 22 97 6 
52 -0.2853192687034607 -0.21539543569087982 0.6778554916381836 143 180 210 3.01 79 52 80 48 81 43 82 45 83 48 85 37 87 27 88 36 89 34 90 35 91 36 92 29 93 32 94 32 95 27 96 23 
53 -0.21346300840377808 -0.1711539477109909 0.6791070699691772 44 43 58 1.61 79 53 80 49 81 44 82 46 83 49 84 35 85 38 86 33 87 28 88 37 89 35 90 36 91 37 92 30 93 33 94 33 95 28 96 24 
54 0.16027776896953583 0.03208736702799797 0.7821381688117981 140 142 142 1.48 79 54 80 50 81 45 87 29 88 38 89 36 
55 -0.08797209709882736 0.1367424577474594 0.6844362020492554 133 145 160 1.35 79 55 80 51 81 46 82 47 83 50 84 36 85 39 86 34 87 30 88 39 
56 -0.13428537547588348 0.12903428077697754 0.6548619270324707 140 164 185 1.65 79 56 80 52 81 47 82 48 83 51 84 37 85 40 86 35 87 31 88 40 89 37 
57 -0.07024028897285461 -0.27947235107421875 0.7558655142784119 115 90 92 1.89 79 57 80 53 81 48 82 49 83 52 84 38 85 41 86 36 87 32 88 41 89 38 90 37 91 38 92 31 93 34 94 34 95 29 96 25 97 7 
58 -0.15173359215259552 0.1256932020187378 0.6379194259643555 121 116 118 1.67 79 58 80 54 81 49 82 50 83 53 84 39 85 42 86 37 87 33 89 39 
59 -0.04592772200703621 0.04782677814364433 0.699533998966217 87 75 77 0.54 79 59 80 55 81 50 82 51 83 54 84 40 85 43 86 38 
60 -0.3482082188129425 -0.15160918235778809 0.6434179544448853 72 111 140 3.45 79 60 80 56 82 52 83 55 88 42 89 40 91 39 92 32 93 35 94 35 95 30 96 26 
61 0.18511363863945007 0.013778221793472767 0.5598700642585754 118 125 101 3.89 79 61 80 57 81 51 82 53 83 56 84 41 85 44 87 34 88 43 89 41 90 38 91 40 92 33 93 36 94 36 
62 -0.11369596421718597 0.08952706307172775 0.6816852688789368 99 106 116 0.91 79 62 80 58 81 52 82 54 83 57 84 42 85 45 86 39 87 35 
63 -0.15273401141166687 -0.2385319322347641 0.7257222533226013 132 136 159 3.05 79 63 80 59 81 53 82 55 83 58 84 43 85 46 86 40 87 36 88 44 89 42 90 39 91 41 92 34 93 37 94 37 95 31 96 27 97 8 
64 -0.19972281157970428 -0.2578859031200409 0.7026316523551941 154 148 144 1.44 79 64 80 60 81 54 82 56 83 59 84 44 85 47 86 41 87 37 88 45 89 43 90 40 91 42 92 35 93 38 94 38 95 32 96 28 
65 0.002378881676122546 0.11420037597417831 0.4438334107398987 18 22 14 7.46 79 65 80 61 81 55 82 57 83 60 89 44 91 43 
66 0.3002631366252899 0.07330316305160522 0.5577677488327026 25 31 19 11.0 79 66 80 62 81 56 84 45 85 48 86 42 87 38 88 46 89 45 90 41 91 44 92 36 93 39 
67 0.15503859519958496 0.047782979905605316 0.5455940365791321 62 72 41 3.39 79 67 80 63 81 57 82 58 83 61 84 46 85 49 86 43 87 39 88 47 89 46 90 42 91 45 92 37 
68 -0.19451786577701569 -0.2923971116542816 0.7117077112197876 116 101 96 1.59 79 68 80 64 81 58 82 59 83 62 84 47 85 50 86 44 87 40 88 48 89 47 90 43 91 46 92 38 93 40 94 39 95 33 96 29 
69 -0.15881451964378357 -0.13075247406959534 0.6916753053665161 155 157 161 1.63 79 69 80 65 81 59 82 60 83 63 84 48 85 51 86 45 87 41 88 49 89 48 90 44 91 47 92 39 93 41 94 40 95 34 96 30 
70 -0.1938764452934265 0.007513436954468489 0.3070194721221924 108 120 54 4.0 79 70 82 61 83 64 
71 -0.02687639743089676 -0.20088522136211395 0.7561222314834595 171 171 171 2.14 79 71 80 66 81 60 82 62 83 65 84 49 85 52 86 46 87 42 88 50 89 49 90 45 91 48 92 40 93 42 94 41 95 35 96 31 97 9 
72 0.15097220242023468 -0.09650491178035736 0.8007084131240845 100 102 111 2.01 79 72 80 67 81 61 82 63 85 53 86 47 87 43 88 51 89 50 90 46 91 49 92 41 93 43 94 42 95 36 96 32 97 10 
73 -0.15470845997333527 -0.2742932438850403 0.7256996631622314 58 60 64 2.13 79 73 80 68 81 62 82 64 83 66 84 50 85 54 86 48 87 44 88 52 89 51 90 47 91 50 92 42 93 44 94 43 95 37 96 33 97 11 
74 0.14222371578216553 0.1042066439986229 0.77698814868927 132 140 152 2.7 79 74 80 69 81 63 82 65 83 67 84 51 87 45 88 53 
75 -0.2639180123806 -0.029457494616508484 0.6310592889785767 143 144 147 0.74 79 75 80 70 81 64 82 66 83 68 
76 -0.2926361858844757 0.10157732665538788 0.6188125014305115 122 141 158 0.86 79 76 80 71 81 65 82 67 83 69 88 54 89 52 
77 -0.16433727741241455 0.1405155062675476 0.6261453628540039 128 131 122 2.47 79 77 80 72 81 66 82 68 83 70 84 52 85 55 86 49 87 46 88 55 89 53 
78 -0.0587511882185936 -0.1826891452074051 0.7410802245140076 103 105 117 1.5 79 78 80 73 81 67 82 69 83 71 84 53 85 56 86 50 87 47 88 56 89 54 90 48 91 51 92 43 93 45 94 44 95 38 96 34 
79 0.4012987017631531 0.07126176357269287 0.6196192502975464 33 45 25 6.72 79 79 80 74 81 68 84 54 85 57 86 51 87 48 88 57 89 55 90 49 91 52 92 44 93 46 94 45 
80 0.35760897397994995 0.12496528774499893 0.549857497215271 63 89 55 4.4 79 80 80 75 81 69 84 55 85 58 89 56 90 50 91 53 
81 -0.21772059798240662 -0.050132136791944504 0.652869701385498 153 151 147 1.58 79 81 80 76 81 70 82 70 83 72 85 59 86 52 93 47 94 46 
82 -0.3555150628089905 -0.24518199265003204 0.6439282894134521 48 48 52 2.83 79 82 80 77 82 71 83 73 88 58 89 57 90 51 91 54 92 45 93 48 94 47 95 39 96 35 
83 -0.33731719851493835 0.11090787500143051 0.596146285533905 115 142 168 0.96 79 83 80 78 82 72 83 74 88 59 89 58 90 52 
84 -0.14642244577407837 -0.11436055600643158 0.6956617832183838 94 95 112 2.39 79 84 80 79 81 71 82 73 83 75 84 56 85 60 86 53 89 59 90 53 91 55 92 46 93 49 94 48 95 40 96 36 
85 0.2199150025844574 0.04236569628119469 0.5158900022506714 52 51 44 2.96 79 85 80 80 81 72 83 76 84 57 85 61 86 54 88 60 89 60 90 54 91 56 92 47 93 50 94 49 
86 0.18157823383808136 0.06496348232030869 0.5933388471603394 96 93 84 6.48 79 86 80 81 81 73 82 74 83 77 84 58 85 62 86 55 87 49 88 61 89 61 90 55 91 57 92 48 
87 -0.2424004077911377 -0.0528501532971859 0.3505037724971771 74 97 56 1.54 79 87 82 75 83 78 
88 -0.3801719546318054 -0.1669345200061798 0.6154502630233765 57 54 62 3.35 79 88 82 76 83 79 88 62 89 62 90 56 91 58 92 49 93 51 94 50 95 41 96 37 
89 0.25419163703918457 0.10715457051992416 0.567225456237793 36 39 33 3.19 79 89 80 82 81 74 83 80 84 59 85 63 86 56 87 50 88 63 89 63 90 57 91 59 
90 0.13543179631233215 0.1509285569190979 0.4273456335067749 43 56 55 3.23 79 90 80 83 81 75 82 77 83 81 
91 0.11673104017972946 0.13576626777648926 0.7630717158317566 114 126 139 1.58 79 91 80 84 81 76 82 78 83 82 84 60 85 64 86 57 
92 -0.19871538877487183 -0.054363228380680084 0.6608781218528748 147 143 139 1.39 79 92 80 85 81 77 82 79 83 83 84 61 85 65 86 58 93 52 94 51 
93 0.08907047659158707 -4.50081643066369e-05 0.7762913703918457 44 40 34 3.28 79 93 80 86 81 78 82 80 87 51 88 64 89 64 90 58 92 50 
94 -0.25238028168678284 0.1395544856786728 0.3862887918949127 31 39 18 3.04 79 94 82 81 83 84 89 65 
95 -0.060926806181669235 -0.10241034626960754 0.7188299298286438 114 115 121 1.66 79 95 80 87 81 79 82 82 83 85 84 62 85 66 87 52 88 65 89 66 90 59 91 60 92 51 93 53 94 52 95 42 96 38 
96 -0.08884797990322113 0.10404092073440552 0.6912858486175537 129 149 162 0.36 79 96 80 88 81 80 82 83 83 86 84 63 85 67 86 59 87 53 
97 -0.16175872087478638 -0.0018916702829301357 0.6648592352867126 146 148 150 0.34 79 97 80 89 81 81 82 84 83 87 84 64 85 68 86 60 
98 0.5451055765151978 -0.2640198767185211 1.0113495588302612 87 74 78 1.2 79 98 80 90 81 82 84 65 85 69 86 61 87 54 88 66 89 67 90 60 91 61 92 52 93 54 94 53 95 43 96 39 
99 0.7107820510864258 0.15601836144924164 0.7641342878341675 43 55 39 4.43 88 67 89 68 90 61 91 62 92 53 93 55 94 54 95 44 96 40 
100 0.6428648233413696 0.0047957561910152435 0.9928781986236572 125 125 131 2.26 80 91 81 83 84 66 85 70 86 62 87 55 88 68 89 69 90 62 91 63 92 54 93 56 94 55 95 45 96 41 97 12 99 0 
101 0.4746898114681244 0.1636059731245041 0.5169512629508972 26 36 26 0.5 89 70 90 63 91 64 
102 0.3788011372089386 -0.2627898156642914 0.938416600227356 152 154 155 1.32 79 99 80 92 81 84 84 67 85 71 86 63 87 56 88 69 89 71 90 64 91 65 92 55 93 57 94 56 95 46 96 42 
103 0.2637186348438263 -0.1723177134990692 0.8795590996742249 49 46 54 1.67 79 100 80 93 81 85 84 68 85 72 86 64 87 57 88 70 89 72 90 65 91 66 92 56 93 58 94 57 95 47 96 43 97 13 
104 0.6680446863174438 -0.1772754192352295 1.3147506713867188 83 93 76 6.73 87 58 88 71 89 73 90 66 91 67 92 57 93 59 
105 0.6207063794136047 -0.03625611588358879 0.9917303323745728 127 123 121 2.13 79 101 80 94 81 86 84 69 85 73 86 65 87 59 88 72 89 74 90 67 91 68 92 58 93 60 94 58 95 48 96 44 97 14 99 1 
106 0.5618156790733337 0.07182489335536957 0.9514750242233276 111 126 149 2.65 88 73 89 75 90 68 91 69 92 59 93 61 94 59 95 49 
107 0.3706211745738983 0.11499637365341187 0.5576653480529785 32 44 29 4.48 85 74 86 66 87 60 88 74 89 76 90 69 91 70 92 60 
108 0.6478886008262634 -0.0306226946413517 1.0046964883804321 133 130 129 1.86 79 102 80 95 81 87 84 70 85 75 86 67 87 61 88 75 89 77 90 70 91 71 92 61 93 62 94 60 95 50 96 45 97 15 99 2 
109 0.719891369342804 0.14296473562717438 0.7216855883598328 29 36 26 3.13 87 62 88 76 89 78 90 71 91 72 92 62 93 63 94 61 95 51 
110 0.4590533375740051 -0.18648892641067505 0.9553834795951843 160 160 160 1.18 79 103 80 96 81 88 84 71 85 76 86 68 87 63 88 77 89 79 90 72 91 73 92 63 93 64 94 62 95 52 96 46 
111 -0.35487839579582214 -0.18528659641742706 0.6398127675056458 84 75 83 2.64 79 104 80 97 82 85 83 88 88 78 89 80 90 73 91 74 92 64 93 65 94 63 95 53 96 47 
112 0.650546133518219 0.07938360422849655 0.6607531309127808 27 34 33 1.79 87 64 88 79 89 81 90 74 91 75 92 65 93 66 94 64 
113 0.6062589883804321 -0.20557548105716705 1.02400803565979 145 141 139 0.93 79 105 80 98 81 89 84 72 85 77 86 69 87 65 88 80 89 82 90 75 91 76 92 66 93 67 94 65 95 54 96 48 
114 0.5889803767204285 -0.12029129266738892 0.9975438117980957 97 95 102 1.59 79 106 80 99 81 90 84 73 85 78 86 70 87 66 88 81 89 83 90 76 91 77 92 67 93 68 94 66 95 55 96 49 
115 0.21701578795909882 -0.1535615772008896 0.838529109954834 49 52 66 1.48 79 107 80 100 81 91 83 89 84 74 85 79 86 71 87 67 88 82 89 84 90 77 91 78 92 68 93 69 94 67 95 56 96 50 97 16 
116 0.32373592257499695 0.02631712146103382 0.6037415862083435 95 105 71 7.06 79 108 80 101 81 92 84 75 85 80 86 72 87 68 88 83 89 85 90 78 91 79 92 69 93 70 94 68 
117 0.35904625058174133 -0.09193029999732971 0.8887019157409668 105 104 110 1.56 81 93 84 76 85 81 86 73 87 69 88 84 89 86 90 79 91 80 92 70 93 71 94 69 95 57 96 51 97 17 
118 0.1497775763273239 -0.09370061755180359 0.8023467659950256 72 72 80 1.46 79 109 80 102 81 94 82 86 85 82 86 74 87 70 88 85 89 87 90 80 91 81 92 71 93 72 94 70 95 58 96 52 
119 0.44444480538368225 -0.0002955526579171419 0.8866260647773743 123 114 112 5.06 80 103 81 95 84 77 85 83 86 75 87 71 88 86 89 88 90 81 91 82 92 72 93 73 94 71 95 59 96 53 
120 0.05920759588479996 -0.11159371584653854 0.7843561768531799 103 104 116 1.78 79 110 80 104 81 96 82 87 83 90 84 78 85 84 86 76 87 72 88 87 89 89 90 82 91 83 92 73 93 74 94 72 95 60 96 54 
121 0.0394454263150692 -0.30940213799476624 0.8054516315460205 62 56 55 2.06 79 111 80 105 81 97 82 88 84 79 85 85 86 77 87 73 88 88 89 90 90 83 91 84 92 74 93 75 94 73 95 61 
122 0.5788586735725403 0.09770585596561432 1.1780612468719482 151 157 134 5.97 88 89 89 91 90 84 91 85 92 75 
123 -0.7519509196281433 -0.3275824189186096 0.49197351932525635 110 112 100 3.73 82 89 83 91 89 92 90 85 91 86 92 76 93 76 94 74 95 62 96 55 
124 0.37477728724479675 0.1394137144088745 0.5202453136444092 58 85 54 2.32 87 74 88 90 89 93 90 86 91 87 
125 0.7622953057289124 0.1564485728740692 0.9393711090087891 85 94 92 5.86 89 94 90 87 91 88 92 77 93 77 94 75 95 63 96 56 
126 0.7517300248146057 0.17547644674777985 0.7644457221031189 24 34 24 4.57 88 91 89 95 90 88 91 89 92 78 93 78 94 76 95 64 96 57 
127 0.34342697262763977 -0.1665838658809662 0.9077719449996948 100 105 115 1.34 79 112 80 106 81 98 84 80 85 86 86 78 87 75 88 92 89 96 90 89 91 90 92 79 93 79 94 77 95 65 96 58 
128 0.7245714068412781 0.1560673713684082 0.8025175929069519 36 46 29 6.8 88 93 89 97 90 90 91 91 92 80 93 80 94 78 95 66 96 59 
129 0.13663022220134735 -0.16899044811725616 0.8215998411178589 139 139 140 1.85 79 113 80 107 81 99 82 90 83 92 84 81 85 87 86 79 87 76 88 94 89 98 90 91 91 92 92 81 93 81 94 79 95 67 96 60 97 18 
130 0.37397274374961853 -0.12675125896930695 0.9059312343597412 166 167 166 1.24 80 108 81 100 84 82 85 88 86 80 87 77 88 95 89 99 90 92 91 93 92 82 93 82 94 80 95 68 96 61 
131 0.6972983479499817 0.15271511673927307 0.6931533217430115 26 28 23 2.76 87 78 88 96 89 100 90 93 91 94 92 83 93 83 94 81 
132 0.6482976078987122 -0.12082407623529434 1.0288960933685303 167 176 181 1.82 79 114 80 109 81 101 84 83 85 89 86 81 87 79 88 97 89 101 90 94 91 95 92 84 93 84 94 82 95 69 96 62 97 19 99 3 
133 0.551194965839386 -0.2832689583301544 1.0178697109222412 103 71 68 1.28 79 115 80 110 81 102 84 84 85 90 86 82 87 80 88 98 89 102 90 95 91 96 92 85 93 85 94 83 95 70 
134 0.6148161292076111 -0.29814231395721436 1.1267530918121338 105 124 132 3.93 87 81 88 99 89 103 90 96 91 97 92 86 93 86 
135 0.5774646401405334 -0.17115995287895203 1.0052483081817627 154 153 153 1.27 79 116 80 111 81 103 84 85 85 91 86 83 87 82 88 100 89 104 90 97 91 98 92 87 93 87 94 84 95 71 96 63 
136 0.29078206419944763 0.04313254356384277 0.5419024229049683 146 151 150 4.99 79 117 80 112 81 104 84 86 85 92 86 84 87 83 88 101 89 105 90 98 91 99 92 88 93 88 94 85 
137 -0.5521774888038635 -0.281936377286911 0.5703247785568237 66 69 73 2.72 82 91 83 93 88 102 89 106 90 99 91 100 92 89 93 89 94 86 95 72 96 64 
138 0.2627369463443756 -0.16758038103580475 0.8708321452140808 84 84 91 1.63 79 118 80 113 81 105 84 87 85 93 86 85 87 84 88 103 89 107 90 100 91 101 92 90 93 90 94 87 95 73 96 65 97 20 
139 0.2689138352870941 -0.10760585963726044 0.866060733795166 65 60 70 2.17 79 119 84 88 85 94 86 86 87 85 88 104 89 108 90 101 91 102 92 91 93 91 94 88 95 74 96 66 97 21 
140 0.6857233047485352 0.17450274527072906 0.6662508845329285 61 87 41 2.7 89 109 90 102 91 103 92 92 93 92 94 89 
141 0.3961728513240814 -0.2591768205165863 0.9441257119178772 148 145 145 1.33 79 120 80 114 81 106 84 89 85 95 86 87 87 86 88 105 89 110 90 103 91 104 92 93 93 93 94 90 95 75 96 67 
142 0.24111048877239227 -0.1904720515012741 0.8644806146621704 154 159 159 1.6 79 121 80 115 81 107 83 94 84 90 85 96 86 88 87 87 88 106 89 111 90 104 91 105 92 94 93 94 94 91 95 76 96 68 97 22 
143 -0.6910894513130188 -0.28181806206703186 0.5235000252723694 30 24 24 3.77 82 92 83 95 88 107 89 112 90 105 91 106 92 95 93 95 94 92 95 77 96 69 
144 0.630547046661377 0.06593336910009384 0.7874010801315308 26 39 21 2.04 87 88 88 108 89 113 90 106 91 107 92 96 93 96 94 93 95 78 96 70 97 23 
145 -0.29063886404037476 -0.3031212389469147 0.680766224861145 99 88 86 2.15 79 122 80 116 81 108 82 93 83 96 85 97 87 89 88 109 89 114 90 107 91 108 92 97 93 97 94 94 95 79 
146 0.5146542191505432 0.15923066437244415 0.566844642162323 20 34 27 1.77 88 110 89 115 90 108 91 109 92 98 
147 0.7647943496704102 0.18406972289085388 0.8661623001098633 41 54 42 3.59 89 116 90 109 91 110 92 99 93 98 94 95 95 80 96 71 97 24 
148 0.7117541432380676 -0.22106407582759857 1.234444260597229 178 191 203 2.78 85 98 86 89 87 90 88 111 89 117 90 110 91 111 92 100 93 99 
149 0.13978968560695648 -0.11314770579338074 0.8096430897712708 148 152 155 1.36 79 123 80 117 81 109 82 94 84 91 85 99 86 90 87 91 88 112 89 118 90 111 91 112 92 101 93 100 94 96 95 81 96 72 
150 0.6085968017578125 -0.11871863901615143 1.0058326721191406 94 88 96 1.83 79 124 80 118 81 110 84 92 85 100 86 91 87 92 88 113 89 119 90 112 91 113 92 102 93 101 94 97 95 82 96 73 97 25 99 4 
151 0.5833129286766052 -0.007116101682186127 0.9693009257316589 129 125 126 2.42 80 119 81 111 84 93 85 101 86 92 87 93 88 114 89 120 90 113 91 114 92 103 93 102 94 98 95 83 96 74 97 26 
152 0.6380730271339417 -0.025629378855228424 0.9977688789367676 142 142 147 1.88 79 125 80 120 81 112 84 94 85 102 86 93 87 94 88 115 89 121 90 114 91 115 92 104 93 103 94 99 95 84 96 75 97 27 99 5 
153 0.3826673626899719 0.16963766515254974 0.4382729232311249 205 213 222 2.23 89 122 90 115 91 116 
154 0.5261810421943665 0.012614157050848007 0.8044723272323608 39 43 40 9.11 80 121 81 113 84 95 85 103 86 94 87 95 88 116 89 123 90 116 91 117 92 105 93 104 94 100 95 85 96 76 97 28 
155 0.13139183819293976 -0.27372971177101135 0.838398814201355 85 76 82 1.92 79 126 80 122 81 114 82 95 83 97 84 96 85 104 86 95 87 96 88 117 89 124 90 117 91 118 92 106 93 105 94 101 95 86 96 77 97 29 
156 0.3227035105228424 0.03991486877202988 0.5654115676879883 89 91 61 3.3 79 127 80 123 81 115 84 97 85 105 86 96 87 97 88 118 89 125 90 118 91 119 92 107 93 106 94 102 
157 0.363733172416687 -0.02523946762084961 0.8761822581291199 159 159 158 1.42 81 116 84 98 85 106 86 97 87 98 88 119 89 126 90 119 91 120 92 108 93 107 94 103 95 87 96 78 
158 0.5662435293197632 -0.08551304042339325 0.9798963069915771 90 86 87 1.93 80 124 81 117 84 99 85 107 86 98 87 99 88 120 89 127 90 120 91 121 92 109 93 108 94 104 95 88 96 79 97 30 
159 0.6442378163337708 0.13629068434238434 0.8370910882949829 30 41 42 1.87 88 121 89 128 90 121 91 122 92 110 93 109 94 105 95 89 96 80 
160 0.3327205181121826 0.07795242220163345 0.5739850997924805 38 53 33 2.33 79 128 80 125 81 118 84 100 85 108 86 99 87 100 88 122 89 129 90 122 91 123 92 111 
161 0.7465775012969971 0.16608791053295135 0.8909839391708374 38 48 40 4.17 89 130 90 123 91 124 92 112 93 110 94 106 95 90 96 81 97 31 98 0 
162 0.10540824383497238 -0.03391548991203308 0.7751622200012207 143 146 148 2.11 79 129 80 126 81 119 82 96 88 123 89 131 90 124 91 125 92 113 93 111 94 107 95 91 96 82 
163 0.5913248658180237 -0.2190975546836853 1.0206470489501953 143 141 141 1.04 79 130 80 127 81 120 84 101 85 109 86 100 87 101 88 124 89 132 90 125 91 126 92 114 93 112 94 108 95 92 
164 0.5493435263633728 -0.2752807140350342 1.015090823173523 104 77 76 1.22 79 131 80 128 81 121 84 102 85 110 86 101 87 102 88 125 89 133 90 126 91 127 92 115 93 113 94 109 95 93 96 83 
165 0.6488897800445557 0.0481439046561718 0.9876349568367004 49 51 60 2.7 86 102 87 103 88 126 89 134 90 127 91 128 92 116 93 114 94 110 95 94 96 84 97 32 
166 0.6462703347206116 -0.015282432548701763 0.9995426535606384 145 144 150 1.97 79 132 80 129 81 122 84 103 85 111 86 103 87 104 88 127 89 135 90 128 91 129 92 117 93 115 94 111 95 95 96 85 97 33 99 6 
167 0.4737901985645294 -0.10125824809074402 0.9432669878005981 122 118 120 1.76 80 130 81 123 84 104 85 112 86 104 87 105 88 128 89 136 90 129 91 130 92 118 93 116 94 112 95 96 96 86 97 34 
168 -0.11108831316232681 -0.150509312748909 0.7355492115020752 99 120 136 3.66 79 133 80 131 81 124 82 97 83 98 84 105 85 113 86 105 87 106 88 129 89 137 90 130 91 131 92 119 93 117 94 113 95 97 96 87 
169 0.46651333570480347 -0.037112679332494736 0.925615668296814 93 93 100 1.94 80 132 81 125 84 106 85 114 86 106 87 107 88 130 89 138 90 131 91 132 92 120 93 118 94 114 95 98 96 88 97 35 
170 0.31770816445350647 0.07257308810949326 0.5700607895851135 103 109 68 3.7 79 134 80 133 81 126 84 107 85 115 86 107 87 108 88 131 89 139 90 132 91 133 92 121 93 119 
171 0.11398332566022873 -0.2956959307193756 0.8346801996231079 99 86 87 2.03 79 135 80 134 81 127 82 98 84 108 85 116 86 108 87 109 88 132 89 140 90 133 91 134 92 122 93 120 94 115 95 99 
172 0.5865844488143921 0.15483416616916656 0.5994835495948792 19 34 23 4.5 88 133 89 141 90 134 91 135 92 123 
173 0.6391579508781433 0.13571779429912567 0.9587796926498413 63 61 61 1.93 88 134 89 142 90 135 91 136 92 124 93 121 
174 -0.543209969997406 -0.1856987178325653 0.5579702258110046 40 33 40 3.34 82 99 83 99 88 135 89 143 90 136 91 137 92 125 93 122 94 116 95 100 96 89 
175 0.23649507761001587 -0.2222372144460678 0.869139552116394 159 159 157 1.56 79 136 80 135 81 128 83 100 84 109 85 117 86 109 87 110 88 136 89 144 90 137 91 138 92 126 93 123 94 117 95 101 96 90 97 36 
176 0.6679672002792358 0.1634707897901535 0.6845983862876892 12 15 11 3.48 88 137 89 145 90 138 91 139 92 127 93 124 94 118 95 102 
177 0.4989674985408783 -0.023408345878124237 0.937293529510498 113 111 113 1.96 80 136 81 129 84 110 85 118 86 110 87 111 88 138 89 146 90 139 91 140 92 128 93 125 94 119 95 103 96 91 97 37 
178 0.6528449058532715 0.07189270108938217 0.7553554177284241 58 77 76 3.34 87 112 88 139 89 147 90 140 91 141 92 129 93 126 94 120 95 104 96 92 98 1 
179 0.06807835400104523 -0.10012099891901016 0.7708755135536194 114 116 121 1.72 79 137 80 137 81 130 82 100 83 101 84 111 86 111 87 113 88 140 89 148 90 141 91 142 92 130 93 127 94 121 95 105 96 93 
180 0.6719644069671631 0.07891920953989029 0.7049776911735535 80 82 69 3.17 87 114 88 141 89 149 90 142 91 143 92 131 93 128 94 122 95 106 
181 0.36693114042282104 -0.0079002371057868 0.8707107305526733 128 135 130 1.45 81 131 84 112 85 119 86 112 87 115 88 142 89 150 90 143 91 144 92 132 93 129 94 123 95 107 96 94 
182 0.7237017750740051 0.15669822692871094 0.7341933846473694 55 68 41 5.7 87 116 88 143 89 151 90 144 91 145 92 133 93 130 94 124 95 108 96 95 
183 0.5129825472831726 -0.2631169557571411 0.9964551329612732 64 54 58 1.27 79 138 80 138 81 132 84 113 85 120 86 113 87 117 88 144 89 152 90 145 91 146 92 134 93 131 94 125 95 109 96 96 
184 0.299623042345047 0.01651708409190178 0.5546318888664246 84 93 67 4.58 79 139 80 139 84 114 85 121 86 114 87 118 88 145 89 153 90 146 91 147 92 135 93 132 94 126 
185 0.5832886695861816 0.09071092307567596 0.6326560974121094 38 53 46 2.41 84 115 85 122 86 115 87 119 88 146 89 154 90 147 91 148 92 136 93 133 94 127 
186 0.3362424671649933 0.03804875910282135 0.5966965556144714 52 65 52 4.82 79 140 80 140 81 133 84 116 85 123 86 116 87 120 88 147 89 155 90 148 91 149 92 137 93 134 94 128 
187 0.6489986777305603 0.07303349673748016 0.9703848361968994 63 73 57 2.1 87 121 88 148 89 156 90 149 91 150 92 138 93 135 94 129 95 110 
188 0.5644083619117737 0.006282710935920477 0.958953320980072 73 77 83 2.45 81 134 84 117 85 124 86 117 87 122 88 149 89 157 90 150 91 151 92 139 93 136 94 130 95 111 96 97 
189 0.6203485727310181 -0.022040320560336113 0.9881727695465088 140 139 140 2.14 79 141 80 141 81 135 84 118 85 125 86 118 87 123 88 150 89 158 90 151 91 152 92 140 93 137 94 131 95 112 96 98 97 38 99 7 
190 0.5855398178100586 -0.26493269205093384 1.0281715393066406 137 131 132 1.21 79 142 80 142 81 136 84 119 85 126 86 119 87 124 88 151 89 159 90 152 91 153 92 141 93 138 94 132 95 113 
191 -0.2979695498943329 0.008865293115377426 0.39907509088516235 174 145 139 5.52 82 101 83 102 89 160 91 154 94 133 95 114 
192 0.5751272439956665 0.1517498642206192 0.5896813869476318 24 38 29 1.64 88 152 89 161 90 153 91 155 92 142 
193 -0.5361202955245972 -0.006056634243577719 0.5324419140815735 23 21 16 7.79 82 102 83 103 88 153 89 162 90 154 93 139 
194 0.6388351321220398 0.07767948508262634 0.8246114253997803 56 70 74 6.99 87 125 88 154 89 163 90 155 91 156 92 143 93 140 94 134 95 115 96 99 97 39 
195 0.3159680962562561 -0.030244743451476097 0.859142005443573 123 122 126 1.5 84 120 85 127 86 120 87 126 88 155 89 164 90 156 91 157 92 144 93 141 94 135 95 116 96 100 
196 0.676127552986145 0.08603636920452118 0.7059112191200256 51 62 57 2.67 87 127 88 156 89 165 90 157 91 158 92 145 93 142 94 136 95 117 
197 0.6545529365539551 -0.0013356830459088087 1.0060020685195923 99 104 104 2.3 79 143 80 143 81 137 84 121 85 128 86 121 87 128 88 157 89 166 90 158 91 159 92 146 93 143 94 137 95 118 96 101 97 40 99 8 
198 0.3422781229019165 -0.26530221104621887 0.9229502081871033 60 54 54 1.63 79 144 80 144 81 138 84 122 85 129 86 122 87 129 88 158 89 167 90 159 91 160 92 147 93 144 94 138 95 119 96 102 97 41 
199 0.6528853178024292 0.02020353637635708 0.9957213401794434 79 82 91 2.35 86 123 87 130 88 159 89 168 90 160 91 161 92 148 93 145 94 139 95 120 96 103 97 42 
200 0.1995382010936737 -0.31169557571411133 0.8595035672187805 104 104 102 2.39 79 145 80 145 81 139 84 123 85 130 86 124 87 131 88 160 89 169 90 161 91 162 92 149 93 146 94 140 95 121 96 104 97 43 
201 0.06411328166723251 -0.00555462809279561 0.7521777153015137 55 56 59 1.71 79 146 80 146 81 140 82 103 83 104 84 124 87 132 88 161 89 170 90 162 91 163 92 150 
202 0.24400694668293 -0.09112641215324402 0.8448227047920227 146 146 146 1.58 79 147 85 131 86 125 87 133 88 162 89 171 90 163 91 164 92 151 93 147 94 141 95 122 96 105 
203 0.301154762506485 -0.05286918580532074 0.8589799404144287 135 133 134 1.35 84 125 85 132 86 126 87 134 88 163 89 172 90 164 91 165 92 152 93 148 94 142 95 123 96 106 
204 0.44601374864578247 -0.12698349356651306 0.9353546500205994 143 146 151 1.56 79 148 80 147 81 141 84 126 85 133 86 127 87 135 88 164 89 173 90 165 91 166 92 153 93 149 94 143 95 124 96 107 97 44 
205 0.8464024066925049 0.2893695831298828 1.069627046585083 66 69 71 4.89 92 154 93 150 94 144 95 125 96 108 97 45 98 2 99 9 
206 1.1960843801498413 0.024582836776971817 1.3007324934005737 51 65 75 11.34 95 126 96 109 97 46 98 3 
207 0.8114465475082397 0.3274405896663666 1.2628458738327026 67 78 57 2.54 92 155 93 151 94 145 95 127 96 110 97 47 98 4 99 10 
208 0.3416232466697693 0.3517039120197296 1.6890721321105957 57 43 49 2.04 93 152 94 146 95 128 97 48 98 5 99 11 
209 0.5542974472045898 -0.025682007893919945 1.2682803869247437 163 161 152 2.68 89 174 90 166 91 167 92 156 93 153 94 147 95 129 96 111 97 49 98 6 99 12 
210 0.6993407011032104 0.3945988714694977 1.5070133209228516 150 150 144 3.99 92 157 93 154 94 148 95 130 97 50 98 7 99 13 
211 0.807337760925293 0.19511926174163818 0.8725788593292236 30 53 33 4.15 90 167 91 168 92 158 93 155 94 149 95 131 96 112 97 51 98 8 
212 0.5629636645317078 0.4512046277523041 1.7438045740127563 135 138 135 3.84 92 159 93 156 94 150 95 132 96 113 97 52 98 9 99 14 
213 1.043260931968689 -0.043395619839429855 1.1433875560760498 66 89 99 5.69 96 114 97 53 98 10 
214 0.5799319744110107 0.16613073647022247 1.2106577157974243 184 175 162 2.46 94 151 96 115 97 54 98 11 99 15 
215 0.597178041934967 -0.0007042806828394532 1.1519248485565186 158 157 153 2.8 89 175 90 168 91 169 92 160 93 157 94 152 95 133 96 116 97 55 99 16 
216 1.2210886478424072 0.17561113834381104 1.2727954387664795 65 74 82 12.98 96 117 97 56 98 12 
217 1.1053812503814697 0.03307916224002838 1.1745837926864624 27 29 28 13.47 95 134 96 118 97 57 98 13 
218 0.625226616859436 0.311273455619812 1.5294649600982666 49 56 65 3.7 92 161 93 158 94 153 95 135 97 58 98 14 99 17 
219 0.8378499746322632 0.3055247366428375 1.1403403282165527 89 82 80 3.95 92 162 93 159 94 154 95 136 96 119 97 59 99 18 
220 0.6968849301338196 0.2981136441230774 1.2391400337219238 70 99 71 3.01 92 163 93 160 94 155 95 137 96 120 97 60 98 15 99 19 
221 0.6327853202819824 0.32742440700531006 1.5284615755081177 139 150 168 3.55 92 164 93 161 94 156 95 138 97 61 98 16 99 20 
222 1.0192519426345825 -0.06717052310705185 1.1392465829849243 143 138 139 13.04 95 139 96 121 97 62 98 17 
223 0.3331698775291443 0.2740521728992462 1.705918788909912 51 41 46 2.35 93 162 94 157 95 140 97 63 98 18 99 21 
224 0.5143671631813049 0.011813430115580559 1.3418108224868774 209 205 197 2.26 89 176 90 169 91 170 92 165 93 163 94 158 95 141 96 122 97 64 98 19 99 22 
225 0.8050161600112915 0.21378162503242493 0.9716207981109619 18 32 30 4.11 90 170 91 171 92 166 93 164 94 159 95 142 96 123 97 65 98 20 
226 0.7727348804473877 0.3726620674133301 1.4255009889602661 62 63 69 2.75 92 167 93 165 94 160 95 143 96 124 97 66 98 21 99 23 
227 0.6543092131614685 0.01738145761191845 1.0697622299194336 130 140 128 6.28 89 177 90 171 91 172 92 168 93 166 94 161 95 144 96 125 97 67 99 24 
228 0.6518182754516602 -0.035090260207653046 1.0226119756698608 132 131 127 4.52 79 149 80 148 81 142 84 127 85 134 86 128 87 136 88 165 89 178 90 172 91 173 92 169 93 167 94 162 95 145 96 126 97 68 99 25 
229 0.8528454303741455 0.17384155094623566 1.0152089595794678 26 34 32 5.05 90 173 91 174 92 170 93 168 94 163 95 146 96 127 97 69 98 22 
230 1.2067018747329712 0.05628526583313942 1.2957491874694824 63 73 88 13.63 95 147 96 128 97 70 98 23 
231 1.2162314653396606 0.19554640352725983 1.2836856842041016 68 72 76 13.4 96 129 97 71 98 24 
232 0.5317817330360413 -0.0810345858335495 1.2857799530029297 191 213 224 2.76 89 179 90 174 91 175 92 171 93 169 94 164 95 148 97 72 98 25 99 26 
233 0.5780209302902222 0.39938706159591675 1.6116657257080078 209 217 231 2.96 92 172 93 170 94 165 95 149 97 73 98 26 99 27 
234 0.4896649420261383 0.4371854364871979 1.7890106439590454 67 107 58 4.35 92 173 93 171 94 166 95 150 96 130 97 74 98 27 99 28 
235 0.7825977802276611 0.1904819756746292 0.910508394241333 43 68 56 4.16 90 175 91 176 92 174 93 172 94 167 95 151 96 131 97 75 98 28 
236 0.36988452076911926 -0.050294168293476105 1.6583186388015747 218 218 214 2.67 89 180 90 176 91 177 92 175 93 173 94 168 95 152 96 132 97 76 98 29 99 29 
237 0.7905159592628479 0.03805026412010193 1.0376174449920654 50 78 54 6.11 91 178 92 176 93 174 94 169 95 153 96 133 97 77 98 30 99 30 
238 0.7085832357406616 0.2548321485519409 1.1424124240875244 51 50 44 7.34 92 177 93 175 94 170 95 154 96 134 97 78 99 31 
239 0.7119117379188538 0.14722947776317596 0.7964344024658203 42 60 40 3.51 90 177 91 179 92 178 93 176 94 171 95 155 96 135 97 79 98 31 
240 0.6234660744667053 0.42218056321144104 1.6173596382141113 147 137 145 3.88 93 177 94 172 95 156 97 80 98 32 99 32 
241 0.6549791097640991 0.1346130222082138 0.7818596363067627 49 65 44 3.24 89 181 90 178 91 180 92 179 93 178 94 173 95 157 96 136 97 81 98 33 
