# 3D point list with one line of data per point:
#   POINT3D_ID, X, Y, Z, R, G, B, ERROR, TRACK[] as (IMAGE_ID, POINT2D_IDX)
# Number of points: 340, mean track length: 6.45
7 -0.002575460549474777 -0.11122941537999115 1.0429010564738477 0 0 0 0.14 2 7 9 4 36 1 92 3 109 4 113 2 
8 -0.017573067894096156 -0.10774828024632577 1.042433174951944 0 0 0 0.31 2 8 11 2 16 0 33 2 38 1 50 2 109 5 112 2 
9 -0.019298512724719837 -0.10528487678974287 1.0426918471930418 0 0 0 0.19 2 9 4 4 9 5 16 1 19 0 27 0 32 2 33 3 36 2 38 2 44 3 50 3 52 1 60 0 61 0 85 2 92 4 93 3 109 6 112 3 113 3 136 0 148 0 164 0 185 0 
10 0.1456617477289876 -0.10227250790504756 1.0299284204690986 0 0 0 0.17 2 10 4 5 16 2 44 4 60 1 92 5 93 4 109 7 113 4 
11 -0.3853923528022706 -0.11049038744854976 1.1100543192155508 0 0 0 0.39 2 11 29 0 36 3 44 5 92 6 
12 0.14815984793247527 -0.09969185842132339 1.0298927750342122 0 0 0 0.34 2 12 9 6 16 3 32 3 36 4 44 6 50 4 52 2 61 1 77 2 92 7 93 5 110 0 112 4 113 5 136 1 194 0 
13 -0.0444384148981937 -0.09808242792125782 1.0430893402632078 0 0 0 0.23 2 13 9 7 33 4 109 8 
14 -0.04438212278464217 -0.09792382930425586 1.0427807424414237 0 0 0 0.2 2 14 4 6 9 8 60 2 109 9 113 6 
15 -0.02423453101721879 -0.09472394796185517 1.0403081148561584 0 0 0 0.13 2 15 44 7 109 10 
16 0.09051758842168897 -0.09449571316546633 1.0376015321800918 0 0 0 0.27 2 16 33 5 85 3 109 11 113 7 
17 0.10882862036457412 -0.09396962246935892 1.034395894609253 0 0 0 0.18 2 17 9 9 16 4 36 5 44 8 109 12 113 8 
18 -0.035531204146659195 -0.09430683265079046 1.0411763548573245 0 0 0 0.28 2 18 9 10 16 5 19 1 32 4 36 6 44 9 52 3 60 3 61 2 92 8 93 6 109 13 113 9 146 0 194 1 
19 0.14264782227061315 -0.0936913300844775 1.0336674928688072 0 0 0 0.45 2 19 4 7 9 11 11 3 16 6 32 5 44 10 50 5 60 4 61 3 71 0 77 3 85 4 92 9 93 7 109 14 113 10 
20 0.13632014899820466 -0.0930359839293481 1.0334392363424036 0 0 0 0.44 2 20 33 6 38 3 50 6 85 5 92 10 93 8 
21 0.01498433202539501 -0.09242052681084809 1.0379068139452827 0 0 0 0.24 2 21 4 8 9 12 11 4 16 7 33 7 36 7 38 4 44 11 92 11 93 9 109 15 110 1 112 5 113 11 
22 0.03308686201006768 -0.09270296206571031 1.0384008026670213 0 0 0 0.3 2 22 4 9 9 13 16 8 33 8 92 12 93 10 109 16 113 12 
23 0.08315617988758811 -0.09241841127820725 1.0355132820696178 0 0 0 0.17 2 23 9 14 16 9 32 6 33 9 85 6 92 13 109 17 112 6 
24 -0.026914900834571296 -0.0923172174052306 1.0403874101580606 0 0 0 0.22 2 24 11 5 16 10 33 10 36 8 44 12 50 7 61 4 77 4 85 7 109 18 112 7 113 13 
25 -0.039946887991379076 -0.09188703072867893 1.0411989052875537 0 0 0 0.15 2 25 4 10 16 11 33 11 93 11 109 19 
26 -0.022528080428369054 -0.09027667992345663 1.040450341193181 0 0 0 0.24 2 26 9 15 16 12 32 7 36 9 38 5 44 13 50 8 85 8 92 14 93 12 109 20 112 8 113 14 
27 0.08279197933182979 -0.0899297118619403 1.0359131402369317 0 0 0 0.15 2 27 4 11 9 16 11 6 16 13 19 2 33 12 36 10 38 6 44 14 50 9 61 5 77 5 85 9 92 15 93 13 109 21 112 9 113 15 
28 0.0828198073279673 -0.08999544314234137 1.0359818168269062 0 0 0 0.17 2 28 9 17 19 3 33 13 36 11 44 15 85 10 92 16 93 14 109 22 
29 0.0915693396731689 -0.08979106017981349 1.0355031265998085 0 0 0 0.21 2 29 4 12 9 18 11 7 16 14 19 4 33 14 36 12 38 7 44 16 50 10 61 6 85 11 92 17 93 15 109 23 113 16 
30 0.0915693396731689 -0.08979106017981349 1.0355031265998085 0 0 0 0.21 2 30 4 13 9 19 11 8 16 15 19 5 33 15 36 13 38 8 44 17 50 11 61 7 85 12 92 18 93 16 109 24 113 17 
31 0.12510586657021122 -0.08930782006286515 1.0333601415518245 0 0 0 0.13 2 31 33 16 93 17 113 18 
32 0.09846416014936434 -0.08770186354956257 1.0352615451094087 0 0 0 0.39 2 32 85 13 93 18 109 25 
33 0.09862849717086686 -0.08754465544829389 1.0348871282162644 0 0 0 0.36 2 33 4 14 9 20 33 17 44 18 50 12 85 14 93 19 109 26 
34 0.11362448224222216 -0.08692726238065981 1.0331099030195448 0 0 0 0.21 2 34 4 15 9 21 11 9 16 16 19 6 32 8 33 18 38 9 40 1 41 0 44 19 50 13 52 4 60 5 61 8 77 6 85 15 92 19 93 20 109 27 110 2 112 10 113 19 136 2 146 1 148 1 162 0 164 1 176 0 194 2 
35 0.14356424230171907 -0.08660705223209167 1.0317485843613237 0 0 0 0.17 2 35 9 22 16 17 33 19 38 10 50 14 61 9 92 20 93 21 
36 0.14349539918020296 -0.08661425648323955 1.0315646150075601 0 0 0 0.19 2 36 4 16 9 23 16 18 19 7 33 20 38 11 40 2 44 20 50 15 61 10 77 7 85 16 91 0 92 21 93 22 109 28 113 20 118 0 
37 0.13193331234067143 -0.08667143934286153 1.0323211834545167 0 0 0 0.21 2 37 4 17 36 14 85 17 92 22 93 23 
38 0.1513661899998302 -0.08653035727586982 1.0313380469173947 0 0 0 0.32 2 38 4 18 9 24 16 19 33 21 38 12 44 21 50 16 85 18 91 1 92 23 93 24 109 29 112 11 
39 -0.13093557830259714 -0.08782407947589295 1.0552912485430714 0 0 0 0.29 2 39 4 19 9 25 16 20 32 9 33 22 38 13 44 22 50 17 92 24 93 25 109 30 110 3 113 21 
40 -0.05966209689547957 -0.08619646996470891 1.0419501055934075 0 0 0 0.36 2 40 9 26 16 21 33 23 44 23 109 31 
41 -0.026060837791700816 -0.08605703888338764 1.0397791369030456 0 0 0 0.31 2 41 4 20 9 27 11 10 16 22 27 1 32 10 33 24 40 3 44 24 50 18 61 11 85 19 92 25 93 26 109 32 112 12 
42 0.2324691421871599 -0.08544196150712531 1.0301565544976496 0 0 0 0.27 2 42 4 21 9 28 11 11 19 8 32 11 33 25 44 25 61 12 77 8 93 27 96 0 105 0 109 33 112 13 
43 0.1041618347721469 -0.08495481482693786 1.0336228990348486 0 0 0 0.2 2 43 16 23 33 26 44 26 50 19 53 0 60 6 61 13 93 28 110 4 
44 0.24188817103056087 -0.08522152627873497 1.030232230326972 0 0 0 0.2 2 44 4 22 9 29 19 9 32 12 33 27 36 15 40 4 44 27 50 20 77 9 85 20 91 2 92 26 93 29 105 1 109 34 112 14 
45 0.0009998092565463342 -0.08513278016196033 1.0372559746653356 0 0 0 0.3 2 45 9 30 16 24 32 13 33 28 36 16 38 14 44 28 50 21 85 21 92 27 93 30 109 35 112 15 
46 0.0055425117838201286 -0.08508637608830996 1.0370774668317333 0 0 0 0.28 2 46 4 23 9 31 12 0 16 25 36 17 38 15 50 22 77 10 85 22 92 28 93 31 109 36 110 5 112 16 113 22 118 1 
47 0.3636914022943339 -0.0843355299378531 1.0276982216872614 0 0 0 0.35 2 47 4 24 44 29 52 5 60 7 85 23 91 3 136 3 148 2 184 0 
48 0.019772886476500794 -0.08466284349511084 1.03634763424555 0 0 0 0.2 2 48 4 25 9 32 11 12 16 26 19 10 32 14 36 18 44 30 50 23 52 6 60 8 77 11 85 24 92 29 93 32 109 37 110 6 111 0 112 17 113 23 118 2 136 4 148 3 164 2 176 1 194 3 
49 0.02335616156308732 -0.08469866305341635 1.0361918037607827 0 0 0 0.18 2 49 9 33 11 13 16 27 33 29 36 19 44 31 52 7 61 14 92 30 93 33 109 38 110 7 113 24 136 5 157 0 176 2 
50 0.10938985350098565 -0.08440993417008204 1.0327558571129327 0 0 0 0.24 2 50 4 26 11 14 16 28 29 1 36 20 52 8 77 12 85 25 109 39 110 8 113 25 136 6 146 2 148 4 164 3 194 4 
51 0.10942511702286883 -0.08446262740576191 1.0330498738088736 0 0 0 0.24 2 51 4 27 9 34 16 29 44 32 77 13 85 26 93 34 109 40 110 9 113 26 
52 0.12514694209855792 -0.08419522924066052 1.0317929849571132 0 0 0 0.55 2 52 4 28 11 15 19 11 33 30 41 1 44 33 52 9 92 31 93 35 127 0 136 7 148 5 176 3 
53 0.12544666542126673 -0.08426778351095866 1.03198390511921 0 0 0 0.24 2 53 11 16 19 12 33 31 44 34 92 32 93 36 
54 0.13252707217430026 -0.08398696991035386 1.03194641088306 0 0 0 0.31 2 54 92 33 93 37 
55 0.15290944843744644 -0.08383873952333416 1.0309479731744702 0 0 0 0.21 2 55 4 29 9 35 16 30 33 32 44 35 50 24 60 9 77 14 85 27 92 34 93 38 109 41 112 18 113 27 
56 0.15300443240982944 -0.08387602696498214 1.031203623341261 0 0 0 0.15 2 56 4 30 9 36 16 31 44 36 50 25 92 35 93 39 112 19 113 28 
57 0.38880650071220885 -0.08325939332618612 1.0283694083781318 0 0 0 0.41 2 57 4 31 11 17 19 13 33 33 40 5 44 37 50 26 52 10 60 10 77 15 85 28 91 4 92 36 93 40 105 2 136 8 146 3 148 6 164 4 165 0 184 1 
58 -0.14056986552008133 -0.08520669235080287 1.056654139223057 0 0 0 0.24 2 58 4 32 19 14 38 16 44 38 85 29 92 37 109 42 113 29 
59 -0.14455441153173526 -0.08514636698697736 1.0580741886887068 0 0 0 0.22 2 59 38 17 92 38 109 43 113 30 
60 -0.13674039851146563 -0.08501365835129997 1.0558928843006228 0 0 0 0.27 2 60 16 32 17 0 33 34 38 18 44 39 50 27 61 15 85 30 92 39 93 41 109 44 110 10 
61 -0.2489230351641662 -0.08589152311573048 1.074978019314111 0 0 0 0.2 2 61 4 33 17 1 19 15 32 15 33 35 44 40 50 28 60 11 77 16 85 31 92 40 93 42 109 45 110 11 113 31 
62 -0.16727032603502834 -0.0848026345471223 1.0608258931181531 0 0 0 0.21 2 62 4 34 11 18 16 33 19 16 27 2 32 16 33 36 36 21 38 19 44 41 52 11 60 12 85 32 92 41 93 43 96 1 109 46 110 12 113 32 128 0 136 9 146 4 148 7 158 0 159 0 164 5 176 4 
63 -0.27263232322565384 -0.08554721872335362 1.0786949231388165 0 0 0 0.21 2 63 4 35 32 17 33 37 44 42 50 29 61 16 77 17 85 33 92 42 109 47 110 13 
64 0.3905522503903145 -0.08092810427589467 1.0286502060102647 0 0 0 0.52 2 64 11 19 32 18 44 43 52 12 85 34 92 43 93 44 136 10 164 6 184 2 
65 -0.25805538229820346 -0.08375711640277443 1.0766965490481524 0 0 0 0.28 2 65 17 2 19 17 33 38 44 44 60 13 77 18 85 35 92 44 93 45 109 48 
66 0.20080135340064223 -0.06728138461837181 1.034546257700415 0 0 0 0.11 2 66 91 5 93 46 
67 0.19865720242380724 -0.05932584409391468 1.032135559890639 0 0 0 0.2 2 67 4 36 93 47 
68 -0.06615730908236991 -0.05548402655063017 1.036859039179993 0 0 0 0.25 2 68 9 37 11 20 16 34 44 45 50 30 93 48 109 49 
69 -0.220911790378713 -0.057059879524537976 1.0689468025528532 0 0 0 0.32 2 69 33 39 52 13 60 14 
70 0.02922358576599386 -0.032955893929296085 1.0325327314348216 0 0 0 0.22 2 70 77 19 93 49 
71 -0.005754845427429787 -0.030927369855185533 1.0329330051919625 0 0 0 0.16 2 71 60 15 93 50 
72 -0.07823382016288163 -0.030060886716247542 1.0381199512402548 0 0 0 0.22 2 72 33 40 44 46 85 36 93 51 109 50 110 14 
73 0.029992886566884095 -0.02941612420326252 1.0303217470125352 0 0 0 0.12 2 73 9 38 60 16 61 17 93 52 
74 -0.08075024041940677 -0.0284184908825757 1.0381323434180547 0 0 0 0.2 2 74 9 39 16 35 17 3 19 18 32 19 33 41 44 47 50 31 77 20 85 37 92 45 93 53 110 15 113 33 118 3 
75 0.012921642248734905 -0.025562020216558897 1.0294496544312735 0 0 0 0.2 2 75 44 48 85 38 92 46 109 51 
76 0.33315080984105433 -0.023163230200847762 1.0202702776724737 0 0 0 0.4 2 76 40 6 52 14 93 54 184 3 
77 0.23446873308874996 -0.021136407536269077 1.0209874968942088 0 0 0 0.34 2 77 4 37 9 40 11 21 33 42 38 20 44 49 52 15 60 17 85 39 91 6 92 47 93 55 105 3 109 52 148 8 164 7 194 5 
78 0.15637956538430667 -0.013909301487961349 1.0223115538247984 0 0 0 0.2 2 78 9 41 19 19 44 50 52 16 92 48 93 56 109 53 
79 0.19263415893976965 -0.013211276106237234 1.0225613372027078 0 0 0 0.1 2 79 9 42 93 57 
80 -0.22216485416224208 -0.013008356513060067 1.0609134478593816 0 0 0 0.36 2 80 4 38 11 22 19 20 33 43 52 17 77 21 93 58 128 1 148 9 159 1 162 1 164 8 
81 0.0718372358908457 -0.012035423089901097 1.0234755741097192 0 0 0 0.29 2 81 16 36 38 21 92 49 109 54 112 20 
82 0.2678943363729149 -0.009535727519509103 1.0186430286874795 0 0 0 0.96 2 82 36 22 105 4 109 55 
83 0.2706312635771121 -0.009983677077295819 1.0222235084864806 0 0 0 0.21 2 83 19 21 52 18 91 7 105 5 148 10 184 4 
84 -0.3474461665416981 0.009269221303076966 1.0741012395363037 0 0 0 0.46 2 84 60 18 77 22 85 40 
85 -0.34439063693910954 0.01893368891682243 1.0721808245601034 0 0 0 0.22 2 85 36 23 44 51 
86 0.14607565456101554 0.03796433958919316 1.003725488127276 0 0 0 0.18 2 86 4 39 44 52 85 41 109 56 
87 0.21726070518854507 0.03911318478543793 1.0048804566475626 0 0 0 0.31 2 87 33 44 38 22 52 19 93 59 
88 0.1493463896657706 0.040426366199192085 1.0056903797360137 0 0 0 0.39 2 88 19 22 33 45 44 53 91 8 93 60 
89 0.1441178581419633 0.04243115743777437 1.0037543275396945 0 0 0 0.21 2 89 33 46 93 61 109 57 
90 -0.25890656945497237 0.04455704906515072 1.0571551388474936 0 0 0 0.25 2 90 44 54 52 20 148 11 164 9 176 5 
91 0.21825058262487768 0.04515092817875961 1.0011388570302902 0 0 0 0.19 2 91 4 40 38 23 44 55 85 42 93 62 109 58 110 16 
92 0.24464993682921204 0.04522065981833646 1.0092357913093666 0 0 0 0.19 2 92 92 50 93 63 
93 0.1112473927558138 0.05176311263302343 1.003793051211775 0 0 0 0.09 2 93 38 24 93 64 
94 0.035900669158709604 0.05400252383400995 1.0077994137389454 0 0 0 0.09 2 94 33 47 93 65 
95 -0.25220978856753395 0.05905900014509701 1.0483070502236942 0 0 0 0.11 2 95 44 56 93 66 
96 -0.10480432250639755 0.059135741018150625 1.021086587643928 0 0 0 0.27 2 96 33 48 44 57 50 32 60 19 61 18 77 23 92 51 93 67 
97 -0.0888503043243833 0.059711650408908926 1.022583267777144 0 0 0 0.4 2 97 33 49 60 20 92 52 93 68 113 34 
98 -0.19704455658883752 0.060350335710966714 1.036921484664161 0 0 0 0.4 2 98 9 43 77 24 85 43 93 69 109 59 
99 -0.19725498795971952 0.060497589486726455 1.03686702462439 0 0 0 0.19 2 99 9 44 44 58 93 70 
100 0.03476086988559759 0.0596037122302851 1.0088362745993593 0 0 0 0.24 2 100 4 41 9 45 16 37 19 23 32 20 33 50 44 59 50 33 61 19 77 25 85 44 92 53 93 71 113 35 
101 0.09591909038075018 0.06027458446671678 1.0097802355212158 0 0 0 0.23 2 101 9 46 16 38 33 51 44 60 61 20 93 72 
102 0.1140822975164476 0.05999981032539826 1.0022163915487188 0 0 0 0.29 2 102 77 26 93 73 
103 0.1143342075927163 0.06006987220308683 1.005251644144223 0 0 0 0.32 2 103 33 52 38 25 44 61 93 74 109 60 113 36 
104 -0.10944651928107264 0.0616410161752563 1.0228622589624476 0 0 0 0.22 2 104 4 42 33 53 44 62 50 34 61 21 92 54 93 75 
105 -0.2564656951754331 0.06366555783884485 1.0510017240051561 0 0 0 0.16 2 105 4 43 11 23 44 63 93 76 110 17 
106 -0.1124804627121295 0.06167018100922631 1.0233483848459302 0 0 0 0.39 2 106 9 47 33 54 92 55 93 77 
107 -0.11235291035951983 0.06166657857799955 1.0230070294027316 0 0 0 0.35 2 107 9 48 11 24 33 55 92 56 93 78 
108 -0.035687466441264463 0.06162701877663302 1.0123146834807908 0 0 0 0.32 2 108 32 21 33 56 44 64 50 35 85 45 93 79 
109 -0.029181439846471043 0.061624480798006254 1.011954102950641 0 0 0 0.13 2 109 4 44 38 26 92 57 93 80 
110 0.036338748747727335 0.06216014302608897 1.0091093575333465 0 0 0 0.2 2 110 4 45 9 49 16 39 33 57 38 27 44 65 50 36 92 58 93 81 113 37 
111 0.28366619694133566 0.061843715631045806 1.0011981039475608 0 0 0 0.73 2 111 33 58 50 37 91 9 93 82 105 6 109 61 110 18 
112 0.28379255835400363 0.061862938713941384 1.0011802750305991 0 0 0 0.69 2 112 91 10 93 83 105 7 109 62 110 19 
113 0.10494203064060718 0.06275925718727066 1.0047833850788979 0 0 0 0.08 2 113 33 59 50 38 92 59 93 84 
114 0.11233173915333523 0.06280460485042959 1.0043780593304115 0 0 0 0.22 2 114 44 66 60 21 93 85 
115 0.17632783158481022 0.06337768726126077 1.0035737547870518 0 0 0 0.08 2 115 60 22 93 86 
116 0.13906918716911662 0.06342659972203801 1.0029137417087144 0 0 0 0.24 2 116 9 50 32 22 50 39 60 23 93 87 
117 0.1432024192053562 0.06342926045306414 1.003258765834201 0 0 0 0.32 2 117 4 46 11 25 16 40 36 24 38 28 60 24 85 46 91 11 92 60 93 88 109 63 110 20 113 38 
118 0.20707036195951933 0.06421585753273555 1.0064462667297156 0 0 0 0.14 2 118 4 47 9 51 38 29 50 40 93 89 110 21 
119 0.24221857835429694 0.06484180189540202 1.0066910754279963 0 0 0 0.35 2 119 33 60 44 67 77 27 92 61 93 90 105 8 
120 0.2534125296540131 0.06454007065753695 1.001811674172169 0 0 0 0.25 2 120 4 48 11 26 19 24 33 61 52 21 60 25 85 47 93 91 105 9 109 64 136 11 164 10 
121 0.28483939010441567 0.06430270905038403 1.0004985055397928 0 0 0 0.27 2 121 32 23 33 62 40 7 44 68 93 92 
122 0.31874324991645503 0.06446465214147751 0.9992594418503038 0 0 0 0.39 2 122 33 63 93 93 
123 0.2628059939654919 0.06750967004167355 1.0031678307803487 0 0 0 0.14 2 123 44 69 93 94 
124 0.22349880494030935 0.06786525475701616 1.001245627464035 0 0 0 0.15 2 124 9 52 44 70 93 95 
125 0.26028500105296143 0.0686824705738513 1.002118309756132 0 0 0 0.2 2 125 44 71 92 62 93 96 
126 -0.10803746500994503 0.07164412262000663 1.0214945486822085 0 0 0 0.16 2 126 4 49 11 27 33 64 44 72 50 41 93 97 
127 -0.23408065677840623 0.07376476323318142 1.0422339609630868 0 0 0 0.25 2 127 11 28 33 65 93 98 
128 0.32633544387359814 0.07507139020451141 0.9996308666259147 0 0 0 0.27 2 128 44 73 93 99 
129 -0.19634358351513556 0.07965681535757158 1.0349877116285942 0 0 0 0.11 2 129 11 29 33 66 50 42 93 100 
130 0.22040498161119035 0.08081564840029169 1.000267977166726 0 0 0 0.24 2 130 38 30 93 101 
131 -0.14992352241823623 0.08717808034274886 1.026097548908331 0 0 0 0.15 2 131 33 67 50 43 93 102 
132 0.012749703640102377 0.08836829991073424 1.0126126839232494 0 0 0 0.23 2 132 44 74 85 48 92 63 109 65 
133 0.2337721943025156 0.0937100642839611 1.0026332316903994 0 0 0 0.21 2 133 4 50 11 30 77 28 93 103 
134 0.2329866821443149 0.09369503741244953 1.000230111137228 0 0 0 0.17 2 134 44 75 91 12 93 104 
135 0.262076620781999 0.09486249570042801 0.9977118548670258 0 0 0 0.17 2 135 9 53 44 76 50 44 93 105 
136 0.06937334067729399 0.0959587946308246 1.002721353072595 0 0 0 0.14 2 136 16 41 92 64 93 106 
137 0.3936775390319303 0.09647895638433908 0.9988186068949977 0 0 0 0.33 2 137 4 51 19 25 33 68 52 22 60 26 85 49 105 10 110 22 136 12 148 12 163 0 165 1 184 5 
138 0.2523359880599883 0.09761699116283538 0.9964190613533855 0 0 0 0.14 2 138 33 69 93 107 
139 0.2661532567382133 0.09868273332153941 0.9976438426370287 0 0 0 0.24 2 139 4 52 19 26 33 70 52 23 85 50 91 13 105 11 127 1 184 6 194 6 
140 0.27850438969951014 0.09866243546346105 0.9989025521791485 0 0 0 0.15 2 140 44 77 50 45 61 22 93 108 
141 0.2808488810579265 0.09838020688236439 0.9938809222544166 0 0 0 0.17 2 141 44 78 93 109 
142 0.25467446864269655 0.09901799370623059 0.9965705740173507 0 0 0 0.22 2 142 52 24 85 51 
143 -0.03219862028275856 0.10687597475429172 1.0058449295289542 0 0 0 0.28 2 143 33 71 92 65 93 110 
144 0.24078991747955192 0.10749415969638085 0.9938453454691619 0 0 0 0.31 2 144 4 53 85 52 91 14 93 111 105 12 109 66 
145 0.27391380093299755 0.10860700991239286 0.9919364873894053 0 0 0 0.29 2 145 4 54 33 72 50 46 77 29 91 15 109 67 
146 0.21366450676803544 0.10923698181696204 0.9947596654757528 0 0 0 0.22 2 146 11 31 38 31 44 79 85 53 109 68 
147 0.27033536052698776 0.10856138010795152 0.9926060975748726 0 0 0 0.25 2 147 91 16 93 112 
148 0.22276057129558133 0.11215653272006183 0.993083582236293 0 0 0 0.36 2 148 52 25 85 54 91 17 109 69 
149 0.3839473361648777 0.11657551430087346 0.9938583231373779 0 0 0 0.4 2 149 4 55 33 73 52 26 71 1 85 55 110 23 136 13 148 13 
150 -0.15111645019463257 0.12226557122785865 1.0201894026703162 0 0 0 0.09 2 150 33 74 93 113 
151 0.32035291529522963 0.11904294065926722 0.9912690801019876 0 0 0 0.37 2 151 33 75 44 80 93 114 105 13 
152 -0.030510467775573095 0.1208707123882719 1.0021822951705164 0 0 0 0.19 2 152 4 56 33 76 44 81 50 47 60 27 93 115 
153 0.18031025311620158 0.12021976654400679 0.9924239560515964 0 0 0 0.17 2 153 19 27 33 77 44 82 60 28 93 116 
154 0.18234600743874696 0.12214557482818715 0.9924908332233843 0 0 0 0.37 2 154 9 54 19 28 44 83 60 29 93 117 
155 -0.15340553826548273 0.12802111567923152 1.0193140290671108 0 0 0 0.32 2 155 32 24 33 78 36 25 44 84 50 48 92 66 93 118 
156 0.18017861020239814 0.1305537973432922 0.9910647772475395 0 0 0 0.14 2 156 19 29 33 79 50 49 93 119 
157 0.1778907796216487 0.1324731302547609 0.9909591637420719 0 0 0 0.19 2 157 33 80 50 50 93 120 
158 0.17986879290447325 0.13923755374683472 0.9905806017176061 0 0 0 0.2 2 158 9 55 50 51 93 121 
159 0.20413602610147943 -0.1596858937509136 1.0435097910439757 0 0 0 0.31 2 159 9 56 17 4 29 2 32 25 36 26 44 85 77 30 85 56 92 67 109 70 118 4 
160 0.20358350991949814 -0.1530011560880493 1.0423173470742744 0 0 0 0.31 2 160 4 57 9 57 17 5 19 30 32 26 33 81 40 8 44 86 50 52 52 27 61 23 92 68 93 122 103 0 136 14 146 5 157 1 164 11 
161 0.2071317470788158 -0.15300549271268063 1.0412230073009991 0 0 0 0.29 2 161 9 58 44 87 52 28 85 57 92 69 136 15 157 2 
162 -0.1244782197853049 -0.15533398906157242 1.0656212765342052 0 0 0 0.2 2 162 9 59 32 27 44 88 61 24 109 71 
163 0.08872303729715879 -0.14551020626009759 1.0415199908529167 0 0 0 1.02 2 163 26 0 52 29 63 0 109 72 118 5 
164 -0.00546590004897424 -0.1373193452791036 1.0429839664744838 0 0 0 0.38 2 164 4 58 9 60 16 42 19 31 33 82 36 27 40 9 44 89 50 53 52 30 60 30 61 25 77 31 85 58 92 70 109 73 112 21 146 6 148 14 157 3 162 2 164 12 176 6 
165 -0.0012738226829993394 -0.13368743781517237 1.0449240198767074 0 0 0 0.31 2 165 4 59 9 61 15 0 16 43 17 6 19 32 29 3 32 28 33 83 36 28 38 32 40 10 41 2 44 90 50 54 52 31 53 1 54 0 60 31 61 26 71 2 77 32 85 59 96 2 109 74 112 22 113 39 118 6 126 0 127 2 128 2 135 0 136 16 146 7 148 15 157 4 158 1 159 2 162 3 164 13 185 1 
166 0.3068807344669099 -0.13304414156393277 1.0368794449812286 0 0 0 0.26 2 166 11 32 52 32 162 4 184 7 
167 -0.012801934672671943 -0.12967307810775497 1.0444740425749268 0 0 0 0.38 2 167 33 84 60 32 77 33 85 60 109 75 112 23 113 40 118 7 
168 0.18947223901106083 -0.12432399231089715 1.03846395254927 0 0 0 0.23 2 168 4 60 11 33 19 33 33 85 38 33 52 33 60 33 85 61 118 8 128 3 136 17 148 16 159 3 164 14 185 2 
169 0.3972629431447843 -0.12360227846271644 1.0346303817958042 0 0 0 0.32 2 169 44 91 50 55 52 34 105 14 118 9 165 2 172 0 
170 0.29724036352821975 -0.12150437958039084 1.0356456943685797 0 0 0 0.21 2 170 32 29 36 29 50 56 63 1 73 0 93 123 96 3 
171 0.14314535998621652 -0.12211269134899361 1.036458189230069 0 0 0 0.8 2 171 16 44 36 30 44 92 61 27 73 1 77 34 93 124 96 4 
172 0.1264063851439905 -0.1179638127304297 1.034835808460276 0 0 0 0.32 2 172 4 61 9 62 16 45 17 7 19 34 36 31 85 62 92 71 109 76 110 24 113 41 
173 0.12648506110581 -0.11794979656691243 1.0348525063975982 0 0 0 0.22 2 173 4 62 9 63 11 34 16 46 17 8 36 32 44 93 77 35 92 72 109 77 
174 -0.003503268614488961 -0.11825470848906189 1.0439337813679015 0 0 0 0.26 2 174 15 1 16 47 29 4 61 28 71 3 85 63 109 78 
175 0.12961578341123173 -0.1158042803525825 1.034005688871158 0 0 0 0.25 2 175 9 64 32 30 93 125 
176 0.13256056083659226 -0.1135258829637807 1.0334625366252908 0 0 0 0.36 2 176 32 31 33 86 38 34 44 94 93 126 109 79 
177 0.13251188756248913 -0.11362280174419276 1.0337653048282025 0 0 0 0.39 2 177 16 48 17 9 32 32 33 87 38 35 44 95 77 36 93 127 109 80 113 42 
178 0.021636354257674132 -0.11115443674988601 1.0418992479633893 0 0 0 0.25 2 178 3 0 4 63 11 35 16 49 17 10 19 35 25 0 33 88 38 36 40 11 44 96 50 57 52 35 61 29 77 37 85 64 93 128 96 5 111 1 112 24 113 43 118 10 126 1 128 4 135 1 146 8 147 0 148 17 157 5 159 4 164 15 172 1 176 7 
179 0.13668426517675134 -0.10883452758457716 1.0290199635334154 0 0 0 0.66 2 179 9 65 32 33 36 33 50 58 77 38 93 129 
180 0.1367454392318277 -0.10893645048973825 1.0293891411145233 0 0 0 0.66 2 180 9 66 32 34 50 59 61 30 77 39 93 130 
181 0.3976397878903913 -0.10719845061572356 1.0294222158835058 0 0 0 0.31 2 181 33 89 40 12 52 36 62 0 71 4 77 40 85 65 105 15 110 25 126 2 136 18 148 18 164 16 165 3 172 2 
182 0.07318200053049793 -0.10635850677584113 1.0394640675890168 0 0 0 0.38 2 182 38 37 50 60 61 31 93 131 112 25 113 44 
183 0.0174208647069188 -0.10592329854831455 1.0420417062854266 0 0 0 0.35 2 183 4 64 9 67 11 36 16 50 19 36 33 90 36 34 38 38 41 3 44 97 52 37 77 41 93 132 96 6 109 81 113 45 135 2 146 9 148 19 164 17 185 3 
184 0.4019580138695267 -0.10113530325666122 1.0249497681795596 0 0 0 0.58 2 184 3 1 4 65 17 11 19 37 32 35 33 91 40 13 43 0 44 98 50 61 52 38 53 2 54 1 60 34 62 1 63 2 85 66 91 18 92 73 93 133 103 1 105 16 118 11 128 5 148 20 158 2 162 5 163 1 164 18 165 4 172 3 184 8 
185 0.14323593432850176 -0.0981134623194266 1.0324921913549665 0 0 0 0.58 2 185 3 2 4 66 11 37 17 12 29 5 33 92 38 39 40 14 50 62 52 39 53 3 77 42 85 67 96 7 109 82 113 46 128 6 164 19 
186 -0.061025203217445215 -0.09935091911028464 1.0427217739378176 0 0 0 0.33 2 186 16 51 29 6 38 40 44 99 85 68 92 74 109 83 
187 0.0024527887364458735 -0.09588934055570206 1.0400268722618133 0 0 0 0.34 2 187 4 67 9 68 12 1 27 3 29 7 32 36 33 93 36 35 38 41 44 100 50 63 77 43 85 69 92 75 93 134 109 84 112 26 113 47 118 12 
188 -0.019934163527884952 -0.09217369115109661 1.0407289745647172 0 0 0 0.36 2 188 4 68 9 69 11 38 17 13 19 38 33 94 36 36 38 42 40 15 60 35 85 70 92 76 93 135 109 85 112 27 113 48 
189 -0.21808863800480754 -0.09394628536965766 1.06997171923934 0 0 0 0.86 2 189 4 69 32 37 33 95 40 16 61 32 77 44 93 136 109 86 110 26 
190 0.14664696847836564 -0.09028914014471928 1.032991724452946 0 0 0 0.23 2 190 9 70 11 39 15 2 16 52 17 14 19 39 25 1 29 8 32 38 33 96 40 17 43 1 44 101 50 64 53 4 61 33 63 3 71 5 77 45 85 71 91 19 92 77 93 137 96 8 97 0 109 87 111 2 112 28 118 13 
191 -0.10616866343206717 -0.09103110550553666 1.0524515989592718 0 0 0 0.29 2 191 4 70 9 71 16 53 27 4 33 97 38 43 50 65 53 5 61 34 77 46 109 88 
192 -0.1546574145489972 -0.09033850579598077 1.0595725698706584 0 0 0 0.29 2 192 4 71 11 40 17 15 32 39 33 98 77 47 92 78 93 138 109 89 
193 0.0029568620209308298 -0.08742361428094332 1.0377888320565989 0 0 0 0.25 2 193 4 72 9 72 16 54 17 16 29 9 32 40 33 99 36 37 38 44 40 18 44 102 50 66 61 35 77 48 85 72 92 79 93 139 103 2 109 90 110 27 113 49 
194 0.003024858146108395 -0.08744654474318835 1.0377924609613878 0 0 0 0.18 2 194 9 73 32 41 33 100 36 38 44 103 50 67 61 36 92 80 93 140 
195 0.018636522216520023 -0.08733693319678752 1.0366092640318705 0 0 0 0.42 2 195 52 40 126 3 
196 0.025031417550346116 -0.08718282542650092 1.0369223836653738 0 0 0 0.3 2 196 4 73 16 55 19 40 33 101 50 68 52 41 60 36 92 81 93 141 103 3 110 28 113 50 162 6 
197 0.0365515770487421 -0.08694437000134693 1.035615281027829 0 0 0 0.2 2 197 52 42 61 37 136 19 194 7 
198 0.04471688097404546 -0.08677729830717497 1.0349371249545027 0 0 0 0.25 2 198 3 3 52 43 60 37 71 6 96 9 162 7 
199 0.12405491466716594 -0.08695713099253755 1.0326294322740992 0 0 0 0.28 2 199 4 74 9 74 11 41 16 56 17 17 19 41 32 42 33 102 38 45 40 19 44 104 50 69 52 44 77 49 85 73 91 20 92 82 93 142 109 91 112 29 113 51 127 3 128 7 135 3 146 10 148 21 157 6 159 5 164 20 176 8 194 8 
200 0.15527883868701983 -0.08655108036041324 1.0319572342766836 0 0 0 0.26 2 200 4 75 16 57 38 46 44 105 92 83 93 143 118 14 
201 0.22642938775582033 -0.08528224757362952 1.0308620935389339 0 0 0 0.29 2 201 4 76 9 75 11 42 17 18 19 42 32 43 33 103 36 39 38 47 40 20 44 106 50 70 53 6 61 38 63 4 77 50 85 74 91 21 92 84 93 144 105 17 109 92 118 15 
202 0.3169790185043239 -0.08494087525318927 1.0282438623518417 0 0 0 0.4 2 202 17 19 33 104 92 85 93 145 
203 0.3208160257295575 -0.08484198609013129 1.028303877612421 0 0 0 0.31 2 203 9 76 44 107 92 86 93 146 105 18 
204 0.011507300351146079 -0.08507984395287846 1.0374399174633449 0 0 0 0.22 2 204 9 77 12 2 32 44 33 105 40 21 44 108 92 87 93 147 
205 -0.08757350735573571 -0.08540493618194042 1.0478230507725286 0 0 0 0.25 2 205 4 77 9 78 11 43 16 58 19 43 27 5 32 45 38 48 44 109 52 45 77 51 85 75 92 88 109 93 112 30 113 52 136 20 148 22 159 6 194 9 
206 0.12996188295117142 -0.0842783363728429 1.0319763462088267 0 0 0 0.22 2 206 4 78 9 79 11 44 16 59 33 106 36 40 41 4 44 110 50 71 52 46 77 52 85 76 92 89 93 148 109 94 112 31 113 53 126 4 135 4 146 11 148 23 157 7 176 9 
207 0.12991150188448103 -0.08426447861527434 1.0319475696696485 0 0 0 0.18 2 207 4 79 9 80 11 45 16 60 33 107 44 111 50 72 52 47 77 53 85 77 92 90 93 149 109 95 112 32 113 54 146 12 148 24 176 10 
208 -0.22658481272000955 -0.08626713270240009 1.071267850657195 0 0 0 0.24 2 208 4 80 9 81 11 46 29 10 32 46 33 108 44 112 50 73 53 7 60 38 61 39 77 54 85 78 92 91 93 150 109 96 110 29 111 3 113 55 118 16 
209 -0.22663557758620131 -0.08626712876865233 1.071361734027788 0 0 0 0.24 2 209 4 81 9 82 11 47 17 20 19 44 32 47 33 109 44 113 50 74 60 39 61 40 77 55 85 79 92 92 93 151 109 97 110 30 111 4 113 56 118 17 
210 -0.13208749968338956 -0.08500615234277839 1.0552328125088741 0 0 0 0.25 2 210 3 4 4 82 11 48 16 61 17 21 19 45 27 6 32 48 40 22 41 5 44 114 50 75 52 48 60 40 61 41 77 56 85 80 92 93 103 4 109 98 110 31 111 5 113 57 118 18 127 4 136 21 162 8 164 21 194 10 
211 0.20959866996325358 -0.08297607478410789 1.0308686792076198 0 0 0 0.27 2 211 4 83 9 83 33 110 38 49 44 115 52 49 60 41 61 42 77 57 85 81 91 22 93 152 109 99 110 32 136 22 164 22 194 11 
212 0.2239080278459346 -0.08252427144492068 1.0295779109339374 0 0 0 0.31 2 212 4 84 44 116 60 42 92 94 109 100 
213 0.23075767869452007 -0.08278389422726194 1.0300598002629997 0 0 0 0.23 2 213 11 49 19 46 44 117 50 76 92 95 93 153 
214 0.2411494324599263 -0.08237298235522873 1.0290195662216968 0 0 0 0.25 2 214 38 50 40 23 44 118 52 50 60 43 61 43 77 58 85 82 158 3 162 9 172 4 176 11 185 4 
215 0.2575981504153371 -0.08225585380030334 1.028128861687863 0 0 0 0.2 2 215 19 47 50 77 77 59 92 96 93 154 
216 0.2873102108850843 -0.082178007502206 1.0281946921619207 0 0 0 0.21 2 216 4 85 9 84 60 44 77 60 93 155 
217 0.3265747655050029 -0.08217536511943792 1.027288869946582 0 0 0 0.24 2 217 32 49 40 24 44 119 50 78 77 61 92 97 93 156 
218 0.34805504496361156 -0.08189265859237355 1.0268933452424123 0 0 0 0.34 2 218 92 98 93 157 
219 0.35337397905099005 -0.08172575791988247 1.026022597126962 0 0 0 0.21 2 219 33 111 44 120 50 79 92 99 93 158 
220 -0.29237633221936515 -0.08516090717831164 1.0819222148323624 0 0 0 0.26 2 220 11 50 19 48 29 11 32 50 33 112 44 121 77 62 85 83 92 100 93 159 109 101 111 6 
221 -0.2111812196689448 -0.08373285261314461 1.067712997570064 0 0 0 0.28 2 221 3 5 4 86 9 85 17 22 29 12 33 113 40 25 52 51 53 8 60 45 77 63 85 84 92 101 93 160 109 102 110 33 113 58 118 19 128 8 148 25 159 7 162 10 164 23 172 5 176 12 
222 0.17036889282307266 -0.07897635752634755 1.0323828179132883 0 0 0 0.31 2 222 11 51 50 80 60 46 61 44 91 23 93 161 109 103 
223 0.1963805001629814 -0.07851793474644658 1.0308781586198639 0 0 0 0.19 2 223 4 87 11 52 33 114 36 41 40 26 52 52 60 47 77 64 91 24 92 102 93 162 109 104 136 23 148 26 164 24 185 5 
224 0.20165857422260633 -0.07844443828885735 1.0308138437722085 0 0 0 0.23 2 224 4 88 9 86 11 53 19 49 29 13 32 51 33 115 38 51 40 27 44 122 50 81 60 48 77 65 85 85 91 25 92 103 93 163 109 105 118 20 
225 0.24164070424074505 -0.07783557651616343 1.029647979761728 0 0 0 0.35 2 225 4 89 9 87 11 54 17 23 19 50 29 14 33 116 36 42 38 52 40 28 44 123 50 82 52 53 77 66 85 86 91 26 96 10 109 106 110 34 112 33 118 21 126 5 136 24 146 13 148 27 157 8 158 4 159 8 164 25 176 13 194 12 
226 0.27946282837188097 -0.07784910208808506 1.0271848226273979 0 0 0 0.18 2 226 92 104 93 164 
227 -0.3384530589652849 -0.07935409228365083 1.091919075053304 0 0 0 0.29 2 227 19 51 32 52 44 124 61 45 77 67 92 105 93 165 96 11 110 35 113 59 
228 0.07318833560754967 -0.05475226761102191 1.0308063080734895 0 0 0 0.3 2 228 4 90 9 88 11 55 15 3 16 62 17 24 19 52 29 15 33 117 38 53 40 29 41 6 44 125 50 83 52 54 60 49 85 87 93 166 103 5 109 107 112 34 118 22 126 6 127 5 136 25 164 26 
229 0.20527047391830486 -0.04734998646594986 1.030419285160225 0 0 0 0.28 2 229 52 55 60 50 194 13 
230 -0.10695174728233078 -0.043082870864005175 1.044755246237426 0 0 0 0.27 2 230 16 63 93 167 
231 -0.10696374062549203 -0.042962873545054174 1.0445174790856606 0 0 0 0.3 2 231 16 64 33 118 38 54 93 168 
232 -0.08587872567817484 -0.028692545638354716 1.0378031714634164 0 0 0 0.3 2 232 9 89 33 119 109 108 113 60 
233 0.37778371088433105 -0.026627744241159376 1.0194455568280845 0 0 0 0.29 2 233 52 56 110 36 164 27 184 9 
234 -0.08241700160220711 -0.025187829492882494 1.0384057716565562 0 0 0 0.25 2 234 3 6 4 91 9 90 16 65 29 16 32 53 33 120 38 55 44 126 53 9 63 5 71 7 77 68 85 88 92 106 93 169 
235 -0.17371679642591406 -0.023506155772432043 1.0537623533347569 0 0 0 0.32 2 235 9 91 43 2 44 127 77 69 85 89 92 107 93 170 109 109 110 37 
236 0.22916172280122177 -0.022676337351950075 1.0205989653059888 0 0 0 0.1 2 236 9 92 44 128 109 110 111 7 
237 -0.17001809132899204 -0.021642395414636605 1.0526719896556322 0 0 0 0.29 2 237 4 92 27 7 29 17 40 30 52 57 77 70 157 9 
238 0.11424496258705223 -0.017689369996788877 1.0222454003779167 0 0 0 0.32 2 238 4 93 16 66 17 25 19 53 33 121 38 56 40 31 44 129 60 51 61 46 93 171 96 12 
239 -0.29775977507362994 -0.017271710233694455 1.074059652898756 0 0 0 0.51 2 239 17 26 33 122 40 32 52 58 77 71 127 6 164 28 
240 0.3946219813456289 -0.012915538469819824 1.0165728778874445 0 0 0 0.37 2 240 4 94 33 123 52 59 77 72 91 27 105 19 126 7 148 28 165 5 184 10 
241 0.3333639063191901 -0.011905706392492993 1.0176613347886787 0 0 0 0.28 2 241 3 7 4 95 11 56 15 4 17 27 29 18 33 124 40 33 43 3 52 60 53 10 60 52 61 47 62 2 71 8 73 2 77 73 91 28 111 8 118 23 147 1 148 29 162 11 164 29 165 6 172 6 176 14 
242 -0.035116780838386506 -0.012116517464466143 1.0281378927030251 0 0 0 0.39 2 242 38 57 93 172 109 111 
243 -0.03295436095315837 0.031363540397941835 1.0185643639858206 0 0 0 0.34 2 243 11 57 17 28 32 54 52 61 53 11 85 90 109 112 
244 -0.006321777393413356 0.038794544139043194 1.017451746011063 0 0 0 0.38 2 244 3 8 4 96 16 67 17 29 27 8 61 48 77 74 92 108 93 173 
245 0.23132531712858614 0.04487803334131924 1.0098347383833794 0 0 0 0.12 2 245 9 93 44 130 92 109 93 174 
246 0.2346465388101431 0.04499388399281235 1.0095114055374312 0 0 0 0.09 2 246 9 94 38 58 44 131 92 110 93 175 
247 0.24794915639645337 0.04529557286534361 1.0050438017257166 0 0 0 0.25 2 247 9 95 32 55 92 111 93 176 
248 0.10062660180516449 0.04614651378110845 1.0096663596940787 0 0 0 0.38 2 248 9 96 27 9 38 59 44 132 53 12 92 112 93 177 96 13 
249 0.19079217615107957 0.048254725082685516 1.008076912561961 0 0 0 0.2 2 249 91 29 92 113 93 178 
250 0.1765706925141956 0.05283049598337578 1.0057497315070079 0 0 0 0.29 2 250 4 97 32 56 77 75 92 114 93 179 
251 -0.011597528237221677 0.05734442450356374 1.014130711779999 0 0 0 0.27 2 251 19 54 33 125 44 133 93 180 
252 0.014429777038089328 0.057744897294251515 1.0127375108370273 0 0 0 0.44 2 252 32 57 109 113 
253 -0.13019184200334952 0.059855736452542434 1.029289061433918 0 0 0 0.17 2 253 9 97 19 55 44 134 93 181 
254 -0.07150349240409397 0.058679234998554285 1.0117293702308803 0 0 0 0.24 2 254 19 56 33 126 36 43 44 135 92 115 93 182 
255 -0.26328677140146806 0.060904433107590854 1.048121449782735 0 0 0 0.12 2 255 17 30 60 53 93 183 
256 -0.0322598568080549 0.05926398446130832 1.01175566579116 0 0 0 0.19 2 256 19 57 33 127 44 136 52 62 60 54 92 116 93 184 162 12 
257 -0.027608050708530014 0.05909435814132189 1.012063487165595 0 0 0 0.22 2 257 4 98 9 98 33 128 44 137 50 84 92 117 93 185 
258 -0.027663865242947082 0.05911269829268319 1.0119257465976992 0 0 0 0.15 2 258 4 99 44 138 50 85 92 118 93 186 
259 -0.25913452834146816 0.06158533585825368 1.0499399676879162 0 0 0 0.36 2 259 33 129 44 139 93 187 
260 -0.29794213022070837 0.06250311667101434 1.0575908812597343 0 0 0 0.38 2 260 4 100 11 58 17 31 19 58 33 130 52 63 77 76 148 30 164 30 
261 0.03818619073889943 0.05963627347545835 1.0085410127671455 0 0 0 0.22 2 261 4 101 9 99 11 59 16 68 33 131 38 60 44 140 50 86 61 49 77 77 92 119 93 188 
262 0.03818619073889943 0.05963627347545835 1.0085410127671455 0 0 0 0.22 2 262 4 102 9 100 11 60 16 69 33 132 38 61 44 141 50 87 61 50 77 78 92 120 93 189 
263 0.1426091474247909 0.060498786945998896 1.0022670438209902 0 0 0 0.46 2 263 4 103 9 101 15 5 16 70 32 58 33 133 44 142 50 88 60 55 77 79 85 91 92 121 93 190 110 38 113 61 
264 0.18105978022699856 0.06075890139403959 1.0020168813252321 0 0 0 0.22 2 264 4 104 9 102 11 61 19 59 33 134 38 62 44 143 50 89 61 51 63 6 77 80 85 92 91 30 92 122 93 191 96 14 109 114 110 39 118 24 
265 0.32055634104542297 0.061958763449771304 0.998731893173629 0 0 0 0.26 2 265 32 59 44 144 50 90 92 123 93 192 105 20 
266 0.2626255087571295 0.06245047483526667 1.0023039461263 0 0 0 0.22 2 266 44 145 92 124 93 193 
267 0.35689521408583064 0.062483124149000015 0.998108480112136 0 0 0 0.28 2 267 44 146 60 56 61 52 92 125 93 194 
268 -0.1538756267252538 0.08106390544115646 1.0277042240519998 0 0 0 0.27 2 268 4 105 9 103 11 62 19 60 27 10 33 135 38 63 44 147 52 64 61 53 77 81 93 195 109 115 110 40 118 25 146 14 157 10 159 9 164 31 
269 0.2174995405999923 0.07933870076727913 0.9999241564091397 0 0 0 0.16 2 269 9 104 19 61 40 34 44 148 50 91 60 57 61 54 93 196 111 9 
270 -0.1940560175119628 0.08501216778289258 1.0336024780180586 0 0 0 0.27 2 270 4 106 17 32 19 62 33 136 44 149 50 92 60 58 77 82 92 126 93 197 
271 -0.15473910653320813 0.08436267714307977 1.0271326985060234 0 0 0 0.28 2 271 9 105 11 63 16 71 17 33 19 63 33 137 44 150 50 93 61 55 77 83 85 93 92 127 93 198 118 26 
272 0.19899098094123974 0.08839450331481669 1.002703494401444 0 0 0 0.19 2 272 44 151 50 94 61 56 93 199 111 10 
273 0.24513164060886666 0.08890466876359927 1.0013085769524617 0 0 0 0.28 2 273 4 107 11 64 33 138 44 152 50 95 60 59 61 57 93 200 105 21 118 27 
274 -0.015155944127639522 0.09221436289765313 1.011225793323533 0 0 0 0.33 2 274 16 72 17 34 19 64 33 139 38 64 44 153 50 96 61 58 92 128 93 201 109 116 110 41 
275 0.38872140210550926 0.09184058914251308 0.998683198065738 0 0 0 0.43 2 275 11 65 19 65 40 35 44 154 52 65 54 2 60 60 63 7 77 84 105 22 110 42 111 11 148 31 165 7 
276 -0.22213300408703932 0.0964276696641434 1.0407465981486552 0 0 0 0.48 2 276 33 140 52 66 
277 0.21803560179940124 0.09249360654221699 0.998072371356238 0 0 0 0.22 2 277 4 108 33 141 43 4 44 155 53 13 61 59 93 202 
278 0.391528658906389 0.09319135634868358 0.9986622439945669 0 0 0 0.34 2 278 4 109 11 66 19 66 33 142 40 36 44 156 52 67 60 61 73 3 77 85 110 43 136 26 163 2 165 8 
279 0.0565805802516127 0.09616239579214478 1.0093982549365508 0 0 0 0.32 2 279 3 9 44 157 93 203 111 12 
280 0.07456761111366222 0.09861816094161699 1.0010423759549376 0 0 0 0.23 2 280 4 110 11 67 16 73 19 67 33 143 44 158 60 62 61 60 77 86 92 129 93 204 
281 -0.06362153048768941 0.10229011813305272 1.0063895476840312 0 0 0 0.37 2 281 3 10 4 111 11 68 16 74 17 35 33 144 38 65 44 159 50 97 53 14 60 63 77 87 85 94 92 130 93 205 96 15 111 13 113 62 118 28 
282 0.24554995107993624 0.10156328530956205 0.9917126604192665 0 0 0 0.18 2 282 4 112 17 36 44 160 50 98 61 61 93 206 
283 0.22746315074484316 0.10399197373560794 0.9948719676551208 0 0 0 0.13 2 283 109 117 118 29 
284 0.21135686642412282 0.10490678421738547 0.9959436733632778 0 0 0 0.26 2 284 4 113 11 69 17 37 19 68 32 60 40 37 44 161 50 99 60 64 71 9 77 88 85 95 91 31 93 207 109 118 110 44 118 30 
285 -0.3716826747676632 0.11437088292376894 1.0666589347759066 0 0 0 0.25 2 285 36 44 44 162 85 96 
286 -0.034366136308087644 0.1133213896238818 1.0036196732211058 0 0 0 0.19 2 286 36 45 44 163 50 100 60 65 93 208 
287 0.24234297240664843 0.11273443002568943 0.9943097477303767 0 0 0 0.36 2 287 4 114 17 38 19 69 44 164 53 15 60 66 71 10 91 32 93 209 96 16 105 23 109 119 110 45 111 14 
288 0.25365284362743273 0.11790452976814879 0.9926973622424909 0 0 0 0.33 2 288 4 115 44 165 50 101 61 62 77 89 93 210 96 17 
289 0.10511568394054932 0.1270393988605484 0.995518107580671 0 0 0 0.39 2 289 12 3 16 75 17 39 33 145 50 102 61 63 92 131 93 211 110 46 118 31 
290 0.1425376894790194 -0.14875905579460008 1.0436308608988536 0 0 0 0.23 2 290 4 116 11 70 15 6 29 19 33 146 38 66 43 5 50 103 61 64 63 8 71 11 93 212 96 18 118 32 
291 0.07867725707785435 -0.13049329664025766 1.042554693189296 0 0 0 0.34 2 291 3 11 4 117 9 106 11 71 15 7 17 40 25 2 26 1 29 20 33 147 38 67 43 6 44 166 53 16 60 67 61 65 63 9 77 90 85 97 92 132 93 213 96 19 97 1 109 120 110 47 111 15 112 35 113 63 118 33 
292 0.3923456234752677 -0.12782869183690612 1.0382486674191174 0 0 0 0.72 2 292 52 68 73 4 77 91 85 98 105 24 164 32 
293 0.26043330260082065 -0.12474050723165024 1.0375745196640547 0 0 0 0.24 2 293 9 107 44 167 50 104 61 66 77 92 109 121 
294 0.39126384673415004 -0.12310738898895322 1.0349325798374445 0 0 0 0.47 2 294 19 70 52 69 85 99 103 6 105 25 163 3 
295 0.09771173088737421 -0.11344655605297264 1.0399966232981583 0 0 0 0.44 2 295 3 12 4 118 9 108 11 72 15 8 16 76 17 41 19 71 26 2 32 61 38 68 40 38 44 168 50 105 52 70 53 17 61 67 77 93 85 100 92 133 93 214 96 20 97 2 109 122 110 48 111 16 112 36 113 64 126 8 135 5 147 2 148 32 157 11 158 5 159 10 162 13 164 33 
296 0.3985721765752501 -0.11168909567515387 1.0312906557114612 0 0 0 0.48 2 296 3 13 11 73 29 21 44 169 52 71 54 3 85 101 103 7 105 26 162 14 163 4 164 34 172 7 
297 -0.028379195700814864 -0.11082836443445557 1.0444435209107688 0 0 0 0.46 2 297 4 119 9 109 25 3 29 22 33 148 44 170 50 106 52 72 53 18 77 94 85 102 109 123 112 37 113 65 126 9 172 8 176 15 194 14 
298 -0.373606727687138 -0.11543411667012897 1.1056879585042079 0 0 0 0.32 2 298 52 73 60 68 110 49 111 17 148 33 164 35 
299 0.02550732512749351 -0.10814005438010864 1.0413921088322131 0 0 0 0.16 2 299 11 74 109 124 
300 0.4003217168879148 -0.10467895705061041 1.0267896418039364 0 0 0 0.42 2 300 15 9 29 23 52 74 54 4 71 12 77 95 91 33 97 3 118 34 136 27 147 3 148 34 162 15 
301 0.034498817054461166 -0.09634267868503546 1.0392574461826554 0 0 0 0.37 2 301 4 120 9 110 11 75 15 10 16 77 17 42 19 72 26 3 27 11 29 24 33 149 36 46 38 69 40 39 44 171 50 107 52 75 53 19 54 5 60 69 61 68 63 10 71 13 77 96 85 103 89 0 92 134 93 215 96 21 97 4 103 8 109 125 112 38 113 66 118 35 126 10 127 7 128 9 136 28 147 4 148 35 159 11 164 36 176 16 185 6 194 15 
302 -0.15785004349967335 -0.09444398097974244 1.0604775801068254 0 0 0 0.48 2 302 4 121 9 111 11 76 16 78 17 43 32 62 33 150 38 70 44 172 50 108 53 20 61 69 71 14 77 97 109 126 110 50 118 36 
303 0.3967425158926096 -0.09048637261349163 1.0323811535558012 0 0 0 0.4 2 303 4 122 17 44 19 73 29 25 33 151 50 109 52 76 54 6 71 15 73 5 105 27 111 18 118 37 126 11 148 36 184 11 
304 -0.09654866936675971 -0.09144491899171196 1.0511702604096105 0 0 0 0.27 2 304 3 14 4 123 9 112 11 77 16 79 17 45 19 74 29 26 32 63 38 71 40 40 44 173 50 110 53 21 60 70 61 70 71 16 77 98 85 104 89 1 92 135 93 216 97 5 109 127 110 51 111 19 112 39 118 38 
305 0.2196864034942988 -0.08923773279911992 1.032358799690327 0 0 0 0.23 2 305 4 124 9 113 11 78 12 4 17 46 19 75 33 152 38 72 44 174 50 111 53 22 60 71 63 11 71 17 73 6 77 99 85 105 91 34 92 136 93 217 96 22 105 28 109 128 112 40 118 39 
306 0.23238006579048281 -0.08918313636991662 1.0311949804816085 0 0 0 0.31 2 306 9 114 11 79 15 11 17 47 19 76 33 153 40 41 43 7 44 175 50 112 53 23 61 71 63 12 71 18 73 7 77 100 85 106 91 35 92 137 93 218 96 23 97 6 105 29 109 129 111 20 118 40 
307 0.25918790130870695 -0.08898957010055729 1.0305968632558444 0 0 0 0.29 2 307 12 5 43 8 85 107 93 219 109 130 
308 0.36305613366749123 -0.08786628274221285 1.0277449313490405 0 0 0 0.33 2 308 4 125 15 12 17 48 32 64 44 176 50 113 61 72 73 8 92 138 93 220 
309 -0.25065012965839045 -0.08932943903877845 1.075813124150968 0 0 0 0.21 2 309 4 126 32 65 33 154 40 42 44 177 50 114 61 73 71 19 77 101 92 139 109 131 118 41 
310 -0.3438203826515411 -0.08319506716503897 1.0929337186871704 0 0 0 0.51 2 310 3 15 4 127 32 66 44 178 52 77 53 24 60 72 71 20 77 102 85 108 93 221 103 9 109 132 110 52 113 67 118 42 148 37 
311 0.3689273106128599 -0.05701158874387485 1.0258102303709222 0 0 0 0.29 2 311 19 77 40 43 52 78 148 38 
312 0.12867996033005177 -0.02430405573905352 1.0234939039228361 0 0 0 0.21 2 312 3 16 4 128 16 80 19 78 44 179 52 79 77 103 85 109 91 36 109 133 118 43 136 29 148 39 158 6 159 12 
313 0.1385320464747896 -0.017748552162002294 1.0219793518541518 0 0 0 0.33 2 313 3 17 4 129 11 80 15 13 16 81 17 49 33 155 38 73 41 7 52 80 60 73 63 13 77 104 85 110 93 222 112 41 118 44 136 30 148 40 158 7 159 13 172 9 176 17 
314 -0.34854371271648543 0.01966543454904844 1.0733266415564635 0 0 0 0.57 2 314 25 4 26 4 36 47 44 180 52 81 77 105 85 111 92 140 113 68 148 41 162 16 164 37 
315 -0.34773013002307085 0.020038361399367342 1.072405700087788 0 0 0 0.29 2 315 4 130 52 82 118 45 
316 0.2238945809292888 0.040845432682172216 1.007294632877144 0 0 0 0.19 2 316 17 50 44 181 61 74 92 141 93 223 96 24 111 21 
317 0.0015133314611405619 0.05958275189686008 1.009239971278383 0 0 0 0.38 2 317 9 115 32 67 33 156 44 182 93 224 
318 0.0013730714469212938 0.05955804343157331 1.0098315819655193 0 0 0 0.34 2 318 9 116 33 157 44 183 93 225 
319 -0.02321073372724501 0.06009934519082931 1.0135609954823501 0 0 0 0.21 2 319 3 18 17 51 19 79 33 158 93 226 111 22 
320 0.27853097851407477 0.06256513441285037 1.0011355209800532 0 0 0 0.27 2 320 3 19 44 184 61 75 92 142 93 227 
321 0.24764977973721175 0.07136381534334198 1.000921138298542 0 0 0 0.28 2 321 29 27 77 106 93 228 111 23 
322 -0.29577933780397847 0.09407152257962978 1.054687153225526 0 0 0 0.17 2 322 52 83 148 42 
323 -0.22111143443425393 0.1041202949588092 1.0333243520035935 0 0 0 0.25 2 323 52 84 148 43 
324 0.27908801655123416 0.10103893408139929 0.9943372316946498 0 0 0 0.28 2 324 4 131 19 80 43 9 44 185 50 115 53 25 61 76 63 14 73 9 77 107 85 112 91 37 93 229 96 25 109 134 110 53 118 46 
325 -0.15114526834328493 0.1044894199531781 1.0222879252075971 0 0 0 0.33 2 325 4 132 25 5 33 159 44 186 52 85 77 108 92 143 93 230 96 26 97 7 113 69 128 10 146 15 148 44 162 17 164 38 176 18 
326 0.2084812152484992 0.10370784466820732 0.9999204570035838 0 0 0 0.29 2 326 4 133 17 52 38 74 61 77 71 21 91 38 93 231 111 24 118 47 
327 0.2391753745574259 0.10443372072172613 0.9937816118394721 0 0 0 0.26 2 327 4 134 11 81 19 81 33 160 40 44 43 10 44 187 63 15 71 22 73 10 77 109 85 113 88 0 91 39 96 27 109 135 110 54 111 25 
328 0.21508933720210144 0.10575944091891175 0.9931306151119123 0 0 0 0.28 2 328 4 135 11 82 44 188 50 116 53 26 60 74 61 78 71 23 77 110 93 232 111 26 118 48 
329 -0.06433229044306563 0.11057886040521941 1.0048724564335945 0 0 0 0.36 2 329 33 161 52 86 60 75 77 111 85 114 92 144 93 233 110 55 111 27 126 12 148 45 194 16 
330 0.10563424075311527 0.11630271182931647 0.996499520807444 0 0 0 0.29 2 330 4 136 85 115 93 234 110 56 111 28 
331 0.18588375386147646 0.1428013247796601 0.990141852363074 0 0 0 0.4 2 331 4 137 9 117 50 117 93 235 
332 0.20809548964328495 0.14302401218872268 0.9946872686712787 0 0 0 0.46 2 332 92 145 93 236 
333 -0.05104072499921292 -0.10243486363950091 1.0440020555350824 0 0 0 0.33 2 333 3 20 4 138 9 118 11 83 12 6 16 82 17 53 19 82 25 6 27 12 29 28 32 68 33 162 36 48 38 75 40 45 41 8 43 11 44 189 52 87 53 27 60 76 61 79 63 16 71 24 77 112 85 116 89 2 92 146 93 237 96 28 109 136 112 42 113 70 118 49 126 13 128 11 135 6 136 31 146 16 147 5 148 46 157 12 158 8 159 14 162 18 164 39 172 10 185 7 
334 0.10982227118263782 -0.10069280032029833 1.0373624072377505 0 0 0 0.31 2 334 16 83 44 190 85 117 109 137 113 71 
335 0.06781170627842636 -0.09651939863707998 1.0371442809936275 0 0 0 0.35 2 335 9 119 11 84 12 7 16 84 17 54 38 76 44 191 50 118 61 80 77 113 85 118 109 138 
336 -0.06991990127742503 -0.09563656565464079 1.0437143734252856 0 0 0 0.29 2 336 9 120 16 85 40 46 44 192 50 119 63 17 92 147 93 238 96 29 109 139 
337 0.3010252052154767 -0.08876905714746929 1.029785170381344 0 0 0 0.27 2 337 3 21 4 139 9 121 15 14 19 83 33 163 43 12 44 193 50 120 60 77 61 81 63 18 71 25 77 114 91 40 92 148 93 239 96 30 
338 0.3849339283708506 -0.07150786753804136 1.0283843974584765 0 0 0 0.39 2 338 11 85 17 55 19 84 29 29 33 164 40 47 52 88 60 78 61 82 62 3 77 115 91 41 92 149 118 50 126 14 146 17 163 5 164 40 
339 0.1666770525386685 -0.059816335500728554 1.033575054721376 0 0 0 0.09 2 339 60 79 77 116 109 140 113 72 
340 0.18851717517710362 -0.012249145965941503 1.0215476956729967 0 0 0 0.28 2 340 29 30 60 80 63 19 71 26 85 119 109 141 118 51 
341 0.3983830406643118 0.006896908840240661 1.0170020286882726 0 0 0 0.34 2 341 4 140 15 15 17 56 19 85 33 165 52 89 54 7 60 81 63 20 71 27 73 11 85 120 91 42 103 10 105 30 111 29 118 52 147 6 148 47 162 19 165 9 184 12 
342 0.2177497337269769 0.06840635902898726 1.0010620268559873 0 0 0 0.43 2 342 4 141 11 86 15 16 17 57 43 13 73 12 77 117 92 150 93 240 96 31 111 30 
343 -0.04636292177755725 0.08488559949640041 1.0115377313969793 0 0 0 0.28 2 343 19 86 33 166 93 241 
344 0.15067250262043483 0.09290125502509587 0.9988313513212159 0 0 0 0.3 2 344 9 122 11 87 15 17 44 194 50 121 61 83 92 151 93 242 111 31 
345 0.24404577410290176 0.09369511302767973 1.0002998590271417 0 0 0 0.53 2 345 4 142 11 88 17 58 25 7 33 167 40 48 43 14 44 195 50 122 53 28 61 84 63 21 85 121 91 43 93 243 96 32 105 31 109 142 110 57 111 32 118 53 
346 0.24748839635407388 0.097277348938414 0.996462293047966 0 0 0 0.35 2 346 4 143 11 89 17 59 33 168 43 15 44 196 50 123 53 29 60 82 61 85 63 22 71 28 73 13 77 118 85 122 93 244 103 11 105 32 109 143 110 58 111 33 118 54 
