# 3D point list with one line of data per point:
#   POINT3D_ID, X, Y, Z, R, G, B, ERROR, TRACK[] as (IMAGE_ID, POINT2D_IDX)
# Number of points: 421, mean track length: 7.73
1818 -0.022267652729307447 0.005427603231747006 0.9607447997511241 0 0 0 0.51 57 364 59 490 144 340 151 578 167 1804 
1819 -0.12352880660867284 0.1916370409724388 0.7971064053742009 0 0 0 0.6 57 365 59 491 116 562 125 735 167 1805 180 415 189 325 191 324 218 456 228 616 
1820 -0.12359613403239574 0.1914803086404672 0.7967103874377869 0 0 0 0.64 57 366 59 492 125 736 167 1806 180 416 189 326 191 325 218 457 228 617 
1821 -0.26602692031720077 -0.01635324015873583 0.7295146370226558 0 0 0 0.6 57 367 94 477 125 737 167 1807 212 439 
1822 -0.29535585564584427 0.018971896151869422 0.7475297625498968 0 0 0 0.41 57 368 166 589 167 1808 211 402 
1823 -0.35504970548720766 -0.18990302917106597 0.9420350432455974 0 0 0 0.35 58 553 125 738 153 260 154 506 167 1809 180 417 202 469 
1824 -0.3592782673791254 -0.18706529118135415 0.9471893336556926 0 0 0 0.44 58 554 86 726 166 590 167 1810 202 470 
1825 -0.598028997455355 -0.19375317484302151 0.5212864110370223 0 0 0 0.35 58 555 86 727 125 739 167 1811 
1826 -0.6050192749938066 -0.19031653944465482 0.5211111174675782 0 0 0 0.41 58 556 86 728 125 740 167 1812 
1827 -0.0665711182986325 -0.097239559744075 1.0939997088731765 0 0 0 0.27 58 557 94 478 125 741 167 1813 
1828 -0.18648310514892302 -0.11294425332785248 1.0139473601628202 0 0 0 0.24 58 558 125 742 167 1814 193 517 
1829 -0.11497805996668753 -0.10103291784299707 1.062250828263824 0 0 0 0.29 58 559 116 563 145 115 167 1815 183 147 193 518 228 618 
1830 -0.11752408152945855 -0.0976759108671341 1.050888410494322 0 0 0 0.42 58 560 116 564 167 1816 
1831 -0.30898366618650547 -0.12799562583794763 0.7795298040209891 0 0 0 0.32 58 561 86 729 116 565 125 743 166 591 167 1817 193 519 
1832 -0.12091037469521476 -0.08882814147581353 1.0313812685593842 0 0 0 0.2 58 562 94 479 125 744 150 52 167 1818 193 520 
1833 -0.0081316337547078 -0.06302857734616367 1.0917475063315256 0 0 0 0.24 58 563 116 566 125 745 167 1819 
1834 -0.5068297825533877 -0.15040332929373065 0.6107675214429554 0 0 0 0.31 58 564 86 730 167 1820 
1835 0.03852403838648303 -0.04237138807996461 1.1195770391885007 0 0 0 0.19 116 567 125 746 150 53 151 579 167 1821 
1836 -0.3832763471621946 -0.10163760436346957 0.9691669374219029 0 0 0 0.38 58 565 86 731 144 341 167 1822 
1837 -0.08314557965472338 -0.05225719496754824 1.0096242142963001 0 0 0 0.19 58 566 94 480 116 568 145 116 151 580 167 1823 183 148 193 521 228 619 
1838 -0.5024242469457121 -0.13209692515656846 0.5983746510074116 0 0 0 0.26 58 567 125 747 167 1824 
1839 -0.5256635098799393 -0.12685674823791776 0.6027904305594955 0 0 0 0.28 58 568 86 732 125 748 167 1825 191 326 
1840 -0.4019293641832933 -0.0738127797608482 0.9860855118736308 0 0 0 0.29 58 569 86 733 151 581 153 261 154 507 167 1826 202 471 
1841 -0.5517619619896708 -0.12590477094656571 0.5604466582735095 0 0 0 0.3 58 570 86 734 167 1827 
1842 -0.5878812604575838 -0.13340914242181692 0.5039386653273469 0 0 0 0.24 58 571 86 735 125 749 167 1828 
1843 -0.5878812604575838 -0.13340914242181692 0.5039386653273469 0 0 0 0.24 58 572 86 736 125 750 167 1829 
1844 -0.45742345637931736 -0.10382091311820621 0.6331442196458109 0 0 0 0.26 58 573 59 493 86 737 167 1830 218 458 
1845 -0.5600053575116106 -0.12125226885982918 0.5647282921517544 0 0 0 0.3 58 574 86 738 125 751 167 1831 
1846 -0.38127411341300244 -0.062482565980437874 0.9430932989099259 0 0 0 0.27 58 575 86 739 166 592 167 1832 
1847 -0.4553089436658084 -0.0965214221292833 0.629540544220994 0 0 0 0.38 58 576 86 740 119 160 139 163 167 1833 228 620 
1848 -0.45550994393498223 -0.09644906875236607 0.629495790275459 0 0 0 0.23 58 577 59 494 86 741 125 752 167 1834 218 459 
1849 -0.02443693113897379 -0.007368676600649819 1.0291952972531615 0 0 0 0.19 125 753 154 508 167 1835 
1850 -0.2370211787041911 -0.04483865254349226 0.8654057386328289 0 0 0 0.16 58 578 154 509 167 1836 
1851 -0.02027976309091086 -0.005127922171953062 0.996481610430833 0 0 0 0.44 58 579 116 569 125 754 166 593 167 1837 
1852 -0.5564342829490196 -0.1107104117056533 0.5564310608879167 0 0 0 0.24 58 580 86 742 167 1838 
1853 -0.14063913383428342 -0.02346466337623511 0.9353042374271519 0 0 0 0.14 58 581 86 743 150 54 167 1839 
1854 -0.48473391783760417 -0.09601577824995722 0.5994875611083949 0 0 0 0.27 58 582 59 495 167 1840 
1855 -0.5580540992583417 -0.10842478733597612 0.5536342353553202 0 0 0 0.23 58 583 86 744 125 755 167 1841 
1856 -0.029799761303437644 -0.0012860044078792235 1.0040105461888524 0 0 0 0.3 58 584 86 745 94 481 125 756 145 117 151 582 154 510 167 1842 180 418 218 460 228 621 
1857 -0.5227329953440416 -0.09761255509478073 0.5762426087158069 0 0 0 0.27 58 585 125 757 139 164 167 1843 
1858 -0.5205499769935714 -0.09539708797513068 0.5787911763954352 0 0 0 0.2 58 586 125 758 139 165 167 1844 
1859 -0.47648621015928794 -0.08019144355175267 0.6080572921814561 0 0 0 0.44 58 587 74 11 167 1845 
1860 -0.6102227441191072 -0.11316198162182312 0.4476019566035007 0 0 0 0.11 58 588 125 759 167 1846 
1861 -0.28332537825057474 -0.037454648383250126 0.7420716698608217 0 0 0 0.31 58 589 94 482 166 594 167 1847 228 622 
1862 -0.25448768376146147 -0.025002465698550164 0.7952618491054074 0 0 0 0.2 58 590 145 118 154 511 167 1848 173 168 193 522 226 158 228 623 
1863 -0.2544905921943036 -0.02477724512711008 0.7958499823519397 0 0 0 0.21 58 591 151 583 154 512 167 1849 193 523 218 461 228 624 
1864 -0.10311703812839434 0.0034661460254560134 0.8918794927058902 0 0 0 0.18 58 592 116 570 151 584 167 1850 193 524 
1865 -0.5734912425280653 -0.06218326957250472 0.7212074053121657 0 0 0 1.9 58 593 86 746 167 1851 
1866 -0.5379282652940259 -0.0818151742234474 0.5548860936425537 0 0 0 0.41 58 594 86 747 167 1852 
1867 -0.4480176524875641 -0.061572746480697625 0.6148844247436205 0 0 0 0.18 58 595 86 748 167 1853 228 625 
1868 -0.46106974209848234 -0.06052176233413763 0.6100875032147877 0 0 0 0.33 58 596 59 496 86 749 139 166 167 1854 182 16 191 327 
1869 -0.10326066206813478 0.01564638759927346 0.8927307831298128 0 0 0 0.18 58 597 116 571 167 1855 228 626 
1870 -0.5578372407790212 -0.07866093944513555 0.5395882580364448 0 0 0 0.32 58 598 86 750 125 760 167 1856 
1871 -0.47607210049472476 -0.06140723704975879 0.5954293487691192 0 0 0 0.16 58 599 167 1857 191 328 
1872 -0.49272994906887574 -0.06434615258089639 0.5782142640783222 0 0 0 0.19 58 600 125 761 167 1858 
1873 -0.4597237946513218 -0.05680350286629567 0.6100399851433396 0 0 0 0.29 58 601 74 12 86 751 167 1859 
1874 -0.47178834261723224 -0.05741771419205614 0.5998927932610679 0 0 0 0.18 58 602 86 752 167 1860 170 17 
1875 -0.6660251968349423 -0.10827549316091874 0.37858442264235304 0 0 0 0.28 58 603 74 13 82 24 167 1861 170 18 
1876 -0.4610477826424279 -0.054675803326139666 0.6064689806520573 0 0 0 0.17 58 604 86 753 167 1862 
1877 -0.4610477826424279 -0.054675803326139666 0.6064689806520573 0 0 0 0.17 58 605 86 754 167 1863 
1878 -0.5577445480457872 -0.0737092686648543 0.5386700534850459 0 0 0 0.42 58 606 86 755 167 1864 
1879 -0.5364259204407725 -0.06740213257516905 0.5613722816313147 0 0 0 0.35 58 607 82 25 125 762 167 1865 170 19 
1880 -0.668797902857003 -0.1083850858531635 0.3723328886089159 0 0 0 0.24 58 608 82 26 153 262 167 1866 
1881 -0.6147587993944394 -0.09249350153395601 0.4319864575326762 0 0 0 0.1 58 609 125 763 167 1867 
1882 -0.46717146550461797 -0.05092122123638395 0.6029617061493218 0 0 0 0.3 58 610 125 764 167 1868 170 20 228 627 
1883 -0.5281737809448823 -0.06101749951429898 0.5607924712602825 0 0 0 0.22 58 611 125 765 167 1869 
1884 -0.4911923555414955 -0.05220181171054821 0.5833483356925058 0 0 0 0.2 58 612 125 766 167 1870 170 21 182 17 
1885 -0.6043431652585215 -0.08395531588170292 0.44114775042261734 0 0 0 0.12 58 613 125 767 167 1871 
1886 -0.17741047043016545 0.018373489815136538 0.8355939189546666 0 0 0 0.13 58 614 116 572 154 513 167 1872 193 525 228 628 
1887 -0.7213940181587208 -0.1181973190808284 0.28388858712070175 0 0 0 0.22 58 615 82 27 167 1873 
1888 -0.5101918162351143 -0.053059373244263706 0.567547139529927 0 0 0 0.36 58 616 125 768 139 167 167 1874 191 329 
1889 -0.4847601946525502 -0.046882780747344525 0.5834979839846186 0 0 0 0.14 58 617 86 756 125 769 167 1875 
1890 -0.6926862767707115 -0.1065293999838064 0.3300488237024746 0 0 0 0.17 58 618 82 28 167 1876 
1891 -0.4915001876903927 -0.04707538695323094 0.5825931614419168 0 0 0 0.17 58 619 167 1877 178 198 191 330 
1892 -0.11653419476224838 0.03899090876525125 0.8660035612858766 0 0 0 0.13 58 620 116 573 167 1878 
1893 -0.4764211109560161 -0.03838913821023767 0.5849684307492881 0 0 0 0.23 58 621 59 497 86 757 125 770 139 168 167 1879 191 331 
1894 -0.047897561095283266 0.05446122715583055 0.9038497893475447 0 0 0 0.23 58 622 86 758 94 483 149 189 154 514 167 1880 210 78 216 218 226 159 
1895 -0.04782377297816939 0.05454333718384023 0.9042790933632263 0 0 0 0.36 58 623 86 759 94 484 149 190 154 515 166 595 167 1881 193 526 216 219 226 160 228 629 
1896 -0.7270809931165426 -0.11212709212469427 0.2743692332239341 0 0 0 0.26 58 624 153 263 167 1882 
1897 -0.4910088727339922 -0.03870189478569394 0.5766609621391185 0 0 0 0.28 58 625 86 760 167 1883 
1898 -0.2946458574885708 0.004262682029291887 0.7216203170727967 0 0 0 0.28 58 626 116 574 143 165 167 1884 183 149 216 220 218 462 228 630 
1899 -0.7250750418062137 -0.1101878788866777 0.27388010313699207 0 0 0 0.33 58 627 153 264 167 1885 
1900 -0.532111624043722 -0.031087072021147726 0.5502484425694582 0 0 0 0.15 58 628 125 771 167 1886 191 332 
1901 -0.6021963658067888 -0.053544140506358494 0.4461143046972086 0 0 0 0.1 58 629 86 761 125 772 167 1887 
1902 -0.5851070600927859 -0.04512353074115075 0.47033881498752805 0 0 0 0.22 58 630 86 762 125 773 167 1888 
1903 -0.04837477075169797 0.08357327470120615 0.8888505220171661 0 0 0 0.16 149 191 167 1889 171 269 177 176 
1904 -0.12857604830252478 0.06624920509917197 0.84576480715076 0 0 0 0.4 58 631 94 485 116 575 125 774 167 1890 186 263 193 527 210 79 
1905 -0.49093158418787025 -0.014639270844297237 0.5657644476047783 0 0 0 0.3 58 632 125 775 167 1891 
1906 0.02996754185130819 0.10515223813743847 0.9362114173235734 0 0 0 0.11 116 576 167 1892 210 80 
1907 -0.12308544954615548 0.0820428321725862 0.8364804320549326 0 0 0 0.38 58 633 72 161 94 486 149 192 153 265 167 1893 171 270 210 81 226 161 
1908 -0.28949649675963907 0.04272259376658364 0.7031886658336796 0 0 0 0.2 58 634 116 577 167 1894 193 528 216 221 228 631 
1909 -0.5468449837798797 -0.012942121927892025 0.5297987763838 0 0 0 0.22 58 635 125 776 167 1895 191 333 
1910 -0.5455904524930851 -0.013564323673228938 0.5267782004418727 0 0 0 0.31 58 636 86 763 167 1896 191 334 
1911 -0.4521186476448422 0.01404252225521015 0.5895404757601426 0 0 0 0.22 58 637 125 777 167 1897 191 335 228 632 
1912 -0.41679671463323076 0.029914365800231144 0.606233042147402 0 0 0 0.28 58 638 59 498 167 1898 228 633 
1913 -0.5151326249990323 0.007265365144559487 0.533193096698236 0 0 0 0.12 58 639 125 778 167 1899 
1914 -0.44419415128933043 0.02462258848490035 0.5891879919861999 0 0 0 0.29 58 640 74 14 86 764 125 779 139 169 167 1900 170 22 228 634 
1915 -0.4289680776181196 0.030023962674926144 0.594717995333459 0 0 0 0.35 58 641 119 161 125 780 139 170 167 1901 228 635 
1916 -0.47796142662369445 0.026470499552714122 0.5641624852523415 0 0 0 0.14 58 642 125 781 139 171 167 1902 
1917 -0.5133952514058078 0.01887007752739428 0.5371706164237673 0 0 0 0.08 58 643 86 765 125 782 167 1903 
1918 -0.5131662259243406 0.018742303952520557 0.5365066835315715 0 0 0 0.09 58 644 125 783 167 1904 
1919 -0.4080286399814549 0.042450466907918656 0.6060173128288217 0 0 0 0.3 58 645 125 784 139 172 167 1905 
1920 -0.17421803462047286 0.10882981204626406 0.808450517725244 0 0 0 0.18 58 646 86 766 94 487 167 1906 
1921 -0.4894374729097461 0.026663499568617285 0.5460053877588433 0 0 0 0.09 58 647 86 767 125 785 139 173 167 1907 191 336 
1922 -0.44679375420911305 0.043646632033222034 0.5817762164950901 0 0 0 0.31 58 648 119 162 167 1908 178 199 
1923 -0.5415879285228433 0.02223454877030016 0.5176439140481102 0 0 0 0.18 58 649 86 768 125 786 167 1909 191 337 
1924 -0.6018319889011575 0.009159309329432479 0.44123297304425735 0 0 0 0.27 58 650 74 15 86 769 125 787 153 266 167 1910 
1925 -0.5976371160211085 0.011017839982240282 0.4462433175327202 0 0 0 0.23 58 651 74 16 86 770 125 788 167 1911 
1926 -0.5120539613420808 0.044466483056529164 0.5423223472883352 0 0 0 0.2 58 652 125 789 167 1912 191 338 
1927 -0.20744965919657216 0.12265914598002876 0.7678001187892811 0 0 0 0.13 58 653 161 111 167 1913 171 271 
1928 -0.44354845183414837 0.0587061824849921 0.5731627236503963 0 0 0 0.22 58 654 86 771 125 790 167 1914 191 339 228 636 
1929 -0.4995170419918699 0.04907655594029349 0.5484593058236584 0 0 0 0.14 58 655 125 791 139 174 167 1915 
1930 -0.44354675752753353 0.06359377378008717 0.5720204213669304 0 0 0 0.3 58 656 86 772 125 792 167 1916 228 637 
1931 -0.39842338258541127 0.0784620215448087 0.6042602792321186 0 0 0 0.33 58 657 119 163 125 793 154 516 167 1917 189 327 
1932 -0.5880220953305906 0.028686315974724378 0.4505056497281444 0 0 0 0.12 58 658 125 794 167 1918 
1933 -0.6618654567563647 -0.002145731588739043 0.3383963680813459 0 0 0 0.3 58 659 82 29 167 1919 
1934 -0.04088324741534889 0.18066398901943584 0.8571350282803546 0 0 0 0.3 86 773 153 267 167 1920 177 177 211 403 
1935 -0.7420329673027876 -0.035774440316048664 0.21933180723345103 0 0 0 0.58 58 660 82 30 167 1921 
1936 -0.2230343131446567 0.14671795838977086 0.748116737396005 0 0 0 0.54 58 661 86 774 116 578 125 795 139 175 154 517 161 112 166 596 167 1922 171 272 216 222 218 463 
1937 -0.079918958504457 0.19266747055025765 0.8363700633645497 0 0 0 0.25 58 662 125 796 151 585 154 518 167 1923 
1938 -0.44349554914503225 0.09381548458349805 0.5597833147035799 0 0 0 0.36 58 663 86 775 125 797 139 176 167 1924 191 340 228 638 
1939 -0.49779010354557657 0.07647283115503486 0.507321680511881 0 0 0 0.25 58 664 86 776 125 798 139 177 167 1925 
1940 -0.394904171373392 0.17798691825252874 0.8194104823809222 0 0 0 0.44 58 665 86 777 125 799 166 597 167 1926 212 440 
1941 -0.47374424630915507 0.09357873548571073 0.5202313317907472 0 0 0 0.09 58 666 125 800 167 1927 
1942 -0.6071242481093889 0.05064683716084624 0.3981506141410014 0 0 0 0.32 58 667 125 801 167 1928 
1943 -0.5744680496210026 0.08069383823541781 0.4676089641101959 0 0 0 0.42 58 668 125 802 167 1929 
1944 -0.4454450336005884 0.11285628244898245 0.5491716222184695 0 0 0 0.26 58 669 74 17 125 803 167 1930 228 639 
1945 -0.5550305439762294 0.08585959196066494 0.479299564890176 0 0 0 0.11 58 670 125 804 167 1931 
1946 -0.19733762736655405 0.1855652986830289 0.7401551750035861 0 0 0 0.21 58 671 116 579 166 598 167 1932 211 404 
1947 -0.5098338633162683 0.09736333104247825 0.49684122848686296 0 0 0 0.13 58 672 139 178 167 1933 
1948 -0.47902144960987075 0.10386581880557666 0.512904285430594 0 0 0 0.22 58 673 125 805 139 179 167 1934 191 341 
1949 -0.4860597437308614 0.11752251270474284 0.5168911613914756 0 0 0 0.23 58 674 125 806 139 180 167 1935 
1950 -0.4557660145812545 0.13641871867243516 0.5402349082571892 0 0 0 0.18 58 675 167 1936 228 640 
1951 -0.29406230982034326 0.17906377185900013 0.6382961422705196 0 0 0 0.18 58 676 125 807 151 586 154 519 167 1937 171 273 180 419 191 342 212 441 228 641 
1952 -0.4923487013111458 0.1363731869411251 0.5058720569461679 0 0 0 0.18 58 677 74 18 125 808 167 1938 191 343 
1953 -0.4923594406548792 0.1363963545332972 0.505916180691359 0 0 0 0.17 58 678 74 19 82 31 125 809 139 181 167 1939 191 344 
1954 -0.3055933216341045 0.19573245171815407 0.6499267325628733 0 0 0 0.17 58 679 167 1940 180 420 211 405 
1955 -0.19152550459726986 0.2208347707535176 0.695880859670181 0 0 0 0.12 58 680 116 580 154 520 167 1941 228 642 
1956 -0.4869126796080216 0.15228664677331086 0.5055066545882592 0 0 0 0.18 58 681 125 810 167 1942 191 345 
1957 -0.442008493337433 0.1642940346197358 0.5325110859305946 0 0 0 0.04 58 682 74 20 167 1943 
1958 -0.443688230659633 0.1660360439121006 0.5301524483228383 0 0 0 0.31 58 683 82 32 167 1944 182 18 191 346 228 643 
1959 -0.5206246124079086 0.15168732900261261 0.4840420045598689 0 0 0 0.12 58 684 125 811 167 1945 
1960 -0.41374475190394794 0.17842010217673948 0.5459595893058363 0 0 0 0.41 58 685 82 33 119 164 125 812 139 182 167 1946 228 644 
1961 -0.501138572467741 0.15447374365800356 0.48940443830303615 0 0 0 0.29 58 686 82 34 125 813 139 183 167 1947 170 23 191 347 
1962 -0.48614251989563095 0.16126807648524372 0.49940494686034415 0 0 0 0.1 58 687 74 21 125 814 167 1948 
1963 -0.604578483570186 0.12131823924491919 0.38749485710051196 0 0 0 0.26 58 688 125 815 167 1949 
1964 -0.5707027571103366 0.14817834889227804 0.4405855399249101 0 0 0 0.11 58 689 125 816 167 1950 
1965 0.04830471733128125 -0.23172909384965132 1.2195860442582058 0 0 0 0.42 125 817 151 587 167 1951 183 150 
1966 -0.5972495611985744 -0.19668641432115216 0.5239492914647157 0 0 0 0.29 58 690 86 778 125 818 167 1952 
1967 -0.560103200533175 -0.18481490924832725 0.6507353152215398 0 0 0 0.21 58 691 167 1953 191 348 
1968 -0.03350076486954658 -0.08594437135758583 1.1098367057665166 0 0 0 0.14 125 819 167 1954 228 645 
1969 -0.274166733010205 -0.13125698786089426 0.7904377568179105 0 0 0 0.37 58 692 86 779 125 820 151 588 166 599 167 1955 
1970 -0.15024188327667576 -0.09967663858074152 1.011069160490459 0 0 0 0.33 58 693 59 499 86 780 94 488 116 581 131 171 144 342 153 268 167 1956 173 169 180 421 186 264 193 529 211 406 228 646 
1971 -0.19895874102295902 -0.10157923256646652 0.9959559972538715 0 0 0 0.37 58 694 116 582 167 1957 228 647 
1972 -0.5084443182705068 -0.15360016035004723 0.6095971820096383 0 0 0 0.14 58 695 86 781 167 1958 
1973 -0.5084443182705068 -0.15360016035004723 0.6095971820096383 0 0 0 0.14 58 696 86 782 167 1959 
1974 -0.4909414896544787 -0.14820601527959953 0.6392156822784885 0 0 0 0.4 58 697 86 783 167 1960 
1975 -0.1117700269951904 -0.0730675391703251 1.0294821529415743 0 0 0 0.33 58 698 86 784 94 489 116 583 125 821 166 600 167 1961 183 151 228 648 
1976 -0.537833924008206 -0.14312563665345074 0.6001243191889643 0 0 0 0.22 58 699 86 785 125 822 139 184 167 1962 
1977 -0.3112960827526849 -0.10356001600658624 0.7777975226411208 0 0 0 0.35 58 700 86 786 125 823 154 521 166 601 167 1963 180 422 228 649 
1978 -0.6712230381871195 -0.17404931903911194 0.40034644876996167 0 0 0 0.47 58 701 82 35 167 1964 
1979 -0.24229356792985543 -0.08194230194690867 0.9208096353153671 0 0 0 0.29 58 702 86 787 94 490 167 1965 
1980 -0.585664277162061 -0.15268351057368154 0.5179424442757353 0 0 0 0.26 58 703 86 788 125 824 167 1966 
1981 -0.6700025080224864 -0.17065270499767815 0.4008398030552988 0 0 0 0.33 58 704 82 36 167 1967 170 24 
1982 -0.5240452248630305 -0.1362763449505129 0.6115210146473986 0 0 0 0.31 58 705 86 789 167 1968 191 349 
1983 -0.18752677023169295 -0.07047208978074537 0.9441914482465449 0 0 0 0.27 58 706 125 825 167 1969 211 407 228 650 
1984 -0.5357251970024618 -0.13235209065661702 0.5991680991859308 0 0 0 0.19 58 707 139 185 167 1970 191 350 
1985 -0.5469322646075689 -0.1336529650220821 0.5634858100812192 0 0 0 0.27 58 708 86 790 125 826 167 1971 
1986 -0.53756399656897 -0.130049838518078 0.5933707189990981 0 0 0 0.28 58 709 86 791 125 827 167 1972 191 351 
1987 0.022503500114892952 -0.024008548004248446 1.072265912063453 0 0 0 0.23 94 491 116 584 125 828 167 1973 177 178 228 651 
1988 -0.6076833339329801 -0.14732270372384487 0.48204597722074916 0 0 0 0.49 58 710 86 792 167 1974 
1989 -0.48661080962306974 -0.11833716262718907 0.6295789900899632 0 0 0 0.23 58 711 59 500 125 829 167 1975 191 352 
1990 -0.45851071490472245 -0.11280587013446859 0.6360383320083823 0 0 0 0.45 58 712 59 501 125 830 167 1976 178 200 191 353 
1991 -0.4138325572734867 -0.07616632511968945 0.9880993861347623 0 0 0 0.44 58 713 59 502 151 589 167 1977 178 201 
1992 -0.6134844072015974 -0.14035084379370447 0.452655845590591 0 0 0 0.09 58 714 86 793 167 1978 
1993 -0.6033753523003462 -0.13657099061054245 0.47874814613131406 0 0 0 0.25 58 715 86 794 125 831 167 1979 
1994 -0.4972853985988117 -0.11261403037871412 0.5891751362036584 0 0 0 0.27 58 716 125 832 139 186 167 1980 178 202 191 354 
1995 -0.49023633339065265 -0.10994563135075669 0.598685885819939 0 0 0 0.38 58 717 86 795 125 833 167 1981 
1996 -0.588345510073111 -0.12910571115188493 0.5031761242913915 0 0 0 0.33 58 718 86 796 125 834 167 1982 
1997 -0.4098399221933748 -0.05906120467534866 0.9615942567096569 0 0 0 0.33 58 719 59 503 86 797 125 835 139 187 144 343 151 590 166 602 167 1983 178 203 186 265 202 472 211 408 212 442 228 652 
1998 -0.486523440104314 -0.1029692175042436 0.6022615423648762 0 0 0 0.29 58 720 86 798 167 1984 
1999 -0.5216527937052757 -0.10678674087226353 0.5674318933807883 0 0 0 0.22 58 721 86 799 125 836 139 188 167 1985 
2000 -0.5443649398729676 -0.1085382258455509 0.5591567908065445 0 0 0 0.19 58 722 86 800 167 1986 
2001 -0.5091940290918396 -0.09980601548703728 0.5891086614568684 0 0 0 0.39 58 723 82 37 86 801 125 837 139 189 167 1987 170 25 182 19 
2002 -0.47340713998350764 -0.09515908508726917 0.5992774767572374 0 0 0 0.33 58 724 125 838 167 1988 191 355 
2003 -0.46699423343309876 -0.08941708992938843 0.6088486688731098 0 0 0 0.37 58 725 59 504 86 802 102 88 167 1989 178 204 228 653 
2004 -0.49282232616466376 -0.09164454654874007 0.5963663370306462 0 0 0 0.27 58 726 59 505 86 803 125 839 139 190 167 1990 178 205 
2005 -0.48449448637546544 -0.08869995937418838 0.5979896358469281 0 0 0 0.35 58 727 86 804 167 1991 
2006 -0.454647468452102 -0.08350153066346147 0.6184277921607904 0 0 0 0.1 58 728 86 805 167 1992 
2007 -0.024972629035489274 0.005982347357534768 0.9952876696720858 0 0 0 0.34 58 729 166 603 167 1993 177 179 
2008 -0.5683166756080983 -0.1040571728139333 0.5292311409708955 0 0 0 0.2 58 730 86 806 125 840 167 1994 
2009 -0.540422159035892 -0.09743802530055878 0.5546752826342368 0 0 0 0.46 58 731 86 807 125 841 167 1995 
2010 -0.25821884538735407 -0.03423700717410057 0.8027906216163325 0 0 0 0.49 58 732 59 506 86 808 116 585 144 344 151 591 154 522 167 1996 193 530 202 473 
2011 -0.5679921121662123 -0.09350990715148726 0.5337277760078526 0 0 0 0.46 58 733 125 842 167 1997 
2012 -0.12905781314039502 -0.005029664941105406 0.8795307659289355 0 0 0 0.6 58 734 167 1998 218 464 
2013 -0.5538228465735907 -0.0799051964686075 0.5502379807896676 0 0 0 0.17 58 735 86 809 125 843 167 1999 
2014 -0.6009804322694137 -0.0950313356704541 0.47309918953792707 0 0 0 0.29 58 736 74 22 86 810 167 2000 170 26 
2015 -0.22958088421750467 -0.008832548611379465 0.8157704635622487 0 0 0 0.22 58 737 86 811 167 2001 
2016 -0.21519779073123285 -0.006180204484871306 0.8208725967375816 0 0 0 0.22 58 738 167 2002 211 409 
2017 -0.4852516812737479 -0.06389787960586428 0.5920893772009784 0 0 0 0.17 58 739 59 507 125 844 139 191 167 2003 191 356 
2018 -0.48180063313068566 -0.061852925831407536 0.5979492081393575 0 0 0 0.25 58 740 125 845 167 2004 
2019 -0.48254484128926134 -0.05974859295339611 0.5935867264771838 0 0 0 0.39 58 741 59 508 74 23 82 38 86 812 125 846 139 192 167 2005 170 27 182 20 191 357 
2020 -0.5481694323108387 -0.06785297668723125 0.549393043691244 0 0 0 0.27 58 742 86 813 167 2006 
2021 -0.010176344787055213 0.04272274658191346 0.943698455376306 0 0 0 0.21 125 847 151 592 167 2007 211 410 228 654 
2022 -0.5133242927419429 -0.059953615290321276 0.5739935547957932 0 0 0 0.38 58 743 125 848 139 193 167 2008 191 358 
2023 0.011830247395738864 0.04732953062726675 0.9557199755634956 0 0 0 0.19 94 492 116 586 125 849 167 2009 183 152 216 223 228 655 
2024 -0.5158379170963262 -0.06094066643983795 0.5656705936329578 0 0 0 0.22 58 744 86 814 125 850 139 194 167 2010 191 359 
2025 -0.6026255666145565 -0.0862367905119006 0.44315007576030496 0 0 0 0.19 58 745 86 815 125 851 167 2011 
2026 -0.465881214751273 -0.047748593950712535 0.599812846970852 0 0 0 0.06 58 746 59 509 167 2012 
2027 -0.1407498144607499 0.02705009153700999 0.8592126886563984 0 0 0 0.34 58 747 86 816 150 55 161 113 167 2013 
2028 -0.6284766207078558 -0.08377247430399158 0.41986119397533755 0 0 0 0.34 58 748 74 24 82 39 167 2014 
2029 -0.38582553787729157 0.014328620900112126 0.8789532066947185 0 0 0 0.26 58 749 59 510 151 593 167 2015 178 206 180 423 189 328 202 474 228 656 
2030 -0.3860498766491173 0.014773562750836931 0.8811447849699924 0 0 0 0.15 58 750 59 511 167 2016 
2031 -0.6007161664226421 -0.07041930228840203 0.4491474409941336 0 0 0 0.24 58 751 86 817 167 2017 
2032 -0.6438776866366638 -0.07836006021567596 0.40113933128127943 0 0 0 0.37 58 752 82 40 167 2018 
2033 -0.28968033809626964 0.01783239445239285 0.7142052877039909 0 0 0 0.15 58 753 86 818 167 2019 216 224 228 657 
2034 -0.28942478034422703 0.017486563468417593 0.7126618160429274 0 0 0 0.22 58 754 86 819 94 493 102 89 116 587 125 852 131 172 139 195 167 2020 193 531 228 658 
2035 -0.4062215614165717 0.0019325171974658765 0.6278911182827644 0 0 0 0.32 58 755 154 523 167 2021 228 659 
2036 -0.12211064033499143 0.06920544037364601 0.843244190236907 0 0 0 0.19 58 756 116 588 125 853 154 524 167 2022 228 660 
2037 -0.1818316528108787 0.06090574126884633 0.8268765972071248 0 0 0 0.21 58 757 94 494 116 589 125 854 143 166 151 594 167 2023 189 329 193 532 
2038 -0.5283436949392308 -0.021165071218078303 0.5455130498024675 0 0 0 0.23 58 758 86 820 125 855 139 196 167 2024 191 360 
2039 -0.549004479431938 -0.01613282240401421 0.5316392796778326 0 0 0 0.23 58 759 74 25 82 41 86 821 125 856 167 2025 170 28 191 361 
2040 -0.5432780759701022 -0.016223231699496098 0.5298364355038828 0 0 0 0.15 58 760 125 857 167 2026 191 362 
2041 -0.5252794593994442 -0.011565869245442199 0.5421980248993913 0 0 0 0.19 58 761 139 197 167 2027 
2042 -0.5128861468211968 -0.008823259686624672 0.5523356233190067 0 0 0 0.35 58 762 82 42 125 858 139 198 167 2028 170 29 191 363 
2043 -0.2576089831122028 0.05718264983868005 0.7727528244103522 0 0 0 0.34 58 763 86 822 151 595 166 604 167 2029 218 465 
2044 -0.4630252445689018 0.004039812217812436 0.5837000975360386 0 0 0 0.17 58 764 59 512 102 90 125 859 167 2030 170 30 191 364 
2045 -0.46297609692086567 0.003989056789404636 0.583673321262475 0 0 0 0.15 58 765 59 513 125 860 167 2031 170 31 191 365 228 661 
2046 -0.5505296701179212 -0.014604787159631781 0.5247252642899631 0 0 0 0.16 58 766 125 861 167 2032 
2047 -0.5880180348933435 -0.025344799744580735 0.4740627367620348 0 0 0 0.25 58 767 125 862 167 2033 
2048 -0.5492613591623476 -0.007660484052398014 0.5291898909075378 0 0 0 0.3 58 768 86 823 125 863 167 2034 170 32 191 366 
2049 -0.5187125487368557 -0.00219222232462409 0.5428996668275593 0 0 0 0.36 58 769 125 864 139 199 167 2035 
2050 -0.4056606643601348 0.02333921929652581 0.6191128747599607 0 0 0 0.36 58 770 59 514 86 824 125 865 167 2036 228 662 
2051 -0.5391366922854076 -0.00501886470420442 0.5288620790730763 0 0 0 0.08 58 771 167 2037 191 367 
2052 -0.5867801072264718 -0.02052079499188702 0.46839531607451873 0 0 0 0.29 58 772 125 866 167 2038 
2053 -0.474939556727233 0.010432581298744732 0.5740689088193996 0 0 0 0.14 58 773 86 825 167 2039 191 368 
2054 -0.4748478458164809 0.01041163793517228 0.5737114572122924 0 0 0 0.17 58 774 59 515 86 826 167 2040 191 369 
2055 -0.5506391930211358 -0.005011704827741167 0.5248365018719987 0 0 0 0.11 58 775 86 827 167 2041 191 370 
2056 -0.517322527596661 0.0018050483530815328 0.5409150548771118 0 0 0 0.09 58 776 86 828 125 867 139 200 167 2042 
2057 -0.48701134951230246 0.008465395740767333 0.5546625485831005 0 0 0 0.12 58 777 86 829 125 868 167 2043 
2058 -0.3920291296056312 0.03534001995664789 0.6367025875543555 0 0 0 0.19 58 778 59 516 86 830 167 2044 
2059 -0.41962772290867417 0.02758950788425032 0.6076084590657591 0 0 0 0.3 58 779 86 831 167 2045 
2060 -0.5952462482523113 -0.014665598523745622 0.46511160092921694 0 0 0 0.16 58 780 125 869 167 2046 
2061 -0.43986526877661125 0.02374157727054832 0.5854453177018979 0 0 0 0.55 58 781 59 517 167 2047 228 663 
2062 -0.43309679665628964 0.030161969028453823 0.5961818110255922 0 0 0 0.3 58 782 59 518 82 43 139 201 167 2048 218 466 228 664 
2063 -0.44071478697947775 0.03011094167979686 0.5870482386194029 0 0 0 0.29 58 783 125 870 167 2049 
2064 -0.5340460028093216 0.011069804974688076 0.5265445698427493 0 0 0 0.25 58 784 82 44 86 832 125 871 167 2050 
2065 -0.2254977788645397 0.09413771989646555 0.7856027992942689 0 0 0 0.11 58 785 86 833 167 2051 
2066 -0.44442219345045897 0.033038847733019266 0.5865947987015488 0 0 0 0.35 58 786 59 519 86 834 125 872 167 2052 178 207 228 665 
2067 -0.5633046191063986 0.007116991744852429 0.5002734717053458 0 0 0 0.05 58 787 125 873 167 2053 
2068 -0.48824291838130246 0.0243412274587162 0.5507316871316102 0 0 0 0.12 58 788 125 874 167 2054 
2069 -0.48757549064545946 0.02370297891511995 0.548510229389686 0 0 0 0.21 58 789 86 835 125 875 139 202 167 2055 178 208 191 371 
2070 -0.4042339910919107 0.0528602260675854 0.6016278653419805 0 0 0 0.33 58 790 125 876 139 203 154 525 167 2056 178 209 189 330 191 372 211 411 218 467 228 666 
2071 -0.39962680241610965 0.0550753075906977 0.6103256478612762 0 0 0 0.19 58 791 59 520 167 2057 211 412 
2072 -0.4737596369344004 0.039328394971555033 0.5601949272320552 0 0 0 0.02 58 792 167 2058 191 373 
2073 -0.45293631534141826 0.043601280228659715 0.5712795499678438 0 0 0 0.09 58 793 86 836 167 2059 191 374 228 667 
2074 -0.5605482605961215 0.019985855272572184 0.5034564692827336 0 0 0 0.13 58 794 125 877 167 2060 191 375 
2075 -0.4902671502780046 0.03690091220711411 0.5479726484019442 0 0 0 0.18 58 795 86 837 125 878 139 204 167 2061 191 376 
2076 -0.09228057453933942 0.14078977564979708 0.8423748540102957 0 0 0 0.26 58 796 99 96 116 590 125 879 167 2062 171 274 
2077 -0.4934246625549454 0.0427932401653555 0.5456514152951065 0 0 0 0.16 58 797 86 838 125 880 167 2063 191 377 
2078 -0.4765352389261099 0.04849905756608615 0.5548379041793092 0 0 0 0.21 58 798 59 521 86 839 125 881 167 2064 170 33 178 210 191 378 
2079 -0.4905848108387957 0.04584049928545053 0.5450273967097039 0 0 0 0.18 58 799 86 840 125 882 167 2065 178 211 191 379 
2080 -0.5834341338288163 0.018675634180424908 0.46012889054336614 0 0 0 0.13 58 800 86 841 125 883 167 2066 
2081 -0.0762256769987077 0.15437862310443165 0.8493451292124838 0 0 0 0.2 58 801 59 522 99 97 116 591 167 2067 189 331 193 533 210 82 228 668 
2082 -0.43823339637526665 0.06255109666860816 0.5756091079147836 0 0 0 0.17 58 802 86 842 167 2068 191 380 
2083 -0.5715758159370264 0.03821942823803384 0.4843688146883396 0 0 0 0.32 58 803 86 843 167 2069 
2084 -0.6146140243927695 0.020378523025814103 0.4103797180052052 0 0 0 0.08 58 804 125 884 167 2070 
2085 -0.6393892271294046 0.009424547668807197 0.3715983104639569 0 0 0 0.22 58 805 74 26 167 2071 
2086 -0.5289583391567731 0.05720424555333374 0.5166889456261706 0 0 0 0.22 58 806 125 885 167 2072 191 381 
2087 -0.7211595933586198 -0.024033180628755334 0.24641300666851915 0 0 0 0.18 58 807 167 2073 170 34 
2088 -0.44364701041635524 0.08485055339478424 0.5648895595298825 0 0 0 0.2 58 808 59 523 167 2074 
2089 -0.44390348830334814 0.09021925072244409 0.5633988351367374 0 0 0 0.34 58 809 125 886 167 2075 
2090 -0.5615633748528608 0.06058798059461641 0.4829467253468963 0 0 0 0.34 58 810 86 844 167 2076 
2091 -0.5615633748528608 0.06058798059461641 0.4829467253468963 0 0 0 0.34 58 811 86 845 167 2077 
2092 -0.20593784652761785 0.15993736068130135 0.7569288625528394 0 0 0 0.29 58 812 151 596 161 114 167 2078 
2093 -0.5624756386809463 0.05944836911871936 0.4726907730577808 0 0 0 0.12 58 813 125 887 167 2079 
2094 -0.15588075667099138 0.17355465726002103 0.7873285822950341 0 0 0 0.19 94 495 116 592 125 888 149 193 151 597 167 2080 180 424 189 332 193 534 218 468 228 669 
2095 -0.4874916545761594 0.0790082386726139 0.5161742144360791 0 0 0 0.2 58 814 86 846 125 889 139 205 167 2081 
2096 -0.4818181236978566 0.08005667754766489 0.5184890935448029 0 0 0 0.07 58 815 86 847 167 2082 
2097 -0.4818181236978566 0.08005667754766489 0.5184890935448029 0 0 0 0.07 58 816 86 848 167 2083 
2098 -0.5022903124641174 0.07603244460135018 0.5062024566324993 0 0 0 0.11 58 817 125 890 139 206 167 2084 191 382 
2099 -0.5025477019417199 0.07626106116115018 0.5068434606451041 0 0 0 0.15 58 818 86 849 125 891 139 207 167 2085 191 383 
2100 -0.49217332075058295 0.08112243088811488 0.5174180681110073 0 0 0 0.41 58 819 86 850 167 2086 
2101 -0.5507259054988153 0.07311762986664591 0.49273907043725074 0 0 0 0.39 58 820 167 2087 170 35 
2102 -0.4611748006923402 0.0967417514097745 0.5560596291565121 0 0 0 0.41 58 821 59 524 125 892 139 208 167 2088 
2103 -0.49188228875806983 0.08270168053649374 0.5092881368095353 0 0 0 0.24 58 822 86 851 125 893 167 2089 191 384 
2104 -0.4439625638065521 0.09972912757741788 0.5584899817470599 0 0 0 0.29 58 823 59 525 86 852 139 209 167 2090 228 670 
2105 -0.5714765910818098 0.06977145001944245 0.4730936149106454 0 0 0 0.18 58 824 86 853 167 2091 
2106 -0.586424377416415 0.05799472074053754 0.43596946512995133 0 0 0 0.29 58 825 125 894 167 2092 
2107 -0.4054072318256297 0.11380392660791601 0.5862383420647239 0 0 0 0.18 58 826 59 526 167 2093 
2108 -0.18424136488698928 0.18161199698316705 0.7597203774383643 0 0 0 0.21 125 895 144 345 151 598 154 526 166 605 167 2094 193 535 218 469 226 162 228 671 
2109 -0.566021244587507 0.07668482805543508 0.4658417975721887 0 0 0 0.26 58 827 125 896 167 2095 
2110 -0.4437883350734279 0.1121757188423392 0.5536545223857785 0 0 0 0.06 58 828 125 897 167 2096 
2111 -0.4733257435987937 0.10656395209942741 0.5325196842663542 0 0 0 0.39 58 829 82 45 139 210 167 2097 170 36 182 21 
2112 -0.38847131259500234 0.13919419216486784 0.5845045326078726 0 0 0 0.13 58 830 154 527 167 2098 
2113 -0.5665866731761517 0.08507797633679962 0.4298998558575648 0 0 0 0.25 58 831 125 898 167 2099 
2114 -0.47431256563341934 0.1255878416356729 0.5280040107106697 0 0 0 0.16 58 832 167 2100 178 212 
2115 -0.44290665961535736 0.13587920106066126 0.5422494311465266 0 0 0 0.4 58 833 59 527 125 899 167 2101 191 385 228 672 
2116 -0.5844468747995274 0.09366427022824157 0.41459957893059607 0 0 0 0.37 58 834 125 900 167 2102 
2117 -0.579346484521103 0.09837918927855968 0.4248192181697816 0 0 0 0.2 58 835 74 27 167 2103 
2118 -0.19806318023367067 0.20861356458641117 0.6994679876667319 0 0 0 0.23 58 836 167 2104 171 275 180 425 
2119 -0.576583951581616 0.10184301655586446 0.4336157348075218 0 0 0 0.12 58 837 125 901 167 2105 
2120 -0.5565658243020704 0.11844009194220156 0.4717821574431236 0 0 0 0.32 58 838 125 902 167 2106 
2121 -0.1323918538462792 0.22929886403614125 0.7371330134044065 0 0 0 0.34 58 839 154 528 167 2107 171 276 216 225 228 673 
2122 -0.20733693802366462 0.21298590398126338 0.6866900726565409 0 0 0 0.36 58 840 102 91 125 903 166 606 167 2108 211 413 228 674 
2123 -0.20082364641859246 0.2157993875775291 0.6926087484539405 0 0 0 0.19 58 841 116 593 167 2109 228 675 
2124 -0.6038171628080429 0.093753688765877 0.3887686175095503 0 0 0 0.23 58 842 125 904 167 2110 
2125 -0.5711818963794378 0.11857735601282365 0.4491725291947983 0 0 0 0.1 58 843 167 2111 170 37 
2126 -0.559919222670362 0.11866173441501951 0.4486404650225738 0 0 0 0.34 58 844 125 905 167 2112 
2127 -0.5913891902454307 0.10953356358824906 0.41682289900268293 0 0 0 0.14 58 845 125 906 167 2113 
2128 -0.6415338691850612 0.07968258629238387 0.33844215577682996 0 0 0 0.14 58 846 82 46 167 2114 
2129 -0.5210589550409285 0.1392488035747337 0.49123105074216405 0 0 0 0.19 58 847 125 907 167 2115 
2130 -0.5006974230878426 0.14185236722146108 0.4923631297256365 0 0 0 0.28 58 848 74 28 139 211 167 2116 
2131 -0.37867852899888116 0.1785330904233702 0.5685129350992549 0 0 0 0.2 58 849 119 165 167 2117 228 676 
2132 -0.4809686713413666 0.15332564844916657 0.5080593574989064 0 0 0 0.17 58 850 74 29 125 908 139 212 167 2118 191 386 
2133 -0.49659291609327155 0.15117756205970975 0.49558175359841783 0 0 0 0.14 58 851 125 909 167 2119 
2134 -0.3994362767914868 0.18350930257253192 0.5539237252694212 0 0 0 0.27 58 852 167 2120 218 470 228 677 
2135 -0.42132196170054054 0.17909137984525692 0.5434292955381994 0 0 0 0.43 58 853 102 92 119 166 125 910 139 213 167 2121 218 471 228 678 
2136 -0.5703808976272676 0.13913962026057491 0.44329995815322776 0 0 0 0.1 58 854 125 911 167 2122 
2137 -0.5945147909366693 0.12615979093161714 0.4106056950214034 0 0 0 0.1 58 855 125 912 167 2123 
2138 -0.5061566531265046 0.1606285161930187 0.4876533502082026 0 0 0 0.22 58 856 167 2124 191 387 
2139 -0.48420728170903954 0.1662026877673109 0.4997215009713054 0 0 0 0.28 58 857 74 30 139 214 167 2125 191 388 
2140 -0.5194060802799945 0.15768083551559697 0.47831519037194736 0 0 0 0.19 58 858 167 2126 170 38 
2141 -0.5708966197903989 0.14473812343060255 0.4425041418101735 0 0 0 0.18 58 859 125 913 167 2127 
2142 -0.5713627013147072 0.15346471913616333 0.44013613706692273 0 0 0 0.11 58 860 125 914 167 2128 
2143 0.04843346859106671 -0.2412405474112767 1.2517629697527992 0 0 0 0.31 86 854 94 496 116 594 154 529 161 115 167 2129 212 443 
2144 -0.17973215569930168 -0.12022663610280208 1.017720529688867 0 0 0 0.42 58 861 86 855 116 595 125 915 167 2130 193 536 
2145 -0.21559812640002896 -0.12207792823334992 0.9869432274004372 0 0 0 0.33 58 862 125 916 167 2131 178 213 211 414 
2146 -0.2945550173723935 -0.11292145208523482 0.7747523152451207 0 0 0 0.49 58 863 125 917 166 607 167 2132 193 537 
2147 -0.5888781283330348 -0.16499941989083666 0.5252024951830886 0 0 0 0.29 58 864 86 856 167 2133 
2148 -0.5024751547802225 -0.14868842743644778 0.6097166252327403 0 0 0 0.4 58 865 86 857 167 2134 
2149 -0.26145079711537295 -0.09667784537269913 0.9105327060588405 0 0 0 0.23 58 866 94 497 116 596 167 2135 193 538 
2150 -0.18866161433717726 -0.08320370255092797 0.9707172981176617 0 0 0 0.24 58 867 119 167 154 530 167 2136 186 266 228 679 
2151 -0.15362532754011587 -0.05429126396515489 0.9637565244536315 0 0 0 0.37 58 868 59 528 167 2137 178 214 
2152 -0.60669179521091 -0.13894669962525982 0.4777600533999506 0 0 0 0.26 58 869 125 918 167 2138 
2153 -0.6175660137531415 -0.1414056347504542 0.4505398529922851 0 0 0 0.02 58 870 86 858 167 2139 
2154 -0.5561885793874319 -0.12017632268964976 0.5658772586337772 0 0 0 0.27 58 871 86 859 125 919 167 2140 
2155 -0.5484375625747394 -0.11908002937739329 0.5620895820024319 0 0 0 0.2 58 872 86 860 167 2141 191 389 
2156 -0.4821792071365028 -0.10477115640832776 0.6212321310982173 0 0 0 0.4 58 873 59 529 86 861 167 2142 
2157 -0.6086112970249612 -0.13158028311810224 0.47180768427629177 0 0 0 0.07 58 874 125 920 167 2143 
2158 -0.5582311240721071 -0.1147057527534724 0.5570443828515397 0 0 0 0.39 58 875 86 862 125 921 167 2144 
2159 -0.5463025257848557 -0.11354783643689563 0.5521495597752855 0 0 0 0.13 58 876 86 863 167 2145 191 390 
2160 -0.5829996730036643 -0.11867545701887525 0.5156001805027546 0 0 0 0.03 58 877 86 864 167 2146 
2161 -0.5731720058606188 -0.11329689427753792 0.5218876249571154 0 0 0 0.19 58 878 86 865 167 2147 
2162 -0.49293268386431927 -0.09646722463984314 0.5924715546223758 0 0 0 0.19 58 879 86 866 167 2148 
2163 -0.5099707715681012 -0.09507023677975972 0.5789833262773223 0 0 0 0.21 58 880 86 867 167 2149 
2164 -0.5617656933100657 -0.08399352364519048 0.5462115454914512 0 0 0 0.34 58 881 125 922 167 2150 
2165 -0.17212483031237402 0.008241163565193058 0.8428859327060043 0 0 0 0.25 58 882 86 868 90 40 144 346 167 2151 218 472 
2166 -0.14978066088399858 0.015054946753265784 0.8645754845991467 0 0 0 0.37 58 883 86 869 94 498 116 597 151 599 167 2152 193 539 212 444 228 680 
2167 -0.5714344304764981 -0.07548009475475598 0.49517643649964593 0 0 0 0.16 58 884 86 870 167 2153 
2168 -0.027737053702950192 0.042609307718455204 0.9302749426831589 0 0 0 0.29 58 885 86 871 116 598 151 600 167 2154 183 153 193 540 211 415 212 445 218 473 228 681 
2169 -0.7189132182896738 -0.11891252076453503 0.28703143850909085 0 0 0 0.32 58 886 82 47 167 2155 
2170 -0.7389623603758134 -0.1201029746984606 0.2596240949403432 0 0 0 0.3 58 887 153 269 167 2156 
2171 -0.11437977857513959 0.06225387142445438 0.8582721150580349 0 0 0 0.28 58 888 59 530 86 872 166 608 167 2157 183 154 189 333 211 416 226 163 
2172 -0.6945937407389168 -0.08420267750223388 0.31608207252695936 0 0 0 0.15 58 889 82 48 167 2158 170 39 
2173 -0.4047695049522292 0.0075955746566899835 0.6280349144764564 0 0 0 0.21 58 890 167 2159 202 475 211 417 
2174 -0.4047695049522292 0.0075955746566899835 0.6280349144764564 0 0 0 0.21 58 891 167 2160 202 476 211 418 
2175 -0.6629486460150527 -0.06529037067842061 0.3623780656647378 0 0 0 0.11 58 892 74 31 167 2161 
2176 -0.5700953123423533 -0.023882783923955285 0.5069585993325377 0 0 0 0.05 58 893 86 873 167 2162 
2177 -0.5331026931792922 -0.012021778656028416 0.542544498904104 0 0 0 0.42 58 894 86 874 167 2163 170 40 191 391 
2178 -0.5536475190435196 -0.01712939523118788 0.5224606318087845 0 0 0 0.26 58 895 167 2164 191 392 
2179 -0.4656753482670833 0.01196418591550009 0.5758653672450706 0 0 0 0.18 58 896 86 875 139 215 167 2165 191 393 
2180 -0.4174918585768614 0.026222296249467904 0.6123618021532196 0 0 0 0.16 58 897 59 531 86 876 125 923 167 2166 202 477 228 682 
2181 -0.5679329171651252 -0.006925137024124757 0.5038058237409837 0 0 0 0.41 58 898 74 32 125 924 167 2167 191 394 
2182 -0.5646477955790397 -0.004811552240658782 0.5072084048513887 0 0 0 0.19 58 899 125 925 167 2168 191 395 
2183 -0.5689390968898287 -0.004539018593137026 0.49714100316621984 0 0 0 0.25 58 900 86 877 167 2169 191 396 
2184 -0.3920450687650861 0.03978248225346103 0.6232049463455445 0 0 0 0.18 58 901 59 532 119 168 125 926 167 2170 191 397 202 478 211 419 
2185 -0.39177014168197116 0.0394745541504079 0.6217978281585159 0 0 0 0.12 58 902 59 533 86 878 167 2171 211 420 
2186 -0.5376141929509244 0.006796759543660887 0.520920418043613 0 0 0 0.22 58 903 86 879 125 927 167 2172 191 398 
2187 -0.49239491466115587 0.020718047852529373 0.5484137063949682 0 0 0 0.35 58 904 86 880 125 928 167 2173 
2188 -0.4164162324693297 0.03922541642825409 0.604810266154958 0 0 0 0.27 58 905 59 534 86 881 125 929 151 601 167 2174 178 215 191 399 193 541 212 446 228 683 
2189 -0.17503618426411444 0.10474122526635168 0.8130100810179578 0 0 0 0.17 58 906 86 882 154 531 167 2175 189 334 202 479 212 447 226 164 
2190 -0.4399224173184516 0.03476737767363487 0.5826880206619537 0 0 0 0.31 58 907 59 535 86 883 102 93 125 930 139 216 167 2176 178 216 
2191 -0.5181629398598728 0.01964668008997629 0.531534681971879 0 0 0 0.06 58 908 86 884 167 2177 
2192 -0.6171381839052129 -0.012169027928381341 0.4177564044353184 0 0 0 0.12 58 909 125 931 167 2178 
2193 -0.5462287947221168 0.019833578217995758 0.522806645598663 0 0 0 0.24 58 910 125 932 167 2179 191 400 
2194 -0.5354745283121822 0.02176367865369359 0.5250758805306297 0 0 0 0.27 58 911 125 933 167 2180 
2195 -0.0849621949397728 0.13292865754295435 0.8546143906834545 0 0 0 0.32 58 912 72 162 125 934 166 609 167 2181 173 170 180 426 189 335 211 421 
2196 -0.527509302216113 0.026651103958216266 0.5253761749925313 0 0 0 0.16 58 913 86 885 125 935 167 2182 
2197 -0.5704894338858504 0.0185999569836622 0.49211668959791327 0 0 0 0.19 58 914 86 886 167 2183 191 401 
2198 -0.44771383448846674 0.04794774812432676 0.5765920031256685 0 0 0 0.13 58 915 69 16 86 887 167 2184 191 402 
2199 -0.5752697795730496 0.02003382449770862 0.48130093034023747 0 0 0 0.19 58 916 125 936 167 2185 
2200 -0.5131544087695638 0.038517057187175324 0.5364181564557431 0 0 0 0.35 58 917 86 888 125 937 167 2186 
2201 -0.6181769779302031 0.002207943215626525 0.416233183619614 0 0 0 0.24 58 918 125 938 167 2187 
2202 -0.6181769779302031 0.002207943215626525 0.416233183619614 0 0 0 0.24 58 919 125 939 167 2188 
2203 -0.44705238700102945 0.05504924569465373 0.5720535306169224 0 0 0 0.25 58 920 125 940 139 217 167 2189 191 403 228 684 
2204 -0.603283241894559 0.012351184609302499 0.44170475192685477 0 0 0 0.21 58 921 125 941 167 2190 
2205 -0.576559426653947 0.023386936420589158 0.4783913905185801 0 0 0 0.18 58 922 69 17 125 942 167 2191 
2206 -0.5741120498682568 0.024978149902181824 0.48392571092320125 0 0 0 0.14 58 923 82 49 125 943 167 2192 
2207 -0.5954126516042553 0.016778080501287575 0.4530932994825489 0 0 0 0.19 58 924 125 944 167 2193 
2208 -0.49534656939507266 0.048141004326763576 0.5473118374960051 0 0 0 0.24 58 925 86 889 125 945 139 218 167 2194 191 404 
2209 -0.5754801543966335 0.03076405271869265 0.48821692380121934 0 0 0 0.37 58 926 86 890 125 946 167 2195 
2210 0.009219255011010044 0.17552304795777982 0.9016973082804972 0 0 0 0.2 86 891 90 41 94 499 116 599 154 532 167 2196 177 180 212 448 
2211 -0.5917726792011078 0.02841971569298261 0.44898731299229677 0 0 0 0.12 58 927 125 947 167 2197 
2212 -0.6411488705951331 0.005297633527564398 0.3703827223537022 0 0 0 0.29 58 928 82 50 167 2198 
2213 -0.6667636196735456 -0.005801841635278632 0.3302016769996422 0 0 0 0.28 58 929 74 33 82 51 167 2199 170 41 
2214 -0.730190441897901 -0.030820295001998694 0.23688702775625098 0 0 0 0.3 58 930 82 52 167 2200 
2215 -0.4192391604240318 0.10935705208729193 0.574363519008401 0 0 0 0.23 58 931 59 536 74 34 125 948 167 2201 228 685 
2216 -0.4682521492580468 0.10848064249360288 0.5364940019091384 0 0 0 0.28 58 932 82 53 125 949 139 219 167 2202 178 217 191 405 228 686 
2217 -0.46075856612658195 0.11062632303953905 0.5412042805193134 0 0 0 0.13 58 933 74 35 125 950 167 2203 178 218 191 406 228 687 
2218 -0.5358807252926082 0.09271403571351367 0.4938918518968126 0 0 0 0.27 58 934 167 2204 191 407 
2219 -0.5292804177857313 0.10152246678024125 0.5022681438209813 0 0 0 0.14 58 935 125 951 167 2205 191 408 
2220 -0.49104840602899036 0.11142399929961568 0.520685844284195 0 0 0 0.31 58 936 167 2206 191 409 
2221 -0.4505683520014197 0.12476549588869096 0.5437031946473999 0 0 0 0.17 58 937 59 537 125 952 167 2207 191 410 228 688 
2222 -0.5260255903994074 0.10918605232598744 0.5041719409530259 0 0 0 0.26 58 938 125 953 167 2208 191 411 
2223 -0.058947832316353095 0.24128171602811244 0.8377100766827144 0 0 0 0.27 72 163 119 169 167 2209 178 219 189 336 191 412 193 542 
2224 -0.4467339354680704 0.13847294822427175 0.5405354696098905 0 0 0 0.14 58 939 59 538 125 954 139 220 167 2210 191 413 228 689 
2225 -0.5511635384169596 0.11357185921475504 0.47774619323362566 0 0 0 0.22 58 940 125 955 167 2211 
2226 -0.5295443888983455 0.12077415986212856 0.4964818205482123 0 0 0 0.15 58 941 125 956 167 2212 
2227 -0.5234890450579142 0.12198002408097089 0.4959484428938089 0 0 0 0.15 58 942 125 957 167 2213 191 414 
2228 -0.24194431931184918 0.19777514083859143 0.6716270694507988 0 0 0 0.18 58 943 154 533 167 2214 180 427 
2229 -0.2044525994501794 0.20639123155575018 0.6920556953226698 0 0 0 0.27 58 944 151 602 154 534 167 2215 211 422 228 690 
2230 -0.6054206688208065 0.08433773480018106 0.3835206002523487 0 0 0 0.22 58 945 125 958 167 2216 
2231 -0.47849691818387485 0.13672290396068623 0.5147063792361577 0 0 0 0.19 58 946 125 959 167 2217 178 220 191 415 
2232 -0.40968480173364485 0.15958576602110777 0.5601791639951186 0 0 0 0.16 58 947 59 539 125 960 167 2218 191 416 228 691 
2233 -0.4141959360324308 0.1586596321565359 0.5569769202702833 0 0 0 0.21 58 948 59 540 119 170 125 961 167 2219 191 417 218 474 228 692 
2234 -0.44684076626654295 0.1522471334750933 0.5343800337535988 0 0 0 0.21 58 949 59 541 125 962 139 221 167 2220 191 418 228 693 
2235 -0.0853250274434224 0.24601234531282132 0.7611033613296192 0 0 0 0.27 116 600 125 963 144 347 151 603 166 610 167 2221 171 277 211 423 
2236 -0.5556978390645226 0.12578915431995072 0.46779090334596324 0 0 0 0.24 58 950 125 964 167 2222 
2237 -0.5496868012636471 0.12803112470711508 0.4729832411884348 0 0 0 0.55 58 951 74 36 125 965 167 2223 170 42 
2238 -0.5414875778145174 0.1297988524705022 0.4773930394898458 0 0 0 0.25 58 952 167 2224 170 43 
