# 3D point list with one line of data per point:
#   POINT3D_ID, X, Y, Z, R, G, B, ERROR, TRACK[] as (IMAGE_ID, POINT2D_IDX)
# Number of points: 373, mean track length: 8.64
937 -0.04168626209806482 -0.08453155264131004 1.0980452280274926 0 0 0 0.2 138 141 179 426 199 98 213 335 
938 -0.013947199002262062 -0.015096672336203236 1.0986313021082026 0 0 0 0.34 138 142 172 150 179 427 232 427 
939 -0.2817930397382311 0.011260992308311561 0.9949822241978237 0 0 0 0.09 138 143 179 428 200 18 
940 -0.22949819553010006 -0.21466872842340984 1.0800404347835366 0 0 0 0.9 138 144 152 176 179 429 160 180 204 333 56 246 65 125 81 142 147 120 190 344 67 126 15 71 53 89 
941 -0.01357817259008232 -0.18334542348480742 1.1152185677943245 0 0 0 0.5 138 145 179 430 213 336 219 253 222 164 232 428 
942 -0.2647807791725601 -0.15348695037485513 1.0129689870486691 0 0 0 0.15 138 146 179 431 200 19 
943 -0.1578430770084202 -0.1261955272776339 1.0531515088295509 0 0 0 0.21 138 147 179 432 199 99 
944 -0.40820358295103865 -0.04907590948935183 0.9922520638776261 0 0 0 0.15 138 148 157 110 179 433 
945 -0.11187442820607116 -0.022356759562699703 1.0601073816504172 0 0 0 0.24 138 149 152 177 179 434 
946 -0.22721637406958314 0.00937411280046962 1.0136228914560197 0 0 0 0.39 138 150 152 178 179 435 224 61 
947 -0.3764215506663226 -0.1337038063878857 0.992656017066913 0 0 0 0.33 138 151 172 151 179 436 227 281 198 164 209 97 
948 -0.06931494801583232 -0.06770555981142137 1.0846606387109055 0 0 0 0.39 138 152 172 152 179 437 190 345 204 334 146 57 160 181 185 11 213 337 217 308 219 254 1 181 56 247 158 112 181 79 
949 -1.7586529911583872e-05 0.006816538951784868 1.1022779027556795 0 0 0 0.4 138 153 172 153 179 438 
950 -0.400600235410244 0.023651595906987927 0.9640724244931067 0 0 0 0.45 138 154 179 439 200 20 
951 -0.4109996691046444 -0.06516332479824914 0.9990535539624738 0 0 0 0.35 138 155 157 111 179 440 
952 -0.21376682819901166 0.009579644838797632 1.0171890307623703 0 0 0 0.22 138 156 179 441 227 282 56 248 81 143 
953 -0.3523705332698164 -0.131174432429155 1.0064321711656792 0 0 0 0.27 138 157 179 442 213 338 
954 -0.33461789593761937 -0.09731802744972927 0.9958484689392468 0 0 0 0.43 138 158 179 443 190 346 220 112 
955 -0.4426243731651185 -0.17455439680404278 0.9450157048844159 0 0 0 0.23 138 159 179 444 190 347 
956 -0.32544431613029984 -0.17243732940235434 1.0163695510709903 0 0 0 0.63 138 160 179 445 204 335 
957 -0.108250912446952 -0.10002596820343358 1.071380849446842 0 0 0 0.21 138 161 146 58 179 446 199 100 
958 -0.07891897134777934 -0.0999568000886301 1.0841182910255136 0 0 0 0.05 138 162 158 113 179 447 
959 -0.15314482996702214 -0.09557507616964887 1.0553836386110178 0 0 0 0.35 138 163 179 448 199 101 
960 -0.09357383375154223 -0.09250690617618242 1.0770446715688806 0 0 0 0.26 138 164 179 449 199 102 
961 -0.23650898399345377 -0.06993972881007746 1.0171044765831998 0 0 0 0.51 138 165 179 450 220 113 
962 -0.15008355122859462 -0.11996579634353746 1.0473409164597154 0 0 0 0.82 138 166 146 59 179 451 199 103 
963 -0.12254185867885839 -0.11669331029441854 1.0670624439772525 0 0 0 0.21 138 167 179 452 199 104 
964 -0.3587937730834927 -0.08699850211670734 0.9887391728035546 0 0 0 0.49 138 168 148 30 157 112 179 453 4 131 67 127 81 144 111 212 114 118 164 119 181 80 43 67 26 102 56 249 127 44 
965 -0.2518886939502145 -0.08254480635497267 1.0140284432323778 0 0 0 0.51 138 169 179 454 220 114 
966 -0.07300198883782442 -0.22708724265411326 1.0966622669875643 0 0 0 0.27 146 60 158 114 179 455 
967 -0.2556092977971744 -0.1762456186475224 1.0251714324675232 0 0 0 0.46 146 61 158 115 179 456 190 348 
968 -0.14131636726638783 -0.10968417663762342 1.0593344952886878 0 0 0 0.24 146 62 157 113 179 457 1 182 25 106 56 250 65 126 69 49 118 248 127 45 164 120 217 309 220 115 232 429 
969 -0.05683838403948941 -0.08055387994740425 1.0920983240622468 0 0 0 0.19 162 66 179 458 200 21 
970 -0.2465259223863495 -0.17785720195552857 1.0250176163367295 0 0 0 0.27 148 31 179 459 200 22 224 62 
971 -0.2841279748817601 -0.13153661008760467 1.011236772035818 0 0 0 0.39 148 32 162 67 164 121 179 460 41 49 103 120 114 119 
972 -0.10215987234913039 -0.21873782317247023 1.1305306440377259 0 0 0 0.41 152 179 179 461 190 349 213 339 227 283 232 430 147 121 160 182 
973 -0.3899708964131015 -0.17388251008090513 0.9917365713999539 0 0 0 0.15 152 180 159 16 179 462 
974 -0.353867692808293 -0.17246896950937782 0.9932709495604618 0 0 0 0.11 157 114 179 463 219 255 
975 -0.19169851228688095 -0.08120496756706598 1.0359912508365596 0 0 0 0.24 157 115 179 464 200 23 224 63 
976 -0.32152833631568356 -0.08854135264286879 1.0006206131855095 0 0 0 0.5 157 116 158 116 172 154 176 114 179 465 204 336 
977 -0.4207832073680989 -0.08543365109235014 0.9745398378200034 0 0 0 0.26 157 117 162 68 179 466 
978 -0.35951115444994586 -0.18563453081047257 0.9993711859366802 0 0 0 0.41 179 467 204 337 213 340 219 256 164 122 176 115 209 98 27 88 32 17 160 183 157 118 
979 -0.2887774977028597 -0.17802764334022086 1.0126974417612407 0 0 0 0.23 158 117 162 69 179 468 219 257 
980 -0.25701500724875265 -0.17013484587736477 1.0215642123306647 0 0 0 0.36 158 118 176 116 179 469 
981 -0.3258904538408305 -0.16305322891517696 1.0099376761182484 0 0 0 0.35 158 119 172 155 179 470 
982 -0.10674025800163688 -0.12136573577333762 1.0703301791657376 0 0 0 0.41 158 120 179 471 199 105 1 183 3 190 11 162 15 72 38 15 50 194 120 92 160 184 128 172 129 95 152 181 213 341 25 107 26 103 56 251 73 92 89 121 118 249 147 122 164 123 172 156 190 350 198 165 217 310 221 256 
983 -0.2767088785624131 -0.08444746433443144 1.008384434120124 0 0 0 0.32 158 121 179 472 190 351 217 311 
984 -0.2916011454987673 -0.1404865114487094 1.0095339239411971 0 0 0 0.13 162 70 172 157 179 473 
985 -0.18874869253775647 -0.13415053912728236 1.0395756080873757 0 0 0 0.1 162 71 179 474 227 284 
986 -0.46275830423876624 -0.1425324220114758 0.9671941877811706 0 0 0 0.19 162 72 172 158 179 475 204 338 
987 -0.32433516054932476 -0.1547502064986251 0.9974829846980036 0 0 0 0.22 162 73 172 159 179 476 
988 -0.07940945667482587 -0.22974064201166694 1.0977811717941164 0 0 0 0.3 164 124 179 477 227 285 
989 -0.4760796633172682 -0.13577829203887606 0.9652614712399243 0 0 0 0.23 172 160 179 478 219 258 53 90 103 121 157 119 176 117 209 99 213 342 
990 -0.0547584730645084 -0.08440696814417016 1.0948284053375725 0 0 0 0.3 176 118 179 479 213 343 
991 0.009947028070355532 -0.1667688316807402 1.1251449321663232 0 0 0 0.35 179 480 204 339 219 259 11 163 43 68 67 128 120 93 127 46 160 185 152 182 197 42 221 257 
992 -0.21832272030274705 -0.2106427137623287 1.106107735599782 0 0 0 0.57 179 481 213 344 232 431 
993 -0.03255676140437781 -0.19552798999853443 1.1064226515162712 0 0 0 0.2 179 482 213 345 222 165 
994 -0.20162612394683996 -0.1806643656975237 1.035893656657501 0 0 0 0.38 179 483 200 24 204 340 219 260 222 166 
995 -0.3464534343431466 -0.26878848246741754 0.6229880256187723 0 0 0 0.53 179 484 190 352 232 432 
996 -0.4187365417263265 -0.20629108337236726 0.9827537787738282 0 0 0 0.39 179 485 204 341 227 286 
997 -0.3474110950461315 -0.2711336485781272 0.6230855492877939 0 0 0 0.25 179 486 190 353 232 433 
998 -0.2705296896592752 -0.178313907406592 1.0254350910063905 0 0 0 0.94 179 487 213 346 217 312 
999 -0.04087855569707335 -0.10758157595448445 1.102374275514248 0 0 0 0.47 179 488 204 342 219 261 
1000 0.0988725157316422 -0.11620733816110199 1.153630294906827 0 0 0 0.29 0 581 3 191 15 73 27 89 53 91 73 93 103 122 111 213 114 120 120 94 128 173 164 125 165 22 172 161 190 354 
1001 -0.35340363980045136 -0.0058895227486784945 0.978581361148216 0 0 0 0.25 0 582 25 108 114 121 
1002 0.08397295929236477 -0.20705403258833396 1.2344835643148362 0 0 0 0.56 0 583 3 192 17 157 27 90 53 92 67 129 73 94 87 4 103 123 114 122 118 250 164 126 165 23 172 162 184 4 197 43 97 111 134 20 147 123 190 355 213 347 232 434 235 29 12 49 56 252 62 17 65 127 71 176 89 122 221 258 181 81 
1003 0.15721631868692582 -0.12955823201218025 1.2048466343109057 0 0 0 0.69 0 584 53 93 82 3 97 112 114 123 128 174 147 124 182 53 197 44 
1004 -0.3550262330208422 -0.02950585796278447 0.9829341364631966 0 0 0 0.43 0 585 114 124 128 175 
1005 0.15479139943436787 -0.14360486406827838 1.211793631184228 0 0 0 0.52 0 586 67 130 73 95 87 5 97 113 111 214 114 125 147 125 162 74 163 18 165 24 232 435 235 30 
1006 -0.47011843679017995 -0.10213346933136086 0.9625086137115233 0 0 0 0.35 0 587 3 193 27 91 50 195 71 177 81 145 96 166 114 126 118 251 138 170 179 489 111 215 164 127 172 163 176 119 209 100 219 262 224 64 232 436 
1007 0.16178797813664966 -0.1340233484749196 1.2120647046669413 0 0 0 0.59 0 588 3 194 65 128 114 127 118 252 190 356 17 158 44 83 50 196 53 94 82 4 182 54 56 253 69 50 120 95 128 176 152 183 89 123 105 22 111 216 147 126 222 167 232 437 
1008 0.12291526641289657 -0.16294080559557933 1.1688274748846517 0 0 0 0.34 3 195 4 132 15 74 67 131 73 96 97 114 103 124 111 217 114 128 134 21 158 122 163 19 165 25 182 55 190 357 
1009 0.06482029739991038 -0.15425070072066904 1.1413937656195552 0 0 0 0.31 3 196 73 97 111 218 114 129 120 96 162 75 164 128 160 186 
1010 0.06072307450917513 -0.15267632494272676 1.1427532592251297 0 0 0 0.34 3 197 111 219 114 130 158 123 164 129 182 56 
1011 -0.5024861879720856 -0.16228086817809345 0.9602698459513536 0 0 0 0.33 3 198 4 133 43 69 103 125 111 220 114 131 164 130 
1012 0.08924293739110477 -0.1171083007070977 1.150266296668651 0 0 0 0.32 3 199 15 75 61 97 71 178 73 98 111 221 114 132 163 20 164 131 181 82 
1013 0.1251180402379422 -0.11551045783294235 1.1732844995540521 0 0 0 1.0 3 200 103 126 111 222 114 133 147 127 
1014 -0.4702909826989475 -0.11373811473079534 0.9628589574145373 0 0 0 0.24 3 201 25 109 43 70 96 167 114 134 204 343 
1015 -0.400091573390384 -0.09104765554030905 0.9800125599554776 0 0 0 0.24 3 202 41 50 53 95 64 38 97 115 114 135 172 164 176 120 204 344 209 101 
1016 -0.3406705193171207 -0.08644990903567026 0.9960776398318216 0 0 0 0.09 3 203 114 136 164 132 
1017 -0.24981872669754784 -0.07235060136199714 1.0119156825067104 0 0 0 0.45 3 204 61 98 114 137 164 133 158 124 
1018 -0.45067123511250223 -0.04905802855485437 0.9634477730264316 0 0 0 0.27 3 205 53 96 96 168 114 138 213 348 
1019 -0.2886241850413432 -0.18281383128171125 1.0175926154928943 0 0 0 0.31 3 206 53 97 67 132 96 169 97 116 114 139 181 83 204 345 
1020 0.09683847272689043 -0.16629474872170738 1.1614196961199306 0 0 0 0.44 3 207 15 76 17 159 53 98 97 117 114 140 120 97 182 57 184 5 190 358 197 45 
1021 0.16004548988396483 -0.1434642426740812 1.2140577040690943 0 0 0 0.34 3 208 4 134 15 77 17 160 67 133 73 99 103 127 114 141 128 177 134 22 163 21 164 134 165 26 190 359 
1022 -0.3704281852202406 -0.14597070682363783 0.9910862730409247 0 0 0 0.29 3 209 27 92 96 170 111 223 114 142 146 63 158 125 164 135 176 121 204 346 213 349 157 120 209 102 227 287 11 164 32 18 43 71 53 99 118 253 160 187 152 184 159 17 217 313 219 263 220 116 224 65 
1023 -0.42120183845252096 -0.14755527523995385 0.9799927996243055 0 0 0 0.25 3 210 96 171 97 118 111 224 114 143 172 165 190 360 204 347 209 103 
1024 0.09589041277646336 -0.1288498462928644 1.1553023331337022 0 0 0 0.25 3 211 4 135 27 93 71 179 77 77 97 119 111 225 114 144 118 254 164 136 165 27 
1025 -0.45339226048688763 -0.09323968719548362 0.9661541106285428 0 0 0 0.27 3 212 61 99 71 180 96 172 114 145 157 121 172 166 176 122 204 348 
1026 0.1124972930560416 -0.0712943512975135 1.160380336349173 0 0 0 0.29 3 213 15 78 50 197 53 100 81 146 82 5 111 226 114 146 118 255 120 98 134 23 147 128 152 185 176 123 181 84 182 58 190 361 204 349 12 50 63 50 67 134 128 178 232 438 56 254 89 124 
1027 0.12974073359070123 0.04237996959878295 1.1652211343190755 0 0 0 0.41 3 214 97 120 111 227 114 147 120 99 147 129 163 22 165 28 56 255 162 76 
1028 -0.4891738946722959 -0.15673129279276524 0.9653722803823371 0 0 0 0.38 3 215 4 136 50 198 53 101 96 173 111 228 114 148 176 124 209 104 219 264 227 288 
1029 0.18602319818979163 -0.09730637706483511 1.234157484674379 0 0 0 0.17 3 216 103 128 114 149 56 256 89 125 111 229 129 96 
1030 -0.470773733644559 -0.09137815610822574 0.9623928948755066 0 0 0 0.44 3 217 25 110 41 51 114 150 138 171 
1031 -0.41802653805323853 -0.07988110884905969 0.9757237634973679 0 0 0 0.37 3 218 73 100 81 147 114 151 128 179 164 137 190 362 1 184 50 199 71 181 103 129 111 230 118 256 148 33 172 167 209 105 213 350 217 314 232 439 56 257 162 77 198 166 
1032 0.08760445173376775 -0.1841834803644086 1.1838782332323448 0 0 0 0.44 3 219 27 94 65 129 103 130 114 152 147 130 184 6 197 46 56 258 89 126 
1033 -0.28277580747890974 -0.17851972867166355 1.0170640695436735 0 0 0 0.35 3 220 41 52 43 72 97 121 114 153 176 125 204 350 
1034 -0.46549998888490285 -0.17141379613171823 0.9695673404123983 0 0 0 0.46 3 221 17 161 50 200 67 135 114 154 128 180 
1035 0.11439579097748172 -0.15333230815986568 1.1730275729297566 0 0 0 0.44 3 222 4 137 17 162 27 95 50 201 65 130 67 136 71 182 73 101 77 78 81 148 82 6 103 131 111 231 114 155 118 257 128 181 129 97 134 24 152 186 163 23 164 138 165 29 184 7 190 363 204 351 56 259 89 127 97 122 105 23 199 106 217 315 232 440 
1036 0.12621943776070008 -0.13128653196180182 1.1712395974406997 0 0 0 0.35 3 223 15 79 17 163 27 96 67 137 87 6 114 156 118 258 120 100 129 98 181 85 
1037 -0.4663161307368603 -0.10709836380090286 0.9631339090278092 0 0 0 0.38 3 224 17 164 50 202 53 102 96 174 114 157 118 259 157 122 164 139 172 168 176 126 190 364 
1038 -0.3502103011414814 -0.07761718651114005 0.9909546887741274 0 0 0 0.33 3 225 4 138 17 165 71 183 97 123 114 158 128 182 146 64 164 140 172 169 176 127 204 352 25 111 26 104 56 260 
1039 -0.43467947557465353 -0.07996497297621744 0.9690006744147535 0 0 0 0.37 3 226 114 159 146 65 199 107 
1040 -0.40251555266714995 -0.07840890067925342 0.977930644581208 0 0 0 0.33 3 227 25 112 67 138 114 160 198 167 213 351 1 185 56 261 221 259 232 441 
1041 0.14169605742671806 -0.12560383857412036 1.2060353245953346 0 0 0 0.52 3 228 4 139 15 80 53 103 65 131 67 139 77 79 103 132 111 232 114 161 129 99 172 170 190 365 197 47 56 262 62 18 71 184 73 102 89 128 118 260 147 131 164 141 217 316 232 442 
1042 0.14145466733684497 -0.11549738770661895 1.2082571378422158 0 0 0 0.64 3 229 15 81 17 166 67 140 71 185 111 233 114 162 118 261 129 100 56 263 89 129 147 132 217 317 
1043 -0.29738622779783175 -0.06205230011365317 1.0003788149970243 0 0 0 0.51 3 230 25 113 114 163 
1044 -0.33977498708206155 -0.20835855285602603 1.0248145017053139 0 0 0 0.56 3 231 64 39 114 164 
1045 0.14797373816519757 -0.12372200833779763 1.2042897149373568 0 0 0 0.45 4 140 15 82 71 186 77 80 114 165 164 142 182 59 184 8 
1046 -0.46438291959487255 -0.16923735199329468 0.9699778524776579 0 0 0 0.32 4 141 27 97 71 187 73 103 103 133 111 234 114 166 162 78 
1047 -0.39276345628299325 -0.19283391444566333 0.9902867914714801 0 0 0 0.15 4 142 25 114 50 203 114 167 
1048 -0.35675515228861326 -0.17717338524454926 0.9980978880449308 0 0 0 0.3 4 143 17 167 27 98 50 204 65 132 114 168 118 262 128 183 146 66 152 187 158 126 164 143 190 366 148 34 160 188 213 352 232 443 
1049 -0.49905934238967964 -0.0713456631729524 0.9524587651276917 0 0 0 0.25 4 144 96 175 114 169 176 128 209 106 
1050 -0.3539148138963262 -0.0365846710556193 0.9817358970464605 0 0 0 0.26 4 145 17 168 25 115 97 124 114 170 
1051 -0.4153753881979068 -0.19331695257434206 0.9842843523825711 0 0 0 0.23 4 146 27 99 50 205 73 104 97 125 114 171 118 263 128 184 158 127 164 144 
1052 -0.4682066924347883 -0.16048853894675846 0.9646853977648459 0 0 0 0.36 4 147 27 100 43 73 71 188 73 105 103 134 111 235 114 172 25 116 209 107 217 318 1 186 56 264 67 141 65 133 190 367 
1053 0.17508761373314893 -0.1314312927980634 1.2228846983700687 0 0 0 0.45 4 148 17 169 67 142 77 81 103 135 114 173 163 24 172 171 190 368 56 265 63 51 147 133 232 444 62 19 162 79 164 145 
1054 -0.3637029339728003 -0.13334833282185993 0.9887780992833607 0 0 0 0.34 4 149 111 236 114 174 158 128 213 353 50 206 61 100 157 123 209 108 227 289 
1055 0.099996373928119 -0.07168377386293102 1.1539935537543242 0 0 0 0.24 4 150 15 83 50 207 92 52 114 175 128 185 147 134 158 129 165 30 172 172 44 84 160 189 
1056 -0.46166145346671333 -0.06873090918176375 0.9613152298236062 0 0 0 0.23 4 151 73 106 114 176 118 264 179 490 
1057 -0.38053129706055827 -0.08506406222037273 0.9849511828741006 0 0 0 0.38 4 152 114 177 118 265 190 369 199 108 
1058 -0.4746211687750499 -0.0753490437416911 0.9578216975528288 0 0 0 0.36 4 153 71 189 73 107 88 60 114 178 157 124 162 80 96 176 209 109 
1059 -0.47499395867539046 -0.04401502598832274 0.9554489087685221 0 0 0 0.32 4 154 17 170 43 74 114 179 199 109 
1060 -0.4927739921057245 -0.10030542499124612 0.9582159590655186 0 0 0 0.4 4 155 71 190 114 180 176 129 209 110 
1061 -0.5060187381422601 -0.19599274576004858 0.9655445139105557 0 0 0 0.35 4 156 67 143 71 191 73 108 81 149 88 61 103 136 111 237 114 181 162 81 164 146 181 86 198 168 199 110 25 117 43 75 96 177 126 4 127 47 148 35 196 42 209 111 224 66 
1062 -0.30592002581812283 -0.19559185580057958 1.010041798733781 0 0 0 0.51 4 157 71 192 114 182 162 82 
1063 -0.4423772561920094 -0.10629942266065635 0.9721051778493902 0 0 0 0.72 4 158 25 118 43 76 71 193 81 150 88 62 96 178 111 238 114 183 146 67 73 109 217 319 1 187 65 134 103 137 126 5 209 112 127 48 26 105 56 266 118 266 232 445 12 51 199 111 
1064 -0.4412667352507157 -0.07796183165269827 0.9672316778066833 0 0 0 0.45 4 159 50 208 53 104 67 144 81 151 96 179 114 184 157 125 190 370 198 169 199 112 213 354 43 77 61 101 71 194 73 110 88 63 146 68 25 119 217 320 1 188 26 106 56 267 164 147 220 117 232 446 127 49 
1065 -0.4201779242077954 -0.21873699150605974 1.0223483832401559 0 0 0 1.03 4 160 73 111 114 185 164 148 198 170 
1066 0.1602233114834924 -0.1481965391823526 1.2156890498366462 0 0 0 0.2 15 84 67 145 71 195 73 112 92 53 111 239 114 186 128 186 172 173 77 82 165 31 
1067 0.17601279802939038 -0.13737537586493997 1.2243344081211636 0 0 0 0.65 15 85 44 85 114 187 120 101 147 135 152 188 182 60 
1068 0.17748909495349763 -0.10583772788772072 1.2309692310247315 0 0 0 0.34 15 86 17 171 44 86 53 105 65 135 67 146 71 196 103 138 111 240 114 188 120 102 129 101 184 9 56 268 105 24 147 136 165 32 217 321 232 447 235 31 89 130 118 267 134 25 
1069 0.1355690470805696 -0.03461532714117337 1.179074340365873 0 0 0 0.35 15 87 43 78 67 147 114 189 190 371 204 353 56 269 71 197 111 241 118 268 120 103 128 187 147 137 152 189 164 149 165 33 182 61 221 260 222 168 232 448 235 32 
1070 0.12751168383858136 -0.13842377772153452 1.164817673079281 0 0 0 0.19 15 88 67 148 97 126 114 190 134 26 190 372 199 113 
1071 -0.2474033042940749 -0.07528032252661535 1.0153008865555337 0 0 0 0.29 15 89 27 101 41 53 65 136 111 242 114 191 1 189 26 107 56 270 127 50 128 188 217 322 
1072 0.18309012641756392 -0.07907840188678122 1.2305051963225675 0 0 0 0.3 15 90 77 83 111 243 114 192 129 102 147 138 165 34 217 323 235 33 56 271 65 137 67 149 89 131 
1073 -0.2538368022143255 -0.02556366046860032 1.0010128692694602 0 0 0 0.39 15 91 25 120 27 102 114 193 118 269 164 150 213 355 
1074 0.09879973160057753 -0.16232023997441142 1.16080525154141 0 0 0 0.4 15 92 27 103 77 84 97 127 114 194 184 10 190 373 197 48 
1075 0.17598305417023405 -0.07843445211218047 1.2249337684083093 0 0 0 0.35 15 93 17 172 65 138 77 85 114 195 129 103 147 139 165 35 184 11 190 374 197 49 232 449 235 34 
1076 0.22355947622101535 -0.09420567429811302 1.1142507145480838 0 0 0 0.31 17 173 53 106 67 150 82 7 111 244 114 196 163 25 182 62 
1077 0.26862629647227093 -0.13084824727842792 1.0634488777528286 0 0 0 0.57 17 174 53 107 82 8 111 245 114 197 118 270 123 0 147 140 152 190 163 26 182 63 184 12 190 375 197 50 235 35 
1078 0.12345912376979842 -0.1447762145567894 1.1678081523081938 0 0 0 0.24 17 175 65 139 67 151 71 198 111 246 114 198 134 27 
1079 -0.4304932211987172 -0.1197979492007705 0.9749395840894028 0 0 0 0.1 17 176 25 121 96 180 114 199 118 271 
1080 0.2734997752218751 -0.09109051086523959 1.0497357213906018 0 0 0 0.22 17 177 114 200 182 64 
1081 0.1756168429651435 -0.07240308428045238 1.2309240925412481 0 0 0 0.41 17 178 87 7 114 201 
1082 0.24956301453885224 -0.018075220471319535 1.0818483867923099 0 0 0 0.37 17 179 114 202 120 104 152 191 
1083 0.21979837816795314 0.005142434552024766 1.1090757997509757 0 0 0 0.32 17 180 67 152 82 9 111 247 114 203 120 105 134 28 147 141 163 27 182 65 190 376 
1084 0.27975034003298 -0.13529748762693483 1.049113997001923 0 0 0 0.61 17 181 111 248 114 204 120 106 
1085 0.27437579309334026 -0.0956320521599258 1.0519148560552 0 0 0 0.34 17 182 67 153 82 10 111 249 114 205 120 107 182 66 
1086 0.2308086967349099 -0.03549099996033257 1.0945455919127047 0 0 0 0.41 17 183 61 102 82 11 97 128 114 206 118 272 134 29 152 192 182 67 
1087 -0.4699580079145773 -0.0359409824755718 0.9545611327249239 0 0 0 0.35 17 184 25 122 114 207 
1088 0.24628007848668376 0.002660607073698246 1.0801368299269203 0 0 0 0.36 17 185 61 103 87 8 114 208 152 193 182 68 
1089 0.2414285244534316 0.0033399010089041276 1.0923982037169633 0 0 0 0.18 17 186 87 9 114 209 
1090 0.23139885822423983 0.004044969087673917 1.0927875366358386 0 0 0 0.23 17 187 61 104 82 12 87 10 111 250 114 210 118 273 120 108 134 30 147 142 163 28 182 69 
1091 0.22579421561154084 0.004352947079156063 1.100105974352323 0 0 0 0.26 17 188 82 13 87 11 111 251 114 211 134 31 182 70 
1092 0.21458115876579675 0.005813721569560578 1.1161696001919093 0 0 0 0.26 17 189 114 212 182 71 
1093 0.2315825680924135 0.011081199582131517 1.0929892789778202 0 0 0 0.25 17 190 61 105 114 213 182 72 
1094 0.22551577402915857 0.011816935828201992 1.0972849014132438 0 0 0 0.46 17 191 61 106 87 12 114 214 118 274 120 109 182 73 190 377 
1095 0.2460557434930381 0.016838088336997094 1.0766387287490193 0 0 0 0.28 17 192 61 107 87 13 114 215 182 74 
1096 0.2260957372156131 0.018340842080446503 1.1027982937139136 0 0 0 0.34 17 193 87 14 114 216 
1097 0.2316930913218052 0.01802787193474483 1.0932452417257623 0 0 0 0.23 17 194 61 108 114 217 182 75 
1098 -0.39945321348853347 -0.19598781195644668 0.9915587307887688 0 0 0 0.31 17 195 81 152 111 252 114 218 128 189 0 589 1 190 11 165 88 64 160 190 152 194 213 356 232 450 56 272 67 154 96 181 181 87 217 324 
1099 -0.39018322948152273 -0.18026162812976196 0.993140562800906 0 0 0 0.16 17 196 50 209 114 219 
1100 -0.3359262822243586 -0.1386478079017759 0.9978700451961249 0 0 0 0.26 17 197 65 140 67 155 114 220 138 172 181 88 198 171 199 114 152 195 160 191 219 265 56 273 81 153 88 65 89 132 217 325 220 118 221 261 
1101 -0.4496949778755779 -0.12070295751257713 0.9703500543577013 0 0 0 0.34 17 198 25 123 73 113 114 221 50 210 118 275 176 130 209 113 
1102 0.2294876387457593 -0.09161845965372196 1.1057664261783327 0 0 0 0.26 17 199 61 109 81 154 97 129 114 222 118 276 152 196 182 76 129 104 165 36 197 51 
1103 0.21685103284031218 0.0012216382538139518 1.1212081168171935 0 0 0 0.43 17 200 87 15 114 223 147 143 
1104 -0.460540991124716 -0.20830698023923966 1.0005172851440967 0 0 0 0.88 17 201 43 79 114 224 190 378 
1105 0.2203295717225421 -0.09930661311769631 1.1158835406803111 0 0 0 0.33 17 202 53 108 77 86 103 139 111 253 114 225 165 37 182 77 184 13 197 52 
1106 0.2348672589065581 -0.09027390875329432 1.1004271036788116 0 0 0 0.53 17 203 61 110 114 226 152 197 182 78 
1107 0.2288648493700857 -0.05872430140150952 1.1003088076542453 0 0 0 0.42 17 204 67 156 87 16 114 227 120 110 129 105 134 32 
1108 0.22213086297596993 0.00012401862481203885 1.1043743486524749 0 0 0 0.64 17 205 77 87 111 254 114 228 118 277 120 111 147 144 165 38 190 379 197 53 235 36 
1109 -0.46711539424338927 0.005911240273753365 0.948524287240961 0 0 0 0.29 17 206 73 114 114 229 
1110 0.229745219825091 -0.08187797758225909 1.1023176674156252 0 0 0 0.42 17 207 53 109 65 141 67 157 81 155 82 14 87 17 111 255 114 230 129 106 163 29 165 39 184 14 197 54 
1111 0.2294312378800423 -0.06978328699305614 1.1053462194083274 0 0 0 0.45 17 208 61 111 87 18 114 231 152 198 182 79 
1112 -0.44746744825744084 -0.07939590411111266 0.9672617281078963 0 0 0 0.23 17 209 25 124 73 115 103 140 114 232 
1113 0.24146841936195543 -0.04608898070958507 1.085408645815945 0 0 0 0.44 17 210 67 158 81 156 111 256 114 233 129 107 134 33 138 173 163 30 
1114 0.2518227920640427 -0.02830294443255847 1.072852212197801 0 0 0 0.38 17 211 64 40 67 159 81 157 87 19 111 257 114 234 129 108 138 174 152 199 
1115 0.23986354635691684 -0.07803090202138764 1.0962455593856688 0 0 0 0.44 17 212 67 160 81 158 111 258 114 235 129 109 152 200 182 80 
1116 0.24306367212887559 -0.03561495224140221 1.083779736743948 0 0 0 0.34 17 213 67 161 81 159 111 259 114 236 129 110 134 34 138 175 163 31 182 81 
1117 0.2433669016254453 -0.02146767175409668 1.082565192326206 0 0 0 0.53 17 214 114 237 120 112 129 111 152 201 182 82 
1118 -0.30634174022111393 -0.04323734446702929 0.9979501890542846 0 0 0 0.57 17 215 114 238 118 278 213 357 1 191 12 52 56 274 65 142 96 182 128 190 
1119 -0.5106173670664867 -0.22126349253860556 0.9726967438929984 0 0 0 0.31 67 162 114 239 181 89 
1120 -0.5117478232899726 -0.18992211934519634 0.9626129379210888 0 0 0 0.39 71 199 114 240 164 151 96 183 103 141 209 114 
1121 -0.3922776081080723 0.03131953444528212 0.9660854920201447 0 0 0 0.2 114 241 164 152 179 491 
1122 0.22101816639790867 -0.0916963039622907 1.1171056559595842 0 0 0 0.39 65 143 67 163 77 88 111 260 114 242 165 40 184 15 197 55 
1123 -0.3842358087362238 -0.14617339518366332 0.9874244162556853 0 0 0 0.53 27 104 67 164 96 184 114 243 128 191 172 174 176 131 204 354 213 358 61 112 103 142 148 36 157 126 158 130 162 83 179 492 209 115 217 326 224 67 232 451 
1124 -0.46743802135274654 -0.05347454745412961 0.9591248488144515 0 0 0 0.43 111 261 114 244 129 112 162 84 181 90 
1125 -0.4695505220858694 0.01153901170449789 0.9496276780141493 0 0 0 0.34 111 262 114 245 148 37 209 116 224 68 172 175 227 290 
1126 -0.4660032396893549 -0.07469063922368956 0.960573577477781 0 0 0 0.74 25 125 43 80 71 200 73 116 114 246 157 127 181 91 
1127 -0.4612150425060659 -0.06169530126458359 0.9593154516551718 0 0 0 0.32 73 117 114 247 157 128 209 117 
1128 -0.38818660621690326 -0.01830694455216352 0.9700575953115316 0 0 0 0.33 114 248 179 493 111 263 209 118 227 291 
1129 -0.41687042557296566 -0.17302298087534668 0.9826838695511997 0 0 0 0.63 41 54 64 41 96 185 114 249 158 131 198 172 50 211 71 201 73 118 81 160 209 119 217 327 227 292 3 232 65 144 1 192 56 275 97 130 160 192 190 380 
1130 -0.50583316211845 -0.16793505371396403 0.9599080463752219 0 0 0 0.25 43 81 67 165 71 202 73 119 88 66 114 250 164 153 198 173 81 161 199 115 209 120 111 264 126 6 148 38 224 69 
1131 -0.5145692509350929 -0.1858139704989026 0.9615606972236499 0 0 0 0.26 25 126 71 203 103 143 111 265 114 251 162 85 181 92 209 121 
1132 -0.4702844304004115 -0.16505329570824728 0.9677310804156243 0 0 0 0.35 25 127 73 120 103 144 111 266 114 252 209 122 
1133 -0.36476336657621033 -0.037100697235489 0.9813050925429291 0 0 0 0.23 25 128 71 204 114 253 118 279 128 192 
1134 -0.5111124075321879 -0.18191508645057564 0.9606742364591001 0 0 0 0.24 25 129 73 121 111 267 114 254 162 86 71 205 96 186 164 154 209 123 
1135 -0.25641488396505036 -0.037898973195947094 1.000613507736731 0 0 0 0.16 25 130 27 105 114 255 
1136 -0.34127824637563553 -0.08656706964628559 0.9948753526929065 0 0 0 0.28 25 131 114 256 146 69 
1137 -0.44760680165770045 -0.19631213652084264 0.9913108480959649 0 0 0 0.96 25 132 67 166 103 145 114 257 162 87 181 93 
1138 -0.3599473218779985 -0.07202245194566063 0.9887033981587777 0 0 0 0.54 25 133 81 162 114 258 129 113 56 276 118 280 128 193 127 51 198 174 
1139 -0.3248686270342974 -0.05418821828117209 0.9949724405528481 0 0 0 0.65 25 134 64 42 114 259 118 281 
1140 -0.46215738328204686 -0.19844508489138646 0.9938179893070435 0 0 0 0.53 27 106 71 206 73 122 111 268 114 260 162 88 81 163 103 146 209 124 217 328 
1141 0.0926065425715123 -0.12602149852232866 1.153079092417989 0 0 0 0.26 27 107 114 261 165 41 172 176 204 355 
1142 -0.4676726347518362 -0.152382591272993 0.9698755318322787 0 0 0 0.33 43 82 111 269 114 262 50 212 81 164 209 125 56 277 67 167 
1143 -0.38984639571930474 -0.1462925527941072 0.9847680907105093 0 0 0 0.46 27 108 96 187 111 270 114 263 128 194 158 132 204 356 
1144 -0.46172253091863824 -0.18543058952194455 0.9826905706036485 0 0 0 0.55 27 109 67 168 71 207 73 123 111 271 114 264 162 89 164 155 181 94 199 116 127 52 209 126 224 70 
1145 -0.3171280363896926 -0.07592953113622443 1.0011666739138816 0 0 0 0.29 27 110 114 265 172 177 
1146 -0.4010062208323994 -0.07956251446237417 0.9781990585744307 0 0 0 0.25 27 111 97 131 114 266 50 213 111 272 126 7 162 90 164 156 172 178 176 132 179 494 209 127 213 359 224 71 232 452 
1147 0.08059175418530204 -0.19883991578397642 1.2177322344891377 0 0 0 0.79 27 112 103 147 114 267 165 42 184 16 
1148 -0.43073952703382967 -0.20740267735076354 0.9794036341282906 0 0 0 0.48 27 113 73 124 114 268 199 117 
1149 0.3114757455055227 -0.14623807000007064 1.006320660759321 0 0 0 0.35 67 169 114 269 123 1 184 17 
1150 -0.41177849197735233 -0.14670102449411865 0.979209508494248 0 0 0 0.32 96 188 114 270 190 381 204 357 25 135 111 273 157 129 158 133 172 179 179 495 209 128 
1151 -0.48019651912333766 -0.07131574625418922 0.9600753079905339 0 0 0 0.21 73 125 114 271 164 157 
1152 0.08361951423143099 -0.08065654864151947 1.1501743474083186 0 0 0 0.33 43 83 81 165 92 54 114 272 128 195 172 180 190 382 198 175 
1153 0.27976888935420857 -0.14001562713819257 1.0512103190987891 0 0 0 0.28 67 170 87 20 111 274 114 273 129 114 134 35 163 32 165 43 190 383 81 166 123 2 147 145 184 18 235 37 
1154 0.12965686614495553 -0.10584637274128643 1.175914659849546 0 0 0 1.3 65 145 71 208 111 275 114 274 129 115 147 146 
1155 0.12831902054096256 -0.0830318362146985 1.1731613504176652 0 0 0 0.85 65 146 114 275 129 116 56 278 71 209 182 83 217 329 221 262 222 169 232 453 73 126 97 132 147 147 164 158 197 56 
1156 -0.46380824435157814 -0.18100336436929187 0.9773592458930332 0 0 0 0.11 73 127 114 276 162 91 
1157 0.11711920688313397 -0.11148048270244015 1.1647815282728862 0 0 0 0.57 73 128 77 89 87 21 114 277 199 118 
1158 -0.4289069643846755 -0.06533037535323623 0.9699949471979188 0 0 0 0.42 114 278 118 282 198 176 56 279 81 167 97 133 232 454 
1159 -0.45828667060133566 -0.18735863250719184 0.988220321976307 0 0 0 0.79 73 129 88 67 114 279 146 70 164 159 181 95 103 148 111 276 199 119 209 129 
1160 -0.41026143419675304 -0.13878431539013558 0.9784079957699046 0 0 0 0.42 43 84 73 130 81 168 96 189 97 134 114 280 148 39 158 134 162 92 204 358 209 130 219 266 27 114 160 193 159 18 176 133 196 43 
1161 -0.4097633840992267 -0.1061214376905105 0.98034705067078 0 0 0 0.3 41 55 64 43 114 281 179 496 81 169 
1162 -0.25651819052187347 -0.13111759568687312 1.0195519818516916 0 0 0 0.32 41 56 96 190 114 282 179 497 
1163 -0.4566026332097289 -0.019764957265239885 0.9575711672896653 0 0 0 0.3 41 57 114 283 179 498 
1164 -0.3914484760972349 0.02518959507800187 0.9695348860090357 0 0 0 0.29 41 58 114 284 179 499 
1165 -0.36314361306142 -0.03124475994793629 0.9801029870137697 0 0 0 0.12 41 59 64 44 114 285 179 500 
1166 -0.4163814810278991 -0.019090822843525503 0.964222667198315 0 0 0 0.27 41 60 64 45 114 286 
1167 -0.2937824259324887 -0.01170321730073375 0.9967538346274548 0 0 0 0.23 41 61 114 287 138 176 179 501 
1168 -0.29025511144796445 -0.1607089955386159 1.01211062257426 0 0 0 0.21 41 62 114 288 179 502 
1169 -0.30636648677979955 -0.18813389181379161 1.012702294404573 0 0 0 0.57 41 63 114 289 138 177 
1170 -0.40041611244859987 -0.0894529303420503 0.977298174879366 0 0 0 0.26 41 64 64 46 65 147 67 171 114 290 157 130 172 181 181 96 56 280 
1171 -0.3066752279525161 -0.017703219767411866 0.996075138444332 0 0 0 0.31 41 65 64 47 114 291 179 503 
1172 -0.2799139298974553 -0.07605003742527619 1.0109985772667467 0 0 0 0.31 41 66 65 148 114 292 179 504 181 97 
1173 -0.288977488857898 -0.07496243358159414 1.0056553946559255 0 0 0 0.18 41 67 64 48 114 293 179 505 
1174 -0.5053966180755738 -0.17799677423375077 0.9599386998699834 0 0 0 0.27 43 85 67 172 111 277 114 294 164 160 181 98 65 149 96 191 103 149 118 283 148 40 209 131 217 330 232 455 
1175 -0.3980523127780569 -0.1803091520481737 0.9836444143997095 0 0 0 0.47 88 68 111 278 114 295 162 93 181 99 
1176 0.1871897736573821 -0.09292843644349791 1.2359391998496876 0 0 0 0.34 44 87 103 150 114 296 147 148 
1177 0.10986179965979784 0.05808539742494539 1.1410004269010567 0 0 0 0.15 44 88 111 279 114 297 190 384 
1178 -0.49219097609572227 -0.17580071707007996 0.9671433631194909 0 0 0 0.31 114 298 162 94 103 151 
1179 -0.5092499405066093 -0.19892451623955176 0.9623868342297335 0 0 0 0.5 50 214 73 131 103 152 111 280 114 299 67 173 81 170 181 100 43 86 71 210 118 284 148 41 196 44 209 132 221 263 224 72 
1180 -0.3923302448752677 -0.18473657553908213 0.9906350966846549 0 0 0 0.32 50 215 61 113 81 171 114 300 128 196 138 178 152 202 11 166 17 216 27 115 43 87 160 194 157 131 217 331 25 136 56 281 162 95 
1181 -0.3693722666420649 -0.06119582019671788 0.9848147836831751 0 0 0 0.72 50 216 96 192 114 301 
1182 0.2754176758675433 -0.14377161798748658 1.053859522233704 0 0 0 0.32 53 110 67 174 111 281 114 302 163 33 165 44 197 57 
1183 0.2739029616099554 -0.13745677859720296 1.0534520294899081 0 0 0 0.26 53 111 67 175 97 135 114 303 123 3 
1184 0.28328678612043806 -0.13431901029225626 1.0446120668095322 0 0 0 0.46 53 112 114 304 118 285 165 45 184 19 190 385 235 38 
1185 0.27164113272442003 -0.1303232886887858 1.0609813789047726 0 0 0 0.28 53 113 114 305 165 46 182 84 197 58 
1186 0.3036117054601689 -0.11548886132316585 1.0169412692127633 0 0 0 0.19 53 114 114 306 197 59 
1187 0.31147194964588065 -0.1506582918627533 1.0091649006484227 0 0 0 0.24 53 115 82 15 87 22 114 307 123 4 182 85 197 60 
1188 0.31177968375878123 -0.1428004856949944 1.0095680862472811 0 0 0 0.39 53 116 97 136 114 308 147 149 165 47 182 86 197 61 
1189 0.2870147996978429 -0.1283877962556542 1.0393029935794111 0 0 0 0.56 53 117 67 176 114 309 118 286 182 87 184 20 190 386 197 62 
1190 0.25711810256639595 -0.10897549858301207 1.083726015327873 0 0 0 0.26 53 118 64 49 97 137 114 310 
1191 0.22865216865716237 -0.10404929296440979 1.1066419575427011 0 0 0 0.46 53 119 61 114 114 311 152 203 165 48 190 387 197 63 
1192 0.22294964443680212 0.007279659664247426 1.1044459011817236 0 0 0 0.3 53 120 114 312 120 113 182 88 184 21 
1193 0.3111754200132763 -0.13791394429029416 1.0091728041728694 0 0 0 0.26 53 121 64 50 81 172 87 23 97 138 114 313 138 179 165 49 184 22 190 388 197 64 120 114 147 150 182 89 235 39 
1194 0.30909922510317117 -0.1340437148011328 1.0120805470848242 0 0 0 0.33 53 122 67 177 82 16 87 24 97 139 114 314 123 5 134 36 190 389 197 65 
1195 0.2759894981716907 -0.1401769272537717 1.0543528826502808 0 0 0 0.23 53 123 64 51 67 178 81 173 97 140 111 282 114 315 138 180 147 151 
1196 0.2950148290527769 -0.12247819731074475 1.0270963514801286 0 0 0 0.17 53 124 114 316 197 66 
1197 0.22440769080845382 -0.11165085855220962 1.1088382028233785 0 0 0 0.37 53 125 81 174 82 17 97 141 111 283 114 317 123 6 190 390 197 67 
1198 0.31405247515463697 -0.15132794925316853 1.0017712065892945 0 0 0 0.51 53 126 114 318 129 117 134 37 165 50 64 52 65 150 87 25 123 7 138 181 
1199 0.2864578702762583 -0.13316664917417032 1.0413794894237178 0 0 0 0.27 53 127 67 179 87 26 114 319 120 115 123 8 147 152 165 51 182 90 184 23 190 391 
1200 -0.43943078597068375 0.018800021212492492 0.9573938649938492 0 0 0 0.75 53 128 114 320 164 161 176 134 204 359 73 132 81 175 111 284 209 133 217 332 
1201 0.27179075315577894 -0.13369990067164236 1.056170736632703 0 0 0 0.62 53 129 65 151 67 180 87 27 114 321 147 153 165 52 184 24 197 68 82 18 97 142 118 287 123 9 182 91 235 40 
1202 -0.3482507851920582 -0.13175881450834634 0.992139967682819 0 0 0 0.24 53 130 81 176 111 285 114 322 158 135 
1203 0.31010538916331554 -0.13080616434478798 1.0110527711143364 0 0 0 0.53 53 131 64 53 65 152 82 19 97 143 111 286 114 323 120 116 123 10 129 118 134 38 138 182 147 154 182 92 190 392 197 69 235 41 
1204 0.22929860263566113 -0.10693227409181454 1.105163464325579 0 0 0 0.4 53 132 67 181 111 287 114 324 129 119 165 53 184 25 197 70 81 177 
1205 0.30240460883356635 -0.12321490980782929 1.0358826349966863 0 0 0 0.75 53 133 97 144 114 325 123 11 138 183 147 155 165 54 182 93 190 393 197 71 64 54 
1206 -0.5025703155646555 -0.18833752558479705 0.969518733071171 0 0 0 0.25 71 211 114 326 162 96 164 162 
1207 -0.41695710937911284 -0.09076443521467512 0.9758893900882017 0 0 0 0.3 64 55 96 193 114 327 162 97 176 135 198 177 204 360 
1208 -0.3467198689761017 -0.08341506703223736 0.9886950006338521 0 0 0 0.49 67 182 114 328 181 101 
1209 -0.3203339529419121 -0.11643052659375895 1.0014422954341862 0 0 0 0.18 67 183 88 69 114 329 199 120 
1210 0.16059346928579105 -0.04733640038888994 1.2044755825975997 0 0 0 0.49 61 115 114 330 120 117 56 282 111 288 118 288 147 156 162 98 163 34 164 163 182 94 190 394 197 72 222 170 
1211 0.2273346826564628 -0.11700492506465232 1.1090271457371708 0 0 0 0.33 61 116 67 184 114 331 
1212 0.22863754267621525 -0.030079027637518286 1.0989720905025464 0 0 0 0.29 61 117 111 289 114 332 134 39 147 157 182 95 
1213 0.24602704155031263 -0.02779744557040318 1.0807434246932388 0 0 0 0.34 61 118 64 56 82 20 114 333 134 40 138 184 182 96 
1214 0.23190673413303392 -0.027067787264669362 1.098784247292087 0 0 0 0.45 61 119 87 28 114 334 152 204 182 97 
1215 0.24037633199145172 -0.10054370144889345 1.0993205529087176 0 0 0 0.7 61 120 67 185 111 290 114 335 147 158 152 205 184 26 
1216 0.24000430991178737 -0.09390186847479902 1.097287981230964 0 0 0 0.54 61 121 114 336 152 206 165 55 182 98 184 27 
1217 -0.4460332296335217 -0.08746519566740898 0.9675884426781654 0 0 0 0.18 61 122 67 186 114 337 1 193 209 134 56 283 73 133 
1218 0.24275434205278704 -0.010822565162150124 1.0821053018087 0 0 0 0.43 61 123 67 187 81 178 87 29 114 338 120 118 129 120 134 41 152 207 
1219 0.21669544068633112 -0.008493803239881983 1.1153635513147973 0 0 0 0.46 61 124 87 30 114 339 134 42 152 208 
1220 0.2350079379568226 -0.06077682612986691 1.0946939841397512 0 0 0 0.39 61 125 64 57 82 21 114 340 129 121 134 43 138 185 152 209 182 99 
1221 0.23604339169503258 -0.02274324691110562 1.0924270685100368 0 0 0 0.27 61 126 114 341 152 210 134 44 
1222 0.22922151932879614 -0.018999298833464462 1.0968443606768603 0 0 0 0.41 61 127 114 342 129 122 134 45 182 100 
1223 -0.31623450372117023 -0.20319355298610947 1.0060475777330493 0 0 0 0.27 64 58 96 194 114 343 
1224 0.2896699243682774 -0.12467037830072679 1.0383879824489086 0 0 0 0.44 64 59 114 344 123 12 163 35 
1225 0.2815368289454183 -0.10735880600341918 1.0408665477072665 0 0 0 0.39 64 60 82 22 114 345 182 101 
1226 0.27099064398706074 -0.06723819035269091 1.0489272186675582 0 0 0 0.2 64 61 114 346 120 119 129 123 182 102 
1227 0.2483515332038886 0.032333472211017886 1.069314152162963 0 0 0 0.17 64 62 114 347 138 186 
1228 0.27596142100230237 -0.14633039426538058 1.0542835504449943 0 0 0 0.26 64 63 81 179 114 348 165 56 182 103 
1229 0.2949601576918256 -0.09433754963651346 1.0272943369612464 0 0 0 0.13 64 64 114 349 138 187 
1230 0.30837353147830443 -0.07219129032261781 1.0092193868810693 0 0 0 0.74 64 65 87 31 114 350 
1231 0.25222435202526905 -0.06559777688202521 1.0728156167786227 0 0 0 0.35 64 66 114 351 138 188 147 159 82 23 87 32 152 211 182 104 
1232 0.2675563597350497 -0.06285900285031526 1.0490042942394304 0 0 0 0.2 64 67 114 352 138 189 182 105 
1233 0.27544435279552304 -0.05329406594367309 1.0527026006055014 0 0 0 0.27 64 68 114 353 138 190 
1234 0.25892507653445396 -0.05130264947946345 1.0678389179809664 0 0 0 0.16 64 69 114 354 129 124 138 191 
1235 0.24957104804695204 -0.04313590462761184 1.0681166908316277 0 0 0 0.38 64 70 114 355 138 192 182 106 
1236 -0.2895221538221214 -0.028700925746779307 0.9998905822436948 0 0 0 0.25 64 71 114 356 138 193 179 506 
1237 0.24859821545888441 0.04473978113001906 1.074845361694151 0 0 0 0.11 64 72 114 357 138 194 
1238 0.2708400546226899 0.04670778540017494 1.0559512335911792 0 0 0 0.17 64 73 114 358 138 195 
1239 0.28829163146873155 0.054363355216262364 1.0412991347038938 0 0 0 0.17 64 74 114 359 138 196 
1240 -0.45020024310148327 -0.10931489937050123 0.9703020815239968 0 0 0 0.37 64 75 65 153 88 70 96 195 114 360 176 136 179 507 199 121 204 361 
1241 0.28687119163729985 0.02073206242626629 1.036614168044103 0 0 0 0.21 64 76 114 361 138 197 
1242 0.2941275375071765 -0.10071991588253987 1.0219808179414378 0 0 0 0.17 64 77 67 188 114 362 138 198 
1243 0.27759825878140976 -0.10181162490171486 1.0529936302498002 0 0 0 0.14 64 78 114 363 120 120 129 125 138 199 
1244 0.2628378794071293 -0.08082313396085136 1.064320264622887 0 0 0 0.43 64 79 87 33 114 364 129 126 152 212 182 107 
1245 0.29958601909551624 -0.09402868655614857 1.0223307448835988 0 0 0 0.1 64 80 114 365 138 200 
1246 0.2953792887799127 -0.08448925942051637 1.0339723469028221 0 0 0 0.4 64 81 114 366 129 127 138 201 120 121 
1247 0.2895183275770152 -0.0822617993065514 1.054014229380547 0 0 0 0.33 64 82 114 367 138 202 
1248 0.2697446568477732 -0.07746392252598602 1.050079784592523 0 0 0 0.54 64 83 87 34 114 368 138 203 
1249 0.28479574204921987 0.03389560032530836 1.0350622117472397 0 0 0 0.11 64 84 114 369 138 204 
1250 0.26175934926673505 -0.04905087258747082 1.0559742203206293 0 0 0 0.1 64 85 114 370 138 205 
1251 0.2778959546089194 0.05528962871901981 1.0378035053225911 0 0 0 0.37 64 86 114 371 138 206 
1252 0.2945695402850681 -0.12711760751667747 1.0688828195090874 0 0 0 0.28 64 87 87 35 114 372 138 207 
1253 0.28889663759211837 -0.09588660733587968 1.0385565501581486 0 0 0 0.32 64 88 114 373 120 122 129 128 138 208 182 108 
1254 0.23541686914214183 -0.11410776897813002 1.103000173723939 0 0 0 0.8 65 154 87 36 103 153 114 374 163 36 
1255 0.24618008184087187 -0.10277307187028996 1.0880042927503344 0 0 0 0.31 65 155 67 189 111 291 114 375 
1256 0.29133702585156535 -0.13470662859019142 1.0309778398922471 0 0 0 0.5 67 190 114 376 120 123 147 160 
1257 0.2972520194370373 -0.08457899595571174 1.0206464947923464 0 0 0 0.09 67 191 82 24 114 377 120 124 
1258 -0.32279556461854575 -0.07952033426715395 0.9929945499346622 0 0 0 0.39 67 192 96 196 114 378 
1259 0.2535897917834826 -0.06918847222437326 1.072414862263 0 0 0 0.23 67 193 114 379 182 109 
1260 0.25813504537605575 -0.05496676511122317 1.0601696501937383 0 0 0 0.44 67 194 114 380 120 125 
1261 0.28332473181989354 -0.14364745359132106 1.047003180005141 0 0 0 0.33 67 195 103 154 114 381 123 13 190 395 
1262 0.3123111234445394 -0.11050381671014943 0.9945234145927695 0 0 0 0.42 67 196 114 382 134 46 184 28 
1263 0.282756023204442 -0.09571075663875354 1.0435649885929883 0 0 0 0.14 67 197 114 383 182 110 
1264 0.2996374490056446 -0.08937127540283085 1.0163673598800427 0 0 0 0.14 67 198 114 384 120 126 
1265 0.24465119719941464 -0.06981599690958123 1.078964707133972 0 0 0 0.53 67 199 114 385 120 127 134 47 152 213 182 111 
1266 0.24909886331486053 -0.05303610031681637 1.0690983003192587 0 0 0 0.18 67 200 114 386 120 128 138 209 
1267 0.27980073295223656 -0.15244361666167042 1.0510000671871866 0 0 0 0.43 67 201 87 37 114 387 163 37 
1268 0.29054653301583067 -0.10629092367608826 1.0301714482185893 0 0 0 0.14 67 202 114 388 138 210 182 112 
1269 0.243663529613205 -0.05760793909793835 1.082465009793957 0 0 0 0.43 67 203 114 389 120 129 138 211 152 214 
1270 0.2835657865171044 -0.1460703632897885 1.0501019910597584 0 0 0 0.25 67 204 81 180 114 390 129 129 134 48 163 38 197 73 235 42 
1271 0.31585305739153896 -0.12912944334385532 0.9963588850587821 0 0 0 0.36 67 205 114 391 120 130 134 49 
1272 0.17002543656928332 -0.1324870258060016 1.2214241203861527 0 0 0 0.66 67 206 71 212 73 134 111 292 114 392 165 57 56 284 105 25 162 99 222 171 235 43 
1273 -0.46118792437785516 -0.18048222956126023 0.9714940842002618 0 0 0 0.35 71 213 111 293 114 393 164 164 209 135 
1274 -0.43270227765168046 -0.05779648314136649 0.9725633242931797 0 0 0 0.1 71 214 73 135 114 394 
1275 -0.43482684172432023 -0.13462394706954997 0.9731476443163505 0 0 0 0.24 73 136 114 395 157 132 50 217 209 136 160 195 219 267 11 167 111 294 
1276 -0.4209786971960492 -0.0966945591768604 0.976776965939305 0 0 0 0.33 73 137 114 396 157 133 164 165 172 182 50 218 61 128 118 289 209 137 224 73 227 293 
1277 0.11376131660041726 -0.14627128392186192 1.169854910007868 0 0 0 0.4 73 138 114 397 162 100 163 39 
1278 0.08879368296072399 -0.10203599041036847 1.1505119304046405 0 0 0 0.37 73 139 114 398 147 161 
1279 0.22859207426428638 0.014945304425535162 1.0946878429445617 0 0 0 0.24 77 90 114 399 163 40 165 58 
1280 0.21819924654910902 -0.0882267966888013 1.1185082657230685 0 0 0 0.18 81 181 111 295 114 400 165 59 
1281 -0.46331625316467406 0.004657143700780037 0.9531683098671584 0 0 0 0.1 81 182 114 401 176 137 
1282 0.2571559591710119 -0.07425815445226241 1.0702788089685207 0 0 0 0.5 81 183 87 38 111 296 114 402 120 131 129 130 138 212 152 215 182 113 
1283 0.2262141670869602 -0.03529523674858253 1.1032403189311657 0 0 0 0.32 82 25 114 403 134 50 182 114 
1284 0.2157527807218183 -0.0336768441154867 1.1164365970266692 0 0 0 0.46 82 26 114 404 129 131 152 216 182 115 
1285 0.21017462650506932 -0.11294881253580011 1.4815104941161792 0 0 0 0.51 87 39 114 405 197 74 
1286 0.2535591510402975 -0.04960397639740623 1.0651887585362385 0 0 0 0.47 87 40 114 406 120 132 129 132 138 213 
1287 0.22958223454075305 0.006022987723423592 1.1031151569928823 0 0 0 0.3 87 41 114 407 129 133 
1288 -0.2623288074340851 -0.0754528409945695 1.0134736080257636 0 0 0 0.31 114 408 129 134 138 214 157 134 164 166 
1289 -0.5011491004106342 -0.1680241289621682 0.9617482636786348 0 0 0 0.34 111 297 114 409 118 290 126 8 209 138 
1290 -0.509261351902046 -0.1625462984621941 0.9586157421493031 0 0 0 0.31 114 410 164 167 103 155 111 298 209 139 224 74 
1291 -0.4145883320022562 -0.16321335246828905 0.9812091776938247 0 0 0 0.38 96 197 114 411 172 183 179 508 204 362 
1292 -0.39162900506224985 -0.1794896883624738 0.9846980805832917 0 0 0 0.69 96 198 114 412 181 102 1 194 111 299 209 140 
1293 0.20214823035273496 -0.048325504327408536 1.247597046373628 0 0 0 0.38 97 145 103 156 114 413 197 75 
1294 0.3125913980304782 -0.13432875573478578 0.9926239025135885 0 0 0 0.3 97 146 114 414 197 76 
1295 0.08959535616246167 -0.19011169684081983 1.1970055996666502 0 0 0 0.29 103 157 114 415 184 29 
1296 0.09648088193042992 -0.17751899738815793 1.2150347059463322 0 0 0 0.24 103 158 114 416 184 30 
1297 0.12677225218511207 -0.14228379323574392 1.1652162361661167 0 0 0 0.23 103 159 114 417 162 101 163 41 
1298 0.23726805645306728 -0.10509430115562604 1.1036560788761074 0 0 0 0.21 103 160 114 418 190 396 
1299 0.23488063265957965 -0.05174439901415591 1.0931186182455577 0 0 0 0.12 111 300 114 419 120 133 134 51 
1300 0.317388435061332 -0.14023733015134904 0.9989515425466787 0 0 0 0.35 114 420 120 134 138 215 163 42 182 116 
1301 0.2630314891357311 -0.1204234195516597 1.066428488660825 0 0 0 0.11 114 421 184 31 197 77 
1302 0.3073436870265379 -0.09277994293702349 1.0045880726095744 0 0 0 0.27 114 422 129 135 138 216 182 117 
1303 0.2935474886800889 -0.12553155492125595 1.0322196072292278 0 0 0 0.36 111 301 114 423 147 162 
1304 0.23169918052021302 -0.07843006052485223 1.1003639404450236 0 0 0 0.5 111 302 114 424 165 60 190 397 
1305 0.2292218364052989 -0.013239176968588538 1.0956088769850758 0 0 0 0.2 111 303 114 425 163 43 
1306 0.28056325092515344 -0.1443994971014674 1.0532273780624273 0 0 0 0.45 111 304 114 426 123 14 
1307 0.30676232851764457 -0.08137875715362672 1.005769846553899 0 0 0 0.33 111 305 114 427 120 135 
1308 0.22499537983998105 -0.11569357352249585 1.113664515689033 0 0 0 0.33 111 306 114 428 129 136 190 398 
1309 0.28519970484029117 -0.137824440039168 1.0469011261297654 0 0 0 0.23 114 429 120 136 123 15 182 118 
