# 3D point list with one line of data per point:
#   POINT3D_ID, X, Y, Z, R, G, B, ERROR, TRACK[] as (IMAGE_ID, POINT2D_IDX)
# Number of points: 417, mean track length: 6.85
6403 0.7700045523858032 0.2912916843931211 1.089680371594368 0 0 0 0.34 85 2027 92 1739 110 1101 136 719 148 1876 165 976 
6404 0.46432106448700666 0.34282511119242154 1.1750036756517788 0 0 0 0.16 92 1740 124 676 146 1649 157 1098 
6405 0.6647883593404059 0.3093762520117678 1.1210560663714422 0 0 0 0.34 92 1741 96 1338 159 899 164 1889 165 977 176 1123 185 509 
6406 0.4822579516346836 0.3405526744733875 1.1734045320808153 0 0 0 0.4 52 994 92 1742 96 1339 128 1215 135 169 148 1877 158 503 159 900 162 547 176 1124 185 510 
6407 0.48779944503719963 0.3401014315989916 1.1723850246677598 0 0 0 0.29 92 1743 127 675 135 170 176 1125 
6408 0.5588741756021033 0.32648900893698096 1.1450135763895009 0 0 0 0.26 92 1744 124 677 146 1650 157 1099 176 1126 
6409 0.3980957476071364 0.3569266025853552 1.202797670222057 0 0 0 0.37 92 1745 136 720 172 550 
6410 0.7124750241381985 0.301553131223606 1.1033715811026996 0 0 0 0.06 92 1746 165 978 176 1127 
6411 0.6748054091230654 0.3098769508792489 1.1193337679161541 0 0 0 0.23 92 1747 110 1102 136 721 164 1890 
6412 0.484521393831088 0.34116253061560525 1.1695380592449933 0 0 0 0.14 92 1748 135 171 164 1891 
6413 0.67050704067263 0.31092227043465026 1.1210698186454586 0 0 0 0.17 92 1749 136 722 185 511 
6414 0.5553275879786999 0.32993701378734264 1.1464481554630948 0 0 0 0.19 92 1750 93 575 124 678 135 172 
6415 0.5867965694504176 0.3249408173048245 1.1382134963393404 0 0 0 0.13 92 1751 93 576 135 173 
6416 0.4716278152446698 0.34436987569822614 1.1702153572981517 0 0 0 0.11 92 1752 93 577 127 676 146 1651 176 1128 
6417 0.5244846246261129 0.33559539135797045 1.1556017060849995 0 0 0 0.33 92 1753 93 578 124 679 135 174 
6418 0.6077122169855392 0.32278906304067434 1.1357699603824296 0 0 0 0.32 92 1754 93 579 146 1652 176 1129 
6419 0.6667353383847009 0.31274360399340145 1.1175244997560265 0 0 0 0.22 92 1755 124 680 135 175 157 1100 
6420 0.7324210411602616 0.3027155642972701 1.102502868592854 0 0 0 0.11 91 942 92 1756 105 555 146 1653 164 1892 
6421 0.5636808027837472 0.330542670376109 1.1444807738504494 0 0 0 0.31 92 1757 107 455 146 1654 164 1893 
6422 0.555034134288249 0.3327235197255594 1.1486966261668166 0 0 0 0.33 92 1758 124 681 135 176 
6423 0.35244036492989816 0.3704948014385573 1.2193874664761155 0 0 0 0.08 92 1759 164 1894 176 1130 
6424 0.605736281280354 0.3246538949770771 1.1344668290963038 0 0 0 0.38 92 1760 107 456 146 1655 
6425 0.46530079716882045 0.3478067434559973 1.1718124390488232 0 0 0 0.29 92 1761 124 682 146 1656 176 1131 
6426 0.6381966611440859 0.31964307816745385 1.1256288845179558 0 0 0 0.38 92 1762 146 1657 164 1895 
6427 0.761041664078195 0.29989531550156995 1.0940024824813561 0 0 0 0.08 92 1763 110 1103 164 1896 
6428 0.3198113153883181 0.3782635725010248 1.2341683971200084 0 0 0 0.06 92 1764 113 101 164 1897 
6429 0.5601519224510718 0.3339362647770101 1.145992531457242 0 0 0 0.3 92 1765 93 580 107 457 124 683 135 177 
6430 0.7469889626142715 0.3031754518559802 1.0946467171371979 0 0 0 0.51 28 853 77 2966 92 1766 105 556 110 1104 146 1658 157 1101 164 1898 165 979 
6431 0.863642298008626 0.28877277360489867 1.082452510664562 0 0 0 0.33 92 1767 107 458 136 723 148 1878 164 1899 
6432 0.4373410225711465 0.35429299258978647 1.1781193831972507 0 0 0 0.21 28 854 92 1768 124 684 146 1659 158 504 164 1900 176 1132 
6433 0.4459013411912624 0.3531391508145583 1.176859660053135 0 0 0 0.16 28 855 92 1769 136 724 146 1660 164 1901 176 1133 
6434 0.5870058761915511 0.3294505462027456 1.1370175797179107 0 0 0 0.25 85 2028 91 943 92 1770 93 581 146 1661 148 1879 176 1134 185 512 
6435 0.30340776949582055 0.3829379465801737 1.2388132434064192 0 0 0 0.38 85 2029 92 1771 93 582 113 102 164 1902 
6436 0.5314108946505011 0.33907077961262894 1.152701278725785 0 0 0 0.24 61 1452 92 1772 93 583 124 685 146 1662 148 1880 157 1102 185 513 
6437 0.5821267787351997 0.3315707734169376 1.141306368107991 0 0 0 0.14 92 1773 93 584 146 1663 
6438 0.6272432810013707 0.3229704713793001 1.1254731166854481 0 0 0 0.24 14 272 61 1453 92 1774 135 178 
6439 0.2859196985427824 0.3872557786152395 1.2463654914776776 0 0 0 0.39 92 1775 158 505 164 1903 176 1135 
6440 0.28958235251245795 0.38709128545249694 1.2468408015994825 0 0 0 0.52 92 1776 118 2158 146 1664 148 1881 176 1136 
6441 0.40300717986831 0.3627242758541384 1.1959113669351629 0 0 0 0.29 28 856 92 1777 93 585 124 686 135 179 136 725 146 1665 157 1103 
6442 0.4030222020996085 0.36268443877348866 1.1959842137339538 0 0 0 0.32 92 1778 93 586 124 687 128 1216 135 180 157 1104 
6443 0.4114983292713372 0.3609397787524688 1.1919031347318876 0 0 0 0.36 92 1779 110 1105 135 181 136 726 159 901 
6444 0.4876406586630575 0.3474578349905434 1.1677995180118983 0 0 0 0.52 92 1780 124 688 135 182 146 1666 
6445 0.5168110643391115 0.343500104614424 1.1629014232105073 0 0 0 0.3 92 1781 110 1106 146 1667 164 1904 
6446 0.37087137340428666 0.36996459395294035 1.2099165835760843 0 0 0 0.23 92 1782 110 1107 136 727 176 1137 
6447 0.4315556130868596 0.35753884363190097 1.1849646349765934 0 0 0 0.56 92 1783 124 689 128 1217 136 728 
6448 0.4317581114046148 0.357752599526362 1.1770785611937415 0 0 0 0.52 71 1011 77 2967 92 1784 113 103 164 1905 
6449 0.3689408533251178 0.37350318586587816 1.2098205817903147 0 0 0 0.22 52 995 92 1785 96 1340 136 729 172 551 
6450 0.2326591130131365 0.40241339177254476 1.2692393132232203 0 0 0 0.29 92 1786 159 902 164 1906 
6451 0.3320854577444787 0.38222798542350905 1.2238682563669447 0 0 0 0.3 92 1787 107 459 113 104 124 690 146 1668 176 1138 
6452 0.2126478986197937 0.4094116969018578 1.2751356203068578 0 0 0 0.43 92 1788 159 903 176 1139 
6453 0.2377915375662929 0.4039981294449625 1.2624351542731511 0 0 0 0.38 92 1789 118 2159 157 1105 164 1907 172 552 
6454 0.6222831503060745 0.3331906502531848 1.1219719395229049 0 0 0 0.17 92 1790 146 1669 164 1908 
6455 0.3736881075411274 0.3793027028428073 1.205363766478078 0 0 0 0.37 77 2968 92 1791 93 587 124 691 135 183 146 1670 157 1106 176 1140 
6456 0.6241378571694891 0.3338861599966124 1.1213374169025905 0 0 0 0.19 92 1792 93 588 146 1671 
6457 0.4082816482776321 0.3725625407256792 1.1894570523392618 0 0 0 0.24 92 1793 124 692 157 1107 176 1141 
6458 0.3056099481162546 0.3948266415802338 1.232917441891824 0 0 0 0.2 92 1794 113 105 148 1882 176 1142 
6459 0.46981206516779545 0.3618845523260447 1.165117195370889 0 0 0 0.3 92 1795 146 1672 176 1143 
6460 0.3717977424757737 0.38429986564767044 1.2033187227220417 0 0 0 0.25 92 1796 124 693 146 1673 148 1883 157 1108 158 506 176 1144 
6461 0.3105499974690464 0.3975258129262674 1.2284756845986644 0 0 0 0.37 92 1797 113 106 176 1145 
6462 0.23431526483910767 0.41459899860182853 1.2618408354811812 0 0 0 0.35 61 1454 92 1798 113 107 118 2160 148 1884 164 1909 
6463 0.37194852743615037 0.38979997879530826 1.20227126002818 0 0 0 0.37 92 1799 93 589 124 694 146 1674 157 1109 
6464 0.37566125528048183 0.3904015248648539 1.1986229954293182 0 0 0 0.58 92 1800 110 1108 124 695 
6465 0.41689359572854223 0.38322087681991673 1.184474026173209 0 0 0 0.97 28 857 92 1801 110 1109 146 1675 164 1910 
6466 0.4609373780250473 0.3751315344453512 1.1676192972189465 0 0 0 0.41 92 1802 164 1911 176 1146 
6467 0.5583606900366948 0.35776242726386603 1.1365416396680863 0 0 0 0.24 28 858 92 1803 93 590 146 1676 
6468 0.28746007939717283 0.41149088667461114 1.2394368885032583 0 0 0 0.25 92 1804 113 108 176 1147 
6469 0.39302890463801576 0.3895136459684563 1.195442853497415 0 0 0 0.29 92 1805 93 591 124 696 135 184 136 730 158 507 164 1912 176 1148 
6470 0.393179230706322 0.38968934427637286 1.1960035729369025 0 0 0 0.16 92 1806 110 1110 176 1149 
6471 0.6232971350181753 0.3473191557832833 1.1170576198243551 0 0 0 0.36 92 1807 136 731 164 1913 
6472 0.6232534145690732 0.34724244253417574 1.1169347163098613 0 0 0 0.29 92 1808 136 732 146 1677 164 1914 
6473 0.37405517489589846 0.3930342607026329 1.1985885593986725 0 0 0 0.27 77 2969 92 1809 146 1678 176 1150 
6474 0.6585566478514776 0.34184504647381514 1.106173066789893 0 0 0 0.3 92 1810 93 592 146 1679 165 980 
6475 0.245755295111132 0.4215675591048178 1.2517444810209066 0 0 0 0.19 92 1811 113 109 172 553 176 1151 
6476 0.245755295111132 0.4215675591048178 1.2517444810209066 0 0 0 0.19 92 1812 113 110 172 554 176 1152 
6477 0.6301094338026932 0.34821560289816683 1.1138656500246855 0 0 0 0.31 92 1813 124 697 146 1680 
6478 0.5584718845977554 0.36283763010215325 1.1346044693052322 0 0 0 0.13 92 1814 93 593 136 733 146 1681 
6479 0.5724875965343127 0.3612874783281189 1.1335099967829907 0 0 0 0.06 92 1815 93 594 110 1111 
6480 0.5666055026780514 0.362239743502509 1.1318377521205523 0 0 0 0.48 92 1816 96 1341 127 677 136 734 148 1885 
6481 0.36339302151151653 0.3995273833593394 1.199555063289017 0 0 0 0.38 28 859 92 1817 103 635 118 2161 128 1218 146 1682 
6482 0.45196655465381785 0.3850004266795905 1.1682099828459416 0 0 0 0.16 92 1818 136 735 164 1915 
6483 0.5865159748640852 0.36081832122250124 1.124743216231809 0 0 0 0.35 61 1455 89 446 92 1819 93 595 96 1342 103 636 110 1112 120 581 124 698 127 678 135 185 136 736 146 1683 
6484 0.442577062143873 0.386067584656596 1.164678930285895 0 0 0 0.3 92 1820 93 596 146 1684 
6485 0.3419885817773709 0.40728310115076055 1.2041666812247105 0 0 0 0.11 92 1821 146 1685 157 1110 
6486 0.5590712439412904 0.3682270110412425 1.132288644238132 0 0 0 0.35 92 1822 93 597 146 1686 164 1916 
6487 0.40639657987543915 0.39784486394545737 1.18165375064082 0 0 0 0.28 52 996 85 2030 92 1823 93 598 146 1687 148 1886 164 1917 172 555 176 1153 
6488 0.43931680130287215 0.39317721610050227 1.1674093326987316 0 0 0 0.24 92 1824 110 1113 185 514 
6489 0.4725178583459932 0.38703721266641045 1.1551375408606153 0 0 0 0.38 28 860 92 1825 93 599 110 1114 146 1688 176 1154 
6490 0.47202493961313813 0.38683221281489477 1.1538468559472435 0 0 0 0.2 92 1826 146 1689 176 1155 
6491 0.4117110105858773 0.4035098533302662 1.174952296840514 0 0 0 0.32 92 1827 110 1115 146 1690 176 1156 
6492 0.5150905411773921 0.3837410895300243 1.1394918366216806 0 0 0 0.44 28 861 92 1828 110 1116 146 1691 
6493 0.4100679892932313 0.405670822154437 1.175795819643116 0 0 0 0.33 28 862 92 1829 110 1117 146 1692 176 1157 
6494 0.46954520379920944 0.39540042647149404 1.1526482935458497 0 0 0 0.31 92 1830 110 1118 146 1693 176 1158 
6495 0.4730134877231175 0.39710138903330505 1.1506974362325975 0 0 0 0.38 92 1831 148 1887 176 1159 
6496 0.4729032543568319 0.3975995615554171 1.1511985564127944 0 0 0 0.25 92 1832 93 600 124 699 
6497 0.5897335144594384 0.3777452161707947 1.1170768429170412 0 0 0 0.41 28 863 92 1833 93 601 120 582 124 700 135 186 146 1694 164 1918 172 556 
6498 0.4390803404181826 0.4033093296523445 1.1590244963800647 0 0 0 0.36 77 2970 92 1834 93 602 
6499 0.6552701812423413 0.3670176384928475 1.0961174210251354 0 0 0 0.29 92 1835 146 1695 163 227 
6500 0.3766994232844023 0.41945149881029564 1.188419891930696 0 0 0 0.29 92 1836 148 1888 164 1919 
6501 0.280645641445455 0.4418544198459974 1.2259132939267763 0 0 0 0.31 92 1837 113 111 146 1696 176 1160 
6502 0.4394825804059828 0.4069868021150684 1.1578046839053924 0 0 0 0.36 92 1838 110 1119 148 1889 158 508 164 1920 
6503 0.37711709064094145 0.4234233200391571 1.188484872714915 0 0 0 0.18 92 1839 124 701 148 1890 164 1921 
6504 0.37282794543509457 0.42565417883175527 1.1877502014425692 0 0 0 0.49 92 1840 93 603 124 702 157 1111 
6505 0.469907906061275 0.4071631789466616 1.1478776311609433 0 0 0 0.22 92 1841 148 1891 176 1161 
6506 0.4120989408799745 0.4195832086029857 1.1692471476179331 0 0 0 0.26 92 1842 110 1120 176 1162 
6507 0.2807511566241589 0.44812261204515924 1.2229402125662097 0 0 0 0.45 92 1843 146 1697 176 1163 
6508 0.6548005283439934 0.3782369159192115 1.093967384895584 0 0 0 0.2 92 1844 93 604 146 1698 
6509 0.4123393636522768 0.42219734241158574 1.168054533590661 0 0 0 0.13 92 1845 146 1699 176 1164 
6510 0.40729025916696204 0.42565256880186475 1.1688301464388824 0 0 0 0.14 92 1846 124 703 157 1112 176 1165 
6511 0.615154002959979 0.10538866455832319 1.2253727482363677 0 0 0 0.15 92 1847 163 228 172 557 
6512 0.272520400624909 0.20254663612362572 1.3254048053280536 0 0 0 0.14 92 1848 93 605 107 460 
6513 0.37310474077899514 0.1861521048339056 1.2825407013207566 0 0 0 0.11 92 1849 107 461 159 904 
6514 0.6590931279398402 0.1511418558855165 1.1869455569225518 0 0 0 0.51 85 2031 92 1850 93 606 107 462 110 1121 118 2162 136 737 146 1700 148 1892 164 1922 182 353 
6515 0.8262534606904545 0.1258013565707699 1.146414566029435 0 0 0 0.41 92 1851 105 557 124 704 165 981 182 354 
6516 0.7688575318452157 0.13610519892328543 1.158522834083097 0 0 0 0.37 73 684 85 2032 92 1852 103 637 164 1923 
6517 0.646320462387554 0.15795760594445094 1.1875442431408176 0 0 0 0.28 92 1853 124 705 136 738 164 1924 176 1166 
6518 0.73577939161381 0.14312974437746578 1.1622312336385843 0 0 0 0.16 92 1854 96 1343 164 1925 176 1167 
6519 0.463036985460655 0.19480221997434818 1.2364057466295457 0 0 0 0.21 92 1855 96 1344 158 509 172 558 
6520 0.4527746487328906 0.19706664081469769 1.2371736977816488 0 0 0 1.1 85 2033 92 1856 93 607 136 739 148 1893 157 1113 162 548 
6521 0.37755626884973287 0.2133168170009682 1.2796908341774549 0 0 0 0.38 61 1456 92 1857 96 1345 146 1701 
6522 0.7466850662699658 0.1501250487219252 1.1625432297908944 0 0 0 0.31 92 1858 96 1346 146 1702 147 507 158 510 172 559 176 1168 
6523 0.37024095932318063 0.22523917849310027 1.2689243721848842 0 0 0 0.73 61 1457 92 1859 146 1703 164 1926 176 1169 
6524 0.7908715507491003 0.15374082530388608 1.1344688751285161 0 0 0 0.21 92 1860 146 1704 182 355 
6525 0.8025394169971831 0.15202295149774664 1.1369394173226541 0 0 0 0.54 77 2971 92 1861 107 463 164 1927 
6526 0.6844700160173341 0.1734611496869063 1.1631530327604571 0 0 0 0.23 92 1862 96 1347 152 342 162 549 
6527 0.582364050993269 0.19388432960767266 1.195005678342735 0 0 0 0.34 92 1863 110 1122 124 706 157 1114 176 1170 
6528 0.8054399785642261 0.15655554934111565 1.1344279728824125 0 0 0 0.59 77 2972 85 2034 91 944 92 1864 105 558 141 91 148 1894 165 982 170 98 176 1171 184 496 
6529 0.7664110845026112 0.17194997067170759 1.144428562481998 0 0 0 0.28 92 1865 120 583 127 679 146 1705 163 229 
6530 0.6218352872462513 0.19733554935025518 1.1797033474809975 0 0 0 0.49 92 1866 96 1348 107 464 185 515 
6531 0.6221557533995296 0.19731166779022752 1.1805354057153141 0 0 0 0.42 25 889 26 757 71 1012 77 2973 91 945 92 1867 93 608 107 465 118 2163 127 680 146 1706 148 1895 157 1115 164 1928 176 1172 
6532 0.40644992832186033 0.2378537503688661 1.2456360860483642 0 0 0 0.46 28 864 77 2974 92 1868 107 466 158 511 164 1929 
6533 0.7881455577210779 0.1728837289667199 1.136128075743022 0 0 0 0.34 92 1869 136 740 146 1707 162 550 170 99 182 356 
6534 0.7877009924498152 0.1728171099715959 1.1355957118592765 0 0 0 0.39 62 377 77 2975 85 2035 92 1870 118 2164 127 681 136 741 146 1708 148 1896 162 551 165 983 170 100 176 1173 182 357 
6535 0.7053892143943026 0.18867786747945425 1.1565626138537355 0 0 0 0.5 52 997 77 2976 92 1871 96 1349 148 1897 159 905 176 1174 
6536 0.29025773987854114 0.2684556583661346 1.2951487571199178 0 0 0 0.31 92 1872 97 425 146 1709 148 1898 164 1930 176 1175 
6537 0.5540322016723088 0.22430538079604123 1.1929986883811863 0 0 0 0.45 92 1873 93 609 96 1350 158 512 
6538 0.7110083126762581 0.20118983499719764 1.1512030862225793 0 0 0 0.21 77 2977 91 946 92 1874 146 1710 148 1899 164 1931 165 984 176 1176 182 358 184 497 
6539 0.19782084014717247 0.2932160915135099 1.3326768672553262 0 0 0 0.5 92 1875 164 1932 176 1177 
6540 0.329623099724911 0.27478008854284425 1.2715820734648078 0 0 0 0.19 77 2978 92 1876 103 638 111 802 128 1219 146 1711 
6541 0.6144984018548572 0.22581631853109585 1.1727416134774507 0 0 0 0.4 28 865 92 1877 93 610 146 1712 157 1116 
6542 0.4747114917185268 0.2623425327720385 1.2118355177597213 0 0 0 0.25 92 1878 176 1178 185 516 
6543 0.47466293391148107 0.2661288006406842 1.2098678772889435 0 0 0 0.36 92 1879 103 639 118 2165 146 1713 176 1179 185 517 
6544 0.7858619842832754 0.22011557313226485 1.121236159704736 0 0 0 0.17 92 1880 165 985 182 359 
6545 0.338862102686644 0.30564341430874553 1.2566150754109218 0 0 0 0.93 28 866 92 1881 157 1117 
6546 0.5764156165566693 0.2645356648728098 1.17236075279965 0 0 0 0.06 92 1882 93 611 135 187 
6547 0.3931638394114788 0.29887928243418765 1.2338363521107107 0 0 0 0.06 92 1883 128 1220 176 1180 
6548 0.4881222706051535 0.28280740934232046 1.2012162109263305 0 0 0 0.41 92 1884 96 1351 103 640 158 513 172 560 
6549 0.5079564820460104 0.2788173994922266 1.1906506472979048 0 0 0 0.27 92 1885 103 641 164 1933 
6550 0.5081471667529974 0.27891834399590454 1.1917566082618003 0 0 0 0.25 92 1886 96 1352 103 642 
6551 0.5353649264816214 0.2743230900557043 1.1851576872114644 0 0 0 0.21 92 1887 96 1353 176 1181 
6552 0.6591603306844412 0.25391587822628975 1.1485749921662332 0 0 0 0.28 52 998 54 577 85 2036 91 947 92 1888 93 612 96 1354 107 467 148 1900 162 552 
6553 0.8090830204202405 0.2293380641890582 1.1084965878830182 0 0 0 0.23 77 2979 92 1889 146 1714 147 508 163 230 165 986 170 101 
6554 0.4919637545747027 0.28642709366380537 1.1972700332118733 0 0 0 0.12 92 1890 96 1355 176 1182 
6555 0.5712142127580878 0.27387870384974283 1.1718486427879748 0 0 0 0.36 92 1891 93 613 135 188 162 553 
6556 0.5409310854939485 0.2795842918203553 1.1825946342553164 0 0 0 0.17 92 1892 135 189 162 554 
6557 0.5742975635485249 0.2757594502087508 1.1717818164476563 0 0 0 0.36 77 2980 92 1893 93 614 135 190 162 555 164 1934 
6558 0.48383543991273015 0.2911740791755448 1.1968340557593573 0 0 0 0.22 92 1894 164 1935 185 518 
6559 0.48388669321957256 0.29131802219438796 1.197534476569412 0 0 0 0.18 77 2981 92 1895 128 1221 146 1715 164 1936 176 1183 185 519 
6560 0.5019707222976401 0.2894421465416919 1.1878725469538238 0 0 0 0.37 92 1896 96 1356 135 191 
6561 0.30553169287687465 0.32766604989287224 1.2620216228682792 0 0 0 0.15 92 1897 107 468 176 1184 
6562 0.282048654461859 0.3422154934285622 1.2748887490032028 0 0 0 0.25 52 999 77 2982 92 1898 107 469 164 1937 172 561 
6563 0.4934457837592767 0.3008742142281034 1.1816467773149457 0 0 0 0.13 92 1899 96 1357 135 192 
6564 0.4929120455417388 0.30482618213532015 1.1886055810809588 0 0 0 0.19 92 1900 135 193 176 1185 
6565 0.8904901607210564 0.24955833230961486 1.1041461093348037 0 0 0 0.78 35 207 54 578 61 1458 71 1013 73 685 85 2037 92 1901 97 426 103 643 111 803 118 2166 128 1222 147 509 164 1938 
6566 0.7516327364024967 0.2677293953425277 1.1136598796247137 0 0 0 0.25 92 1902 164 1939 182 360 
6567 0.6303244282941365 0.29022837825714626 1.1454063263150633 0 0 0 0.18 92 1903 159 906 185 520 
6568 0.25086172464896633 0.3646064701749351 1.2820323550362802 0 0 0 0.13 92 1904 96 1358 113 112 164 1940 
6569 0.6140985607790028 0.29865079827043906 1.1369989504328717 0 0 0 0.01 92 1905 96 1359 135 194 
6570 0.6520991573044685 0.29241182748613387 1.1275388624076847 0 0 0 0.4 92 1906 124 707 135 195 
6571 0.7216453456195374 0.2853355135360851 1.1112328953624986 0 0 0 0.31 92 1907 124 708 175 68 182 361 
6572 0.46454538970719783 0.33070121083901116 1.181596391523986 0 0 0 0.31 92 1908 111 804 185 521 
6573 0.5227021392773183 0.32103009657244985 1.1635291182352099 0 0 0 0.45 92 1909 96 1360 111 805 124 709 135 196 158 514 172 562 
6574 0.6068250601062003 0.30845341199987975 1.1453300573485754 0 0 0 0.19 92 1910 93 615 111 806 135 197 162 556 163 231 
6575 0.5454170325772439 0.31984453559755477 1.1650125964273257 0 0 0 0.09 92 1911 111 807 162 557 
6576 0.5454660017536183 0.31984422803380447 1.165298512234198 0 0 0 0.09 92 1912 135 198 162 558 
6577 0.5174074973166487 0.325824267935723 1.1689312710493207 0 0 0 0.26 92 1913 96 1361 118 2167 128 1223 146 1716 
6578 0.657715211942121 0.3016535674593793 1.1230891190800916 0 0 0 0.33 92 1914 135 199 175 69 
6579 0.40525723631259253 0.3462949822589288 1.2008093972573943 0 0 0 0.46 92 1915 96 1362 124 710 172 563 
6580 0.43568052320599054 0.340581431863394 1.1828467940855123 0 0 0 0.27 92 1916 96 1363 118 2168 128 1224 172 564 176 1186 185 522 
6581 0.6802447071205213 0.30020171292112086 1.1176762034901204 0 0 0 0.13 92 1917 118 2169 157 1118 182 362 
6582 0.47393938330438934 0.33614377374268545 1.1743196790579837 0 0 0 0.39 52 1000 92 1918 93 616 96 1364 127 682 148 1901 159 907 
6583 0.6769003767490085 0.3024110538885283 1.1209009067950955 0 0 0 0.28 14 273 69 340 77 2983 85 2038 89 447 91 948 92 1919 97 427 107 470 110 1123 118 2170 124 711 146 1717 152 343 157 1119 164 1941 165 987 182 363 185 523 
6584 0.4934882812175597 0.3325819547248066 1.1685658221595339 0 0 0 0.47 28 867 92 1920 96 1365 124 712 135 200 146 1718 176 1187 
6585 0.4684625900652206 0.33715553394567654 1.1704995717357545 0 0 0 0.31 92 1921 162 559 185 524 
6586 0.6495313776218555 0.30748074470154535 1.1204820076994224 0 0 0 0.45 28 868 92 1922 118 2171 146 1719 152 344 157 1120 158 515 175 70 182 364 
6587 0.8920757330232254 0.2766584127092848 1.0936700513505657 0 0 0 0.28 92 1923 118 2172 164 1942 
6588 0.4914344965841165 0.3362363829531863 1.1703856336119467 0 0 0 0.36 77 2984 92 1924 96 1366 97 428 111 808 118 2173 120 584 124 713 127 683 135 201 158 516 185 525 
6589 0.5573880115203448 0.32258982237472106 1.1403196915082339 0 0 0 0.54 92 1925 96 1367 135 202 
6590 0.670198565209268 0.30793559708666307 1.121527570501466 0 0 0 0.37 85 2039 91 949 92 1926 93 617 103 644 107 471 136 742 146 1720 147 510 157 1121 164 1943 165 988 185 526 
6591 0.5955195669186738 0.3199529913777549 1.138749476940593 0 0 0 0.5 91 950 92 1927 93 618 96 1368 135 203 136 743 164 1944 
6592 0.474326854922619 0.3405122994847901 1.1711148541624068 0 0 0 0.38 92 1928 93 619 111 809 124 714 146 1721 148 1902 158 517 159 908 164 1945 
6593 0.7172851618793575 0.2994071445525704 1.1017486794749478 0 0 0 0.37 92 1929 93 620 182 365 
6594 0.48724223911485154 0.34278455363086807 1.1683532288474594 0 0 0 0.33 92 1930 118 2174 120 585 164 1946 
6595 0.3993103834525174 0.3607786424010076 1.205412539747202 0 0 0 0.28 92 1931 100 124 135 204 
6596 0.4806808009407567 0.34438228088640976 1.171787475544048 0 0 0 0.32 92 1932 111 810 127 684 148 1903 164 1947 
6597 0.5110595616339246 0.3404424818682846 1.1672877580724688 0 0 0 0.31 92 1933 111 811 135 205 162 560 
6598 0.58834095721936 0.3264712270705032 1.1370329712419636 0 0 0 0.31 92 1934 93 621 110 1124 136 744 
6599 0.435514536975169 0.35229167207767215 1.1792350433374799 0 0 0 0.29 77 2985 85 2040 92 1935 93 622 146 1722 164 1948 176 1188 
6600 0.4733679349770099 0.34619391864992216 1.1694696574124674 0 0 0 0.11 92 1936 93 623 124 715 148 1904 157 1122 
6601 0.5472334341786912 0.3339148517257389 1.1490821310425634 0 0 0 0.46 92 1937 124 716 146 1723 157 1123 
6602 0.46318305884221933 0.3489492903396473 1.173824532254172 0 0 0 0.36 77 2986 85 2041 92 1938 93 624 111 812 124 717 127 685 146 1724 148 1905 157 1124 164 1949 176 1189 
6603 0.7208930894816119 0.3056453841028026 1.1006125517086751 0 0 0 0.19 92 1939 146 1725 157 1125 
6604 0.26838148015171265 0.38843126661350863 1.2524210921780834 0 0 0 0.51 92 1940 107 472 172 565 
6605 0.2616358579121562 0.3910610297028549 1.2579321844422582 0 0 0 0.34 61 1459 85 2042 92 1941 96 1369 97 429 113 113 164 1950 176 1190 
6606 0.5649978030816343 0.33356551707660037 1.1448913692444749 0 0 0 0.42 25 890 61 1460 85 2043 92 1942 93 625 96 1370 103 645 111 813 118 2175 135 206 146 1726 148 1906 164 1951 185 527 
6607 0.7650635134272219 0.30137637858573313 1.0933749309434915 0 0 0 0.23 92 1943 146 1727 164 1952 165 989 
6608 0.7873155910232815 0.2972581159168872 1.085740525305924 0 0 0 0.46 92 1944 164 1953 176 1191 
6609 0.795106605142492 0.29659720220204916 1.0857254336072486 0 0 0 0.36 92 1945 146 1728 164 1954 
6610 0.6661041718970147 0.3176041897001196 1.1188339914658911 0 0 0 0.16 92 1946 96 1371 146 1729 
6611 0.44926399043193443 0.35591589045125643 1.1783724655044208 0 0 0 0.17 92 1947 124 718 146 1730 
6612 0.5996542786795763 0.3304073438814729 1.13583118396183 0 0 0 0.19 92 1948 96 1372 135 207 
6613 0.5848318857691308 0.33392520558491284 1.1418125477233865 0 0 0 0.18 92 1949 96 1373 176 1192 
6614 0.76839151640546 0.30298929355852366 1.0875076559664518 0 0 0 0.08 92 1950 164 1955 182 366 
6615 0.33848571251517734 0.3872679124569496 1.2165668374530134 0 0 0 0.44 28 869 92 1951 146 1731 
6616 0.5582079864697349 0.34786008568940024 1.1406054070315546 0 0 0 0.19 92 1952 96 1374 172 566 
6617 0.465412395314027 0.37044119182024965 1.1618549313189728 0 0 0 0.23 92 1953 96 1375 118 2176 
6618 0.5583111358988407 0.3555357186901326 1.137143173409964 0 0 0 0.39 92 1954 96 1376 118 2177 136 745 164 1956 
6619 0.24769659362823174 0.41700279320073774 1.2521768985147994 0 0 0 0.28 61 1461 92 1955 113 114 157 1126 176 1193 
6620 0.23882475019576885 0.42065220944657933 1.2554454751451618 0 0 0 0.24 92 1956 118 2178 164 1957 176 1194 
6621 0.3309339050763625 0.4042334213325373 1.2169273180992657 0 0 0 0.24 25 891 92 1957 124 719 146 1732 
6622 0.4645640035640997 0.3783103834020918 1.1617409585792444 0 0 0 0.37 92 1958 96 1377 118 2179 
6623 0.3416640384648053 0.4057126714514163 1.206886015860372 0 0 0 0.64 92 1959 135 208 146 1733 164 1958 
6624 0.3466768370994023 0.40422060192457443 1.2039206018286086 0 0 0 0.36 92 1960 113 115 124 720 148 1907 164 1959 176 1195 
6625 0.36205460015756324 0.4010349381723591 1.1973553065729003 0 0 0 0.42 92 1961 113 116 124 721 135 209 164 1960 
6626 0.4920217098857833 0.3779579298904815 1.1551922501767273 0 0 0 0.36 92 1962 110 1125 146 1734 164 1961 
6627 0.36986174871522076 0.4023716771893383 1.1969295943232636 0 0 0 0.68 77 2987 92 1963 118 2180 135 210 136 746 146 1735 148 1908 158 518 162 561 164 1962 
6628 0.5850179637659074 0.36357294513753974 1.1257134154835409 0 0 0 0.29 92 1964 110 1126 164 1963 
6629 0.35189815310184336 0.40969295584966886 1.2007909320914796 0 0 0 0.34 61 1462 77 2988 92 1965 107 473 113 117 135 211 164 1964 176 1196 
6630 0.5633852339819277 0.3703289256636214 1.1293349926627616 0 0 0 0.39 92 1966 93 626 136 747 146 1736 164 1965 
6631 0.2235113765366531 0.4391434200103595 1.2593518813050708 0 0 0 0.35 92 1967 113 118 164 1966 
6632 0.36011845698243206 0.4103902408759088 1.1975093400738106 0 0 0 0.37 92 1968 113 119 148 1909 158 519 172 567 176 1197 
6633 0.3484407606208411 0.4159372285455348 1.2045933058026796 0 0 0 0.45 92 1969 93 627 113 120 124 722 148 1910 157 1127 162 562 176 1198 
6634 0.3765424932473883 0.40957940455614594 1.191330990223097 0 0 0 0.31 92 1970 148 1911 176 1199 
6635 0.5109978042357319 0.383867755428401 1.138920835249738 0 0 0 0.71 92 1971 96 1378 164 1967 172 568 
6636 0.4098333458108802 0.41649525928304293 1.170573415363847 0 0 0 0.71 77 2989 92 1972 110 1127 118 2181 124 723 146 1737 164 1968 176 1200 
6637 0.5628795454273902 0.3892597536638411 1.1232114513947205 0 0 0 0.19 92 1973 93 628 96 1379 
6638 0.6550099535294626 0.374431345639948 1.0953230478977993 0 0 0 0.58 92 1974 96 1380 164 1969 172 569 
6639 0.23596545021034276 0.4589706310251385 1.241290453510534 0 0 0 0.47 92 1975 111 814 164 1970 
6640 0.3799458045609876 0.4354858591326335 1.1791805679031309 0 0 0 0.26 92 1976 113 121 146 1738 164 1971 
6641 0.36298293263688175 0.20482808056571108 1.283248041486882 0 0 0 0.31 92 1977 148 1912 159 909 164 1972 185 528 
6642 0.6576316207483581 0.1547731497924314 1.186429557226414 0 0 0 0.31 77 2990 92 1978 93 629 127 686 128 1225 172 570 185 529 
6643 0.6223394030101633 0.16347656982359046 1.1966815042537773 0 0 0 0.35 92 1979 110 1128 147 511 
6644 0.5013418408058302 0.18650924648277864 1.227658043209673 0 0 0 0.47 92 1980 100 125 112 100 
6645 0.5648650589073733 0.1863065770983169 1.2054948816038247 0 0 0 0.45 25 892 28 870 52 1001 61 1463 85 2044 92 1981 93 630 110 1129 118 2182 124 724 146 1739 148 1913 157 1128 164 1973 176 1201 
6646 0.485877276266247 0.20693565850658988 1.2248783032573747 0 0 0 0.35 92 1982 103 646 107 474 128 1226 
6647 0.33600901779096665 0.2355934704078236 1.2799563412746047 0 0 0 0.34 71 1014 92 1983 146 1740 
6648 0.5119779278093027 0.20827225239419989 1.2164385209590125 0 0 0 0.17 92 1984 97 430 164 1974 
6649 0.569326436489165 0.19936864347545724 1.1983070321206406 0 0 0 0.18 92 1985 93 631 97 431 
6650 0.19584795000423713 0.2686050775899684 1.343487572733786 0 0 0 0.48 92 1986 103 647 107 475 164 1975 176 1202 
6651 0.19098876475807305 0.27555888606790113 1.340900687585143 0 0 0 0.51 85 2045 92 1987 159 910 
6652 0.4913413490672105 0.2242655408894523 1.2153210822415654 0 0 0 0.23 28 871 77 2991 85 2046 92 1988 93 632 96 1381 124 725 136 748 146 1741 176 1203 185 530 
6653 0.6118718219040895 0.20360167645162264 1.180183958709988 0 0 0 0.28 92 1989 97 432 124 726 
6654 0.20621340105071792 0.2827059389287157 1.3335503889454818 0 0 0 0.41 65 524 67 435 71 1015 77 2992 96 1382 103 648 111 815 118 2183 127 687 128 1227 157 1129 159 911 172 571 176 1204 
6655 0.4994147091013994 0.24047153034014093 1.2076525099602282 0 0 0 0.37 92 1990 147 512 185 531 
6656 0.5866440832870727 0.225957638500255 1.1829505196072412 0 0 0 0.27 92 1991 172 572 185 532 
6657 0.4033838447737817 0.2749449585196579 1.236865494070334 0 0 0 0.07 92 1992 110 1130 124 727 
6658 0.43394280587216066 0.28118867405546943 1.2083741596491748 0 0 0 0.08 92 1993 164 1976 185 533 
6659 0.8088507946207061 0.22417189851782507 1.1101576281484684 0 0 0 0.2 92 1994 146 1742 152 345 170 102 182 367 
6660 0.46122039032496465 0.28681065605074124 1.2057355931439868 0 0 0 0.34 92 1995 112 101 146 1743 157 1130 
6661 0.6864520978898769 0.25004947376248526 1.1405183653998259 0 0 0 0.45 54 579 61 1464 73 686 87 93 92 1996 118 2184 152 346 157 1131 176 1205 182 368 
6662 0.4993151345093355 0.2856100390863335 1.194159836680508 0 0 0 0.2 92 1997 96 1383 147 513 
6663 0.5253684989879854 0.30288777718320214 1.1771345977313643 0 0 0 0.2 92 1998 96 1384 103 649 
6664 0.5220962357267421 0.303585892709015 1.1778530693968554 0 0 0 0.29 92 1999 97 433 111 816 118 2185 135 212 147 514 176 1206 
6665 0.6545549249265409 0.29109800890347887 1.1345881559859796 0 0 0 0.41 92 2000 96 1385 176 1207 
6666 0.90220034533087 0.25860450217624864 1.1013441369369183 0 0 0 0.27 92 2001 118 2186 120 586 128 1228 152 347 184 498 
6667 0.3646486641286117 0.3466616796788619 1.224401666823028 0 0 0 0.16 92 2002 96 1386 164 1977 
6668 0.6521874847374414 0.29764873952437754 1.1280649590343417 0 0 0 0.33 92 2003 136 749 176 1208 
6669 0.582946035670678 0.3093909660404074 1.1412875101121553 0 0 0 0.37 92 2004 96 1387 135 213 
6670 0.44894575611084364 0.3339816864701236 1.187130692409752 0 0 0 0.21 92 2005 176 1209 185 534 
6671 0.4579224112850852 0.33467191991605816 1.1939165022233462 0 0 0 0.15 96 1388 103 650 111 817 
6672 0.5147099922554363 0.3239170086583011 1.1733301485030567 0 0 0 0.16 92 2006 135 214 176 1210 
6673 0.6160425364846952 0.3053714564205951 1.1369693899301787 0 0 0 0.31 92 2007 93 633 96 1389 111 818 135 215 
6674 0.6163578186568112 0.3055156228691248 1.1377286282887653 0 0 0 0.3 14 274 92 2008 96 1390 111 819 135 216 172 573 
6675 0.4614313847837471 0.33129282598766385 1.181822588544775 0 0 0 0.27 92 2009 103 651 111 820 162 563 185 535 
6676 0.4107649085182974 0.3470113967514962 1.1997979618486467 0 0 0 0.5 77 2993 92 2010 135 217 185 536 
6677 0.40242403571409835 0.34994841245763075 1.202365234752957 0 0 0 0.4 71 1016 92 2011 136 750 146 1744 148 1914 162 564 172 574 
6678 0.7489915818677821 0.29241516821349667 1.0994644679747017 0 0 0 0.41 92 2012 128 1229 134 91 
6679 0.7976790476417912 0.2868057218809699 1.0844715479764726 0 0 0 0.21 92 2013 164 1978 165 990 
6680 0.8116723311428633 0.2915864377918364 1.0801991853621902 0 0 0 0.33 92 2014 107 476 165 991 
6681 0.18945139186025728 0.41628792300241274 1.2909397348336618 0 0 0 0.25 92 2015 159 912 164 1979 
6682 0.4413730095592754 0.3650680468177317 1.1732484473533031 0 0 0 0.4 28 872 92 2016 136 751 146 1745 148 1915 
6683 0.4201451858059205 0.3760293114203051 1.2017155876381904 0 0 0 0.68 92 2017 96 1391 185 537 
6684 0.3440604210816992 0.392385505674435 1.2154962326154197 0 0 0 0.59 92 2018 97 434 176 1211 
6685 0.4508475582064123 0.38677218302790856 1.165873247050694 0 0 0 0.27 92 2019 103 652 110 1131 
6686 0.5087241096839978 0.3764618702125283 1.146752029055839 0 0 0 0.3 28 873 92 2020 96 1392 118 2187 146 1746 
6687 0.40761282213663397 0.42043385744249334 1.1716486827413846 0 0 0 0.38 92 2021 96 1393 146 1747 147 515 148 1916 158 520 164 1980 172 575 176 1212 
6688 0.38475510439894023 0.43887720155367393 1.1811005277514033 0 0 0 0.77 77 2994 85 2047 92 2022 124 728 164 1981 
6689 0.5274596342726018 0.17622254078450125 1.2221400379834584 0 0 0 0.2 92 2023 100 126 124 729 
6690 0.5105299887430336 0.19406554974804252 1.2225990949660275 0 0 0 0.56 1 510 61 1465 77 2995 92 2024 124 730 127 688 147 516 157 1132 
6691 0.5066007257315499 0.20934295990006338 1.2173479785144037 0 0 0 0.83 1 511 28 874 54 580 71 1017 77 2996 85 2048 92 2025 100 127 146 1748 164 1982 
6692 0.5004783251859511 0.25524161373978915 1.2052925256607239 0 0 0 0.31 92 2026 96 1394 172 576 
6693 0.33982359262930417 0.2932273648622028 1.2621458516781612 0 0 0 0.34 92 2027 110 1132 159 913 
6694 0.823186353992207 0.21089787246257977 1.113844974061039 0 0 0 0.33 61 1466 77 2997 82 265 91 951 92 2028 100 128 118 2188 128 1230 146 1749 152 348 158 521 170 103 182 369 
6695 0.5832796383257332 0.254349987084853 1.168052952670505 0 0 0 0.21 92 2029 159 914 185 538 
6696 0.2772998658017727 0.31169375026006363 1.2867833486432787 0 0 0 0.32 92 2030 176 1213 181 208 
6697 0.4944972367010368 0.28304295714494143 1.193974387494304 0 0 0 0.24 92 2031 96 1395 103 653 147 517 176 1214 
6698 0.34067145305733115 0.3162467935971017 1.2513870942439365 0 0 0 0.3 1 512 77 2998 92 2032 110 1133 124 731 157 1133 159 915 176 1215 
6699 0.8103313316851151 0.2449326515027261 1.101759511316064 0 0 0 0.34 14 275 61 1467 92 2033 111 821 158 522 176 1216 
6700 0.7074110715010674 0.26844983167709074 1.1361865969389788 0 0 0 0.56 92 2034 120 587 152 349 
6701 0.8238411534444587 0.266963641616898 1.09504146140868 0 0 0 0.15 92 2035 120 588 147 518 
6702 0.5573723834284158 0.3137867414214356 1.152708050944638 0 0 0 0.17 92 2036 135 218 176 1217 
6703 0.6564914266875144 0.2985721008035196 1.1262252725066904 0 0 0 0.41 25 893 26 758 52 1002 54 581 69 341 73 687 77 2999 91 952 92 2037 96 1396 103 654 111 822 120 589 128 1231 136 752 146 1750 147 519 148 1917 152 350 159 916 165 992 182 370 
6704 0.8048975715134651 0.2751933588718783 1.0897860391493754 0 0 0 0.31 92 2038 152 351 163 232 
6705 0.8251955750850626 0.27183003098466496 1.0872925487757983 0 0 0 0.49 92 2039 103 655 107 477 110 1134 120 590 147 520 148 1918 165 993 
6706 0.5029087927560882 0.3255256943101434 1.1716286640814424 0 0 0 0.29 92 2040 93 634 135 219 148 1919 
6707 0.18176885082927507 0.38976686635340496 1.3037707710211057 0 0 0 0.27 92 2041 159 917 164 1983 
6708 0.5777257046146494 0.31953779140457994 1.1465651386037181 0 0 0 0.54 1 513 25 894 26 759 28 875 61 1468 69 342 77 3000 85 2049 89 448 92 2042 93 635 96 1397 97 435 110 1135 111 823 118 2189 120 591 124 732 127 689 128 1232 135 220 136 753 146 1751 147 521 148 1920 152 352 158 523 164 1984 176 1218 185 539 
6709 0.38076395397617846 0.3724997655533014 1.2093213256008384 0 0 0 0.22 92 2043 96 1398 176 1219 
6710 0.49287597848848497 0.37316721330488184 1.1533107504314435 0 0 0 0.51 61 1469 92 2044 96 1399 111 824 118 2190 135 221 
6711 0.5710558838682831 0.36732687543802806 1.1310870855243438 0 0 0 0.45 25 895 26 760 77 3001 85 2050 92 2045 96 1400 103 656 110 1136 111 825 118 2191 147 522 172 577 
6712 0.38566069176216294 0.4161194130179726 1.1849375799163666 0 0 0 0.53 92 2046 96 1401 176 1220 
6713 0.5923766971678643 0.3831930486500278 1.1139280961161884 0 0 0 0.35 92 2047 93 636 124 733 135 222 158 524 
6714 0.6832089755550419 0.38282769485858237 1.0935010571248607 0 0 0 0.39 92 2048 135 223 172 578 
6715 0.7681058956099767 0.13411549180422586 1.1595719494035786 0 0 0 0.31 85 2051 92 2049 107 478 141 92 159 918 176 1221 
6716 0.6815338836573184 0.15350586872797686 1.181686037945937 0 0 0 1.48 61 1470 77 3002 92 2050 107 479 147 523 164 1985 
6717 0.6705258595793662 0.16924574183729227 1.1764465035728657 0 0 0 0.73 85 2052 92 2051 107 480 124 734 
6718 0.8744490175225111 0.1837515702845458 1.125653816144225 0 0 0 0.44 92 2052 97 436 100 129 
6719 0.3328039427531158 0.3174641033124988 1.2532677085428305 0 0 0 0.32 92 2053 96 1402 97 437 124 735 148 1921 162 565 176 1222 
6720 0.9181250798121897 0.24221074540956009 1.1080460242473469 0 0 0 0.16 92 2054 97 438 120 592 182 371 
6721 0.7681712697348074 0.28102878978218193 1.0973244060371317 0 0 0 0.32 73 688 77 3003 92 2055 147 524 165 994 
6722 0.4104298058574142 0.35020892278969906 1.1983252947812792 0 0 0 0.42 92 2056 93 637 96 1403 181 209 
6723 0.2181364974400336 0.427280583796522 1.26454170682398 0 0 0 0.31 92 2057 96 1404 176 1223 
6724 0.6763779380317243 0.3794091749111695 1.0935198697558715 0 0 0 0.09 92 2058 135 224 182 372 
6725 0.3310593933645839 0.43918959957157244 1.1836039149500213 0 0 0 0.49 77 3004 92 2059 162 566 164 1986 
6726 0.5588312875073701 0.18496838584414238 1.2116772044968176 0 0 0 0.33 92 2060 111 826 176 1224 
6727 0.7007958559159917 0.18895581148277948 1.1627886245954357 0 0 0 0.46 1 514 92 2061 172 579 176 1225 
6728 0.7796160448442006 0.18124650194972872 1.135422185535731 0 0 0 0.39 85 2053 92 2062 147 525 165 995 184 499 
6729 0.8673157804431729 0.2681027010705349 1.0927592069485879 0 0 0 0.43 77 3005 92 2063 118 2192 120 593 164 1987 165 996 
6730 0.8664265008639791 0.26809914153426795 1.0917526682779097 0 0 0 0.32 92 2064 118 2193 120 594 165 997 
6731 0.8651358617977452 0.2808323705714274 1.0849592750066157 0 0 0 0.53 69 343 82 266 92 2065 120 595 128 1233 
6732 0.7341487545361213 0.30466056046233675 1.1058039652052785 0 0 0 0.17 92 2066 97 439 135 225 
6733 0.48562684782558385 0.38624651910663443 1.1521917526624041 0 0 0 0.52 1 515 92 2067 96 1405 110 1137 
6734 0.5892865170005943 0.19782810182884347 1.1917266913505074 0 0 0 0.74 61 1471 73 689 85 2054 92 2068 93 638 96 1406 107 481 111 827 127 690 158 525 162 567 164 1988 
6735 0.6429276853521599 0.22900699308898376 1.169010539277421 0 0 0 0.61 92 2069 100 130 103 657 
6736 0.3522326007542703 0.235156638118155 1.2678775497953745 0 0 0 1.19 1 516 61 1472 81 426 88 230 92 2070 127 691 146 1752 164 1989 
6737 0.39292154021148473 0.2791959432861856 1.2389436701092855 0 0 0 0.53 92 2071 128 1234 164 1990 
6738 0.4801299068124588 0.178669620430738 1.2322298344527598 0 0 0 0.51 92 2072 96 1407 147 526 185 540 
6739 0.8204613197869791 0.20576597362053292 1.1219617340395587 0 0 0 0.45 92 2073 134 92 158 526 
6740 0.4539683228103831 0.28763331359672684 1.2060561563969865 0 0 0 0.51 92 2074 158 527 176 1226 
6741 0.45395853934975583 0.2874718218663339 1.2067032638821997 0 0 0 0.36 92 2075 158 528 162 568 172 580 
6742 0.2225671477629248 0.3723904177355058 1.2877155290874067 0 0 0 0.71 65 525 96 1408 103 658 110 1138 118 2194 148 1922 176 1227 
6743 0.5309310468358021 0.37772329511390024 1.1397576459691914 0 0 0 0.23 92 2076 111 828 124 736 162 569 
6744 0.6370898999032788 0.2763408710376558 1.1482733606664022 0 0 0 0.51 81 427 89 449 92 2077 111 829 135 226 159 919 
6745 0.6962594405692443 0.26673655135548857 1.1287900357808138 0 0 0 1.68 14 276 25 896 71 1018 92 2078 129 282 
6746 0.4084856074166999 0.3865022608745725 1.187828616397134 0 0 0 0.15 92 2079 96 1409 146 1753 
6747 0.5346833769899464 0.1845570662745454 1.2166409267305425 0 0 0 0.52 28 876 61 1473 92 2080 93 639 146 1754 157 1134 
6748 0.4590670022678528 0.1950412061467546 1.2354086772816704 0 0 0 0.76 92 2081 93 640 146 1755 164 1991 
6749 0.5543353142477121 0.19370716438708677 1.206095755659963 0 0 0 0.36 93 641 124 737 159 920 176 1228 185 541 
6750 0.6155076328768656 0.19102988651309444 1.1819992917526043 0 0 0 0.24 93 642 124 738 146 1756 
6751 0.5080647891923092 0.20792430557622849 1.2173759195781941 0 0 0 0.29 93 643 124 739 157 1135 
6752 0.5556287595488414 0.20362282703986959 1.2009440383049312 0 0 0 0.22 93 644 127 692 146 1757 157 1136 
6753 0.4840259677839271 0.2123660558371759 1.22275613337343 0 0 0 0.52 85 2055 93 645 124 740 146 1758 157 1137 159 921 
6754 0.5870219404398792 0.20719482908408438 1.1888792405247068 0 0 0 0.27 91 953 93 646 127 693 146 1759 148 1923 157 1138 164 1992 176 1229 
6755 0.5197436295413123 0.21667385141939532 1.2078178954201544 0 0 0 0.12 93 647 112 102 146 1760 
6756 0.6812917940223328 0.21076089137361068 1.1576813477205163 0 0 0 0.11 93 648 105 559 157 1139 
6757 0.2909073784115691 0.26170995688822835 1.2967439230781839 0 0 0 0.6 93 649 157 1140 158 529 
6758 0.2909073784115691 0.26170995688822835 1.2967439230781839 0 0 0 0.6 93 650 157 1141 158 530 
6759 0.2709030661970349 0.26621485944913886 1.3049878584677872 0 0 0 0.34 93 651 111 830 146 1761 176 1230 
6760 0.5571241030878011 0.24250694325954017 1.186175094970068 0 0 0 0.25 28 877 52 1003 93 652 146 1762 148 1924 
6761 0.6001711277825208 0.25460559450759584 1.165862625862543 0 0 0 0.18 93 653 124 741 146 1763 
6762 0.46787271587431045 0.2704208926888726 1.206838947105989 0 0 0 0.12 93 654 112 103 146 1764 157 1142 
6763 0.5499669884541637 0.2636120731254297 1.181599369077894 0 0 0 0.63 93 655 136 754 146 1765 157 1143 176 1231 
6764 0.544505017455578 0.2704605265400933 1.1807684150972262 0 0 0 0.19 93 656 124 742 157 1144 
6765 0.49053317789589185 0.27778374945635803 1.1978315424425703 0 0 0 0.23 93 657 124 743 157 1145 
6766 0.4963805350102162 0.28610593106250937 1.1909560126046865 0 0 0 0.17 93 658 112 104 146 1766 
6767 0.5908256342731469 0.3131060778631974 1.1391469323847796 0 0 0 0.33 93 659 127 694 146 1767 
6768 0.4044909646265721 0.3691969474291035 1.1937181059110626 0 0 0 0.11 93 660 124 744 146 1768 
6769 0.33882216429058604 0.39036572336391206 1.2187562189016847 0 0 0 0.4 28 878 61 1474 93 661 113 122 146 1769 157 1146 
6770 0.5020639773042155 0.40092837780343576 1.139424455202769 0 0 0 0.14 93 662 110 1139 146 1770 
6771 0.5785169524540394 0.2063675606576988 1.1921621925612829 0 0 0 0.54 61 1475 93 663 96 1410 110 1140 136 755 146 1771 148 1925 157 1147 158 531 159 922 162 570 164 1993 172 581 175 71 
6772 0.4371264253616898 0.22850114172693373 1.232420776269337 0 0 0 0.43 93 664 124 745 127 695 146 1772 148 1926 157 1148 158 532 
6773 0.4350525686481308 0.2569330738222319 1.2231045326457466 0 0 0 0.32 93 665 157 1149 164 1994 
6774 0.6131989253468471 0.2531552440894152 1.1631966500289306 0 0 0 0.4 93 666 112 105 146 1773 
6775 0.4030247822938859 0.2816016106836892 1.2320615487175763 0 0 0 0.87 92 2082 93 667 110 1141 124 746 172 582 185 542 
6776 0.5602416369941442 0.2652654706443305 1.1761066132878655 0 0 0 0.33 93 668 103 659 148 1927 
6777 0.3424755153168704 0.30501384247845564 1.2559038754531648 0 0 0 0.25 93 669 107 482 176 1232 
6778 0.6954695293776423 0.3023561155493407 1.116832458987026 0 0 0 0.17 93 670 146 1774 157 1150 
6779 0.4421414504572286 0.33923818501336744 1.181376792673872 0 0 0 0.11 77 3006 93 671 127 696 148 1928 185 543 
6780 0.7197998597696933 0.30378639688003095 1.1026747471679377 0 0 0 0.44 91 954 105 560 146 1775 157 1151 
6781 0.40562340427478466 0.36217500633986743 1.1950594679376936 0 0 0 0.19 93 672 135 227 157 1152 
6782 0.373335754354538 0.36948968598521326 1.2090619808667498 0 0 0 0.32 28 879 92 2083 93 673 103 660 146 1776 148 1929 157 1153 158 533 164 1995 176 1233 
6783 0.5581062968629387 0.38142928877769217 1.1268875646493188 0 0 0 0.3 93 674 110 1142 148 1930 
6784 0.6521121551103355 0.16699799601904847 1.184169632663306 0 0 0 0.35 93 675 103 661 124 747 146 1777 157 1154 
6785 0.6006304031515006 0.1773681697324961 1.1920003071891034 0 0 0 0.24 93 676 124 748 146 1778 157 1155 
6786 0.5677970969309981 0.18107334443652165 1.20768634905324 0 0 0 0.43 28 880 61 1476 93 677 127 697 148 1931 157 1156 176 1234 
6787 0.36435783226474056 0.233722178860173 1.2657897427294522 0 0 0 0.15 93 678 96 1411 110 1143 
6788 0.5909471122677782 0.261323981719697 1.1660954915371526 0 0 0 0.33 93 679 96 1412 103 662 148 1932 164 1996 
6789 0.654773538753502 0.25476979582209847 1.1613601179342385 0 0 0 2.41 93 680 136 756 182 373 
6790 0.4467947799313898 0.2887998360600892 1.208027764680454 0 0 0 0.23 93 681 135 228 162 571 
6791 0.4097603597366506 0.30251102498709587 1.222317447136773 0 0 0 0.44 93 682 110 1144 172 583 
6792 0.6067701307210674 0.3084365215926724 1.1453783278907226 0 0 0 0.19 92 2084 93 683 96 1413 135 229 163 233 
6793 0.5079940529056004 0.32756677266793083 1.1720020064630157 0 0 0 0.3 93 684 135 230 148 1933 159 923 185 544 
6794 0.6156734597769383 0.31654563372703604 1.131669745457117 0 0 0 0.45 93 685 96 1414 135 231 
6795 0.48742492356643746 0.3430630391867532 1.1695890668057596 0 0 0 0.23 93 686 124 749 148 1934 
6796 0.5443889042762278 0.33522644225254916 1.152262132084573 0 0 0 0.17 93 687 124 750 135 232 
6797 0.4166694674645838 0.36133519200887493 1.1949642970104641 0 0 0 0.16 93 688 124 751 135 233 
6798 0.6998167944788166 0.3375174386528922 1.1013322723245706 0 0 0 0.5 91 955 146 1779 165 998 182 374 
6799 0.6551616417019597 0.3751130362088741 1.0958098990852971 0 0 0 0.52 93 689 135 234 158 534 182 375 
6800 0.4718101317596546 0.4061493448856713 1.148166461022378 0 0 0 0.48 92 2085 93 690 110 1145 124 752 146 1780 148 1935 164 1997 176 1235 
6801 0.580699948647503 0.21282928715002336 1.1893551755919394 0 0 0 0.21 93 691 103 663 136 757 146 1781 172 584 176 1236 
6802 0.6118784747468449 0.25762762502469144 1.1607923477127777 0 0 0 0.35 28 881 52 1004 69 344 77 3007 85 2056 91 956 93 692 96 1415 107 483 118 2195 120 596 136 758 146 1782 147 527 148 1936 158 535 159 924 163 234 172 585 175 72 176 1237 185 545 
6803 0.7163463042999799 0.3058513447821808 1.1020042613134582 0 0 0 0.4 52 1005 105 561 146 1783 
6804 0.7161622660264704 0.3061185676924198 1.1021729184168902 0 0 0 0.47 105 562 146 1784 148 1937 158 536 
6805 0.4980498448778245 0.34233450841959845 1.1625073206178302 0 0 0 0.42 93 693 111 831 124 753 127 698 135 235 158 537 
6806 0.41369881006244835 0.35895080634506715 1.193507084320642 0 0 0 0.3 28 882 77 3008 93 694 135 236 148 1938 159 925 164 1998 185 546 
6807 0.48964602190108736 0.3701031438510351 1.1578674252311032 0 0 0 0.62 93 695 127 699 135 237 
6808 0.6912200928967238 0.21071354077826004 1.161205089600116 0 0 0 0.46 93 696 96 1416 118 2196 147 528 157 1157 
6809 0.6854253601683241 0.3354848686114648 1.1025899840299414 0 0 0 0.44 107 484 111 832 120 597 182 376 
6810 0.5893191643265748 0.39428107121880185 1.1118749578479092 0 0 0 0.35 93 697 135 238 158 538 
6811 0.7228803227560173 0.33195131015964296 1.0842358131560543 0 0 0 0.8 65 526 118 2197 172 586 
6812 0.7298555208401365 0.31559012543719345 1.0963070435357296 0 0 0 0.54 25 897 54 582 61 1477 65 527 69 345 71 1019 73 690 81 428 87 94 89 450 97 440 105 563 110 1146 111 833 118 2198 120 598 127 700 129 283 147 529 148 1939 164 1999 165 999 182 377 
6813 0.7471332860513941 0.11701952519296804 1.1670567617816425 0 0 0 0.79 77 3009 96 1417 128 1235 182 378 
6814 0.48719686794440603 0.16798035971714123 1.2367973487752957 0 0 0 0.32 61 1478 96 1418 118 2199 128 1236 136 759 157 1158 176 1238 
6815 0.3804675432912551 0.1820168994996407 1.2862121250527252 0 0 0 0.44 96 1419 97 441 110 1147 164 2000 
6816 0.6752940251645657 0.16309762507540648 1.1783442695063076 0 0 0 0.65 85 2057 96 1420 105 564 111 834 152 353 157 1159 159 926 162 572 163 235 164 2001 175 73 176 1239 182 379 
6817 0.5315158085131366 0.1783858971422806 1.2209767177772446 0 0 0 0.4 96 1421 111 835 148 1940 
6818 0.4711344174816475 0.19338328744204708 1.2389856013664888 0 0 0 0.3 96 1422 162 573 185 547 
6819 0.2765395919581352 0.21672761040177682 1.321235318161378 0 0 0 0.29 96 1423 118 2200 128 1237 
