# 3D point list with one line of data per point:
#   POINT3D_ID, X, Y, Z, R, G, B, ERROR, TRACK[] as (IMAGE_ID, POINT2D_IDX)
# Number of points: 417, mean track length: 5.17
0 0.08306528060112879 -0.10229636904320506 1.169969118611249 0 0 0 0.27 118 0 179 0 190 0 213 0 227 0 
1 -0.15138089445125313 -0.09453843806806667 1.0934495370290696 0 0 0 0.63 118 1 179 1 221 0 
2 0.1449671782600614 -0.06048067264428255 1.121626779631575 0 0 0 0.18 118 2 152 0 179 2 213 1 
3 -0.1829250834666865 -0.05431832035360331 1.1087198953922848 0 0 0 0.5 118 3 179 3 204 0 
4 -0.346721324744127 -0.05207463594232998 1.0995822202733363 0 0 0 0.2 118 4 172 0 179 4 190 1 227 1 232 0 
5 -0.34264379643675485 -0.05147853007636339 1.096419460420536 0 0 0 0.25 118 5 138 0 179 5 204 1 227 2 232 1 
6 -0.13385149087806267 -0.017130891114339224 1.0841874746252531 0 0 0 0.21 118 6 127 0 136 0 148 0 157 0 158 0 176 0 179 6 200 0 204 2 213 2 219 0 224 0 232 2 
7 -0.1775466222068029 -0.016312454017917602 1.0838573714864086 0 0 0 0.23 118 7 127 1 136 1 146 0 148 1 152 1 157 1 162 0 172 1 176 1 179 7 213 3 217 0 220 0 224 1 232 3 
8 0.18078608271001956 -0.01605073312320219 1.1086962125453546 0 0 0 0.33 118 8 172 2 179 8 227 3 
9 -0.31867606266209075 -0.015930735285063398 1.0938792890404374 0 0 0 0.22 118 9 138 1 172 3 179 9 232 4 
10 -0.09557911333821506 -0.015592040455082229 1.0824737126010002 0 0 0 0.18 118 10 128 0 146 1 152 2 157 2 158 1 172 4 176 2 179 10 204 3 213 4 219 1 
11 -0.22139110495102915 -0.01498485131147867 1.083162687719115 0 0 0 0.25 118 11 127 2 128 1 146 2 148 2 159 0 162 1 164 0 172 5 176 3 179 11 204 4 213 5 219 2 224 2 227 4 232 5 
12 -0.22139966805456107 -0.015008241647279586 1.0831289684054315 0 0 0 0.26 118 12 127 3 128 2 148 3 159 1 162 2 164 1 172 6 176 4 179 12 213 6 219 3 224 3 232 6 
13 -0.29646336837718235 -0.01339080091828303 1.082885795489432 0 0 0 0.35 118 13 127 4 159 2 164 2 179 13 217 1 227 5 
14 -0.2960267569945907 -0.013436073380516262 1.0816840972844837 0 0 0 0.3 118 14 157 3 159 3 164 3 179 14 200 1 232 7 
15 -0.33553468215678484 -0.005208674994438581 1.088133565069754 0 0 0 0.18 118 15 179 15 227 6 
16 -0.33686161140450627 0.0012491822427287622 1.084005496111221 0 0 0 0.21 118 16 172 7 179 16 221 1 232 8 
17 -0.02483977066183702 0.027559239144887757 1.0813036667619966 0 0 0 0.25 118 17 128 3 157 4 179 17 200 2 217 2 
18 -0.11150153083625267 0.03566542597165881 1.075521323539209 0 0 0 0.3 118 18 128 4 136 2 146 3 158 2 159 4 164 4 176 5 179 18 200 3 213 7 219 4 227 7 232 9 
19 -0.18605374476008213 0.03734190059122551 1.0748290276884847 0 0 0 0.25 118 19 127 5 146 4 158 3 159 5 164 5 176 6 179 19 200 4 204 5 224 4 227 8 232 10 
20 0.024573641721877117 0.04088959251472798 1.0878885676333525 0 0 0 0.27 118 20 159 6 179 20 213 8 219 5 232 11 
21 -0.2725394556903609 0.0474525004736264 1.0703045712747608 0 0 0 0.39 118 21 164 6 172 8 179 21 227 9 
22 0.056208109204540675 0.09343388894156361 1.0712812967578018 0 0 0 0.25 118 22 128 5 179 22 
23 0.1643281398922195 0.09507499772259495 1.059905128985558 0 0 0 0.24 118 23 179 23 227 10 
24 0.08358591864686661 -0.10925094002123804 1.1704194622122717 0 0 0 0.26 118 24 179 24 190 2 
25 -0.11899991508675535 -0.05605771087381405 1.1013566310367526 0 0 0 0.86 118 25 179 25 213 9 
26 -0.3084694992348117 -0.05014716587794812 1.0929526765734554 0 0 0 0.17 118 26 172 9 179 26 
27 -0.3400587906173768 -0.04815628739510886 1.0975879094654897 0 0 0 0.28 118 27 138 2 179 27 190 3 204 6 217 3 227 11 
28 -0.3436240929152736 -0.0393131285467628 1.0972844298679403 0 0 0 0.23 118 28 179 28 190 4 232 12 
29 -0.3332310972282033 -0.03492432095048693 1.0935568755968557 0 0 0 0.28 118 29 138 3 152 3 172 10 179 29 190 5 217 4 221 2 227 12 232 13 
30 -0.15080810786343468 -0.016605947059489454 1.0838283610647677 0 0 0 0.3 118 30 127 6 136 3 146 5 157 5 159 7 162 3 164 7 176 7 179 30 200 5 204 7 213 10 220 1 224 5 227 13 
31 0.10084314090946225 -0.014426152398664278 1.1054951186775352 0 0 0 0.25 118 31 127 7 136 4 146 6 148 4 158 4 162 4 164 8 172 11 176 8 179 31 190 6 213 11 217 5 219 6 222 0 227 14 232 14 
32 -0.33482893998982055 -0.01038261214678343 1.08556563526813 0 0 0 0.35 118 32 164 9 179 32 204 8 221 3 227 15 
33 -0.3346904927774842 -0.010280220331789802 1.084823238545617 0 0 0 0.39 118 33 127 8 162 5 164 10 179 33 204 9 221 4 227 16 232 15 
34 0.4128776252573593 0.0028382355095594274 1.0677177258952035 0 0 0 0.28 118 34 179 34 190 7 222 1 
35 -0.2305639864158893 0.01709281663050953 1.0806893276749638 0 0 0 0.21 118 35 164 11 179 35 190 8 213 12 227 17 
36 -0.10509961181284953 0.035393927816228826 1.0754150892236025 0 0 0 0.28 118 36 128 6 136 5 157 6 158 5 164 12 176 9 179 36 213 13 217 6 224 6 
37 -0.18773256886261291 0.03907872180075034 1.0581489096761063 0 0 0 0.21 118 37 138 4 179 37 232 16 
38 -0.22667374372355825 0.046190680555396685 1.074685534604249 0 0 0 0.23 118 38 159 8 162 6 164 13 179 38 190 9 213 14 227 18 232 17 
39 -0.12237040206982577 0.16814340987072382 1.0433164797808132 0 0 0 0.37 118 39 157 7 179 39 200 6 204 10 224 7 
40 -0.28032626145699385 -0.11615559682299978 0.631817821052794 0 0 0 0.43 118 40 179 40 232 18 
41 -0.1394097533319077 -0.07121603249928773 1.1040717088597538 0 0 0 0.21 118 41 128 7 179 41 227 19 
42 0.1488815202921145 -0.06555113134313119 1.1235619947398015 0 0 0 0.3 118 42 138 5 179 42 190 10 217 7 227 20 
43 -0.07922901238844021 -0.03261205528918986 1.0875134120452181 0 0 0 0.32 118 43 128 8 129 0 136 6 146 7 148 5 152 4 157 8 158 6 159 9 162 7 164 14 172 12 176 10 179 43 190 11 200 7 204 11 213 15 219 7 224 8 232 19 
44 -0.3122765719840319 0.001517013801114308 1.0801847142303453 0 0 0 0.22 118 44 127 9 172 13 179 44 232 20 
45 0.15108770763330562 0.03444311475282816 1.1054090299045505 0 0 0 0.35 118 45 128 9 146 8 158 7 179 45 204 12 219 8 
46 0.1321005864245216 0.04512668743232839 1.0950244331221228 0 0 0 0.29 118 46 172 14 179 46 190 12 213 16 
47 0.06937267046769961 0.04584169921953683 1.0909304074535577 0 0 0 0.31 118 47 158 8 179 47 190 13 
48 -0.12092945980864186 0.0916344732189904 1.062654109993784 0 0 0 0.22 118 48 146 9 179 48 
49 -0.08890566456238602 -0.09872469899666152 1.1024867114633738 0 0 0 0.71 118 49 127 10 148 6 179 49 213 17 217 8 227 21 232 21 
50 -0.2488148144932436 -0.06492514104708823 1.0971691644634791 0 0 0 0.19 118 50 152 5 162 8 179 50 190 14 204 13 217 9 227 22 232 22 
51 -0.33105316607402896 -0.030453248930073 1.0932400154699706 0 0 0 0.44 118 51 172 15 179 51 190 15 
52 0.08789081629289021 -0.026510177053616826 1.1066831939157502 0 0 0 0.3 118 52 127 11 128 10 136 7 148 7 152 6 158 9 159 10 164 15 172 16 179 52 199 0 200 8 217 10 220 2 221 5 222 2 232 23 
53 -0.33428338175737243 -0.013435195760558766 1.0971873086321637 0 0 0 0.52 118 53 172 17 179 53 190 16 219 9 232 24 
54 -0.21394104275095985 -0.01387813127225071 1.080810702063406 0 0 0 0.29 118 54 127 12 138 6 148 8 164 16 179 54 213 18 217 11 224 9 
55 -0.21189357256128413 -0.008346856217758018 1.0810008046492743 0 0 0 0.17 118 55 138 7 179 55 190 17 213 19 
56 -0.3348733558377865 -0.006485293558868002 1.0820735098532919 0 0 0 0.43 118 56 138 8 172 18 179 56 219 10 232 25 
57 0.07286203819332465 0.026935996572392994 1.0930069718673354 0 0 0 0.28 118 57 138 9 179 57 198 0 
58 -0.23824688824510654 0.03965326614921574 1.0759529129590053 0 0 0 0.28 118 58 157 9 172 19 179 58 204 14 219 11 221 6 227 23 232 26 
59 0.13753629154894095 0.04570168781783665 1.101586725689783 0 0 0 0.38 118 59 138 10 146 10 158 10 179 59 204 15 213 20 221 7 227 24 
60 -0.2182966529775069 0.04536988150760469 1.0749604472957404 0 0 0 0.15 118 60 179 60 190 18 232 27 
61 -0.04294344909798616 -0.025048099754153768 1.0863245931044454 0 0 0 0.95 118 61 152 7 162 9 179 61 198 1 200 9 
62 -0.2898716899859499 -0.01225661447853154 1.08602714981072 0 0 0 0.43 118 62 172 20 179 62 199 1 217 12 232 28 
63 -0.3188959063754475 0.003844403165064117 1.0840427823262715 0 0 0 0.3 118 63 138 11 172 21 179 63 204 16 219 12 227 25 232 29 
64 -0.31218226726952464 0.010517770005133228 1.0781204212661686 0 0 0 0.27 118 64 127 13 138 12 148 9 164 17 172 22 179 64 190 19 198 2 199 2 204 17 217 13 219 13 220 3 221 8 224 10 227 26 232 30 
65 0.08844354125772887 -0.10062447963601748 1.1454104737068147 0 0 0 0.43 118 65 152 8 179 65 190 20 213 21 219 14 227 27 232 31 
66 -0.3369700612246806 -0.03811493052084309 1.0968403767655779 0 0 0 0.24 118 66 138 13 172 23 179 66 217 14 232 32 
67 -0.3368000212396544 -0.03797337008341165 1.0965728598672368 0 0 0 0.15 118 67 138 14 179 67 217 15 
68 0.10531330181812228 -0.0969392305143953 1.1211168849771005 0 0 0 0.69 118 68 138 15 179 68 198 3 213 22 221 9 232 33 
69 -0.029383240711579706 0.013502694076718818 1.0800982431192017 0 0 0 0.25 118 69 176 11 179 69 
70 -0.029383240711579706 0.013502694076718818 1.0800982431192017 0 0 0 0.25 118 70 176 12 179 70 
71 0.1591429868003593 0.012930424135227186 1.11115520416911 0 0 0 0.45 118 71 138 16 152 9 158 11 172 24 179 71 204 18 
72 0.15918839855235675 0.013030355821491238 1.1109969735624146 0 0 0 0.41 118 72 138 17 152 10 158 12 172 25 179 72 204 19 213 23 222 3 227 28 232 34 
73 -0.3034635481265824 0.015949028134251197 1.0805858630948 0 0 0 0.25 118 73 138 18 172 26 179 73 190 21 198 4 199 3 217 16 221 10 227 29 232 35 
74 -0.1266985539404116 0.06705546437875454 1.0738898270220192 0 0 0 0.56 118 74 138 19 179 74 221 11 
75 -0.12660401333928167 0.06669293915651636 1.0728368314499355 0 0 0 0.69 118 75 128 11 138 20 179 75 221 12 
76 0.1252881372784853 0.06590820243241603 1.068726732508232 0 0 0 0.51 118 76 138 21 179 76 
77 -0.12547327282715987 0.12177510395814553 1.0536979582878865 0 0 0 0.54 118 77 129 1 146 11 179 77 200 10 
78 -0.07391180218131971 -0.005052723485212709 1.0807278604303319 0 0 0 0.64 118 78 128 12 138 22 146 12 179 78 190 22 198 5 199 4 204 20 221 13 222 4 232 36 
79 -0.044366470084538256 -0.00411548655222842 1.0801987835293883 0 0 0 0.52 118 79 138 23 146 13 179 79 190 23 199 5 204 21 219 15 221 14 232 37 
80 0.1447656378079439 0.0199519042718925 1.1099649745821552 0 0 0 0.32 118 80 128 13 129 2 138 24 172 27 179 80 199 6 204 22 219 16 227 30 
81 0.14443065797564206 0.019900859624641064 1.1084374317424868 0 0 0 0.33 118 81 128 14 129 3 138 25 172 28 179 81 204 23 232 38 
82 -0.07262624449490436 -0.08888980344385702 1.119997080779048 0 0 0 0.49 118 82 138 26 172 29 176 13 179 82 219 17 
83 -0.18314346738192322 0.020798261632977166 1.0785288302013976 0 0 0 0.67 118 83 127 14 128 15 138 27 172 30 179 83 198 6 220 4 
84 -0.183624292766993 0.020969348163092184 1.0795542561621847 0 0 0 0.44 118 84 127 15 128 16 138 28 179 84 217 17 220 5 224 11 
85 0.09414591214270338 -0.022708031571477393 1.106604183780558 0 0 0 0.16 172 31 179 85 217 18 227 31 
86 0.05852072129758483 0.09739634456352125 1.079051914799657 0 0 0 0.37 128 17 146 14 152 11 158 13 176 14 179 86 200 11 204 24 213 24 217 19 219 18 221 15 
87 0.07082665444718854 -0.10804361412434889 1.1605870124124469 0 0 0 0.5 179 87 190 24 232 39 
88 0.12698108644248526 -0.054849954622335134 1.1172403332115128 0 0 0 0.36 127 16 152 12 179 88 204 25 217 20 
89 0.13864706328775095 -0.06175538906467715 1.1211675277481927 0 0 0 0.21 138 29 190 25 217 21 
90 0.09574672530378305 -0.017039093471257427 1.1049905365490402 0 0 0 0.11 129 4 138 30 162 10 179 89 
91 0.1011431620830001 -0.010272601441215308 1.1038103864886633 0 0 0 0.39 148 10 162 11 172 32 179 90 190 26 213 25 217 22 220 6 227 32 232 40 
92 0.055371702680946176 0.044950148533128835 1.0880947890187354 0 0 0 0.07 129 5 138 31 179 91 
93 0.1035923330029971 -0.04575612690616657 1.1130394451783046 0 0 0 0.46 129 6 138 32 158 14 162 12 176 15 179 92 213 26 219 19 222 5 227 33 
94 0.08172418695268881 -0.015455256313353097 1.103613431420696 0 0 0 0.33 129 7 136 8 138 33 146 15 152 13 157 10 158 15 159 11 176 16 179 93 198 7 199 7 220 7 
95 0.1290409441613176 -0.04693342720584956 1.1167654545036312 0 0 0 0.29 129 8 136 9 138 34 152 14 162 13 179 94 217 23 219 20 227 34 
96 0.09371247487575315 -0.016494664758922816 1.1042464133097876 0 0 0 0.32 129 9 146 16 152 15 179 95 198 8 
97 0.12769080248401501 0.012941649901815134 1.105805067633261 0 0 0 0.41 129 10 138 35 146 17 179 96 199 8 200 12 213 27 217 24 222 6 
98 0.09586588616833253 -0.031048369524645274 1.1045120885644388 0 0 0 0.22 146 18 158 16 164 18 179 97 200 13 213 28 219 21 
99 0.083109745479047 -0.019296208932961637 1.0944833307248394 0 0 0 0.26 128 18 179 98 204 26 
100 0.08827429652285965 -0.017384093080346642 1.1040000528271998 0 0 0 0.33 128 19 136 10 152 16 162 14 164 19 172 33 176 17 179 99 204 27 213 29 222 7 
101 0.136563940442477 0.06865313619274017 1.0938233396485657 0 0 0 0.27 152 17 179 100 232 41 
102 0.13787022318609596 0.07750630531897316 1.0984886683206314 0 0 0 0.17 138 36 158 17 179 101 
103 0.1652769390816711 0.09108346220908008 1.0874454089327947 0 0 0 0.18 152 18 172 34 179 102 
104 0.1258583406158193 -0.06821288865706064 1.1210710384821077 0 0 0 0.28 162 15 179 103 219 22 232 42 
105 0.15807533875106713 -0.06797553959983664 1.124596952286597 0 0 0 0.33 179 104 190 27 219 23 222 8 232 43 
106 0.15467266127828141 -0.06436786475514067 1.1234480730176806 0 0 0 0.22 138 37 179 105 217 25 
107 0.1378409306935173 0.0549247841164307 1.1028690278229865 0 0 0 0.15 128 20 138 38 179 106 
108 0.1349972776662741 -0.06567288258731936 1.1231979895235344 0 0 0 0.25 127 17 138 39 158 18 179 107 190 28 198 9 219 24 227 35 
109 0.1431864055034982 -0.014991997205171064 1.1132653721084826 0 0 0 0.33 129 11 179 108 200 14 
110 0.11765496587117619 -0.0075795294831870605 1.1066097414545981 0 0 0 0.23 129 12 152 19 179 109 199 9 
111 0.08887097090248255 -0.08950396527413583 1.1448304872256474 0 0 0 0.33 138 40 179 110 222 9 227 36 
112 0.14252240362358803 -0.04865350316666927 1.117111056110811 0 0 0 0.29 129 13 138 41 162 16 179 111 
113 0.1581009488191707 -0.014536398218669592 1.1110606303034598 0 0 0 0.6 158 19 179 112 217 26 
114 -0.24102426689687487 -0.017094424037116095 1.0831380529017531 0 0 0 0.18 127 18 172 35 179 113 
115 -0.15615895483312278 0.03077239879859842 1.0772579283900627 0 0 0 0.16 127 19 128 21 164 20 179 114 
116 -0.17453475540518637 -0.018387737922341173 1.084468878696358 0 0 0 0.23 127 20 136 11 146 19 148 11 157 11 158 20 159 12 162 17 164 21 172 36 176 18 179 115 200 15 204 28 224 12 227 37 
117 -0.23552744273798243 -0.01707509557389418 1.084545115108524 0 0 0 0.27 127 21 148 12 157 12 162 18 172 37 179 116 200 16 220 8 224 13 227 38 
118 -0.23584550900594115 -0.01714649202725755 1.0850149571469705 0 0 0 0.24 127 22 148 13 162 19 179 117 200 17 224 14 227 39 
119 -0.25499476891479295 -0.016622751212075088 1.0839001054585786 0 0 0 0.27 127 23 162 20 172 38 179 118 224 15 227 40 
120 -0.16655988681475806 -0.016454030357195542 1.083731130378595 0 0 0 0.27 127 24 179 119 219 25 220 9 224 16 227 41 
121 -0.2265056685616745 -0.014983805241696829 1.0837652168006542 0 0 0 0.34 127 25 146 20 148 14 159 13 162 21 164 22 172 39 179 120 200 18 213 30 220 10 224 17 227 42 232 44 
122 0.030917963508709758 0.008657726585318352 1.093467750283657 0 0 0 0.3 127 26 157 13 164 23 179 121 200 19 213 31 
123 0.07206000008547679 0.04053724014520762 1.0928538699107466 0 0 0 0.26 127 27 148 15 176 19 179 122 219 26 
124 -0.11867471941740555 0.04412952489159789 1.0740943351527728 0 0 0 0.24 127 28 164 24 179 123 213 32 
125 0.03231070441471956 0.05211680518240752 1.0830467512320452 0 0 0 0.25 127 29 157 14 179 124 213 33 
126 -0.015616440326252411 -0.040671626389214684 1.0963418382815318 0 0 0 0.21 127 30 136 12 179 125 200 20 224 18 
127 -0.2936924247041823 -0.018892366249893325 1.0864897372528586 0 0 0 0.36 127 31 152 20 157 15 172 40 179 126 224 19 227 43 
128 -0.29365074961480864 -0.015631883606626065 1.0835944696428488 0 0 0 0.12 127 32 159 14 162 22 172 41 179 127 
129 -0.2939588126295059 -0.01567724527527597 1.0838889649009749 0 0 0 0.24 127 33 157 16 162 23 164 25 179 128 224 20 
130 -0.05469446300584142 -0.010848507745260007 1.0843506805114371 0 0 0 0.15 127 34 179 129 224 21 
131 -0.18275820318372876 0.03407527403235818 1.0760030375558518 0 0 0 0.55 127 35 128 22 179 130 204 29 224 22 
132 -0.06612319499904123 0.043381064076006705 1.074691040763186 0 0 0 0.23 127 36 179 131 224 23 
133 -0.15672401817776743 0.045471717261163946 1.0750706315147507 0 0 0 0.22 127 37 138 42 179 132 
134 -0.27758621080746193 -0.045795447457220154 1.0920739455393633 0 0 0 0.68 127 38 179 133 221 16 
135 0.0918589640324009 -0.014330318794599435 1.1040512754975802 0 0 0 0.32 127 39 136 13 146 21 162 24 164 26 172 42 179 134 213 34 217 27 219 27 220 11 227 44 
136 -0.11409265598604736 0.03844980899906721 1.0750590889209273 0 0 0 0.31 127 40 136 14 138 43 179 135 190 29 217 28 
137 -0.14598858404818 -0.06437453026827503 1.0939419466686582 0 0 0 0.37 127 41 128 23 146 22 148 16 162 25 176 20 179 136 213 35 217 29 220 12 224 24 232 45 
138 -0.1874364123844007 -0.014516662432793115 1.0832223200514874 0 0 0 0.24 127 42 128 24 148 17 157 17 158 21 164 27 172 43 179 137 190 30 198 10 199 10 204 30 213 36 217 30 220 13 224 25 232 46 
139 -0.1079692251925467 0.0350459511532868 1.075391474537618 0 0 0 0.26 127 43 164 28 179 138 217 31 224 26 
140 -0.12692945176638226 0.011187029595371973 1.0792381100879218 0 0 0 0.32 127 44 138 44 176 21 179 139 198 11 221 17 
141 -0.12698079106953725 0.01125639654510307 1.0795549670362061 0 0 0 0.41 127 45 128 25 138 45 176 22 179 140 198 12 204 31 
142 -0.08530625578371166 -0.02013802781271098 1.0834846088274295 0 0 0 0.83 127 46 129 14 136 15 138 46 148 18 159 15 162 26 164 29 172 44 179 141 198 13 199 11 200 21 213 37 217 32 221 18 224 27 232 47 
143 -0.10795899285987681 0.01861239859111101 1.077815429219077 0 0 0 0.33 127 47 129 15 136 16 179 142 
144 -0.12972037961181537 -0.0651771133243197 1.097680575422872 0 0 0 0.14 128 26 179 143 224 28 
145 0.01100235161536017 -0.06577651632565892 1.0997031900023806 0 0 0 0.31 128 27 179 144 227 45 
146 -0.35151985701359323 -0.06151014728477795 1.100337207108197 0 0 0 0.28 159 16 164 30 179 145 224 29 
147 -0.34759896625488357 -0.05458769057242739 1.0968699349922542 0 0 0 0.23 179 146 227 46 232 48 
148 -0.050383506990236526 -0.0377251942573138 1.093826036136471 0 0 0 0.25 128 28 176 23 179 147 
149 -0.05465305805247596 -0.03661855597652108 1.0905661536577917 0 0 0 0.29 128 29 136 17 159 17 164 31 179 148 222 10 224 30 227 47 
150 -0.3400060280317863 -0.03545424487433428 1.0937006770045568 0 0 0 0.37 138 47 179 149 219 28 
151 -0.17206816946791334 -0.01640234340855393 1.0842829049607794 0 0 0 0.29 128 30 157 18 158 22 172 45 176 24 179 150 204 32 220 14 224 31 232 49 
152 -0.277092212952999 -0.013544368973516022 1.077825670319726 0 0 0 0.29 128 31 157 19 172 46 179 151 227 48 
153 -0.12143024959248314 0.024034649521206375 1.0786855604416419 0 0 0 0.14 128 32 164 32 179 152 
154 -0.24834678955646636 0.032538311251042826 1.0792182499031355 0 0 0 0.09 179 153 204 33 213 38 
155 0.06486297231067081 0.04079463330462163 1.0865159315303496 0 0 0 0.13 128 33 179 154 222 11 
156 0.0013781459856847986 0.041173400327761865 1.0827592218271611 0 0 0 0.21 128 34 148 19 158 23 159 18 176 25 179 155 
157 -0.16482001326854492 0.04247627132203019 1.0725097806748214 0 0 0 0.11 128 35 136 18 159 19 164 33 179 156 227 49 
158 -0.15936896809383722 0.0450847271339666 1.073039222575218 0 0 0 0.16 128 36 158 24 179 157 227 50 232 50 
159 0.07652778264932059 -0.10887194842156296 1.1606823714127872 0 0 0 0.28 128 37 158 25 179 158 213 39 217 33 
160 -0.14193113638069405 -0.06873814997813499 1.0978385477356207 0 0 0 0.36 128 38 146 23 158 26 176 26 179 159 204 34 213 40 219 29 227 51 
161 -0.15657762867467656 -0.06846236514181075 1.0970511306987087 0 0 0 0.31 128 39 162 27 176 27 179 160 190 31 204 35 213 41 217 34 219 30 221 19 224 32 227 52 
162 -0.2443006534800222 -0.05066061157805103 1.091406321095591 0 0 0 0.4 128 40 157 20 164 34 179 161 204 36 213 42 
163 -0.11041974435980816 -0.01731075168656726 1.08312004238272 0 0 0 0.37 128 41 136 19 148 20 158 27 162 28 179 162 219 31 224 33 
164 -0.3122638767381488 -0.006733495129787088 1.0928878990070425 0 0 0 0.28 138 48 152 21 172 47 179 163 227 53 
165 -0.03267401040887188 0.03725204129579794 1.0660579240701216 0 0 0 0.25 128 42 179 164 190 32 
166 -0.18002511268710875 0.037095512481851826 1.0762162562800774 0 0 0 0.25 128 43 146 24 176 28 179 165 200 22 204 37 232 51 
167 -0.13009365480206556 -0.06132791518550159 1.105668910761766 0 0 0 0.16 128 44 179 166 190 33 
168 -0.3076055901438065 -0.0536988946671676 1.0875001362898749 0 0 0 0.15 138 49 179 167 190 34 
169 -0.1683018942343425 -0.04773956373407674 1.0920183894848678 0 0 0 0.48 128 45 172 48 179 168 190 35 217 35 
170 -0.3397555877198435 -0.010567813555292075 1.084960419840647 0 0 0 0.2 162 29 172 49 179 169 227 54 
171 0.10392378787191842 0.010667506533338703 1.1018529404613449 0 0 0 0.49 128 46 172 50 179 170 190 36 204 38 217 36 232 52 
172 -0.04570709825398624 0.09494595381879338 1.0760714265609541 0 0 0 0.2 128 47 138 50 179 171 
173 -0.15189913699044405 -0.06454211245961058 1.0968727547650359 0 0 0 0.38 128 48 152 22 162 30 179 172 190 37 204 39 227 55 
174 -0.15184289927050149 -0.06450851683359046 1.096617952998475 0 0 0 0.31 128 49 162 31 179 173 224 34 227 56 
175 -0.14626753214804766 -0.06451950116966448 1.0945424655841531 0 0 0 0.37 128 50 136 20 148 21 159 20 162 32 164 35 172 51 176 29 179 174 204 40 217 37 219 32 221 20 224 35 227 57 
176 0.1505813681065433 0.045860051704183835 1.1011218657106276 0 0 0 0.24 128 51 138 51 172 52 179 175 
177 -0.3076245147690656 -0.061768808950789095 1.1118858531917637 0 0 0 0.47 179 176 190 38 232 53 
178 -0.15771252608087694 0.02639180905002102 1.0878149278699931 0 0 0 0.27 128 52 138 52 179 177 
179 -0.10818289611034135 0.03498483331461485 1.0775288942027141 0 0 0 0.26 128 53 158 28 179 178 217 38 219 33 
180 -0.3189323053951851 -0.0030932816356547058 1.083738129140656 0 0 0 0.61 138 53 172 53 179 179 190 39 219 34 221 21 227 58 
181 0.1186218245780283 0.04484861393971237 1.094604936177329 0 0 0 0.21 138 54 190 40 217 39 
182 0.16950784933047403 0.04534169604153936 1.105881962402679 0 0 0 0.29 128 54 138 55 164 36 179 180 190 41 
183 -0.09340358983171226 -0.10750971021314099 1.1050345289006318 0 0 0 0.36 128 55 129 16 136 21 138 56 152 23 179 181 190 42 198 14 204 41 213 43 217 40 219 35 222 12 227 59 
184 -0.16514522676204293 0.012741718464598076 1.0793268401848106 0 0 0 0.37 128 56 138 57 157 21 176 30 179 182 198 15 
185 -0.1651877130207224 0.012750017295099347 1.0799186447282103 0 0 0 0.33 128 57 138 58 176 31 179 183 198 16 217 41 232 54 
186 -0.044300755506630894 0.01827631818255584 1.0841675589104818 0 0 0 0.56 128 58 138 59 148 22 157 22 159 21 179 184 198 17 221 22 
187 -0.04421234325726775 0.018140436410686685 1.0831179138054083 0 0 0 0.48 128 59 138 60 148 23 157 23 176 32 179 185 198 18 219 36 221 23 
188 -0.0738700716133242 0.01947685474930262 1.078099598984668 0 0 0 0.5 128 60 138 61 157 24 179 186 198 19 219 37 
189 -0.07385083845809454 0.019449479889582295 1.0781307433091187 0 0 0 0.43 128 61 138 62 157 25 179 187 198 20 199 12 219 38 221 24 
190 -0.14724086145296664 0.018748376099797414 1.0840755312876436 0 0 0 0.15 128 62 179 188 217 42 
191 -0.1236730816152195 0.036873037834479094 1.0428430674782296 0 0 0 0.06 128 63 138 63 179 189 
192 -0.036124437085417405 -0.09833575587943906 1.1132314127549847 0 0 0 0.27 129 17 138 64 179 190 
193 -0.04634020734545539 -0.09352642983655234 1.1133352747153435 0 0 0 0.43 129 18 179 191 190 43 204 42 227 60 
194 -0.059152870143021 -0.02342572058316368 1.0872152820572294 0 0 0 0.44 129 19 136 22 162 33 179 192 217 43 227 61 
195 0.04174032615169613 0.045047893461304 1.0869373285540176 0 0 0 0.12 129 20 138 65 179 193 
196 -0.09854191753585508 -0.04720800030536723 1.0889881840481914 0 0 0 0.19 129 21 136 23 138 66 172 54 179 194 
197 -0.0645073735533368 -0.035638557020156385 1.0902451691310455 0 0 0 0.34 129 22 152 24 162 34 179 195 198 21 
198 -0.11598777132595454 -0.01598967384174675 1.086131360468496 0 0 0 0.07 129 23 162 35 179 196 
199 -0.10335793159556225 -0.016017092288789246 1.081634201438859 0 0 0 0.33 129 24 136 24 157 26 162 36 172 55 179 197 204 43 
200 -0.09354967687020874 -0.10748780749361476 1.1046893950654144 0 0 0 0.57 129 25 136 25 148 24 152 25 179 198 217 44 221 25 222 13 
201 -0.06595718247920601 -0.09596074729543531 1.131650078571914 0 0 0 0.4 129 26 138 67 179 199 
202 -0.022134894364194697 -0.08488371794070645 1.1228455857416166 0 0 0 0.39 129 27 138 68 179 200 
203 -0.022134894364194697 -0.08488371794070645 1.1228455857416166 0 0 0 0.39 129 28 138 69 179 201 
204 0.1120845878508371 -0.015229662934273273 1.1056594786347236 0 0 0 0.36 129 29 138 70 172 56 179 202 217 45 220 15 
205 0.0880182991064931 -0.10055082457869143 1.142728350203795 0 0 0 0.11 129 30 138 71 179 203 
206 -0.032961487078846524 -0.09173773185734067 1.1292681699029494 0 0 0 0.13 129 31 138 72 179 204 
207 0.10001307460969626 -0.027165130481332567 1.106783572833578 0 0 0 0.68 129 32 138 73 158 29 162 37 176 33 179 205 
208 -0.1250040953559624 0.12144793575157463 1.052778213133047 0 0 0 0.14 129 33 179 206 200 23 
209 -0.19689144192053973 -0.015687984975792078 1.0845619954828365 0 0 0 0.22 157 27 158 30 162 38 164 37 172 57 179 207 190 44 204 44 213 44 224 36 227 62 
210 -0.2637803634743981 -0.014614545622394563 1.084822976020465 0 0 0 0.25 164 38 179 208 213 45 232 55 
211 0.1750243982711026 0.03694021554625795 1.107338968803406 0 0 0 0.45 136 26 179 209 200 24 
212 0.14152381389495208 -0.077540040483713 1.124603312059592 0 0 0 0.34 136 27 146 25 164 39 179 210 200 25 213 46 
213 -0.1327705195179054 -0.06069940425284995 1.093957991430542 0 0 0 0.36 158 31 164 40 172 58 176 34 179 211 227 63 232 56 
214 -0.21821672369938439 0.04897531148303386 1.0777759649890242 0 0 0 0.17 179 212 219 39 232 57 
215 0.05377813709242932 0.11338057864492844 1.0736950959374876 0 0 0 0.87 138 74 179 213 
216 -0.042621735314833084 -0.030911656204526326 1.092021485645134 0 0 0 0.41 164 41 172 59 179 214 200 26 217 46 
217 -0.09130440320514789 -0.05064807065107688 1.0907732000861523 0 0 0 0.57 136 28 138 75 162 39 164 42 179 215 190 45 198 22 220 16 224 37 
218 -0.24012870253059052 -0.044947289967404144 1.0916360491815456 0 0 0 0.29 138 76 152 26 162 40 179 216 198 23 
219 0.028252539562935358 -0.06284328981799243 1.1057734632478513 0 0 0 0.33 136 29 148 25 179 217 
220 -0.15278428913167924 -0.036972052156673464 1.0900515207377304 0 0 0 0.18 136 30 172 60 179 218 
221 0.17696017948057047 -0.01869576662206072 1.1179187528740193 0 0 0 0.25 136 31 172 61 179 219 
222 -0.18006598347122635 -0.018363986905420925 1.083647915959454 0 0 0 0.28 136 32 172 62 179 220 227 64 
223 0.03334863962494011 -0.022545750024384636 1.0982075404885603 0 0 0 0.22 136 33 148 26 159 22 162 41 172 63 179 221 217 47 219 40 
224 -0.16097972431821275 -0.010089530742658942 1.0813178363176061 0 0 0 0.06 136 34 172 64 179 222 
225 0.1411324558121938 -0.09855064024291063 1.1309037469413181 0 0 0 0.25 136 35 179 223 217 48 
226 -0.07034490814558962 -0.03908648629605852 1.0894770422091202 0 0 0 0.41 136 36 138 77 162 42 179 224 190 46 200 27 
227 0.12108644277367471 -0.04611366202104852 1.1156598652167378 0 0 0 0.24 136 37 138 78 162 43 179 225 198 24 227 65 
228 -0.13910897054636237 -0.05738246425540289 1.094114739250399 0 0 0 0.24 136 38 138 79 148 27 164 43 179 226 217 49 220 17 
229 -0.1221414368585153 -0.0465756648916094 1.0928932300263545 0 0 0 0.26 136 39 138 80 162 44 179 227 
230 -0.14879682099339167 -0.047771553865313246 1.0936358954133907 0 0 0 0.04 136 40 138 81 179 228 
231 -0.3126233394408662 -0.12113963016345902 0.9131621731549374 0 0 0 0.11 138 82 179 229 224 38 
232 -0.09863708942666152 -0.10470053967114452 1.103979195327734 0 0 0 0.28 138 83 179 230 190 47 220 18 
233 -0.15022838621594023 -0.09813548228541473 1.1039639989791266 0 0 0 0.07 138 84 179 231 217 50 
234 -0.261572953583966 -0.06543249511762854 1.0962567935110756 0 0 0 0.1 138 85 162 45 179 232 
235 0.0982658532386632 -0.09754815500438622 1.122289827021234 0 0 0 0.19 138 86 152 27 179 233 232 58 
236 -0.13892350665503525 -0.07439514833273139 1.0800092124944738 0 0 0 0.32 138 87 179 234 227 66 
237 -0.09467004425912372 -0.07636173685834559 1.099472984379911 0 0 0 0.26 138 88 179 235 190 48 
238 -0.12969896401949194 -0.06831725706574103 1.096459671723943 0 0 0 0.2 138 89 179 236 204 45 217 51 227 67 232 59 
239 0.1453291363259063 -0.08739105616352347 1.1146234963735369 0 0 0 0.36 138 90 179 237 227 68 
240 -0.1484929257293303 -0.059997948629301065 1.0936280920594201 0 0 0 0.17 138 91 157 28 172 65 179 238 204 46 213 47 232 60 
241 -0.3137701357406084 -0.03566352799938396 1.0866270525720785 0 0 0 0.16 138 92 172 66 179 239 
242 -0.05578710558971803 -0.03963411444121988 1.0902672123326766 0 0 0 0.12 138 93 159 23 179 240 
243 -0.34348987792462765 -0.013984862563042847 1.0982472282101137 0 0 0 0.24 138 94 172 67 179 241 
244 0.1838858466915847 -0.05462134610807582 1.1214744217348251 0 0 0 0.47 138 95 179 242 219 41 
245 -0.1890282715828357 0.03429436875824505 1.08577041167372 0 0 0 0.25 138 96 179 243 204 47 
246 -0.17920451729293407 0.03399402326959887 1.0824583540048383 0 0 0 0.25 138 97 176 35 179 244 219 42 
247 -0.17102388246506336 0.037466715270431536 1.0758113700363656 0 0 0 0.3 138 98 157 29 158 32 172 68 176 36 179 245 190 49 204 48 219 43 232 61 
248 -0.23007251957353292 0.047269908983224876 1.0741678308349043 0 0 0 0.26 138 99 159 24 179 246 190 50 227 69 
249 0.13611300191331277 0.027263598822143926 1.1037583715500203 0 0 0 0.18 138 100 179 247 199 13 213 48 
250 0.16676643375604355 0.09451756930398064 1.089866622861368 0 0 0 0.34 138 101 172 69 179 248 232 62 
251 -0.11861815702209479 0.13040924119383054 1.0498488402251334 0 0 0 0.23 138 102 179 249 200 28 
252 -0.04475145219178294 0.1312146427317675 1.0589078582151268 0 0 0 0.33 138 103 179 250 217 52 220 19 224 39 
253 -0.09285487847263768 -0.09451258576078501 1.1012043234128368 0 0 0 0.39 138 104 179 251 217 53 219 44 227 70 
254 -0.057534612741926304 -0.09074770488396393 1.1521889981123352 0 0 0 0.21 138 105 152 28 179 252 
255 0.06716866124501669 -0.09984758077273696 1.1764555527802227 0 0 0 0.34 138 106 152 29 179 253 217 54 227 71 232 63 
256 0.09661604663257048 -0.09424588125927985 1.1328332883481171 0 0 0 0.38 138 107 179 254 232 64 
257 0.1028644993473129 -0.07202241041695433 1.1171113059512676 0 0 0 0.37 138 108 179 255 204 49 217 55 
258 0.13106418033306577 -0.0703098488097516 1.1234782090185964 0 0 0 0.18 138 109 162 46 179 256 204 50 219 45 222 14 
259 0.16295938289850076 -0.0716692182249717 1.125170267387709 0 0 0 0.48 138 110 179 257 213 49 219 46 222 15 232 65 
260 -0.10553570271624987 -0.03377393163024125 1.0827685763485493 0 0 0 0.17 138 111 179 258 200 29 
261 0.009895028580705444 -0.010386978573491856 1.0910349957040772 0 0 0 0.2 138 112 179 259 199 14 
262 0.08610432030047888 -0.009469318852810066 1.1046468963150184 0 0 0 0.13 138 113 157 30 179 260 
263 0.4078948437382234 0.03077032056723704 1.0212706197321586 0 0 0 0.2 138 114 152 30 179 261 
264 0.40668769570124336 0.03060672332475423 1.0185036479898553 0 0 0 0.21 138 115 152 31 179 262 217 56 
265 -0.24556900055721534 0.07914347566746639 1.0843495635534777 0 0 0 0.15 138 116 157 31 179 263 
266 0.06136284700509474 0.09043662356490248 1.0746805256969254 0 0 0 0.23 138 117 152 32 179 264 
267 -0.0608170692609332 0.12601367578165654 1.0546314079311647 0 0 0 0.39 138 118 152 33 179 265 224 40 
268 -0.24442600787899763 0.13319174931810673 1.041923480126046 0 0 0 0.14 138 119 179 266 219 47 227 72 
269 -0.12177214801680633 0.15466394766675534 1.0462292871074663 0 0 0 0.41 138 120 179 267 224 41 
270 -0.09274420061848486 -0.08825246590963794 1.101356707020948 0 0 0 0.49 138 121 179 268 204 51 217 57 219 48 227 73 
271 -0.34139708247725425 -0.04416428873796381 1.093862124264763 0 0 0 0.38 138 122 179 269 217 58 
272 -0.202595418884963 -0.04414571627374384 1.0912919183038088 0 0 0 0.18 138 123 162 47 179 270 
273 -0.3276613347528803 -0.015524383903266175 1.1130914942104504 0 0 0 0.18 138 124 179 271 190 51 
274 -0.2276164472917771 -0.007552903000252948 1.088131534772854 0 0 0 0.25 138 125 179 272 190 52 213 50 232 66 
275 -0.2196675219448377 -0.007705205710686184 1.095634929948543 0 0 0 0.19 138 126 172 70 179 273 227 74 
276 -0.24323107441590702 0.0272578096761868 1.0726763004076179 0 0 0 0.41 138 127 172 71 179 274 204 52 232 67 
277 0.10668088022101127 0.044770043565953634 1.0955135287388102 0 0 0 0.21 138 128 172 72 179 275 190 53 204 53 
278 0.1823672842280178 0.11574036452617364 1.087944790809473 0 0 0 0.45 138 129 172 73 179 276 
279 -0.07000575009508808 0.14194884596686247 1.0571680828611478 0 0 0 0.34 138 130 152 34 158 33 179 277 227 75 
280 -0.24158565853423844 0.1483652564459836 1.0471040808121386 0 0 0 0.48 138 131 179 278 200 30 
281 -0.20134967088397146 -0.0700270586157357 0.5136440747305006 0 0 0 0.06 138 132 179 279 227 76 
282 0.08995784283138544 -0.10486840136037898 1.0776058193870373 0 0 0 0.09 138 133 179 280 190 54 
283 -0.16177531172266532 -0.07013863028879944 1.0979821268852954 0 0 0 0.25 138 134 162 48 179 281 219 49 227 77 
284 0.12895863553202716 -0.047182820490854954 1.1155973439726015 0 0 0 0.06 138 135 162 49 179 282 227 78 
285 -0.24742853427142747 0.06394932185690781 1.0934529260624812 0 0 0 0.34 138 136 157 32 179 283 
286 -0.04700447965958264 0.12910308055582054 1.0800807681727311 0 0 0 0.11 138 137 179 284 227 79 
287 0.14220569071650865 -0.07230332482691804 1.1265468658556517 0 0 0 0.45 138 138 179 285 204 54 
288 0.10730956564411329 -0.060118940226378946 1.1434711792547887 0 0 0 0.15 138 139 179 286 190 55 219 50 
289 -0.1915562566927505 -0.0056363306540758665 1.0945665249297092 0 0 0 0.27 138 140 179 287 213 51 
290 -0.1752202002334779 0.025809647454158893 1.0761721891908813 0 0 0 0.38 138 141 179 288 190 56 220 20 
291 -0.25484401777419796 -0.07081803324624045 1.0991608503833905 0 0 0 0.4 138 142 152 35 179 289 198 25 204 55 219 51 
292 0.08126532046622913 -0.10728003631633799 1.2429136027925756 0 0 0 0.54 138 143 179 290 190 57 227 80 
293 -0.2981865134602534 -0.04875869861859939 1.0685260805842298 0 0 0 0.24 138 144 179 291 190 58 
294 -0.2693767869804093 -0.04430939383405724 1.0906912338574881 0 0 0 0.15 138 145 152 36 179 292 
295 -0.16507854984396822 -0.04796272867167889 1.1054899523919792 0 0 0 0.48 138 146 179 293 204 56 
296 -0.33222177904318206 -0.0007305436268730898 1.0970077460645653 0 0 0 0.17 138 147 172 74 179 294 190 59 
297 -0.3308021845451761 -0.0007379581700351952 1.0912510581845374 0 0 0 0.13 138 148 172 75 179 295 
298 0.12766832176354695 0.012880976556540304 1.1059376324644101 0 0 0 0.38 138 149 146 26 179 296 199 15 200 31 217 59 222 16 
299 0.12877525712805504 0.04969067491185269 1.097691035222611 0 0 0 0.27 138 150 179 297 199 16 
300 0.1288065823452007 0.04982434468593766 1.097906184406646 0 0 0 0.35 138 151 179 298 198 26 199 17 
301 -0.25452413745053654 -0.04504134476604973 1.089049376591917 0 0 0 0.08 138 152 172 76 179 299 
302 -0.20139731033698408 0.01353331155668499 1.0804976136972635 0 0 0 0.42 138 153 179 300 190 60 220 21 
303 0.0009108675254462903 0.011359885522534375 1.0860031987002472 0 0 0 0.18 138 154 146 27 179 301 232 68 
304 -0.014631376653212427 0.019907336613796588 1.084371139571274 0 0 0 0.41 138 155 179 302 198 27 
305 0.06394575345029539 0.01416234415997062 1.0949486765250984 0 0 0 0.09 138 156 146 28 179 303 
306 0.06399051471002738 0.014091447249535358 1.0954673353447157 0 0 0 0.17 138 157 146 29 179 304 199 18 
307 0.09581050325346428 0.013217979791056446 1.101395798912744 0 0 0 0.04 138 158 158 34 179 305 
308 0.016483043508549615 0.020050240950137344 1.0883613971940147 0 0 0 0.35 138 159 179 306 199 19 
309 0.07998945767906998 0.020929945562749883 1.0956316229027752 0 0 0 0.28 138 160 179 307 199 20 
310 0.11248789599828583 0.02134646546267375 1.1067266754015341 0 0 0 0.27 138 161 157 33 179 308 
311 0.11248789599828583 0.02134646546267375 1.1067266754015341 0 0 0 0.27 138 162 157 34 179 309 
312 -0.07284617386474514 0.04803280353006086 1.0694354206240668 0 0 0 0.36 138 163 179 310 220 22 
313 -0.08560174743691823 -0.06497287985999703 1.1000162862719713 0 0 0 0.92 138 164 179 311 198 28 204 57 219 52 227 81 
314 -0.01485694543399683 -0.004741225779324765 1.0876773813330765 0 0 0 0.64 138 165 146 30 148 28 179 312 
315 0.016433992480221128 -0.0052286472661185685 1.0848536620344744 0 0 0 0.62 138 166 146 31 179 313 199 21 
316 0.048147637681783026 -0.0020938085262958667 1.0954138479407096 0 0 0 0.22 138 167 179 314 199 22 
317 -0.20012598015244268 0.03780877742794821 1.074234697308874 0 0 0 0.7 138 168 148 29 157 35 179 315 
318 -0.08921716482020992 0.03625758319096418 1.0716995779798846 0 0 0 0.39 138 169 179 316 220 23 
319 -0.2967931327123548 -0.061990157572798806 1.139863673735067 0 0 0 0.87 138 170 179 317 190 61 227 82 
320 0.11451414548619449 -0.07306589450566298 1.1215786152473026 0 0 0 1.03 138 171 179 318 190 62 204 58 217 60 219 53 227 83 
321 0.09851377878639579 -0.11278710712995467 1.1269062597507336 0 0 0 0.2 146 32 158 35 179 319 
322 -0.32948104150131174 -0.03724593958356262 1.0919801246461174 0 0 0 0.18 146 33 172 77 179 320 204 59 
323 -0.12984631097778415 -0.017377908053562624 1.0848561907656122 0 0 0 0.29 146 34 179 321 200 32 
324 -0.2488952144894434 -0.014663314777644022 1.0843116368794108 0 0 0 0.15 157 36 162 50 179 322 200 33 224 42 
325 -0.20580637742752536 0.004675505402941369 1.07989113796332 0 0 0 0.16 146 35 179 323 213 52 219 54 232 69 
326 -0.19228171699160215 0.03497729651655411 1.0767636318246439 0 0 0 0.21 146 36 176 37 179 324 213 53 
327 -0.09473661877776667 -0.056002905339413954 1.095736901817475 0 0 0 0.42 146 37 158 36 179 325 190 63 
328 -0.25802088552423197 -0.05974700121580779 1.094650846911491 0 0 0 0.34 162 51 172 78 179 326 224 43 232 70 
329 0.04187250636270305 -0.00996348928356573 1.0971538843400368 0 0 0 0.15 146 38 179 327 199 23 
330 0.15416358116656104 -0.009518972518961392 1.1097981606604637 0 0 0 0.18 146 39 172 79 179 328 
331 0.028326775792289847 0.005777562273188398 1.092190765387326 0 0 0 0.17 146 40 157 37 179 329 
332 0.15202855202261628 0.09102879989347294 1.095260927145918 0 0 0 0.23 172 80 179 330 232 71 
333 0.0941590982852316 -0.01627835963801922 1.1062267646215613 0 0 0 0.73 146 41 162 52 179 331 217 61 220 24 
334 0.12026304243597054 0.031739019105325866 1.1027023338269308 0 0 0 0.39 162 53 179 332 200 34 
335 0.13878813869930756 0.031146748657322487 1.1012693558229019 0 0 0 0.07 179 333 204 60 219 55 
336 -0.06223663200525422 -0.09913931149503685 1.1576785709544146 0 0 0 0.53 179 334 190 64 213 54 232 72 
337 -0.10017138223219557 -0.05892013877270408 1.0976982995855709 0 0 0 0.38 158 37 179 335 213 55 219 56 222 17 227 84 
338 -0.0024958327268820757 0.03488902082907552 1.0841458165435995 0 0 0 0.34 148 30 157 38 179 336 
339 0.12758119650740235 0.04311997533939031 1.1127033071223817 0 0 0 0.74 148 31 179 337 219 57 
340 0.06825470936420301 0.04074921336009091 1.09114096708497 0 0 0 0.38 148 32 164 44 172 81 179 338 213 56 
341 -0.08596782075252007 -0.058346675018563894 1.0931557486099517 0 0 0 0.18 148 33 179 339 200 35 224 44 
342 -0.12379338942600972 -0.010691861771881849 1.083711529947022 0 0 0 0.25 148 34 162 54 164 45 179 340 
343 -0.23248946388575484 -0.04498441772810699 1.0949914663862221 0 0 0 0.33 148 35 152 37 162 55 179 341 198 29 
344 -0.14887380602109462 -0.07358185843976958 1.0964118482049665 0 0 0 0.59 148 36 179 342 204 61 219 58 227 85 
345 -0.1487192350724622 -0.0734964753567377 1.0962532885075915 0 0 0 0.51 148 37 179 343 198 30 204 62 219 59 
346 0.07848552786699287 -0.0987496001831883 1.1655635582348713 0 0 0 0.23 152 38 179 344 190 65 213 57 227 86 232 73 
347 -0.23380246602947438 -0.047125581261616145 1.094003063093437 0 0 0 0.1 152 39 159 25 179 345 
348 -0.03224773130059035 -0.014985489042462583 1.0882119467432483 0 0 0 0.23 152 40 179 346 224 45 
349 -0.025648498253545905 -0.014995124322967304 1.0897779019346117 0 0 0 0.13 152 41 162 56 179 347 220 25 
350 -0.16852498021699114 -0.06003308399482544 1.0949529719012465 0 0 0 0.29 152 42 162 57 179 348 213 58 232 74 
351 -0.20834755317780038 -0.04530469589563079 1.0927738002514187 0 0 0 0.2 152 43 172 82 179 349 
352 -0.24513949683926692 -0.03859404253257668 1.0894800493947714 0 0 0 0.31 152 44 172 83 179 350 198 31 
353 -0.19830056663819942 -0.048217190295741626 1.088003900903493 0 0 0 0.08 157 39 179 351 219 60 
354 -0.025143749032666016 0.03546434077374229 1.079096757217759 0 0 0 0.27 157 40 179 352 200 36 224 46 
355 -0.3295200035426447 -0.037321729106237225 1.0924705783022923 0 0 0 0.17 157 41 172 84 179 353 
356 -0.15864268961479525 -0.016727426151158308 1.0835311110327646 0 0 0 0.11 157 42 158 38 162 58 179 354 
357 -0.08196108008942012 0.030891276780805013 1.0746656175883007 0 0 0 0.19 157 43 176 38 179 355 224 47 
358 -0.12616588549411822 0.15600579699061456 1.0469426354433518 0 0 0 0.52 157 44 158 39 179 356 200 37 
359 -0.11965675803149241 -0.02242546208080807 1.085749740216411 0 0 0 0.1 157 45 162 59 164 46 179 357 200 38 204 63 
360 -0.16086592931031685 0.034135878314747334 1.0768505317244046 0 0 0 0.47 157 46 158 40 172 85 176 39 179 358 204 64 
361 -0.26389980250844175 0.04190580132299907 1.0745617313749973 0 0 0 0.28 157 47 162 60 179 359 
362 -0.26085195940445827 -0.006697508394554054 1.0832821300120188 0 0 0 0.35 157 48 179 360 190 66 217 62 227 87 
363 -0.20243293166513676 -0.06011183913422653 1.0924657865737746 0 0 0 0.2 179 361 204 65 213 59 219 61 
364 -0.13024767309348778 -0.056641835238103316 1.0920927267498068 0 0 0 0.23 158 41 162 61 179 362 219 62 
365 -0.09670790742396403 -0.05009062790088624 1.0916163144374673 0 0 0 0.36 158 42 176 40 179 363 
366 -0.3235752561319462 -0.012117142070118592 1.0902535280594796 0 0 0 0.39 172 86 179 364 190 67 
367 -0.25973689010054984 -0.05549765015052717 1.0927964393677487 0 0 0 0.31 179 365 200 39 227 88 
368 -0.19620693111769802 0.02513933680799325 1.0777409222840546 0 0 0 0.23 158 43 179 366 204 66 232 75 
369 -0.1664309928659756 -0.03907250062374509 1.0961899183173993 0 0 0 0.31 158 44 172 87 179 367 
370 0.06415955894800192 -0.00772825184277274 1.1003067303902403 0 0 0 0.63 158 45 179 368 199 24 
371 -0.2780924833584098 0.047290297700413535 1.0725274503091342 0 0 0 0.16 179 369 204 67 232 76 
372 -0.11508621105203228 0.035591927425723834 1.0740860185306513 0 0 0 0.32 158 46 179 370 190 68 217 63 
373 -0.28792250829340493 -0.015879671477376834 1.0820385695373607 0 0 0 0.34 164 47 179 371 198 32 199 25 217 64 219 63 
374 -0.10794083761713771 0.018199396980026573 1.0767133262120132 0 0 0 0.41 158 47 179 372 221 26 
375 0.03588775249271865 -0.06073203847920084 1.108713427590401 0 0 0 0.42 159 26 179 373 204 68 
376 -0.131913135090385 -0.019239765982659134 1.0850092613843894 0 0 0 0.11 162 62 172 88 179 374 
377 -0.023861251307210556 -0.01758591468579758 1.0888652701374844 0 0 0 0.15 162 63 179 375 227 89 
378 -0.19713765363447425 -0.018212787212608824 1.0835210452827844 0 0 0 0.19 162 64 172 89 179 376 204 69 219 64 
379 -0.2042612893592717 -0.015351493769820833 1.083898170693165 0 0 0 0.19 162 65 172 90 179 377 
380 -0.24928934013273504 -0.014774507699200882 1.0848361844630083 0 0 0 0.3 162 66 179 378 200 40 219 65 
381 -0.30929625150512835 -0.012798113989564043 1.0838124114866643 0 0 0 0.23 162 67 172 91 179 379 204 70 
382 -0.1602901018617637 -0.08034548976909639 1.0975586783551585 0 0 0 0.24 162 68 179 380 227 90 
383 -0.16749687909142605 -0.03229934324949238 1.082688941806535 0 0 0 0.18 162 69 172 92 179 381 
384 -0.1197460795972647 -0.022442559915278867 1.0858833361152103 0 0 0 0.22 162 70 172 93 179 382 
385 -0.19152843963075222 -0.021173649939252227 1.0851402752432728 0 0 0 0.15 162 71 179 383 204 71 227 91 
386 -0.12236432006415102 0.16788065728763987 1.0432679310886244 0 0 0 0.17 162 72 179 384 224 48 
387 -0.12479990909991087 0.1711685504799959 1.042687663307569 0 0 0 0.19 162 73 179 385 224 49 
388 -0.16885139332145743 0.09197185875109908 1.058217230698355 0 0 0 0.54 162 74 179 386 213 60 
389 -0.17429281700542162 -0.056035485751669785 1.0954197764599534 0 0 0 0.74 162 75 164 48 179 387 204 72 219 66 
390 0.09234672107833337 -0.11493453770374129 1.129171477660308 0 0 0 0.18 164 49 179 388 227 92 
391 -0.1868142634767463 0.04117746152958647 1.0746725223432503 0 0 0 0.23 164 50 179 389 204 73 
392 -0.2025359298937658 -0.05522634867390204 1.0917503513118239 0 0 0 0.26 172 94 179 390 190 69 204 74 219 67 
393 -0.31206403538474714 -0.010051416396950438 1.0887619877604322 0 0 0 0.21 172 95 179 391 190 70 
394 -0.016383267152864422 -0.03497639288863596 1.0985850304482148 0 0 0 0.18 172 96 179 392 227 93 
395 -0.32146759319202717 -0.005348933479926342 1.0807089073109948 0 0 0 0.11 172 97 179 393 219 68 
396 -0.3075684822894794 0.05267109282663902 1.0738101678435599 0 0 0 0.26 172 98 179 394 190 71 227 94 232 77 
397 0.12263983069326191 0.028058079646874193 1.104575432801735 0 0 0 0.29 176 41 179 395 213 61 
398 0.18845578760960305 -0.0563027139326873 1.1242214538769688 0 0 0 0.33 179 396 204 75 219 69 
399 -0.04042952946151829 -0.08477635635091056 1.1682458681961967 0 0 0 0.34 179 397 213 62 232 78 
400 0.1419344920894057 -0.08338031299847755 1.124560205330561 0 0 0 0.14 179 398 213 63 222 18 
401 -0.03955675246150957 -0.06339298478557395 1.0933908473666218 0 0 0 0.36 179 399 200 41 204 76 219 70 222 19 
402 -0.2881772784569004 -0.18580041565705308 0.7476667827302482 0 0 0 0.52 179 400 190 72 232 79 
403 -0.26533745233307543 -0.07807566530709079 1.094763342462237 0 0 0 0.53 179 401 204 77 227 95 
404 0.1363806816286697 -0.07703271523762328 1.1222731995220998 0 0 0 0.26 179 402 217 65 227 96 
405 -0.20289529717507662 -0.055287634833586514 1.094079329621265 0 0 0 0.14 179 403 190 73 204 78 
406 0.06481538443777883 0.04067109269616275 1.0849719833331022 0 0 0 0.06 179 404 222 20 227 97 
407 -0.2891726901428775 -0.1880721840102116 0.7481951341920134 0 0 0 0.24 179 405 190 74 232 80 
408 0.07385899349690762 -0.10609068229759774 1.220490962556978 0 0 0 0.32 179 406 190 75 227 98 
409 -0.10908157762187383 -0.056852391675470695 1.097476021883937 0 0 0 0.92 179 407 213 64 217 66 
410 -0.25279055199367484 -0.006697062120638906 1.0822996634226538 0 0 0 0.28 179 408 219 71 227 99 
411 -0.10224996937764044 0.038433593920617994 1.073796903748328 0 0 0 0.37 179 409 199 26 221 27 
412 -0.17954548573965404 0.041337728662590036 1.072540117550627 0 0 0 0.38 179 410 213 65 217 67 219 72 
413 -0.26619124818973544 -0.06793919321975282 1.0961433332004595 0 0 0 0.26 179 411 204 79 217 68 219 73 227 100 
414 0.13713918679225198 0.004561736721669355 1.1128584967871142 0 0 0 0.54 179 412 204 80 219 74 
415 -0.300670507220711 -0.06749525160768619 1.1089323289875612 0 0 0 0.28 179 413 190 76 227 101 
416 -0.20138322354991434 0.013342998518710248 1.0805255630321777 0 0 0 0.36 179 414 220 26 232 81 
