# 3D point list with one line of data per point:
#   POINT3D_ID, X, Y, Z, R, G, B, ERROR, TRACK[] as (IMAGE_ID, POINT2D_IDX)
# Number of points: 302, mean track length: 9.57
169 0.16027358174324036 -0.03582137078046799 0.7476535439491272 148 147 147 2.93 74 160 79 48 80 47 81 43 82 80 83 87 
170 0.26312142610549927 0.09483461081981659 0.7964640855789185 138 159 182 1.38 77 92 78 43 79 49 80 48 81 44 82 81 83 88 84 32 85 37 86 37 87 39 
171 0.3480249345302582 0.024327151477336884 0.8388811945915222 91 71 69 1.31 76 135 77 93 78 44 79 50 80 49 81 45 82 82 83 89 84 33 85 38 
172 0.23107703030109406 0.09946416318416595 0.7605689764022827 122 118 112 1.99 78 45 79 51 80 50 81 46 82 83 83 90 84 34 85 39 86 38 87 40 88 87 89 105 
173 0.701509416103363 0.16738148033618927 0.7093255519866943 62 75 59 6.4 80 51 81 47 88 88 89 106 
174 0.22416222095489502 -0.14327147603034973 0.8028204441070557 49 48 58 1.94 77 94 78 46 79 52 80 52 81 48 82 84 83 91 84 35 85 40 86 39 87 41 88 89 89 107 
175 0.4698408842086792 -0.09334743022918701 0.9486603140830994 62 65 60 1.64 75 152 76 136 77 95 78 47 79 53 80 53 81 49 82 85 84 36 85 41 86 40 87 42 88 90 89 108 
176 0.4670875668525696 0.04246608167886734 0.9235319495201111 136 146 156 2.01 76 137 77 96 78 48 79 54 80 54 81 50 82 86 87 43 88 91 89 109 
177 0.7873181104660034 -0.07089243084192276 1.1434868574142456 66 88 106 2.76 75 153 80 55 81 51 84 37 85 42 86 41 87 44 88 92 89 110 
178 0.6253112554550171 0.06679622828960419 0.7467153668403625 116 117 110 5.27 78 49 79 55 80 56 81 52 83 92 84 38 85 43 86 42 87 45 88 93 89 111 
179 0.13633312284946442 -0.27867406606674194 0.7789579033851624 27 24 25 2.22 74 161 75 154 76 138 77 97 79 56 80 57 81 53 82 87 83 93 85 44 87 46 88 94 89 112 
180 0.24964125454425812 0.04103313758969307 0.7826393246650696 122 118 116 1.7 78 50 79 57 80 58 81 54 82 88 83 94 84 39 85 45 86 43 87 47 
181 0.6740264296531677 0.14752045273780823 0.7154898047447205 70 88 70 3.1 79 58 80 59 81 55 84 40 85 46 86 44 87 48 88 95 89 113 
182 0.5922196507453918 -0.15397804975509644 1.02341890335083 148 163 180 2.16 74 162 75 155 76 139 77 98 78 51 79 59 80 60 81 56 84 41 85 47 86 45 87 49 88 96 89 114 
183 0.2697080075740814 -0.257598876953125 0.8497836589813232 95 77 76 2.25 74 163 75 156 76 140 77 99 78 52 79 60 80 61 81 57 82 89 83 95 84 42 85 48 86 46 87 50 88 97 89 115 
184 0.5640463829040527 0.055733855813741684 0.7135329246520996 115 128 100 10.11 78 53 79 61 80 62 81 58 82 90 83 96 84 43 85 49 86 47 87 51 88 98 89 116 
185 0.14907711744308472 -0.10302994400262833 0.7652274370193481 139 153 174 2.01 74 164 78 54 79 62 80 63 81 59 82 91 83 97 88 99 89 117 
186 0.4173392951488495 -0.11281812191009521 0.9043288230895996 122 119 126 1.86 74 165 75 157 76 141 77 100 78 55 79 63 80 64 81 60 82 92 83 98 84 44 85 50 86 48 87 52 88 100 89 118 
187 0.6971373558044434 0.10523177683353424 0.8008961081504822 23 28 26 6.55 78 56 79 64 80 65 81 61 84 45 85 51 86 49 87 53 88 101 89 119 
188 0.8044867515563965 -0.14253653585910797 1.1656731367111206 56 72 84 1.35 78 57 79 65 80 66 81 62 84 46 85 52 86 50 87 54 88 102 89 120 
189 0.8325616717338562 -0.12648236751556396 1.1659648418426514 94 89 93 1.58 78 58 79 66 80 67 81 63 84 47 85 53 86 51 87 55 88 103 89 121 
190 0.6574159860610962 -0.09142137318849564 1.0442347526550293 50 42 56 1.35 74 166 75 158 76 142 77 101 78 59 80 68 81 64 84 48 85 54 86 52 87 56 88 104 89 122 
191 0.5673450827598572 0.0523981973528862 0.7102170586585999 19 25 12 7.61 78 60 79 67 80 69 81 65 82 93 83 99 84 49 85 55 86 53 87 57 88 105 89 123 
192 0.7591692209243774 -0.17760159075260162 1.1394424438476562 72 93 118 2.88 75 159 76 143 78 61 79 68 80 70 81 66 84 50 85 56 86 54 87 58 88 106 89 124 
193 0.5619891881942749 -0.02132290042936802 0.7368671894073486 105 122 98 11.55 78 62 79 69 80 71 81 67 82 94 83 100 84 51 85 57 86 55 87 59 88 107 89 125 
194 0.4556053578853607 -0.1382760852575302 0.9478539824485779 60 63 64 2.32 74 167 75 160 76 144 77 102 78 63 79 70 80 72 81 68 82 95 83 101 84 52 85 58 86 56 87 60 88 108 89 126 
195 0.6818538308143616 0.0586865209043026 0.7749596834182739 116 126 112 9.06 78 64 79 71 80 73 81 69 84 53 85 59 86 57 87 61 88 109 89 127 
196 0.374793142080307 -0.15639446675777435 0.8878619074821472 158 160 163 1.87 75 161 76 145 77 103 78 65 79 72 80 74 81 70 82 96 83 102 84 54 85 60 86 58 87 62 88 110 89 128 
197 0.7627149224281311 -0.13227732479572296 1.1314114332199097 52 56 63 1.93 75 162 78 66 79 73 80 75 81 71 84 55 85 61 86 59 87 63 88 111 89 129 
198 0.6451072096824646 -0.10225207358598709 1.0546941757202148 126 143 161 1.36 74 168 75 163 76 146 77 104 78 67 79 74 80 76 81 72 84 56 85 62 86 60 87 64 88 112 89 130 
199 0.5833069086074829 -0.040797825902700424 0.7028192281723022 50 52 37 6.25 78 68 79 75 80 77 81 73 82 97 83 103 84 57 85 63 86 61 87 65 88 113 89 131 
200 0.4917502701282501 -0.08188249170780182 0.947796642780304 97 101 119 1.3 75 164 76 147 77 105 78 69 79 76 80 78 81 74 82 98 84 58 85 64 86 62 87 66 88 114 89 132 
201 0.5291651487350464 -0.00356946955434978 0.741877019405365 132 133 131 6.12 75 165 76 148 78 70 79 77 80 79 81 75 82 99 83 104 84 59 85 65 
202 0.37082695960998535 -0.11854472756385803 0.877833902835846 172 174 175 1.74 75 166 76 149 77 106 78 71 79 78 80 80 81 76 82 100 83 105 84 60 85 66 86 63 87 67 88 115 89 133 
203 0.17774668335914612 -0.2568502128124237 0.7992183566093445 110 98 92 2.58 74 169 75 167 76 150 77 107 78 72 79 79 80 81 81 77 82 101 83 106 84 61 85 67 86 64 87 68 88 116 89 134 
204 0.27253803610801697 0.09622637927532196 0.8052483201026917 101 118 124 1.46 77 108 78 73 79 80 80 82 81 78 82 102 83 107 84 62 85 68 86 65 87 69 
205 0.45398998260498047 -0.11405359208583832 0.9433897137641907 121 139 155 1.86 75 168 76 151 77 109 78 74 79 81 80 83 81 79 82 103 84 63 86 66 87 70 88 117 89 135 
206 0.22634661197662354 -0.0647856667637825 0.7890946269035339 111 86 82 1.71 77 110 78 75 79 82 80 84 81 80 82 104 83 108 84 64 85 69 86 67 
207 0.2503175437450409 -0.2584444284439087 0.8381986021995544 90 72 71 2.27 74 170 75 169 76 152 77 111 78 76 79 83 80 85 81 81 82 105 83 109 84 65 85 70 86 68 87 71 88 118 89 136 
208 0.2497832179069519 -0.10720887780189514 0.8104997277259827 149 154 159 1.64 76 153 77 112 78 77 79 84 80 86 81 82 82 106 83 110 84 66 85 71 86 69 88 119 89 137 
209 0.41258636116981506 -0.26115506887435913 0.9277374744415283 52 54 61 2.01 74 171 75 170 76 154 77 113 78 78 79 85 80 87 81 83 82 107 84 67 85 72 86 70 87 72 88 120 89 138 
210 0.7344861626625061 -0.2001776546239853 1.112786889076233 138 138 139 1.38 74 172 75 171 76 155 78 79 79 86 80 88 81 84 84 68 85 73 86 71 87 73 88 121 89 139 
211 0.33138564229011536 -0.17653748393058777 0.867942750453949 160 161 163 1.93 76 156 77 114 78 80 79 87 80 89 81 85 82 108 83 111 84 69 85 74 86 72 87 74 88 122 89 140 
212 0.8666502237319946 0.030295411124825478 1.142030119895935 60 69 62 0.75 79 88 80 90 81 86 84 70 85 75 86 73 87 75 88 123 89 141 
213 0.6534913778305054 -0.1531408429145813 1.0629122257232666 56 48 58 1.46 74 173 75 172 76 157 77 115 78 81 79 89 80 91 81 87 84 71 85 76 86 74 87 76 88 124 89 142 
214 0.7655442953109741 0.11542503535747528 0.7925944924354553 9 11 10 3.36 80 92 81 88 84 72 85 77 86 75 87 77 88 125 89 143 
215 0.499565988779068 0.15105855464935303 0.9056088924407959 54 59 59 3.13 74 174 75 173 76 158 77 116 78 82 79 90 80 93 81 89 82 109 83 112 84 73 85 78 86 76 87 78 
216 0.11117870360612869 -0.16532012820243835 0.7607557773590088 45 52 55 1.98 74 175 79 91 80 94 81 90 82 110 83 113 88 126 89 144 
217 0.6112030148506165 0.07093597203493118 0.7376087307929993 26 23 17 2.0 78 83 79 92 80 95 81 91 83 114 84 74 85 79 86 77 87 79 88 127 89 145 
218 0.6431170105934143 -0.09833759069442749 1.0529043674468994 53 68 76 1.26 74 176 75 174 76 159 77 117 78 84 79 93 80 96 81 92 84 75 85 80 86 78 87 80 88 128 89 146 
219 0.19680026173591614 -0.16749708354473114 0.7920956015586853 108 95 99 2.0 78 85 79 94 80 97 81 93 82 111 83 115 84 76 85 81 86 79 87 81 88 129 89 147 
220 0.7686061263084412 -0.1950254887342453 1.1477131843566895 104 101 98 2.2 75 175 76 160 78 86 79 95 80 98 81 94 84 77 85 82 86 80 87 82 88 130 89 148 
221 0.17568014562129974 -0.11862935870885849 0.771769106388092 57 53 64 2.2 77 118 78 87 79 96 80 99 81 95 82 112 83 116 85 83 86 81 87 83 88 131 89 149 
222 0.7900208830833435 0.0011144104646518826 1.111367106437683 143 138 137 2.4 80 100 81 96 84 78 85 84 86 82 87 84 88 132 89 150 
223 0.868915319442749 -0.0014247321523725986 1.162917971611023 72 65 74 1.54 79 97 80 101 81 97 84 79 85 85 86 83 87 85 88 133 89 151 
224 0.4455307126045227 -0.08988744765520096 0.9322510361671448 167 186 209 1.62 75 176 76 161 77 119 78 88 79 98 80 102 81 98 82 113 87 86 88 134 89 152 
225 0.1335972547531128 0.103511281311512 0.7311591506004333 80 90 94 3.02 74 177 78 89 79 99 80 103 81 99 82 114 83 117 88 135 89 153 
226 0.6620878577232361 0.12119535356760025 0.7429603934288025 28 29 23 5.24 78 90 79 100 80 104 81 100 84 80 85 86 86 84 87 87 88 136 89 154 
227 0.3613082468509674 0.015593845397233963 0.8475689888000488 141 139 136 1.4 76 162 77 120 78 91 79 101 80 105 81 101 82 115 83 118 84 81 85 87 
228 0.49659037590026855 -0.24323563277721405 0.9751390218734741 105 87 93 1.65 74 178 75 177 76 163 77 121 78 92 79 102 80 106 81 102 84 82 85 88 86 85 87 88 88 137 89 155 
229 0.33133795857429504 -0.14949862658977509 0.8630351424217224 90 87 100 1.97 75 178 76 164 77 122 78 93 79 103 80 107 81 103 82 116 83 119 84 83 85 89 86 86 87 89 88 138 89 156 
230 0.318802148103714 -0.1470225304365158 0.8667575716972351 63 57 55 2.44 75 179 76 165 77 123 78 94 79 104 80 108 81 104 82 117 83 120 84 84 85 90 86 87 87 90 88 139 89 157 
231 0.5198869705200195 0.07915643602609634 0.8346386551856995 122 133 150 18.07 75 180 76 166 77 124 78 95 79 105 80 109 81 105 82 118 
232 0.4727208912372589 -0.15954455733299255 0.9625430703163147 112 143 160 2.07 74 179 75 181 76 167 77 125 78 96 79 106 80 110 81 106 82 119 83 121 84 85 85 91 86 88 87 91 88 140 89 158 
233 0.3056870996952057 -0.1489456743001938 0.85996413230896 105 136 153 1.89 76 168 77 126 78 97 79 107 80 111 81 107 82 120 83 122 84 86 85 92 86 89 87 92 88 141 89 159 
234 0.42210131883621216 -0.1775202751159668 0.9268142580986023 71 67 85 2.35 75 182 76 169 77 127 78 98 79 108 80 112 81 108 82 121 83 123 84 87 85 93 86 90 87 93 88 142 89 160 
235 0.7681965231895447 -0.06611364334821701 1.123063087463379 139 153 178 2.73 75 183 80 113 81 109 84 88 85 94 86 91 87 94 88 143 89 161 
236 0.25646913051605225 -0.14291571080684662 0.8345575928688049 181 199 221 1.98 76 170 77 128 78 99 79 109 80 114 81 110 82 122 83 124 84 89 85 95 86 92 87 95 88 144 89 162 
237 0.31484249234199524 -0.1012030839920044 0.8577833771705627 93 105 119 1.57 75 184 76 171 77 129 78 100 79 110 80 115 81 111 82 123 83 125 84 90 85 96 86 93 88 145 89 163 
238 0.11993230134248734 -0.15998683869838715 0.7640668153762817 117 137 151 1.82 74 180 78 101 79 111 80 116 81 112 82 124 83 126 88 146 89 164 
239 0.4399142563343048 -0.11059554666280746 0.9349803924560547 109 158 186 2.09 75 185 76 172 77 130 78 102 79 112 80 117 81 113 82 125 86 94 87 96 88 147 89 165 
240 0.26030346751213074 0.03905090317130089 0.7939029932022095 50 40 43 1.7 78 103 79 113 80 118 81 114 82 126 83 127 84 91 85 97 86 95 87 97 
241 0.6186311841011047 -0.09189678728580475 1.0317453145980835 131 155 75 1.14 74 181 75 186 76 173 77 131 78 104 79 114 81 115 84 92 85 98 86 96 87 98 88 148 89 166 
242 0.6290672421455383 -0.22844263911247253 1.0535778999328613 127 105 108 1.22 74 182 75 187 76 174 77 132 78 105 79 115 80 119 81 116 84 93 85 99 86 97 87 99 88 149 89 167 
243 0.6078325510025024 -0.18132564425468445 1.0481024980545044 163 179 196 1.69 74 183 75 188 76 175 77 133 78 106 79 116 80 120 81 117 84 94 85 100 86 98 87 100 88 150 89 168 
244 0.5909037590026855 -0.03651037439703941 0.7005252242088318 97 113 94 4.29 78 107 79 117 80 121 81 118 83 128 84 95 85 101 86 99 87 101 88 151 89 169 
245 0.8037322163581848 -0.07290176302194595 1.1557350158691406 21 20 24 2.53 75 189 80 122 81 119 84 96 85 102 86 100 87 102 88 152 89 170 
246 0.2737411558628082 -0.20164836943149567 0.8569774627685547 166 188 211 2.02 74 184 75 190 76 176 77 134 78 108 79 118 80 123 81 120 82 127 83 129 84 97 85 103 86 101 87 103 88 153 89 171 
247 0.127323716878891 -0.1160179078578949 0.7606062293052673 76 98 102 1.97 74 185 78 109 79 119 80 124 81 121 82 128 83 130 88 154 89 172 
248 0.7616093158721924 -0.1622268408536911 1.136980414390564 42 51 57 2.7 75 191 76 177 78 110 79 120 80 125 81 122 84 98 85 104 86 102 87 104 88 155 89 173 
249 0.17937608063220978 0.01538264099508524 0.7487713098526001 128 123 116 2.3 79 121 80 126 81 123 82 129 83 131 
250 0.48546451330184937 -0.0866236463189125 0.9511069655418396 190 208 229 1.29 75 192 76 178 77 135 78 111 79 122 80 127 81 124 82 130 84 99 85 105 86 103 87 105 88 156 89 174 
251 0.44302302598953247 -0.11422925442457199 0.937261164188385 150 162 177 1.92 74 186 75 193 76 179 77 136 78 112 79 123 80 128 81 125 82 131 86 104 87 106 88 157 89 175 
252 0.3316321074962616 0.10715010017156601 0.824482798576355 31 22 27 1.44 77 137 78 113 79 124 80 129 81 126 82 132 83 132 84 100 85 106 86 105 
253 0.2596336007118225 0.0033971841912716627 0.807212233543396 20 17 14 1.71 77 138 78 114 79 125 80 130 81 127 82 133 83 133 84 101 85 107 86 106 
254 0.4482377767562866 -0.1848769634962082 0.9538722038269043 173 213 245 2.28 75 194 76 180 77 139 78 115 79 126 80 131 81 128 82 134 83 134 84 102 85 108 86 107 87 107 88 158 89 176 
255 0.6461172699928284 -0.1545773595571518 1.0644773244857788 150 169 188 1.59 74 187 75 195 76 181 77 140 78 116 79 127 80 132 81 129 84 103 85 109 86 108 87 108 88 159 89 177 
256 0.2543318569660187 0.13053736090660095 0.7640349864959717 68 80 62 1.84 76 182 77 141 78 117 79 128 80 133 81 130 82 135 83 135 85 110 86 109 87 109 88 160 89 178 
257 0.26653149724006653 0.08453457057476044 0.799602210521698 115 122 138 1.65 77 142 78 118 79 129 80 134 81 131 82 136 83 136 84 104 85 111 86 110 87 110 
258 0.6656699180603027 -0.0074289217591285706 0.7216594815254211 136 148 115 2.08 78 119 79 130 80 135 81 132 84 105 85 112 86 111 88 161 89 179 
259 0.7696940302848816 -0.2234645038843155 1.1401383876800537 117 101 100 1.43 75 196 78 120 79 131 80 136 81 133 84 106 85 113 86 112 87 111 88 162 89 180 
260 0.10726746171712875 -0.13349081575870514 0.7546417713165283 77 86 91 1.99 74 188 79 132 80 137 81 134 82 137 83 137 88 163 89 181 
261 0.48739659786224365 -0.08636514097452164 0.9508070945739746 175 192 208 1.32 75 197 76 183 77 143 78 121 79 133 80 138 81 135 82 138 84 107 85 114 86 113 87 112 88 164 89 182 
262 0.3050874173641205 -0.01949714682996273 0.8234667778015137 135 132 133 1.24 77 144 78 122 79 134 80 139 81 136 82 139 83 138 84 108 85 115 
263 0.7836229205131531 0.0767744705080986 0.8459853529930115 116 116 55 8.12 80 140 81 137 84 109 85 116 86 114 87 113 88 165 89 183 
264 0.46082037687301636 -0.24621520936489105 0.9554743766784668 93 85 87 1.92 74 189 75 198 76 184 77 145 78 123 79 135 80 141 81 138 82 140 84 110 85 117 86 115 87 114 88 166 89 184 
265 0.8905043005943298 -0.008638485334813595 1.178501844406128 149 147 150 1.78 79 136 80 142 81 139 84 111 85 118 86 116 87 115 88 167 89 185 
266 0.268148273229599 -0.12541888654232025 0.8391364216804504 120 135 156 1.72 76 185 77 146 78 124 79 137 80 143 81 140 82 141 83 139 84 112 85 119 86 117 87 116 88 168 89 186 
267 0.6263926029205322 0.14005416631698608 0.7316765785217285 50 50 43 3.56 78 125 79 138 80 144 81 141 83 140 84 113 85 120 86 118 87 117 88 169 89 187 
268 0.16599100828170776 -0.08603298664093018 0.7595843076705933 73 62 62 2.32 78 126 79 139 80 145 81 142 82 142 83 141 87 118 89 188 
269 0.29172998666763306 -0.22411836683750153 0.870098352432251 97 108 125 1.99 74 190 75 199 76 186 77 147 78 127 79 140 80 146 81 143 82 143 83 142 84 114 85 121 86 119 87 119 88 170 89 189 
270 0.7229333519935608 0.12343906611204147 0.7767476439476013 9 10 10 4.02 79 141 80 147 81 144 84 115 85 122 86 120 87 120 88 171 89 190 
271 0.27411144971847534 -0.1907377690076828 0.8558582663536072 155 184 212 1.85 74 191 76 187 77 148 78 128 79 142 80 148 81 145 82 144 83 143 84 116 85 123 86 121 87 121 88 172 89 191 
272 0.8119867444038391 -0.20147258043289185 1.1646674871444702 95 82 86 1.3 75 200 78 129 79 143 80 149 81 146 84 117 85 124 86 122 87 122 88 173 89 192 
273 0.6866242289543152 -0.215605229139328 1.085934042930603 147 141 141 1.63 74 192 75 201 76 188 77 149 78 130 79 144 80 150 81 147 84 118 85 125 86 123 87 123 88 174 89 193 
274 0.22450684010982513 0.09462595731019974 0.757972002029419 139 140 135 2.21 78 131 79 145 80 151 81 148 82 145 83 144 84 119 85 126 86 124 87 124 88 175 89 194 
275 0.2790064215660095 0.017379585653543472 0.8226288557052612 95 107 115 1.44 78 132 79 146 80 152 81 149 82 146 83 145 84 120 85 127 86 125 
276 0.5935816168785095 -0.12722323834896088 1.0142899751663208 69 65 73 1.41 74 193 75 202 76 189 77 150 78 133 79 147 80 153 81 150 84 121 85 128 86 126 87 125 88 176 89 195 
277 0.837603747844696 -0.05500025674700737 1.1532235145568848 119 118 124 1.35 80 154 81 151 84 122 85 129 86 127 87 126 88 177 89 196 
278 0.47927749156951904 -0.09688284993171692 0.9548013806343079 78 109 124 1.92 75 203 76 190 77 151 78 134 79 148 80 155 81 152 82 147 83 146 84 123 85 130 86 128 87 127 88 178 89 197 
279 0.7515203952789307 -0.008144212886691093 1.087290644645691 95 92 101 1.8 80 156 81 153 84 124 85 131 86 129 87 128 88 179 89 198 
280 0.26565486192703247 0.0969260185956955 0.799954891204834 80 98 103 1.51 77 152 78 135 79 149 80 157 81 154 82 148 83 147 84 125 85 132 86 130 87 129 
281 0.4113030433654785 0.17325127124786377 0.6460480093955994 43 53 37 9.31 78 136 79 150 80 158 81 155 82 149 83 148 
282 0.45071133971214294 0.09534233063459396 0.9016393423080444 100 112 125 2.79 75 204 76 191 77 153 78 137 79 151 80 159 81 156 82 150 83 149 84 126 85 133 88 180 89 199 
283 0.24662943184375763 0.005750543903559446 0.7874065637588501 129 130 132 1.59 77 154 78 138 79 152 80 160 81 157 82 151 83 150 84 127 85 134 86 131 
284 0.3195912539958954 -0.05635524168610573 0.8370956182479858 147 136 133 1.36 75 205 76 192 77 155 78 139 79 153 80 161 81 158 82 152 83 151 84 128 85 135 
285 0.11799541860818863 -0.13319183886051178 0.7598069906234741 85 100 113 1.75 74 194 79 154 80 162 81 159 82 153 83 152 88 181 89 200 
286 0.45707860589027405 -0.10109409689903259 0.9433203339576721 161 211 238 1.8 75 206 76 193 77 156 78 140 79 155 80 163 81 160 82 154 84 129 86 132 87 130 88 182 89 201 
287 0.6698296070098877 -0.18183006346225739 1.0699158906936646 129 137 147 1.54 74 195 75 207 76 194 77 157 78 141 79 156 80 164 81 161 84 130 85 136 86 133 87 131 88 183 89 202 
288 0.1450893133878708 -0.11051486432552338 0.7686436772346497 53 54 47 2.16 74 196 78 142 79 157 80 165 81 162 82 155 83 153 88 184 89 203 
289 0.7076870799064636 0.11467055976390839 0.7852796912193298 27 33 27 3.72 78 143 79 158 80 166 81 163 84 131 85 137 86 134 87 132 88 185 89 204 
290 0.6275458335876465 -0.10214603692293167 1.0424188375473022 104 127 148 1.17 74 197 75 208 76 195 77 158 78 144 79 159 81 164 84 132 85 138 86 135 87 133 88 186 89 205 
291 0.4289349615573883 -0.020191488787531853 0.8919867277145386 137 135 134 1.19 75 209 76 196 77 159 78 145 79 160 80 167 81 165 82 156 84 133 88 187 89 206 
292 0.6537744402885437 0.04300300031900406 0.7244470715522766 162 167 166 3.85 78 146 79 161 80 168 81 166 84 134 85 139 86 136 87 134 88 188 89 207 
293 0.7811211347579956 0.12381918728351593 0.7838830351829529 30 35 35 4.52 81 167 84 135 85 140 86 137 87 135 88 189 89 208 
294 0.554364800453186 0.07565281540155411 0.7661353945732117 29 36 20 2.2 75 210 76 197 77 160 78 147 79 162 80 169 81 168 83 154 84 136 85 141 86 138 87 136 88 190 89 209 
295 0.7865530848503113 -0.08332765102386475 1.1449888944625854 203 204 214 2.12 75 211 79 163 80 170 81 169 84 137 85 142 86 139 87 137 88 191 89 210 
296 0.49409809708595276 0.11705480515956879 0.9136265516281128 139 150 164 2.81 76 198 77 161 78 148 79 164 80 171 81 170 82 157 83 155 84 138 85 143 87 138 
297 0.460746169090271 0.09463086724281311 0.9079784750938416 154 174 193 2.17 75 212 76 199 77 162 78 149 79 165 80 172 81 171 82 158 83 156 84 139 85 144 86 140 88 192 
298 0.497463583946228 0.15139587223529816 0.9069933891296387 68 67 71 2.97 74 198 75 213 76 200 77 163 78 150 79 166 80 173 81 172 82 159 83 157 84 140 85 145 86 141 87 139 
299 0.6846152544021606 0.06307004392147064 0.7732589244842529 187 188 182 5.71 78 151 79 167 80 174 81 173 84 141 85 146 86 142 87 140 88 193 89 211 
300 0.4348943829536438 0.1368241012096405 0.8708012104034424 30 23 25 1.76 75 214 76 201 77 164 78 152 79 168 80 175 81 174 82 160 83 158 84 142 85 147 86 143 87 141 
301 0.6803627014160156 0.08126883953809738 0.8065215349197388 82 92 55 5.94 78 153 79 169 80 176 81 175 84 143 85 148 86 144 87 142 88 194 89 212 
302 0.15693236887454987 0.02497348189353943 0.7484896183013916 139 136 135 2.94 74 199 79 170 80 177 81 176 82 161 83 159 88 195 
303 0.32046937942504883 -0.09331859648227692 0.854795515537262 187 205 224 1.88 76 202 77 165 78 154 79 171 80 178 81 177 82 162 83 160 84 144 85 149 87 143 88 196 89 213 
304 0.29250043630599976 -0.149189293384552 0.8533236384391785 83 90 97 1.87 76 203 77 166 78 155 79 172 80 179 81 178 82 163 83 161 84 145 85 150 86 145 87 144 88 197 89 214 
305 0.11572522670030594 -0.2658511996269226 0.7667303085327148 76 57 56 1.97 74 200 75 215 76 204 77 167 78 156 79 173 80 180 81 179 82 164 83 162 88 198 89 215 
306 0.28479644656181335 0.11058603227138519 0.807902455329895 148 165 180 1.86 77 168 78 157 79 174 80 181 81 180 82 165 83 163 84 146 85 151 86 146 87 145 88 199 
307 0.7585731744766235 -0.1997128278017044 1.1373149156570435 33 24 26 2.51 75 216 76 205 78 158 79 175 80 182 81 181 84 147 85 152 86 147 87 146 88 200 89 216 
308 0.6028481721878052 -0.23795399069786072 1.039633870124817 135 125 123 1.54 74 201 75 217 76 206 77 169 78 159 79 176 80 183 81 182 84 148 85 153 86 148 87 147 88 201 89 217 
309 0.3500331938266754 -0.025435691699385643 0.848272442817688 156 151 145 1.5 76 207 77 170 78 160 79 177 80 184 81 183 82 166 83 164 84 149 85 154 
310 0.6548587679862976 0.1485244184732437 0.6331952810287476 35 41 23 4.29 79 178 80 185 81 184 88 202 89 218 
311 0.623136579990387 -0.21583731472492218 1.0479578971862793 112 95 97 1.38 74 202 75 218 76 208 77 171 78 161 79 179 80 186 81 185 84 150 85 155 86 149 87 148 88 203 89 219 
312 0.8349831700325012 -0.1306585669517517 1.1677769422531128 155 153 154 1.46 78 162 79 180 80 187 81 186 84 151 85 156 86 150 87 149 88 204 89 220 
313 0.3136146664619446 -0.14571774005889893 0.8655016422271729 53 60 67 2.27 75 219 76 209 77 172 78 163 79 181 80 188 81 187 82 167 83 165 84 152 85 157 86 151 87 150 88 205 89 221 
314 0.2542246878147125 -0.17786432802677155 0.8366392850875854 125 132 153 2.35 76 210 77 173 78 164 79 182 80 189 81 188 82 168 83 166 84 153 85 158 86 152 87 151 88 206 89 222 
315 0.2569853365421295 -0.1793040633201599 0.8431890606880188 126 145 168 2.03 76 211 77 174 78 165 79 183 80 190 81 189 82 169 83 167 84 154 85 159 86 153 87 152 88 207 89 223 
316 0.44315239787101746 0.14574085175991058 0.8913375735282898 144 159 177 1.92 75 220 76 212 77 175 78 166 79 184 80 191 81 190 82 170 83 168 84 155 85 160 86 154 87 153 
317 0.31072700023651123 -0.20351062715053558 0.8766390681266785 149 188 223 2.15 74 203 75 221 76 213 77 176 78 167 79 185 80 192 81 191 82 171 83 169 84 156 85 161 86 155 87 154 88 208 89 224 
318 0.20631349086761475 0.120194211602211 0.739159882068634 120 121 121 2.08 77 177 78 168 79 186 80 193 81 192 82 172 83 170 88 209 89 225 
319 0.6663058996200562 0.13114029169082642 0.6616495251655579 72 87 57 12.71 79 187 80 194 81 193 84 157 85 162 86 156 87 155 88 210 89 226 
320 0.1606014370918274 0.07674316316843033 0.7393066883087158 125 132 140 2.47 78 169 79 188 80 195 81 194 82 173 83 171 88 211 
321 0.8171700239181519 0.027693139389157295 1.104382872581482 34 48 37 2.3 79 189 80 196 81 195 84 158 85 163 86 157 87 156 88 212 89 227 
322 0.7638294696807861 0.030258404091000557 1.083937406539917 19 15 15 1.83 80 197 81 196 84 159 85 164 86 158 87 157 88 213 89 228 
323 0.6040907502174377 -0.054740071296691895 0.7412757277488708 67 79 25 25.52 74 204 75 222 76 214 77 178 78 170 79 190 80 198 81 197 83 172 84 160 85 165 86 159 87 158 88 214 89 229 
324 0.2846246361732483 0.08606517314910889 0.8095100522041321 89 94 98 1.52 76 215 77 179 78 171 79 191 80 199 81 198 82 174 83 173 84 161 85 166 86 160 87 159 
325 0.31919944286346436 -0.22729021310806274 0.8779011368751526 50 39 42 2.41 74 205 75 223 76 216 77 180 78 172 79 192 80 200 81 199 82 175 83 174 84 162 85 167 86 161 87 160 88 215 89 230 
326 0.44172441959381104 -0.140030175447464 0.9393430948257446 63 64 68 2.07 74 206 75 224 76 217 77 181 78 173 79 193 80 201 81 200 82 176 83 175 84 163 85 168 86 162 87 161 88 216 89 231 
327 0.6782563328742981 0.1373472511768341 0.7368662357330322 20 24 17 3.04 78 174 79 194 80 202 81 201 84 164 85 169 86 163 87 162 88 217 89 232 
328 0.7484549880027771 0.1576073169708252 0.7417075634002686 57 71 58 4.11 80 203 81 202 84 165 88 218 89 233 
329 0.26561108231544495 0.12056358903646469 0.7799592018127441 36 33 39 2.27 76 218 77 182 78 175 79 195 80 204 81 203 82 177 83 176 84 166 85 170 86 164 87 163 88 219 89 234 
330 0.8767938017845154 -0.22139553725719452 1.2081321477890015 96 86 84 1.29 78 176 79 196 80 205 81 204 84 167 85 171 86 165 87 164 88 220 89 235 
331 0.5001377463340759 0.13165736198425293 0.9133926033973694 29 21 21 1.97 75 225 76 219 77 183 78 177 79 197 80 206 81 205 82 178 83 177 84 168 
332 0.6209487318992615 0.06883644312620163 0.7462781667709351 30 39 19 4.53 78 178 79 198 80 207 81 206 83 178 84 169 85 172 86 166 87 165 88 221 89 236 
333 0.8132128119468689 -0.11596996337175369 1.1627436876296997 86 74 90 1.68 75 226 78 179 79 199 80 208 81 207 84 170 85 173 86 167 87 166 88 222 89 237 
334 0.314253568649292 -0.10485605895519257 0.8588767647743225 121 157 179 1.65 75 227 76 220 77 184 78 180 79 200 80 209 81 208 82 179 83 179 84 171 85 174 86 168 88 223 89 238 
335 0.5715734362602234 0.04454097896814346 0.7164957523345947 25 33 9 5.41 75 228 78 181 79 201 80 210 81 209 83 180 84 172 85 175 86 169 87 167 88 224 89 239 
336 0.744012176990509 0.16782939434051514 0.7145278453826904 29 34 19 4.59 80 211 81 210 88 225 89 240 
337 0.37793415784835815 -0.27475064992904663 0.9003973007202148 101 96 91 1.73 74 207 75 229 76 221 77 185 78 182 79 202 80 212 81 211 82 180 84 173 85 176 86 170 87 168 88 226 89 241 
338 0.17541247606277466 -0.2764379382133484 0.8000759482383728 35 33 35 2.58 74 208 75 230 76 222 77 186 78 183 79 203 80 213 81 212 82 181 83 181 84 174 85 177 86 171 87 169 88 227 89 242 
339 0.7335836291313171 0.1179322600364685 0.7869081497192383 30 38 35 3.18 79 204 80 214 81 213 84 175 85 178 86 172 87 170 88 228 89 243 
340 0.7058982253074646 0.12175556272268295 0.7822142839431763 40 45 31 3.84 78 184 79 205 80 215 81 214 84 176 85 179 86 173 87 171 88 229 89 244 
341 0.7422326803207397 -0.20056574046611786 1.1181358098983765 137 133 136 1.37 74 209 75 231 76 223 78 185 79 206 80 216 81 215 84 177 85 180 86 174 87 172 88 230 89 245 
342 0.6537772417068481 -0.013100851327180862 0.7173898816108704 102 115 89 9.87 78 186 79 207 80 217 81 216 83 182 84 178 85 181 86 175 87 173 88 231 89 246 
343 0.17302867770195007 -0.03366681560873985 0.7538710832595825 97 90 90 1.83 77 187 78 187 79 208 80 218 81 217 82 182 83 183 
344 0.16168305277824402 0.06206272915005684 0.7404701113700867 111 113 113 2.07 78 188 79 209 80 219 81 218 82 183 83 184 
345 0.4498963952064514 0.10851690173149109 0.9018364548683167 127 143 159 2.01 76 224 77 188 78 189 79 210 80 220 81 219 82 184 85 182 88 232 
346 0.293524831533432 -0.1073056161403656 0.8493062853813171 137 189 218 1.42 77 189 78 190 79 211 80 221 81 220 82 185 83 185 84 179 85 183 87 174 88 233 89 247 
347 0.5871201753616333 -0.12260863929986954 1.0060876607894897 58 60 72 1.29 74 210 75 232 76 225 77 190 78 191 79 212 80 222 81 221 84 180 85 184 86 176 87 175 88 234 89 248 
348 0.2589995861053467 0.0049514551647007465 0.8078458905220032 27 23 19 1.72 77 191 78 192 79 213 80 223 81 222 82 186 83 186 84 181 85 185 86 177 
349 0.4308687150478363 0.008210720494389534 0.8881576061248779 37 35 35 1.74 75 233 76 226 77 192 78 193 79 214 80 224 81 223 82 187 83 187 84 182 87 176 88 235 89 249 
350 0.7948108315467834 -0.191950261592865 1.1655739545822144 60 61 61 1.48 75 234 78 194 79 215 80 225 81 224 84 183 85 186 86 178 87 177 88 236 89 250 
351 0.6594355702400208 0.010655245743691921 0.7335671186447144 88 102 75 14.81 78 195 79 216 80 226 81 225 83 188 84 184 85 187 86 179 87 178 88 237 89 251 
352 0.12315039336681366 0.035345327109098434 0.7389194965362549 73 91 91 2.8 79 217 80 227 81 226 82 188 83 189 88 238 
353 0.34162256121635437 0.03651493415236473 0.8337491154670715 101 80 80 1.3 77 193 78 196 79 218 80 228 81 227 82 189 83 190 84 185 85 188 86 180 
354 0.427853524684906 -0.1400105506181717 0.9310221672058105 58 59 61 2.32 74 211 75 235 76 227 77 194 78 197 79 219 80 229 81 228 82 190 83 191 84 186 85 189 86 181 87 179 88 239 89 252 
355 0.8862001895904541 0.005345973651856184 1.1723281145095825 152 150 156 1.96 79 220 80 230 81 229 84 187 85 190 86 182 87 180 88 240 89 253 
356 0.27646777033805847 -0.10772670060396194 0.8403313159942627 158 190 220 1.54 77 195 78 198 79 221 80 231 81 230 82 191 83 192 84 188 85 191 87 181 88 241 89 254 
357 0.7287948727607727 0.16254425048828125 0.7069075703620911 99 110 84 3.37 80 232 81 231 88 242 89 255 
358 0.5363638401031494 -0.15179510414600372 0.9827290177345276 128 123 120 1.83 74 212 75 236 76 228 77 196 78 199 79 222 80 233 81 232 83 193 84 189 85 192 86 183 87 182 88 243 89 256 
359 0.877739667892456 0.028832830488681793 1.1590594053268433 81 64 50 2.27 79 223 80 234 81 233 84 190 85 193 86 184 87 183 88 244 89 257 
360 0.333663672208786 -0.07890518009662628 0.8457847237586975 99 96 102 1.61 75 237 76 229 77 197 78 200 79 224 80 235 81 234 82 192 83 194 84 191 85 194 87 184 88 245 89 258 
361 0.5999919772148132 0.14215974509716034 0.6118307709693909 15 17 13 4.97 78 201 79 225 80 236 81 235 83 195 88 246 89 259 
362 0.15665243566036224 0.10322652757167816 0.7384629249572754 103 106 113 3.19 78 202 79 226 80 237 81 236 82 193 83 196 88 247 89 260 
363 0.14992757141590118 -0.20734284818172455 0.7837201356887817 159 179 200 2.77 74 213 75 238 76 230 77 198 78 203 79 227 80 238 81 237 82 194 83 197 85 195 86 185 87 185 88 248 89 261 
364 0.3224497437477112 0.11375626921653748 0.8266503214836121 116 120 127 1.56 77 199 78 204 79 228 80 239 81 238 82 195 83 198 84 192 85 196 86 186 
365 0.2729928493499756 -0.22544653713703156 0.8593437671661377 77 84 92 1.99 74 214 75 239 76 231 77 200 78 205 79 229 80 240 81 239 82 196 83 199 84 193 85 197 86 187 87 186 88 249 89 262 
366 0.5860609412193298 0.14800788462162018 0.8104194402694702 35 42 33 13.14 78 206 79 230 80 241 81 240 83 200 84 194 85 198 86 188 87 187 88 250 89 263 
367 0.48334577679634094 -0.0888361930847168 0.9523335695266724 179 196 215 1.32 75 240 76 232 77 201 78 207 79 231 80 242 81 241 82 197 84 195 85 199 86 189 87 188 88 251 89 264 
368 0.2598322629928589 0.026707734912633896 0.7950317859649658 73 74 77 1.92 78 208 79 232 80 243 81 242 82 198 83 201 84 196 85 200 86 190 87 189 
369 0.44784244894981384 -0.13823749125003815 0.9430514574050903 53 62 68 2.15 74 215 75 241 76 233 77 202 78 209 79 233 80 244 81 243 82 199 83 202 84 197 85 201 86 191 87 190 88 252 89 265 
370 0.6592642664909363 0.03283802047371864 0.7659704089164734 206 207 206 2.49 78 210 79 234 80 245 81 244 84 198 85 202 86 192 87 191 88 253 89 266 
371 0.7515394687652588 -0.1932205855846405 1.125590205192566 115 102 97 1.92 74 216 75 242 76 234 78 211 79 235 80 246 81 245 84 199 85 203 86 193 87 192 88 254 89 267 
372 0.7754761576652527 0.011992891319096088 1.0986441373825073 129 115 119 2.17 80 247 81 246 84 200 85 204 86 194 87 193 88 255 89 268 
373 0.7535479068756104 -0.009978449903428555 1.0890425443649292 137 133 135 2.05 80 248 81 247 84 201 85 205 86 195 87 194 88 256 89 269 
374 0.4634951055049896 -0.0971994623541832 0.945876955986023 164 193 220 1.56 75 243 76 235 77 203 78 212 79 236 80 249 81 248 82 200 84 202 86 196 87 195 88 257 89 270 
375 0.27299708127975464 0.08383341878652573 0.8053812384605408 162 181 200 1.44 77 204 78 213 79 237 80 250 81 249 82 201 83 203 84 203 85 206 86 197 87 196 
376 0.7323889136314392 -0.19795222580432892 1.1109871864318848 62 65 79 1.43 74 217 75 244 76 236 77 205 78 214 79 238 80 251 81 250 84 204 85 207 86 198 87 197 88 258 89 271 
377 0.48519355058670044 -0.16613784432411194 0.966560423374176 171 184 204 2.24 74 218 75 245 76 237 77 206 78 215 79 239 80 252 81 251 82 202 83 204 84 205 85 208 86 199 87 198 88 259 89 272 
378 0.13876505196094513 0.12601378560066223 0.7268447279930115 117 138 155 3.22 74 219 78 216 79 240 80 253 81 252 82 203 83 205 88 260 89 273 
379 0.47942644357681274 -0.1651206761598587 0.9664647579193115 139 153 165 2.04 74 220 75 246 76 238 77 207 78 217 79 241 80 254 81 253 82 204 83 206 84 206 85 209 86 200 87 199 88 261 89 274 
380 0.6037318706512451 0.07257398217916489 0.7172789573669434 48 48 53 3.76 78 218 79 242 80 255 81 254 83 207 84 207 85 210 86 201 87 200 88 262 89 275 
381 0.2606634497642517 0.124698206782341 0.771155834197998 75 64 65 2.3 76 239 77 208 78 219 79 243 80 256 81 255 82 205 83 208 84 208 85 211 86 202 87 201 88 263 89 276 
382 0.6109662055969238 0.09280999004840851 0.7534167766571045 27 26 22 2.68 78 220 79 244 80 257 81 256 83 209 84 209 85 212 86 203 87 202 88 264 89 277 
383 0.6706367135047913 0.13605287671089172 0.6625553369522095 44 53 32 13.37 79 245 80 258 81 257 84 210 85 213 87 203 
384 0.641452968120575 -0.20419691503047943 1.0701714754104614 92 95 98 2.05 74 221 75 247 76 240 77 209 78 221 79 246 80 259 81 258 84 211 85 214 86 204 87 204 88 265 89 278 
385 0.6513652205467224 -0.2089950144290924 1.0655808448791504 40 32 36 1.47 74 222 75 248 76 241 77 210 78 222 79 247 80 260 81 259 84 212 85 215 86 205 87 205 88 266 89 279 
386 0.45011553168296814 0.08089108765125275 0.9052861928939819 137 162 178 2.14 75 249 76 242 77 211 78 223 79 248 80 261 81 260 82 206 83 210 84 213 85 216 88 267 89 280 
387 0.2670045495033264 -0.08088637888431549 0.8098796010017395 49 51 48 2.15 76 243 77 212 78 224 79 249 80 262 81 261 82 207 83 211 84 214 85 217 86 206 88 268 89 281 
388 0.5926185846328735 -0.21239106357097626 1.0335091352462769 43 37 44 1.99 74 223 75 250 76 244 77 213 78 225 79 250 80 263 81 262 84 215 85 218 86 207 87 206 88 269 89 282 
389 0.4674474596977234 0.12289998680353165 0.9093425273895264 59 69 70 2.31 76 245 77 214 78 226 79 251 80 264 81 263 82 208 83 212 84 216 85 219 88 270 
390 0.33200421929359436 -0.08235305547714233 0.845679521560669 110 108 114 1.79 75 251 76 246 77 215 78 227 79 252 80 265 81 264 82 209 83 213 84 217 85 220 87 207 88 271 89 283 
391 0.7126356363296509 0.1615181267261505 0.727563738822937 51 63 48 4.51 80 266 81 265 84 218 88 272 89 284 
392 0.42035019397735596 -0.11452871561050415 0.9061427116394043 154 155 159 1.98 74 224 75 252 76 247 77 216 78 228 79 253 80 267 81 266 82 210 83 214 84 219 85 221 86 208 87 208 88 273 89 285 
393 0.11631032079458237 -0.11291488260030746 0.7539902329444885 45 47 39 1.98 74 225 79 254 80 268 81 267 82 211 83 215 88 274 89 286 
394 0.11903070658445358 -0.13487659394741058 0.7607319951057434 93 103 110 1.86 74 226 79 255 80 269 81 268 82 212 83 216 88 275 89 287 
395 0.5742179155349731 -0.1462380737066269 1.0044975280761719 55 60 75 2.07 74 227 75 253 76 248 77 217 78 229 79 256 80 270 81 269 83 217 84 220 85 222 86 209 87 209 88 276 89 288 
396 0.5168179869651794 -0.25344347953796387 0.9871755838394165 65 60 67 1.61 74 228 75 254 76 249 77 218 78 230 79 257 80 271 81 270 84 221 85 223 86 210 87 210 88 277 89 289 
397 0.47767889499664307 -0.16137084364891052 0.9652764797210693 59 73 82 2.01 74 229 75 255 76 250 77 219 78 231 79 258 80 272 81 271 82 213 83 218 84 222 85 224 86 211 87 211 88 278 89 290 
398 0.6838365793228149 0.1264732927083969 0.7586031556129456 56 69 54 2.53 78 232 79 259 80 273 81 272 84 223 85 225 86 212 87 212 88 279 89 291 
399 0.293705552816391 -0.1249660775065422 0.8528475761413574 152 183 211 1.8 77 220 78 233 79 260 80 274 81 273 82 214 83 219 84 224 85 226 86 213 87 213 88 280 89 292 
400 0.8140006065368652 -0.20148803293704987 1.1657856702804565 85 68 73 1.37 75 256 78 234 79 261 80 275 81 274 84 225 85 227 86 214 87 214 88 281 89 293 
401 0.6552282571792603 0.051043011248111725 0.7233824729919434 123 127 120 3.87 78 235 79 262 80 276 81 275 84 226 85 228 86 215 87 215 88 282 89 294 
402 0.3006952404975891 0.06000465899705887 0.8266933560371399 137 153 166 1.16 77 221 78 236 79 263 80 277 81 276 82 215 83 220 84 227 85 229 
403 0.12656067311763763 -0.18628273904323578 0.7733719944953918 132 157 180 1.95 74 230 75 257 76 251 78 237 79 264 80 278 81 277 82 216 83 221 87 216 88 283 89 295 
404 0.1441517174243927 -0.0016354458639398217 0.751092255115509 42 37 29 2.11 74 231 79 265 80 279 81 278 82 217 83 222 
405 0.11152090132236481 -0.24192331731319427 0.7675341963768005 20 17 16 1.94 74 232 75 258 76 252 77 222 78 238 79 266 80 280 81 279 82 218 83 223 88 284 89 296 
406 0.7651093602180481 -0.07062266021966934 1.1246894598007202 206 216 222 2.98 75 259 79 267 80 281 81 280 84 228 85 230 86 216 87 217 88 285 89 297 
407 0.22219082713127136 -0.20840051770210266 0.8140556216239929 55 65 80 2.11 74 233 75 260 76 253 77 223 78 239 79 268 80 282 81 281 82 219 83 224 84 229 85 231 86 217 87 218 88 286 89 298 
408 0.42510324716567993 -0.1689247041940689 0.936630129814148 85 100 127 2.76 75 261 76 254 77 224 78 240 79 269 80 283 81 282 82 220 83 225 84 230 85 232 86 218 87 219 88 287 89 299 
409 0.3340754508972168 0.12319590896368027 0.8198298215866089 31 21 24 1.6 75 262 76 255 77 225 78 241 79 270 80 284 81 283 82 221 83 226 84 231 85 233 86 219 
410 0.10754125565290451 -0.13178782165050507 0.7544012665748596 36 33 35 2.08 74 234 79 271 80 285 81 284 82 222 83 227 88 288 89 300 
411 0.6441828012466431 -0.1526750773191452 1.0635792016983032 86 106 115 1.48 74 235 75 263 76 256 77 226 78 242 79 272 80 286 81 285 84 232 85 234 86 220 87 220 88 289 89 301 
412 0.1455729603767395 -0.11590772867202759 0.7718970775604248 83 115 127 2.43 78 243 79 273 80 287 81 286 82 223 83 228 87 221 88 290 89 302 
413 0.34501147270202637 0.06759875267744064 0.8290683627128601 97 79 81 1.26 76 257 77 227 78 244 79 274 80 288 81 287 82 224 83 229 84 233 85 235 86 221 
414 0.6699537634849548 -0.1838960498571396 1.0703628063201904 166 164 167 1.46 74 236 75 264 76 258 77 228 78 245 79 275 80 289 81 288 84 234 85 236 86 222 87 222 88 291 89 303 
415 0.2701016962528229 0.05005714297294617 0.8128587007522583 136 160 168 1.59 78 246 79 276 80 290 81 289 82 225 83 230 84 235 85 237 86 223 
416 0.18058276176452637 0.00494292750954628 0.7514393925666809 35 37 36 2.15 78 247 79 277 80 291 81 290 82 226 83 231 
417 0.6533382534980774 0.00047913522575981915 0.7086268067359924 65 78 28 5.58 78 248 79 278 80 292 81 291 83 232 84 236 85 238 86 224 87 223 88 292 89 304 
418 0.8012591600418091 -0.11048097163438797 1.1586107015609741 28 22 25 1.79 75 265 78 249 79 279 80 293 81 292 84 237 85 239 86 225 87 224 88 293 89 305 
419 0.6741463541984558 -0.1632874757051468 1.0686861276626587 164 162 162 1.66 74 237 75 266 76 259 77 229 78 250 79 280 80 294 81 293 84 238 85 240 86 226 87 225 88 294 89 306 
420 0.5789985656738281 -0.13238199055194855 1.0035885572433472 172 177 169 1.78 74 238 75 267 76 260 77 230 78 251 79 281 80 295 81 294 83 233 84 239 85 241 86 227 87 226 88 295 89 307 
421 0.29719534516334534 0.03294655680656433 0.8304768204689026 139 153 162 1.24 78 252 79 282 80 296 81 295 82 227 83 234 84 240 85 242 86 228 
422 0.21645821630954742 -0.17094822227954865 0.8034548759460449 157 158 158 2.08 77 231 78 253 79 283 80 297 81 296 82 228 83 235 84 241 85 243 86 229 87 227 88 296 89 308 
423 0.6668002605438232 0.06313196569681168 0.7427791953086853 102 109 88 2.6 78 254 79 284 80 298 81 297 84 242 85 244 86 230 87 228 88 297 89 309 
424 0.545102596282959 0.15409468114376068 0.6533625721931458 24 33 32 4.71 78 255 79 285 80 299 81 298 82 229 83 236 84 243 
425 0.6436238288879395 -0.1083468347787857 1.0555323362350464 57 79 90 1.38 74 239 75 268 76 261 77 232 78 256 79 286 80 300 81 299 84 244 85 245 86 231 87 229 88 298 89 310 
426 0.3557973802089691 -0.21212290227413177 0.8885231614112854 140 134 131 1.95 74 240 75 269 76 262 77 233 78 257 79 287 80 301 81 300 82 230 83 237 84 245 85 246 86 232 87 230 88 299 89 311 
427 0.15976394712924957 -0.028151825070381165 0.7462059855461121 127 115 117 2.68 74 241 79 288 80 302 81 301 82 231 83 238 
428 0.2995995581150055 -0.14741045236587524 0.8571917414665222 52 57 55 1.83 76 263 77 234 78 258 79 289 80 303 81 302 82 232 83 239 84 246 85 247 86 233 87 231 88 300 89 312 
429 0.38251495361328125 -0.178697407245636 0.8970802426338196 106 111 125 1.95 75 270 76 264 77 235 78 259 79 290 80 304 81 303 82 233 83 240 84 247 85 248 86 234 87 232 88 301 89 313 
430 0.10502904653549194 -0.2149239182472229 0.7682571411132812 151 172 194 2.06 74 242 75 271 76 265 77 236 78 260 79 291 80 305 81 304 82 234 83 241 88 302 89 314 
431 0.17381368577480316 0.02100035734474659 0.7449184060096741 130 126 121 2.7 79 292 80 306 81 305 82 235 83 242 88 303 
432 0.55897456407547 -0.26965761184692383 0.9876318573951721 102 106 129 1.78 74 243 75 272 76 266 77 237 78 261 79 293 80 307 81 306 84 248 85 249 86 235 87 233 88 304 89 315 
433 0.4234357178211212 -0.12333692610263824 0.9171148538589478 74 75 85 2.12 74 244 75 273 76 267 77 238 78 262 79 294 80 308 81 307 82 236 83 243 84 249 85 250 86 236 87 234 88 305 89 316 
434 0.2607615888118744 -0.14972005784511566 0.8371108174324036 40 42 43 1.94 76 268 77 239 78 263 79 295 80 309 81 308 82 237 83 244 84 250 85 251 86 237 87 235 88 306 89 317 
435 0.20118090510368347 -0.03862617164850235 0.7700197696685791 149 150 145 1.92 78 264 79 296 80 310 81 309 82 238 83 245 85 252 86 238 
436 0.131622314453125 -0.046307239681482315 0.73335200548172 116 114 113 2.67 74 245 79 297 80 311 81 310 82 239 83 246 
437 0.5502611994743347 0.078706756234169 0.7623013257980347 98 99 92 3.28 75 274 76 269 77 240 78 265 79 298 80 312 81 311 82 240 83 247 84 251 85 253 86 239 87 236 88 307 89 318 
438 0.5460425615310669 0.06498273462057114 0.7457759380340576 35 42 20 5.34 75 275 76 270 78 266 79 299 80 313 81 312 82 241 83 248 84 252 85 254 86 240 87 237 88 308 89 319 
439 0.8055287003517151 -0.09160256385803223 1.1591163873672485 122 138 155 1.75 75 276 79 300 80 314 81 313 84 253 85 255 86 241 87 238 88 309 89 320 
440 0.6133787631988525 -0.23627251386642456 1.0456632375717163 106 93 97 1.28 74 246 75 277 76 271 77 241 78 267 79 301 80 315 81 314 84 254 85 256 86 242 87 239 88 310 89 321 
441 0.33313947916030884 0.06875483691692352 0.8276867866516113 48 32 32 1.36 77 242 78 268 79 302 80 316 81 315 82 242 83 249 84 255 85 257 86 243 
442 0.5437586307525635 0.08745253086090088 0.7572636604309082 30 41 22 3.3 75 278 76 272 77 243 78 269 79 303 80 317 81 316 82 243 83 250 84 256 85 258 86 244 87 240 88 311 89 322 
443 0.4196470379829407 0.012511073611676693 0.88078773021698 73 71 78 1.81 75 279 76 273 77 244 78 270 79 304 80 318 81 317 82 244 83 251 84 257 88 312 89 323 
444 0.2057289332151413 -0.14339697360992432 0.7925630211830139 59 51 59 2.02 77 245 78 271 79 305 80 319 81 318 82 245 83 252 84 258 85 259 86 245 87 241 88 313 89 324 
445 0.6104877591133118 0.008750827983021736 0.694343090057373 128 140 118 2.39 78 272 79 306 80 320 81 319 83 253 84 259 85 260 86 246 87 242 88 314 89 325 
446 0.5043458342552185 -0.20396891236305237 0.9734359979629517 168 170 175 2.18 74 247 75 280 76 274 77 246 78 273 79 307 80 321 81 320 82 246 83 254 84 260 85 261 86 247 87 243 88 315 89 326 
447 0.805353581905365 -0.08953770250082016 1.1588901281356812 44 60 72 1.85 75 281 79 308 80 322 81 321 84 261 85 262 86 248 87 244 88 316 89 327 
448 0.4479215443134308 0.024315472692251205 0.9144941568374634 80 90 95 2.32 75 282 76 275 77 247 78 274 79 309 80 323 81 322 82 247 87 245 88 317 89 328 
449 0.622117817401886 0.048180170357227325 0.6971055865287781 106 105 106 2.18 78 275 79 310 80 324 81 323 83 255 84 262 85 263 86 249 87 246 88 318 89 329 
450 0.44985729455947876 0.11975540965795517 0.9003032445907593 137 151 162 2.12 76 276 77 248 78 276 79 311 80 325 81 324 82 248 83 256 84 263 85 264 88 319 
451 0.5507662892341614 0.05552932620048523 0.7280943393707275 90 100 79 10.81 78 277 79 312 80 326 81 325 82 249 83 257 84 264 85 265 86 250 87 247 88 320 89 330 
452 0.6624546051025391 0.08810809999704361 0.7123011350631714 84 98 79 2.98 78 278 79 313 80 327 81 326 84 265 85 266 86 251 87 248 88 321 89 331 
453 0.506165623664856 -0.22374115884304047 0.9778051972389221 153 153 156 1.94 74 248 75 283 76 277 77 249 78 279 79 314 80 328 81 327 82 250 84 266 85 267 86 252 87 249 88 322 89 332 
454 0.3502190411090851 -0.020525356754660606 0.8475924134254456 125 124 127 1.49 76 278 77 250 78 280 79 315 80 329 81 328 82 251 83 258 84 267 85 268 
455 0.8327616453170776 -0.12857289612293243 1.166273593902588 59 66 77 1.56 78 281 79 316 80 330 81 329 84 268 85 269 86 253 87 250 88 323 89 333 
456 0.4209195673465729 -0.22046050429344177 0.9303880333900452 98 91 97 2.27 74 249 75 284 76 279 77 251 78 282 79 317 80 331 81 330 82 252 83 259 84 269 85 270 86 254 87 251 88 324 89 334 
457 0.8303713202476501 -0.04689674451947212 1.1459031105041504 117 110 109 1.91 80 332 81 331 84 270 85 271 86 255 87 252 88 325 89 335 
458 0.6734433174133301 0.09006000310182571 0.7699571251869202 50 65 39 2.17 78 283 79 318 80 333 81 332 84 271 85 272 86 256 87 253 88 326 89 336 
459 0.37678369879722595 -0.014333461411297321 0.8612078428268433 169 172 174 1.35 76 280 77 252 78 284 79 319 80 334 81 333 82 253 83 260 84 272 85 273 
460 0.6641788482666016 0.040459129959344864 0.754270613193512 73 95 83 4.86 78 285 79 320 80 335 81 334 84 273 85 274 86 257 87 254 88 327 89 337 
461 0.26294004917144775 -0.08264271914958954 0.8078974485397339 107 111 112 2.11 75 285 77 253 78 286 79 321 80 336 81 335 82 254 83 261 84 274 85 275 86 258 88 328 89 338 
462 0.4036537706851959 0.13464513421058655 0.8431047797203064 124 116 109 2.26 75 286 76 281 77 254 78 287 79 322 80 337 81 336 82 255 83 262 84 275 85 276 86 259 87 255 
463 0.6457762718200684 0.0317360982298851 0.7402871251106262 153 162 151 6.62 78 288 79 323 80 338 81 337 83 263 84 276 85 277 86 260 87 256 88 329 89 339 
464 0.40641653537750244 0.168948233127594 0.6491724848747253 28 36 22 6.61 78 289 79 324 80 339 81 338 82 256 83 264 
465 0.7996906042098999 -0.08993365615606308 1.1573923826217651 27 28 29 1.82 75 287 79 325 80 340 81 339 84 277 85 278 86 261 87 257 88 330 89 340 
466 0.3123597502708435 -0.0977143868803978 0.8554727435112 162 182 201 1.62 75 288 76 282 77 255 78 290 79 326 80 341 81 340 82 257 83 265 84 278 85 279 87 258 88 331 89 341 
467 0.41506892442703247 -0.2504453659057617 0.9296159148216248 93 86 85 2.29 74 250 75 289 76 283 77 256 78 291 79 327 80 342 81 341 82 258 83 266 84 279 85 280 86 262 87 259 88 332 89 342 
468 0.2986714243888855 0.03303367644548416 0.8310539722442627 141 153 163 1.24 78 292 79 328 80 343 81 342 82 259 83 267 84 280 85 281 86 263 
469 0.6308203935623169 0.050177283585071564 0.6941154599189758 127 125 120 2.76 78 293 79 329 80 344 81 343 83 268 84 281 85 282 86 264 87 260 88 333 89 343 
470 0.6289188861846924 -0.13209885358810425 1.0495165586471558 178 193 210 1.26 74 251 75 290 76 284 77 257 78 294 79 330 80 345 81 344 84 282 85 283 86 265 87 261 88 334 89 344 
