# 3D point list with one line of data per point:
#   POINT3D_ID, X, Y, Z, R, G, B, ERROR, TRACK[] as (IMAGE_ID, POINT2D_IDX)
# Number of points: 387, mean track length: 7.23
50 0.13873425714244905 -0.1232592278522455 1.2582823528084246 0 0 0 0.95 3 31 103 13 111 23 114 50 147 5 
51 -0.5063569759248004 -0.1210689473273421 1.0296053255129736 0 0 0 0.24 3 32 25 5 43 4 96 7 114 51 
52 -0.41737239394038117 -0.11600448974290994 1.054533662397894 0 0 0 0.23 3 33 4 15 33 4 114 52 118 21 164 16 179 10 190 15 
53 -0.4303823015686825 -0.09663849652731321 1.0482990223489597 0 0 0 0.24 3 34 41 4 53 13 64 5 97 8 114 53 172 13 176 6 204 6 
54 -0.3659304821540506 -0.09170784899208032 1.0659708841713007 0 0 0 0.16 3 35 33 5 114 54 164 17 
55 -0.26707060075370204 -0.07678552377348216 1.0824451353511426 0 0 0 0.41 3 36 61 8 114 55 164 18 
56 -0.484981621212909 -0.05101568734560739 1.0297250254548636 0 0 0 0.25 3 37 53 14 96 8 114 56 213 2 
57 -0.30958220306691236 -0.19616875865777444 1.0896064524389226 0 0 0 0.38 3 38 53 15 67 14 96 9 97 9 114 57 181 4 204 7 
58 0.10814571601272008 -0.17806018460168324 1.244108867773832 0 0 0 0.42 3 39 15 14 17 15 53 16 97 10 114 58 120 4 182 9 184 4 190 16 197 10 
59 0.17628779887894747 -0.1533428447647933 1.3034308124991125 0 0 0 0.29 3 40 4 16 15 15 17 16 67 15 73 15 103 14 114 59 128 16 134 6 163 9 164 19 165 7 190 17 
60 0.17632092926841839 -0.15333258414326037 1.3030844996694197 0 0 0 0.29 3 41 15 16 17 17 67 16 73 16 103 15 114 60 128 17 163 10 164 20 165 8 190 18 
61 -0.398062472393359 -0.15620623562580824 1.060401161041527 0 0 0 0.29 3 42 27 14 96 10 111 24 114 61 146 1 158 7 164 21 176 7 204 8 213 3 
62 -0.47006908806694025 -0.1580124316708007 1.0433198486055344 0 0 0 0.25 3 43 21 5 41 5 111 25 114 62 157 4 162 9 172 14 
63 -0.4696886612387638 -0.1579489808684166 1.042743090021835 0 0 0 0.14 3 44 111 26 114 63 157 5 
64 -0.45373205793040877 -0.15783124827430728 1.0490471481354595 0 0 0 0.24 3 45 96 11 97 11 111 27 114 64 172 15 190 19 
65 -0.4529359879465382 -0.15776212989722269 1.047900940796069 0 0 0 0.19 3 46 96 12 114 65 190 20 204 9 
66 0.10735578324956507 -0.1374745608362339 1.2367411865990985 0 0 0 0.3 3 47 4 17 27 15 71 14 77 10 97 12 111 28 114 66 118 22 164 22 165 9 
67 -0.4320091363036118 -0.1429135396603175 1.0487689407914862 0 0 0 0.26 3 48 4 18 17 18 33 6 41 6 50 15 61 9 114 67 179 11 190 21 213 4 
68 0.15128421267816192 -0.09161449695362477 1.2652900538656193 0 0 0 0.3 3 49 15 17 17 19 67 17 71 15 73 17 77 11 114 68 147 6 197 11 
69 -0.48804858955877606 -0.09889874627616374 1.0330916587347962 0 0 0 0.28 3 50 61 10 71 16 96 13 114 69 157 6 172 16 176 8 204 10 
70 0.1255422495578316 -0.07517042255515703 1.2401065492992462 0 0 0 0.39 3 51 15 18 50 16 53 17 81 5 82 4 111 29 114 70 118 23 120 5 134 7 147 7 152 5 176 9 181 5 182 10 190 22 204 11 
71 -0.498002010290763 -0.08067062762570495 1.0287383856250523 0 0 0 0.19 3 52 17 20 64 6 73 18 114 71 179 12 
72 0.14459504905408313 0.04766061002421612 1.2430590614777903 0 0 0 0.33 3 53 97 13 111 30 114 72 120 6 147 8 163 11 165 10 
73 0.0936729366523222 -0.22096475777552174 1.32146626952146 0 0 0 0.52 3 54 17 21 27 16 53 18 73 19 87 4 97 14 103 16 114 73 118 24 134 8 147 9 164 23 184 5 190 23 197 12 213 5 
74 -0.43496337986681805 -0.20690345721228343 1.0596109962689473 0 0 0 0.36 3 55 4 19 17 22 41 7 44 7 64 7 71 17 77 12 81 6 92 7 114 74 146 2 158 8 162 10 179 13 181 6 190 24 198 6 204 12 213 6 
75 -0.33260811419958614 -0.20089546163201863 1.0815570105201076 0 0 0 0.38 3 56 27 17 41 8 50 17 64 8 97 15 103 17 114 75 128 18 176 10 179 14 181 7 190 25 204 13 
76 -0.333200721254188 -0.20130127941100767 1.0835639383562325 0 0 0 0.37 3 57 27 18 41 9 50 18 64 9 65 9 97 16 111 31 114 76 128 19 152 6 162 11 176 11 179 15 
77 -0.32768095585370743 -0.20099520924407865 1.084360266208763 0 0 0 0.43 3 58 103 18 114 77 162 12 164 24 179 16 
78 -0.32911816463780774 -0.19587081689316527 1.0812546114079031 0 0 0 0.29 3 59 4 20 17 23 25 6 33 7 41 10 50 19 53 19 65 10 67 18 71 18 81 7 96 14 97 17 111 32 114 78 118 25 128 20 138 5 146 3 157 7 162 13 164 25 172 17 176 12 179 17 204 14 213 7 
79 -0.5273279663229278 -0.16773542563744212 1.0333102832806316 0 0 0 0.31 3 60 4 21 50 20 53 20 92 8 96 15 111 33 114 79 
80 -0.39582096377230475 -0.14235105465561781 1.056911251093391 0 0 0 0.21 3 61 4 22 17 24 33 8 41 11 81 8 114 80 138 6 179 18 213 8 
81 0.20442956265520917 -0.10273506897049868 1.318720642840463 0 0 0 0.1 3 62 103 19 114 81 
82 -0.507264310681043 -0.09697024746166606 1.0295432126143067 0 0 0 0.4 3 63 25 7 41 12 114 82 138 7 
83 -0.4043929457051038 -0.08420112595418797 1.052942698184756 0 0 0 0.21 3 64 4 23 17 25 27 19 44 8 64 10 77 13 111 34 114 83 118 26 128 21 129 4 146 4 158 9 164 26 213 9 
84 -0.4492607349528805 -0.0843608000247279 1.0430199577404613 0 0 0 0.29 3 65 73 20 77 14 81 9 114 84 128 22 164 27 190 26 
85 -0.48868820061774454 -0.08300293750336792 1.031055685508262 0 0 0 0.29 3 66 21 6 33 9 41 13 44 9 71 19 114 85 128 23 162 14 164 28 176 13 199 4 
86 0.0975794662078169 -0.19764335365515517 1.2719191664968577 0 0 0 0.46 3 67 27 20 65 11 103 20 114 86 147 10 184 6 197 13 
87 -0.3028896662853123 -0.19134758675848879 1.0878484392981733 0 0 0 0.42 3 68 41 14 43 5 97 18 114 87 176 14 204 15 
88 -0.5351919163971561 -0.18911928114038468 1.0367247090732516 0 0 0 0.15 3 69 65 12 73 21 114 88 
89 -0.5016715335420459 -0.1837219126891449 1.0378188370949115 0 0 0 0.48 3 70 17 26 50 21 67 19 114 89 128 24 
90 0.12718134605422665 -0.16371780721093362 1.2558965907626631 0 0 0 0.37 3 71 4 24 17 27 27 21 50 22 65 13 67 20 71 20 73 22 77 15 81 10 82 5 103 21 111 35 114 90 118 27 128 25 129 5 134 9 152 7 163 12 164 29 165 11 184 7 190 27 204 16 
91 -0.524518797405522 -0.17442243030720458 1.0412143569835381 0 0 0 0.65 3 72 17 28 27 22 41 15 50 23 53 21 61 11 64 11 65 14 73 23 81 11 114 91 118 28 138 8 157 8 172 18 176 15 179 19 190 28 
92 0.139924604009465 -0.1402690649380698 1.254690968900673 0 0 0 0.35 3 73 15 19 17 29 27 23 67 21 87 5 114 92 118 29 120 7 129 6 181 8 
93 -0.2824919618568391 -0.14543306264394126 1.0859032660895012 0 0 0 0.41 3 74 4 25 17 30 25 8 27 24 33 10 41 16 53 22 64 12 71 21 77 16 96 16 97 19 111 36 114 93 118 30 128 26 129 7 138 9 146 5 147 11 157 9 162 15 164 30 172 19 176 16 179 20 181 9 204 17 213 10 
94 -0.39901811153446104 -0.14851897186750732 1.0576861268926727 0 0 0 0.36 3 75 21 7 25 9 27 25 41 17 50 24 53 23 64 13 71 22 77 17 97 20 103 22 111 37 114 94 118 31 128 27 138 10 146 6 157 10 158 10 164 31 179 21 190 29 204 18 213 11 
95 -0.5021282968859304 -0.11390561950732682 1.0299769972621737 0 0 0 0.36 3 76 17 31 50 25 53 24 77 18 96 17 114 95 118 32 157 11 164 32 172 20 176 17 190 30 
96 -0.3757463151232504 -0.08208683040740242 1.0592213005099578 0 0 0 0.33 3 77 4 26 17 32 71 23 97 21 114 96 128 28 146 7 164 33 172 21 176 18 204 19 
97 -0.3209133993011051 -0.193561566828809 1.087932876559733 0 0 0 0.14 3 78 64 14 114 97 138 11 
98 -0.35522445771876804 -0.1926414768319896 1.0748964338886822 0 0 0 0.34 3 79 88 1 114 98 162 16 176 19 
99 -0.46719411094427954 -0.08464751164039795 1.035653658443507 0 0 0 0.22 3 80 114 99 146 8 199 5 
100 -0.43292076228956844 -0.08280024503921797 1.0459359318844337 0 0 0 0.32 3 81 25 10 67 22 114 100 198 7 213 12 
101 -0.5017528790659334 -0.06865642215063612 1.0245197466169074 0 0 0 0.33 3 82 17 33 19 4 27 26 43 6 44 10 50 26 53 25 61 12 65 15 71 24 77 19 81 12 88 2 96 18 111 38 114 101 118 33 162 17 164 34 172 22 176 20 179 22 190 31 
102 -0.4573721413080468 -0.18483588236073542 1.051533123362709 0 0 0 0.55 3 83 4 27 27 27 41 18 43 7 44 11 53 26 64 15 67 23 71 25 73 24 81 13 96 19 103 23 114 102 138 12 164 35 179 23 181 10 198 8 199 6 204 20 
103 0.1151289139904971 -0.16643848581904536 1.25066055186888 0 0 0 0.57 3 84 4 28 15 20 17 34 27 28 53 27 65 16 103 24 114 103 129 8 164 36 190 32 
104 0.15660244858756472 -0.13394211748858334 1.2930927855233414 0 0 0 0.5 3 85 4 29 15 21 53 28 65 17 67 24 77 20 103 25 111 39 114 104 129 9 172 23 190 33 197 14 
105 0.17562686939486993 -0.13046886003168276 1.302909567201882 0 0 0 0.46 3 86 4 30 15 22 17 35 44 12 53 29 65 18 67 25 73 25 77 21 92 9 111 40 114 105 120 8 129 10 152 8 162 18 163 13 164 37 165 12 181 11 182 11 184 8 190 34 197 15 
106 0.15619032797183655 -0.12316108533570824 1.2981011386439192 0 0 0 0.5 3 87 15 23 17 36 67 26 71 26 111 41 114 106 118 34 129 11 
107 -0.3184938981765338 -0.0654893840638282 1.0694405783431533 0 0 0 0.56 3 88 25 11 114 107 
108 -0.4410398256596173 -0.21253923812522166 1.0582193646607945 0 0 0 0.5 3 89 4 31 25 12 27 29 33 11 50 27 64 16 67 27 71 27 73 26 81 14 114 108 118 35 138 13 162 19 190 35 198 9 
109 -0.4406143728056002 -0.18586099868325262 1.0528688402470916 0 0 0 0.44 3 90 19 5 53 30 65 19 67 28 96 20 97 22 103 26 111 42 114 109 128 29 162 20 164 38 172 24 179 24 181 12 190 36 204 21 
110 -0.3096444803257418 -0.05710193510360846 1.0753732343558082 0 0 0 0.67 3 91 4 32 17 37 25 13 41 19 64 17 65 20 67 29 71 28 92 10 114 110 118 36 128 30 146 9 157 12 164 39 179 25 181 13 
111 -0.3873545869230048 -0.15045073297261655 1.0598153506114 0 0 0 0.89 3 92 41 20 43 8 64 18 67 30 92 11 107 1 111 43 114 111 
112 -0.36610513618048873 -0.2239547311261733 1.0996256945435816 0 0 0 0.5 3 93 64 19 114 112 
113 0.16345756126550692 -0.13185816799117905 1.2918338135370975 0 0 0 0.4 4 33 15 24 71 29 77 22 114 113 164 40 182 12 184 9 
114 -0.3821824803092161 -0.1011468231808534 1.062776577168912 0 0 0 0.52 4 34 67 31 114 114 179 26 
115 -0.5008705973926024 -0.18140598297708274 1.038831702675559 0 0 0 0.3 4 35 27 30 71 30 73 27 103 27 111 44 114 115 162 21 
116 -0.434477057318842 -0.1511612947507234 1.0493329915238279 0 0 0 0.21 4 36 114 116 204 22 213 13 
117 -0.42275891663144227 -0.20694940829788908 1.060452432576646 0 0 0 0.19 4 37 25 14 50 28 114 117 
118 -0.38385910520123573 -0.1901581346316048 1.069268865257957 0 0 0 0.31 4 38 17 38 19 6 27 31 33 12 44 13 50 29 65 21 77 23 114 118 118 37 128 31 146 10 152 9 158 11 164 41 190 37 
119 0.1601774332808317 -0.1388694650742011 1.2918741320967198 0 0 0 0.31 4 39 67 32 71 31 87 6 103 28 111 45 114 119 118 38 120 9 163 14 172 25 182 13 190 38 
120 -0.4987142723894451 -0.14558869551003367 1.0316427747477923 0 0 0 0.3 4 40 17 39 27 32 43 9 50 30 61 13 67 33 111 46 114 120 118 39 157 13 162 22 204 23 
121 -0.4649097543216229 -0.09371646554813248 1.0364487854280504 0 0 0 0.23 4 41 17 40 25 15 27 33 50 31 71 32 92 12 114 121 118 40 157 14 213 14 
122 -0.46241646759853783 -0.0849070711702946 1.0380406412163972 0 0 0 0.3 4 42 50 32 114 122 118 41 179 27 
123 -0.5345428258235538 -0.07466578855626642 1.0139920804781306 0 0 0 0.23 4 43 27 34 96 21 114 123 176 21 
124 -0.3793883488624131 -0.03763624276370142 1.0484688366486765 0 0 0 0.3 4 44 17 41 25 16 97 23 114 124 
125 -0.4323003321981559 0.016576509172975516 1.028603846765576 0 0 0 0.38 4 45 17 42 71 33 92 13 111 47 114 125 
126 -0.4478644139787443 -0.2076679470657342 1.0547583453295595 0 0 0 0.15 4 46 27 35 50 33 73 28 77 24 97 24 114 126 118 42 128 32 158 12 164 42 
127 -0.44091409985006225 -0.2057556205817875 1.0543675401429937 0 0 0 0.34 4 47 17 43 25 17 27 36 53 31 67 34 77 25 97 25 103 29 114 127 128 33 157 15 162 23 164 43 172 26 190 39 213 15 
128 -0.35028582756431487 -0.19731239840344963 1.077171327689989 0 0 0 0.28 4 48 41 21 64 20 67 35 71 34 103 30 114 128 164 44 176 22 179 28 
129 -0.4437677581776255 -0.2014834278455489 1.0543343026762355 0 0 0 0.35 4 49 19 7 27 37 41 22 44 14 50 34 73 29 77 26 103 31 111 48 114 129 152 10 172 27 179 29 
130 -0.5305699087999673 -0.19333520358517525 1.0358914270653488 0 0 0 0.24 4 50 50 35 67 36 71 35 73 30 77 27 81 15 114 130 164 45 
131 -0.4329951730250369 -0.1855420933820586 1.0565366929727127 0 0 0 0.32 4 51 41 23 64 21 65 22 97 26 114 131 179 30 213 16 
132 -0.5049323886887627 -0.1720356698472576 1.0327160255642966 0 0 0 0.33 4 52 27 38 43 10 71 36 73 31 103 32 111 49 114 132 
133 0.19250557120372988 -0.14038443713431242 1.3141460831203444 0 0 0 0.26 4 53 17 44 67 37 77 28 103 33 114 133 163 15 172 28 190 40 
134 -0.39138707163713354 -0.14269462329451937 1.05882604555298 0 0 0 0.22 4 54 111 50 114 134 158 13 213 17 
135 0.11201147167475967 -0.0755872584120222 1.2331588701057117 0 0 0 0.28 4 55 15 25 50 36 92 14 114 135 128 34 147 12 158 14 165 13 172 29 
136 -0.49678023876185573 -0.0723738460668054 1.0274660476796185 0 0 0 0.25 4 56 73 32 114 136 118 43 179 31 
137 -0.5113256311991089 -0.0035455809297035663 1.014225154600035 0 0 0 0.48 27 39 77 29 114 137 118 44 
138 0.1783316121220182 -0.10012664851440134 1.2986563668323536 0 0 0 0.28 4 57 15 26 77 30 103 34 111 51 114 138 129 12 164 46 165 14 
139 -0.46744025766919284 -0.10416185621252297 1.0394219222465848 0 0 0 0.24 4 58 21 8 27 40 50 37 71 37 73 33 114 139 164 47 213 18 
140 -0.4080783225173781 -0.08999050802246737 1.0518492001249338 0 0 0 0.38 4 59 114 140 118 45 190 41 199 7 
141 -0.4967874312348786 -0.08606475470751904 1.029173858985208 0 0 0 0.4 4 60 25 18 41 24 61 14 64 22 67 38 114 141 181 14 190 42 198 10 
142 -0.5101302549020984 -0.07935527193577313 1.0224475429556164 0 0 0 0.42 4 61 27 41 71 38 73 34 88 3 114 142 157 16 162 24 
143 -0.5060154021618078 -0.0759684697969318 1.024548368301522 0 0 0 0.31 4 62 19 8 21 9 27 42 65 23 67 39 73 35 77 31 88 4 96 22 97 27 114 143 162 25 164 48 176 23 198 11 199 8 
144 -0.5112122942545292 -0.04556907891151965 1.0210021647666245 0 0 0 0.29 4 63 17 45 43 11 44 15 114 144 199 9 
145 -0.5300461521696201 -0.10656496959492845 1.0238607786579677 0 0 0 0.47 4 64 21 10 71 39 92 15 114 145 176 24 
146 -0.54579338364729 -0.21047967133965262 1.0338289330059465 0 0 0 0.34 4 65 21 11 44 16 67 40 71 40 73 36 77 32 81 16 88 5 92 16 103 35 111 52 114 146 162 26 164 49 181 15 198 12 199 10 
147 -0.545753013044452 -0.2105159676877823 1.0338080414819188 0 0 0 0.33 4 66 44 17 67 41 71 41 73 37 77 33 81 17 88 6 92 17 103 36 111 53 114 147 162 27 164 50 181 16 198 13 199 11 
148 -0.4979191080592882 -0.20740397563177448 1.0541987001323931 0 0 0 0.75 4 67 27 43 33 13 43 12 67 42 71 42 73 38 81 18 111 54 114 148 181 17 
149 -0.4259351219851395 -0.18366142860281212 1.0578565690382369 0 0 0 0.27 4 68 17 46 44 18 50 38 67 43 77 34 81 19 114 149 164 51 181 18 198 14 
150 -0.329722215369235 -0.2104754591043373 1.0839789888343876 0 0 0 0.48 4 69 71 43 114 150 162 28 
151 -0.38628693851942214 -0.11828083915131407 1.060523120159732 0 0 0 0.39 4 70 103 37 111 55 114 151 157 17 158 15 164 52 
152 -0.3860592843658346 -0.11802234670929172 1.0601340281413505 0 0 0 0.26 4 71 103 38 114 152 138 14 158 16 164 53 
153 -0.45863231703696034 -0.11800879240813386 1.044396340654551 0 0 0 0.34 4 72 25 19 50 39 65 24 67 44 71 44 88 7 97 28 114 153 118 46 128 35 146 11 157 18 164 54 190 43 198 15 
154 -0.4584723346304145 -0.11792259867329569 1.044150049462791 0 0 0 0.34 4 73 25 20 41 25 50 40 65 25 67 45 71 45 81 20 97 29 114 154 118 47 128 36 138 15 146 12 157 19 164 55 179 32 190 44 198 16 
155 -0.30928797743642644 -0.05717271200454032 1.0746009808993526 0 0 0 0.64 4 74 17 47 25 21 41 26 64 23 65 26 67 46 114 155 118 48 146 13 164 56 179 33 181 19 
156 -0.47707557908567766 -0.11341275444800313 1.0412159031372814 0 0 0 0.76 4 75 21 12 25 22 43 13 71 46 81 21 88 8 96 23 111 56 114 156 146 14 
157 -0.4770450996579309 -0.11310422644820764 1.0411378678605678 0 0 0 0.67 4 76 25 23 71 47 73 39 77 35 88 9 114 157 146 15 
158 -0.40478375683948 -0.11072737028458342 1.056950174804496 0 0 0 0.55 4 77 17 48 21 13 43 14 65 27 67 47 81 22 88 10 111 57 114 158 118 49 164 57 
159 -0.40470424005409567 -0.11039167337645488 1.0569470304702702 0 0 0 0.69 4 78 17 49 21 14 43 15 50 41 65 28 67 48 81 23 111 58 114 159 118 50 157 20 164 58 
160 -0.349884003151127 -0.094700205212665 1.068312908552828 0 0 0 0.51 4 79 71 48 77 36 114 160 164 59 
161 -0.4210057124408786 -0.09631645994028845 1.0492090481498406 0 0 0 0.45 4 80 17 50 21 15 41 27 50 42 61 15 67 49 81 24 96 24 114 161 118 51 128 37 138 16 146 16 164 60 172 30 190 45 198 17 199 12 213 19 
162 -0.43979840142415233 -0.08315095470208698 1.0441369486462801 0 0 0 0.45 4 81 43 16 50 43 53 32 71 49 96 25 114 162 146 17 190 46 213 20 
163 -0.47481977074111154 -0.08221846384315178 1.0341638292744222 0 0 0 0.51 4 82 21 16 50 44 53 33 67 50 81 25 96 26 114 163 157 21 190 47 198 18 199 13 213 21 
164 -0.4748837757361383 -0.08240217312851762 1.0344177905519192 0 0 0 0.42 4 83 43 17 50 45 53 34 61 16 67 51 71 50 73 40 81 26 88 11 96 27 114 164 146 18 190 48 198 19 199 14 213 22 
165 -0.45451987321505255 -0.2352563588816523 1.098133957342529 0 0 0 0.83 4 84 73 41 114 165 164 61 198 20 
166 0.14736042881197248 -0.1351310792696853 1.2730905598972801 0 0 0 0.5 15 27 17 51 50 46 65 29 67 52 71 51 103 39 114 166 118 52 128 38 129 13 134 10 172 31 190 49 
167 -0.368051751367191 -0.11026389689260688 1.0656359764962577 0 0 0 0.63 4 85 41 28 71 52 97 30 111 59 114 167 138 17 
168 -0.3656961210093831 -0.11001150075307026 1.061758388091856 0 0 0 0.36 4 86 81 27 97 31 111 60 114 168 157 22 
169 -0.3855420482974563 -0.09232036843830344 1.0577141247107387 0 0 0 0.46 4 87 33 14 67 53 81 28 111 61 114 169 138 18 157 23 164 62 181 20 
170 -0.38390889827866337 -0.0924256651646143 1.055034744217369 0 0 0 0.35 4 88 43 18 114 170 
171 0.17642679202607525 -0.158495557974558 1.3058374345634658 0 0 0 0.16 15 28 67 54 71 53 73 42 92 18 111 62 114 171 128 39 172 32 
172 0.17638127499080725 -0.15857051685344656 1.305495905827745 0 0 0 0.19 15 29 67 55 71 54 77 37 114 172 128 40 165 15 
173 0.19367799565634802 -0.14651786610775847 1.3152407338893437 0 0 0 0.78 15 30 44 19 114 173 120 10 147 13 152 11 182 14 
174 0.1953321697824896 -0.11249588779236562 1.3207406629075298 0 0 0 0.28 15 31 17 52 44 20 53 35 65 30 67 56 71 55 103 40 111 63 114 174 120 11 129 14 184 10 
175 0.17297502477408505 -0.0969402059075286 1.2920062274067088 0 0 0 0.26 15 32 17 53 50 47 65 31 77 38 114 175 118 53 120 12 147 14 182 15 190 50 198 21 
176 0.15076946731144356 -0.034975113702916484 1.2610241940560118 0 0 0 0.29 15 33 43 19 67 57 114 176 190 51 204 24 
177 0.14143642633828266 -0.1479064432029869 1.2474294452832462 0 0 0 0.27 15 34 67 58 97 32 114 177 134 11 190 52 199 15 
178 -0.2638801219418031 -0.07980540491461456 1.0853600426440204 0 0 0 0.43 15 35 27 44 33 15 41 29 44 21 65 32 111 64 114 178 
179 0.20144883728615662 -0.08350606531730595 1.3209000440528613 0 0 0 0.28 15 36 77 39 111 65 114 179 129 15 147 15 165 16 
180 -0.27053120133414277 -0.026052774496341025 1.0690675211102965 0 0 0 0.5 15 37 25 24 27 45 33 16 44 22 77 40 114 180 118 54 164 63 213 23 
181 0.11015685772600153 -0.17379175068650665 1.2441950724352235 0 0 0 0.43 15 38 27 46 77 41 97 33 114 181 184 11 190 53 197 16 
182 0.1938488507641452 -0.08264472909090337 1.3132073055757352 0 0 0 0.41 15 39 17 54 65 33 77 42 114 182 129 16 147 16 165 17 184 12 190 54 197 17 
183 0.24563130285556012 -0.10087594796404721 1.1917330643720547 0 0 0 0.34 17 55 53 36 67 59 82 6 111 66 114 183 163 16 182 16 
184 0.2943440384879657 -0.14104377547079266 1.1361455288285618 0 0 0 0.41 17 56 53 37 82 7 111 67 114 184 118 55 123 0 147 17 152 12 163 17 182 17 184 13 190 55 197 18 
185 0.13701423315754305 -0.15480846344361113 1.250782962920903 0 0 0 0.3 17 57 65 34 67 60 71 56 111 68 114 185 134 12 
186 -0.3898753736957982 -0.1279845435880574 1.0578646942699832 0 0 0 0.26 17 58 114 186 179 34 190 56 213 24 
187 -0.46337088404676013 -0.127726724222306 1.0430297603591936 0 0 0 0.1 17 59 25 25 96 28 114 187 118 56 
188 0.3000688102815491 -0.09841016026327215 1.1228329417495846 0 0 0 0.18 17 60 114 188 182 18 
189 -0.28655927557720134 -0.08976131231382874 1.0836826262445334 0 0 0 0.29 17 61 19 9 25 26 27 47 41 30 71 57 111 69 114 189 118 57 147 18 157 24 176 25 179 35 
190 -0.2861660884767653 -0.08977687612286232 1.0829302429359866 0 0 0 0.16 17 62 25 27 71 58 114 190 118 58 146 19 147 19 
191 0.19348844419727002 -0.07639505058567261 1.3209103249404224 0 0 0 0.49 17 63 87 7 114 191 
192 0.2738220866965292 -0.018827837779038036 1.1523620964678356 0 0 0 0.32 17 64 114 192 120 13 152 13 
193 0.2419735568698893 0.006571225885541661 1.1847552885259525 0 0 0 0.23 17 65 67 61 82 8 111 70 114 193 120 14 134 13 147 20 163 18 182 19 190 57 
194 -0.4443591694308811 -0.20193718559712226 1.0551275711303745 0 0 0 0.35 17 66 50 48 65 35 67 62 71 59 77 43 92 19 103 41 114 194 118 59 157 25 190 58 
195 0.30633259237515253 -0.14595110622751184 1.1204050710822446 0 0 0 0.54 17 67 111 71 114 195 120 15 
196 0.19235687350394937 -0.14031218617958424 1.314576876562055 0 0 0 0.17 17 68 67 63 103 42 114 196 163 19 172 33 190 59 
197 0.3006802406629436 -0.10308595354626177 1.1230497425481871 0 0 0 0.28 17 69 67 64 82 9 111 72 114 197 120 16 182 20 
198 0.1998267946706574 -0.10922039801383644 1.3242183325987609 0 0 0 0.22 17 70 44 23 50 49 53 38 67 65 103 43 114 198 118 60 128 41 134 14 147 21 
199 -0.28359776645214874 -0.08624140022270338 1.0827580403057389 0 0 0 0.34 17 71 33 17 41 31 92 20 114 199 164 64 213 25 
200 -0.37167393828507467 -0.08740309093735647 1.0617826691946506 0 0 0 0.48 17 72 27 48 53 39 61 17 64 24 67 66 81 29 92 21 96 29 97 34 111 73 114 200 138 19 164 65 176 26 190 60 204 25 
201 0.25361678980303465 -0.037512091320485 1.1685802727536792 0 0 0 0.39 17 73 61 18 82 10 97 35 114 201 118 61 134 15 152 14 182 21 
202 -0.5053285068000722 -0.03680854286029174 1.0192408153840231 0 0 0 0.3 17 74 25 28 114 202 
203 0.27052172133287683 0.003610993966232646 1.1521372580540195 0 0 0 0.19 17 75 61 19 87 8 114 203 152 15 182 22 
204 0.2656920478650477 0.004379681741702117 1.1696769695100508 0 0 0 0.25 17 76 87 9 114 204 
205 0.25444118489257517 0.005170070396078879 1.1665708578551963 0 0 0 0.27 17 77 61 20 82 11 87 10 111 74 114 205 118 62 120 17 134 16 147 22 163 20 182 23 
206 0.24838744487883466 0.005674469402178588 1.1745758610366883 0 0 0 0.29 17 78 82 12 87 11 111 75 114 206 134 17 182 24 
207 0.23666487430926594 0.007483911370992069 1.1970479422696256 0 0 0 0.2 17 79 114 207 182 25 
208 0.2548043412618671 0.012894071114994814 1.1676352293793077 0 0 0 0.09 17 80 61 21 114 208 182 26 
209 0.24821712534024962 0.013609362069868118 1.1724820091132846 0 0 0 0.41 17 81 61 22 87 12 114 209 118 63 120 18 182 27 190 61 
210 0.2704968191397422 0.018925219461656328 1.1496905395227355 0 0 0 0.31 17 82 61 23 87 13 114 210 182 28 
211 0.2489841047358975 0.020775536496902693 1.1796970477479252 0 0 0 0.47 17 83 87 14 114 211 
212 0.25495010412495245 0.02041791557988046 1.1678585668803259 0 0 0 0.13 17 84 61 24 114 212 182 29 
213 -0.43065746535094235 -0.21017648273112308 1.0628361490400453 0 0 0 0.34 17 85 81 30 111 76 114 213 128 42 
214 -0.42006860403882196 -0.19347419131212518 1.0637030186545442 0 0 0 0.13 17 86 50 50 114 214 
215 -0.35954241818362886 -0.14836498714298962 1.066313646669091 0 0 0 0.34 17 87 65 36 67 67 114 215 138 20 181 21 198 22 199 16 
216 -0.48428464717118513 -0.12881097166845598 1.0383400258704598 0 0 0 0.29 17 88 25 29 73 43 114 216 
217 0.2520447822769271 -0.09805867100602178 1.182547488944494 0 0 0 0.23 17 89 61 25 81 31 97 36 114 217 118 64 152 16 182 30 
218 0.25205224690036315 -0.09800814662879628 1.1813391223313154 0 0 0 0.29 17 90 81 32 114 218 129 17 152 17 165 18 182 31 197 19 
219 0.26356994947622703 -0.06299535503534824 1.16264012677176 0 0 0 0.27 17 91 64 25 87 15 114 219 134 18 138 21 179 36 
220 0.2635699494762478 -0.06299535503536018 1.1626401267718625 0 0 0 0.27 17 92 64 26 87 16 114 220 134 19 138 22 179 37 
221 0.26997111737358565 -0.03819590529869866 1.1559449485649917 0 0 0 0.31 17 93 67 68 114 221 120 19 152 18 179 38 182 32 
222 0.23873078166733513 0.002403605955192749 1.198533537021008 0 0 0 0.48 17 94 87 17 114 222 147 23 
223 -0.4979971013278485 -0.22384280644836438 1.073738486608603 0 0 0 0.94 17 95 43 20 114 223 190 62 
224 0.2421453667178021 -0.10650476346168906 1.1940615297073363 0 0 0 0.3 17 96 53 40 77 44 103 44 111 77 114 224 165 19 182 33 184 14 197 20 
225 0.25779135336254355 -0.09663165887662517 1.175757319737671 0 0 0 0.45 17 97 61 26 114 225 152 19 182 34 
226 -0.35906154749378694 -0.08184159485808506 1.0638506748608534 0 0 0 0.19 17 98 27 49 77 45 114 226 128 43 146 20 172 34 213 26 
227 0.2516586187956394 -0.06267288360182831 1.1765895653032499 0 0 0 0.4 17 99 67 69 87 18 114 227 120 20 129 18 134 20 
228 0.2516982478334722 -0.06289526111996786 1.1769724875405843 0 0 0 0.33 17 100 87 19 114 228 120 21 129 19 134 21 
229 0.2442700774814098 0.0009116992785411614 1.177631845126155 0 0 0 0.68 17 101 77 46 111 78 114 229 118 65 120 22 147 24 165 20 190 63 197 21 
230 -0.5031802272111123 0.008611617185345697 1.0139605496153956 0 0 0 0.43 17 102 73 44 77 47 114 230 
231 0.25248549204030324 -0.08767727632984766 1.1784229645091393 0 0 0 0.36 17 103 53 41 65 37 67 70 81 33 82 13 87 20 111 79 114 231 129 20 163 21 165 21 184 15 197 22 
232 0.25198081931355065 -0.0744274527075154 1.1806030201494253 0 0 0 0.45 17 104 61 27 87 21 114 232 152 20 182 35 
233 -0.481653861086165 -0.08390997812081459 1.034248080193092 0 0 0 0.21 17 105 25 30 73 45 103 45 114 233 
234 0.2652863722161341 -0.0491382370300633 1.1589744070715002 0 0 0 0.48 17 106 67 71 81 34 111 80 114 234 129 21 134 22 138 23 163 22 
235 0.2765447669925418 -0.030006618109260193 1.1446470688541694 0 0 0 0.32 17 107 64 27 67 72 81 35 87 22 111 81 114 235 129 22 138 24 152 21 
236 -0.49323867897670687 -0.12089267997186572 1.0346697846135255 0 0 0 0.36 17 108 25 31 27 50 33 18 50 51 71 60 73 46 77 48 88 12 114 236 157 26 164 66 
237 0.26339122591476766 -0.08354892782740703 1.172129665051423 0 0 0 0.37 17 109 67 73 81 36 111 82 114 237 129 23 152 22 182 36 
238 0.2670141920393715 -0.03782973373019752 1.1574282832205993 0 0 0 0.3 17 110 67 74 81 37 111 83 114 238 129 24 134 23 138 25 163 23 182 37 
239 0.2669383037276556 -0.037793157571357955 1.1569311722728453 0 0 0 0.32 17 111 67 75 111 84 114 239 129 25 134 24 138 26 182 38 
240 0.26731762922180147 -0.022454144375498263 1.1550250860226743 0 0 0 0.39 17 112 114 240 120 23 129 26 152 23 182 39 
241 0.1782696103696253 -0.14293247735060594 1.3008612228676748 0 0 0 0.51 17 113 44 24 50 52 53 42 65 38 82 14 114 241 118 66 182 40 190 64 
242 -0.3275240537446996 -0.045036945270108465 1.0649767364153424 0 0 0 0.53 17 114 114 242 118 67 213 27 
243 -0.5473798327299898 -0.2367545631126469 1.037458317449158 0 0 0 0.42 19 10 67 76 114 243 181 22 
244 -0.5452671909195439 -0.23603591501180032 1.0358029300178304 0 0 0 0.22 19 11 114 244 181 23 
245 -0.551482982020914 -0.20368645605117758 1.0299661947063516 0 0 0 0.47 19 12 71 61 77 49 114 245 164 67 
246 -0.48238584543354446 -0.154691266367126 1.0385296369345287 0 0 0 0.35 19 13 27 51 41 32 44 25 67 77 77 50 96 30 103 46 111 85 114 246 162 29 164 68 172 35 204 26 
247 -0.4210331654520359 0.03573122513405357 1.0310607879312488 0 0 0 0.21 19 14 44 26 114 247 164 69 179 39 
248 -0.5551953315746451 -0.18941411746243628 1.0232641629531556 0 0 0 0.27 19 15 27 52 114 248 
249 -0.4866032280588476 -0.1520421603121556 1.0377538378212543 0 0 0 0.27 19 16 67 78 81 38 114 249 
250 0.24296571290456476 -0.09821474617821167 1.1950945345817312 0 0 0 0.31 65 39 67 79 77 51 111 86 114 250 165 22 184 16 197 23 
251 -0.4130545591831538 -0.1564280446388616 1.056193660279839 0 0 0 0.58 19 17 27 53 67 80 96 31 107 2 114 251 128 44 172 36 176 27 204 27 213 28 
252 -0.5004569300235185 -0.056863882423057524 1.0223299075449293 0 0 0 0.85 19 18 111 87 114 252 129 27 162 30 181 24 
253 -0.2699663569852623 -0.1773354051508104 1.0919414072880276 0 0 0 0.32 19 19 44 27 92 22 114 253 146 21 
254 -0.3867200896189904 -0.18128058128851435 1.067104108545936 0 0 0 0.39 19 20 41 33 114 254 198 23 
255 -0.3878729493105284 -0.18190805467983626 1.0683049417982198 0 0 0 0.25 19 21 114 255 198 24 
256 -0.370835856536589 -0.14803773446134022 1.0654427246493945 0 0 0 0.33 19 22 25 32 33 19 41 34 67 81 71 62 81 39 96 32 97 37 111 88 114 256 128 45 138 27 157 27 158 17 164 70 179 40 181 25 190 65 204 28 213 29 
257 -0.29018635477879595 -0.17900232685191914 1.0900458023284672 0 0 0 0.17 19 23 41 35 114 257 
258 -0.5035547138208482 0.014822293755944183 1.0119497810484432 0 0 0 0.36 21 17 111 89 114 258 
259 -0.5017512069966 -0.07865963074343899 1.0269845429863564 0 0 0 0.77 21 18 25 33 27 54 43 21 71 63 73 47 77 52 114 259 157 28 181 26 
260 -0.49527350522515323 -0.06466446334224987 1.0242539718112684 0 0 0 0.17 21 19 73 48 114 260 
261 -0.4621884044839111 -0.03210653452981849 1.0274152467142157 0 0 0 0.13 21 20 73 49 114 261 
262 -0.4175938805597862 -0.017749279961407686 1.0371796236734954 0 0 0 0.44 21 21 114 262 179 41 
263 -0.3852876768762335 -0.030536496822060954 1.0479301013403013 0 0 0 0.45 21 22 114 263 162 31 
264 -0.4487408216044728 -0.18595514192797416 1.052812907855574 0 0 0 0.58 41 36 64 28 96 33 114 264 158 18 198 25 
265 -0.5463303787043816 -0.180260392499405 1.0285055014738895 0 0 0 0.28 21 23 27 55 43 22 67 82 71 64 73 50 88 13 114 265 164 71 198 26 
266 -0.43148193824358927 -0.10584964289373262 1.047604898591171 0 0 0 0.57 21 24 27 56 41 37 61 28 64 29 88 14 96 34 114 266 118 68 128 46 146 22 164 72 172 37 179 42 204 29 213 30 
267 -0.41329657487469806 -0.14237818046230422 1.0578319307416277 0 0 0 0.36 21 25 33 20 114 267 164 73 
268 -0.4487082769507431 -0.14326687124282386 1.048806274085382 0 0 0 0.22 21 26 67 83 73 51 81 40 88 15 114 268 146 23 164 74 199 17 213 31 
269 -0.48473197583207145 -0.1444438927523012 1.0398762102550156 0 0 0 0.27 21 27 41 38 44 28 73 52 88 16 114 269 164 75 198 27 213 32 
270 -0.4225571010514394 -0.11975748702921046 1.0528161353442345 0 0 0 0.23 21 28 25 34 41 39 64 30 67 84 81 41 114 270 138 28 146 24 179 43 198 28 213 33 
271 -0.4953315657784357 -0.09605686208064193 1.0327483114539013 0 0 0 0.72 21 29 27 57 71 65 77 53 96 35 114 271 164 76 198 29 
272 -0.5539233253073974 -0.1988775808173301 1.0282907453643992 0 0 0 0.17 25 35 71 66 103 47 111 90 114 272 162 32 181 27 
273 -0.5087428011996077 -0.17709320979168947 1.038249679171908 0 0 0 0.26 25 36 27 58 73 53 103 48 111 91 114 273 
274 -0.390774688812661 -0.038188464732266364 1.0473797930934112 0 0 0 0.15 25 37 71 67 114 274 118 69 128 47 
275 -0.5510941835557293 -0.19483070575681072 1.028311681828292 0 0 0 0.24 25 38 73 54 111 92 114 275 162 33 
276 -0.506205763674315 -0.17225146988282972 1.0340881974802598 0 0 0 0.32 25 39 27 59 71 68 73 55 103 49 114 276 
277 -0.27391490947383246 -0.03968754411237803 1.0699956760595217 0 0 0 0.37 25 40 27 60 114 277 
278 -0.5320704989866383 -0.1886106113470086 1.0333262830006986 0 0 0 0.44 25 41 67 85 71 69 114 278 179 44 
279 -0.3646797059075203 -0.09149786500694053 1.060912054145358 0 0 0 0.35 25 42 92 23 114 279 146 25 
280 -0.4838497574479518 -0.21108652235575517 1.0635112738637684 0 0 0 0.89 25 43 67 86 103 50 114 280 162 34 181 28 
281 -0.38218773870547584 -0.07579956460715417 1.0502323954785309 0 0 0 0.53 25 44 81 42 114 281 129 28 
282 -0.38218773870556444 -0.07579956460717309 1.0502323954786776 0 0 0 0.53 25 45 81 43 114 282 129 29 
283 -0.3475972007421056 -0.056623739402454305 1.062312543540051 0 0 0 0.59 25 46 64 31 114 283 118 70 
284 -0.3475972007421056 -0.056623739402454305 1.062312543540051 0 0 0 0.59 25 47 64 32 114 284 118 71 
285 -0.3497666585055381 -0.20533704414095064 1.078725400324501 0 0 0 0.23 27 61 114 285 176 28 
286 -0.49616886328764576 -0.21249763500466712 1.062593734154532 0 0 0 0.38 27 62 71 70 73 56 77 54 111 93 114 286 162 35 
287 0.10382608948443355 -0.134086122623003 1.231915890965155 0 0 0 0.33 27 63 114 287 165 23 172 38 204 30 
288 -0.5057183065827955 -0.16335303603231102 1.0406120958458507 0 0 0 0.38 27 64 43 23 111 94 114 288 
289 -0.4197691242910745 -0.15661463604734652 1.0544679681475955 0 0 0 0.37 27 65 33 21 96 36 111 95 114 289 128 48 158 19 204 31 
290 -0.45457278458926054 -0.21090655834478814 1.0567136468386833 0 0 0 0.54 27 66 33 22 50 53 71 71 73 57 114 290 118 72 128 49 158 20 162 36 172 39 
291 -0.32786519474080117 -0.20113166266275706 1.084439006872012 0 0 0 0.35 27 67 77 55 114 291 162 37 179 45 
292 -0.49864509759572645 -0.19917435402774714 1.0534450591649096 0 0 0 0.53 27 68 67 87 71 72 73 58 77 56 111 96 114 292 162 38 164 77 181 29 199 18 
293 -0.34010742587662035 -0.08042873184800137 1.0712879306153604 0 0 0 0.4 27 69 114 293 172 40 
294 -0.4305093986423102 -0.08368964578608228 1.0441849829740648 0 0 0 0.26 27 70 97 38 114 294 
295 0.08985422518797782 -0.21275977244363223 1.3067148533258341 0 0 0 0.57 27 71 103 51 114 295 165 24 184 17 
296 -0.4689168442010246 -0.2245444683889179 1.0551215239574934 0 0 0 0.55 27 72 73 59 114 296 199 19 
297 0.3405521002723157 -0.1579947181384456 1.0726746529115023 0 0 0 0.34 67 88 114 297 123 1 184 18 
298 -0.4440610320508307 -0.15732425382658757 1.0491531480860459 0 0 0 0.26 96 37 114 298 190 66 204 32 
299 -0.3717390828112328 -0.09158277316079505 1.0624361416213821 0 0 0 0.3 33 23 43 24 92 24 114 299 164 78 
300 -0.5155402403517769 -0.07497619553086662 1.0246510213397453 0 0 0 0.24 73 60 114 300 164 79 
301 0.09442049588688893 -0.08527578889490511 1.2291794678703636 0 0 0 0.36 43 25 81 44 92 25 114 301 128 50 172 41 190 67 198 30 
302 0.3062690164196992 -0.15086327706511607 1.1214919629056468 0 0 0 0.25 67 89 87 23 111 97 114 302 129 30 134 25 163 24 165 25 190 68 
303 0.3063149134949237 -0.15087611204255058 1.1212727781870149 0 0 0 0.25 67 90 81 45 87 24 111 98 114 303 123 2 147 25 163 25 165 26 184 19 190 69 
304 0.14403544813045313 -0.11308069585007745 1.259092615620281 0 0 0 1.32 65 40 71 73 111 99 114 304 129 31 147 26 
305 0.14011240822215085 -0.09016107414032859 1.305571113104309 0 0 0 0.71 65 41 114 305 129 32 
306 -0.4394668742134911 -0.08310282070408855 1.0434682793693184 0 0 0 0.53 43 26 50 54 53 43 61 29 67 91 71 74 96 38 114 306 146 26 157 29 190 70 213 34 
307 -0.4185470478792473 -0.15084019176532615 1.054626022579294 0 0 0 0.17 33 24 96 39 114 307 
308 -0.4974959705991858 -0.19332335192592076 1.0439696502887497 0 0 0 0.18 33 25 73 61 114 308 162 39 
309 -0.445286882180076 -0.23403608845034665 1.0566258082520557 0 0 0 0.32 33 26 73 62 114 309 
310 0.13020517588781305 -0.11894376079190482 1.2487884524861215 0 0 0 0.51 33 27 73 63 77 57 87 25 114 310 199 20 
311 -0.41934451998598354 -0.07774937576340057 1.0441110450129727 0 0 0 0.29 33 28 88 17 114 311 
312 -0.41934451998596006 -0.07774937576340035 1.0441110450129436 0 0 0 0.29 33 29 88 18 114 312 
313 -0.2763912113025298 -0.18206639143726663 1.093772216106764 0 0 0 0.29 44 29 114 313 118 73 
314 -0.46142766214227354 -0.0685394958177031 1.0372792444474863 0 0 0 0.45 114 314 118 74 198 31 
315 -0.491568011247921 -0.20022296502863957 1.056487945646885 0 0 0 0.58 73 64 88 19 114 315 146 27 164 80 181 30 
316 -0.44322849400843467 -0.1487746147357893 1.0503135456446837 0 0 0 0.32 43 27 73 65 81 46 96 40 97 39 114 316 
317 -0.44062113421835347 -0.11289789593951677 1.0482462379943678 0 0 0 0.23 41 40 64 33 114 317 179 46 
318 -0.44071393951464577 -0.11298415796889748 1.0484777595833026 0 0 0 0.34 41 41 81 47 114 318 179 47 
319 -0.2750541588640516 -0.14053537937447574 1.0926061752981822 0 0 0 0.23 41 42 96 41 114 319 179 48 
320 -0.3044015404521684 -0.14056115393859592 1.0818014498376236 0 0 0 0.47 41 43 103 52 114 320 162 40 
321 -0.4909562656289587 -0.019475367445399103 1.0226187250968566 0 0 0 0.26 41 44 114 321 179 49 
322 -0.4194518744381019 0.029016842068748612 1.0339391066931605 0 0 0 0.19 41 45 114 322 179 50 
323 -0.3893090137105537 -0.03208352697081584 1.0464982097740987 0 0 0 0.16 41 46 64 34 114 323 179 51 
324 -0.4467955717267849 -0.01882824298405347 1.0290117356616977 0 0 0 0.31 41 47 64 35 114 324 
325 -0.3139520901749232 -0.011074243292681587 1.064137333341544 0 0 0 0.36 41 48 114 325 138 29 179 52 
326 -0.3115547918827605 -0.1723604889535496 1.0839884349304205 0 0 0 0.17 41 49 114 326 179 53 
327 -0.4255441387864903 -0.17457056477896998 1.0562699624500944 0 0 0 0.98 41 50 43 28 64 36 111 100 114 327 146 28 158 21 179 54 
328 -0.4364943497860791 0.02280616464777914 1.0320673650841725 0 0 0 0.27 41 51 71 75 77 58 114 328 179 55 213 35 
329 -0.32968414657086204 -0.2021665347091129 1.0859936485750914 0 0 0 0.58 41 52 114 329 138 30 
330 -0.43074555725666613 -0.09495277454637575 1.0455864071070216 0 0 0 0.3 41 53 64 37 65 42 67 92 114 330 157 30 172 42 181 31 
331 -0.32795229287127065 -0.017526029243639468 1.0634048142793386 0 0 0 0.23 41 54 64 38 114 331 179 56 
332 -0.2994607092964913 -0.08064452073628633 1.0809136214489852 0 0 0 0.48 41 55 65 43 114 332 179 57 181 32 
333 -0.30946013132661276 -0.07952525067294391 1.0753968384388328 0 0 0 0.16 41 56 64 39 114 333 179 58 
334 -0.33040310266197725 -0.18255587595963205 1.0822967269246166 0 0 0 0.27 41 57 64 40 114 334 
335 -0.3306112080841255 -0.1830025417170796 1.082891819469599 0 0 0 0.47 41 58 64 41 111 101 114 335 138 31 
336 -0.5452838840257003 -0.19095201249160307 1.0278830997325894 0 0 0 0.26 43 29 67 93 111 102 114 336 164 81 181 33 
337 -0.2936534504889422 -0.08945468763333238 1.0821106674737495 0 0 0 0.63 43 30 114 337 
338 -0.43162712047582463 -0.17671327142186083 1.0548027494115013 0 0 0 0.28 43 31 88 20 92 26 114 338 152 24 198 32 
339 -0.4292134390482987 -0.193596490170775 1.0542062261976635 0 0 0 0.51 88 21 111 103 114 339 162 41 181 34 
340 -0.5029322189046481 -0.047492179462493456 1.024236428786127 0 0 0 0.34 44 30 61 30 73 66 114 340 181 35 
341 0.20583936078205625 -0.09842253801854181 1.3267461228264759 0 0 0 0.3 44 31 103 53 114 341 147 27 
342 0.20571871672825895 -0.09840785218442494 1.3262448787925745 0 0 0 0.27 44 32 103 54 114 342 
343 0.12360703931982757 0.06424116706756221 1.2156198024848064 0 0 0 0.2 44 33 111 104 114 343 190 71 
344 -0.3004155590909286 -0.1905259339667107 1.0952477804681686 0 0 0 0.44 50 55 61 31 114 344 118 75 179 59 
345 -0.5308322161282527 -0.18826513771582365 1.035400655875692 0 0 0 0.12 77 59 114 345 162 42 
346 -0.5304879085203296 -0.18827329765478532 1.035125230590161 0 0 0 0.17 77 60 103 55 114 346 162 43 
347 -0.5491644996275012 -0.21361268433775657 1.030591109245718 0 0 0 0.29 50 56 73 67 103 56 111 105 114 347 
348 -0.42237763365399433 -0.1983832009864908 1.060980669323743 0 0 0 0.32 50 57 61 32 77 61 81 48 114 348 128 51 138 32 152 25 
349 -0.3963663747137085 -0.06412902633555063 1.05232602030746 0 0 0 0.78 50 58 96 42 114 349 
350 0.3016050047086855 -0.15501344806231918 1.1252291492414186 0 0 0 0.29 53 44 67 94 111 106 114 350 163 26 165 27 197 24 
351 0.30008105789815503 -0.14828733279517622 1.1254276848279614 0 0 0 0.23 53 45 67 95 97 40 114 351 123 3 
352 0.3102876700702136 -0.14519129688067428 1.1161451385310617 0 0 0 0.31 53 46 114 352 118 76 165 28 184 20 190 72 
353 0.297721222780119 -0.1407233140485098 1.134256891493674 0 0 0 0.27 53 47 114 353 165 29 182 41 197 25 
354 0.3328757103670535 -0.1254148355691651 1.0883421184515718 0 0 0 0.11 53 48 114 354 197 26 
355 0.34064163809575415 -0.16302821961200337 1.0768031868323076 0 0 0 0.24 53 49 82 15 87 26 114 355 123 4 182 42 197 27 
356 0.3409813329400538 -0.15460655174973606 1.0772102708405378 0 0 0 0.36 53 50 97 41 114 356 147 28 165 30 182 43 197 28 
357 0.31446211841353056 -0.13881757587270913 1.1106435960928396 0 0 0 0.42 53 51 67 96 114 357 118 77 182 44 184 21 190 73 197 29 
358 0.29442770044596667 -0.14115859698491848 1.136929479760099 0 0 0 0.25 53 52 82 16 114 358 147 29 182 45 190 74 
359 0.2820035193267425 -0.11724725768949222 1.1583933941044708 0 0 0 0.25 53 53 64 42 97 42 114 359 
360 0.2512008717860768 -0.11157682333899371 1.1832920868827335 0 0 0 0.38 53 54 61 33 114 360 152 26 165 31 190 75 197 30 
361 0.24583162201282943 0.008904757941286288 1.1845559791544382 0 0 0 0.31 53 55 114 361 120 24 182 46 184 22 
362 0.34021991144105873 -0.14898084327308936 1.0751573401594012 0 0 0 0.24 53 56 64 43 81 49 87 27 97 43 114 362 138 33 165 32 184 23 190 76 197 31 
363 0.3403838420938107 -0.1492330016534579 1.0763462699716002 0 0 0 0.24 53 57 64 44 87 28 97 44 114 363 120 25 138 34 147 30 165 33 182 47 184 24 190 77 197 32 
364 0.3381983100097382 -0.14499381819579135 1.0797560772055774 0 0 0 0.3 53 58 67 97 82 17 87 29 97 45 114 364 123 5 134 26 190 78 197 33 
365 0.3022429492567971 -0.1511892643416885 1.1259796692541657 0 0 0 0.21 53 59 64 45 67 98 81 50 97 46 111 107 114 365 138 35 
366 0.3021388274724856 -0.1509985605450756 1.12542406488037 0 0 0 0.12 53 60 97 47 114 366 147 31 
367 0.323521752127067 -0.13288165889389025 1.0996014116367525 0 0 0 0.12 53 61 114 367 197 34 
368 0.24655883471388532 -0.11979745652135688 1.185878175661814 0 0 0 0.34 53 62 81 51 82 18 97 48 111 108 114 368 123 6 190 79 197 35 
369 0.34372053578423434 -0.16410349206160033 1.0694971466999896 0 0 0 0.2 53 63 114 369 129 33 134 27 165 34 
370 0.31368607365396023 -0.14377731908214356 1.1118295761328798 0 0 0 0.27 53 64 67 99 87 30 114 370 120 26 123 7 147 32 165 35 182 48 184 25 190 80 
371 -0.317961071850117 -0.07954016028981398 1.0714761004959268 0 0 0 0.47 53 65 114 371 118 78 128 52 181 36 213 36 
372 -0.4718785201802814 0.022435865679183837 1.0203914114709232 0 0 0 0.49 53 66 92 27 114 372 164 82 176 29 204 33 
373 0.29749436070811447 -0.144080461839521 1.1255222637765956 0 0 0 0.51 53 67 65 44 67 100 87 31 114 373 147 33 165 36 184 26 197 36 
374 0.2977324209073373 -0.1442109759330549 1.1278568815819912 0 0 0 0.55 53 68 65 45 82 19 87 32 97 49 114 374 118 79 123 8 147 34 165 37 182 49 184 27 197 37 
375 -0.37475410913758633 -0.14099447743777263 1.0626004553434831 0 0 0 0.27 53 69 81 52 111 109 114 375 158 22 
376 0.33930173816790143 -0.1414863629502149 1.07889088645095 0 0 0 0.38 53 70 64 46 65 46 82 20 97 50 111 110 114 376 120 27 123 9 129 34 134 28 138 36 147 35 182 50 190 81 197 38 
377 0.2518716482360996 -0.11467601395211136 1.1814611586925217 0 0 0 0.41 53 71 67 101 111 111 114 377 129 35 165 38 184 28 197 39 
378 0.2519024766580664 -0.11484202020606217 1.1822262691176106 0 0 0 0.35 53 72 67 102 81 53 111 112 114 378 165 39 184 29 197 40 
379 0.33067245474481044 -0.13279061185823704 1.1037993591166393 0 0 0 0.73 53 73 97 51 114 379 123 10 138 37 147 36 165 40 182 51 190 82 197 41 
380 0.33171291278293263 -0.1335556588265562 1.1094393901533393 0 0 0 0.49 53 74 64 47 97 52 114 380 138 38 190 83 197 42 
381 -0.540439625669423 -0.20145319412463045 1.0365135096150457 0 0 0 0.23 71 76 114 381 162 44 164 83 
382 -0.2944708440613582 -0.18892345418259904 1.0965593454702882 0 0 0 1.52 114 382 179 60 
383 -0.29904442789571484 -0.0857725258226035 1.0811129835262745 0 0 0 2.35 114 383 138 39 
384 -0.4486865944374837 -0.09634583559756627 1.0439037248026433 0 0 0 0.35 64 48 96 43 114 384 162 45 176 30 198 33 204 34 
385 -0.37200385246850415 -0.08846047283777045 1.0570504967201664 0 0 0 0.55 67 103 114 385 181 37 
386 -0.3421015197872919 -0.12388916138215535 1.0687398647638964 0 0 0 0.17 67 104 88 22 114 386 199 21 
387 -0.29035024723396263 -0.1473501711322853 1.08098967223108 0 0 0 0.81 114 387 199 22 
388 -0.3071736551255033 -0.088764090379901 1.0754308687517773 0 0 0 0.46 81 54 114 388 181 38 
389 -0.26733994619053153 -0.07676442873973774 1.0834544973296807 0 0 0 0.29 61 34 114 389 158 23 
390 0.17613702257400085 -0.04901828044803051 1.2762380096745831 0 0 0 0.55 61 35 114 390 120 28 
391 0.24975351471088655 -0.12559945270651604 1.185983767654537 0 0 0 0.27 61 36 67 105 114 391 
392 0.2513731755465631 -0.03159167617485105 1.1739632903748973 0 0 0 0.2 61 37 111 113 114 392 134 29 147 37 182 52 
393 0.27025724037562454 -0.029341563150125382 1.153951798852827 0 0 0 0.32 61 38 64 49 82 21 114 393 134 30 138 40 182 53 
394 0.25482039194761374 -0.02827512604946808 1.1726650467143667 0 0 0 0.32 61 39 87 33 114 394 152 27 182 54 
395 0.2639145667267727 -0.10770116999841958 1.1759784037419148 0 0 0 0.65 61 40 67 106 111 114 114 395 147 38 152 28 184 30 
396 0.2634788585189538 -0.10066317876760358 1.1727667865651252 0 0 0 0.42 61 41 114 396 152 29 165 41 182 55 184 31 
397 -0.4800309716136701 -0.09277818670278944 1.0347374381535672 0 0 0 0.14 61 42 67 107 114 397 
398 0.26683446139378963 -0.01098722330189317 1.154889591590759 0 0 0 0.35 61 43 67 108 81 55 87 34 114 398 120 29 129 36 134 31 152 30 
399 0.23848940440446026 -0.008051524812876977 1.1904189295067085 0 0 0 0.39 61 44 87 35 114 399 134 32 152 31 
400 0.2582375657819902 -0.06487840213144794 1.1697521965332074 0 0 0 0.31 61 45 64 50 82 22 114 400 129 37 134 33 138 41 152 32 182 56 
401 0.2595668711759246 -0.023628804687674823 1.1666633329906828 0 0 0 0.15 61 46 114 401 152 33 
402 0.25957740314292754 -0.023706855972496756 1.1664941246163043 0 0 0 0.2 61 47 114 402 134 34 152 34 
403 0.25207597848000046 -0.01958055704210819 1.1716093997849522 0 0 0 0.33 61 48 114 403 129 38 134 35 182 57 
404 -0.340054275388021 -0.21860678613636322 1.0783118805625953 0 0 0 0.21 64 51 96 44 114 404 
405 -0.340054275388021 -0.21860678613636322 1.0783118805625953 0 0 0 0.21 64 52 96 45 114 405 
406 0.3170353623635008 -0.13444015782819896 1.107448845120924 0 0 0 0.49 64 53 114 406 123 11 163 27 
407 0.30844880253944185 -0.11592140718615082 1.1111701911151077 0 0 0 0.43 64 54 82 23 114 407 182 58 
408 0.29751496083464346 -0.07256607838901755 1.121854657687512 0 0 0 0.19 64 55 114 408 120 30 129 39 182 59 
409 0.2735498120535598 0.03570271762408869 1.14473077716442 0 0 0 0.18 64 56 114 409 138 42 
410 0.3431046918117343 -0.16333101437343894 1.0668018108826187 0 0 0 0.4 64 57 65 47 87 36 114 410 123 12 138 43 
411 0.30223934554126203 -0.15793313457958622 1.1261626665636775 0 0 0 0.35 64 58 81 56 114 411 165 42 182 60 
412 -0.5257468093240569 -0.1792233943538023 1.036820702553305 0 0 0 0.29 64 59 71 77 111 115 114 412 
413 0.32317721739520683 -0.1019658048745017 1.0966762521637845 0 0 0 0.16 64 60 114 413 138 44 
414 0.33734059853928483 -0.07792657822886995 1.0741409548690042 0 0 0 0.74 64 61 87 37 114 414 
415 0.2770088907258821 -0.07020436724808234 1.146247916296237 0 0 0 0.26 64 62 114 415 138 45 147 39 
416 0.2939795787078016 -0.067851046362503 1.1228888177720264 0 0 0 0.22 64 63 114 416 138 46 182 61 
417 0.3024343744491389 -0.057392757113296236 1.1257940475935464 0 0 0 0.29 64 64 114 417 138 47 
418 0.2843164187472063 -0.0550111283159809 1.1409532433697613 0 0 0 0.13 64 65 114 418 129 40 138 48 
419 0.27458036718338663 -0.046233914316016506 1.1442746307701446 0 0 0 0.35 64 66 114 419 138 49 182 62 
420 -0.30994850735927193 -0.029382484823639556 1.0686275881605825 0 0 0 0.21 64 67 114 420 138 50 179 61 
421 0.2737943667563404 0.0491934069146905 1.1501597560703052 0 0 0 0.12 64 68 114 421 138 51 
422 0.29819571786438864 0.05116397250900225 1.1310798869748437 0 0 0 0.18 64 69 114 422 138 52 
423 0.317248987122781 0.0593057810491337 1.1153162495254307 0 0 0 0.22 64 70 114 423 138 53 
424 -0.48482710387582056 -0.1164053887987993 1.0380172088500457 0 0 0 0.42 64 71 65 48 88 23 96 46 114 424 176 31 179 62 199 23 204 35 
425 0.31562316182086225 0.022731908804827998 1.1105866603475232 0 0 0 0.26 64 72 114 425 138 54 
426 -0.2800923450766992 -0.1932550120023535 1.098699191630794 0 0 0 0.19 64 73 114 426 179 63 
427 0.32214757153431456 -0.10884812882475636 1.0903109662298387 0 0 0 0.18 64 74 67 109 114 427 138 55 
428 0.3043118291376523 -0.10982140709392002 1.124753248083014 0 0 0 0.15 64 75 114 428 120 31 129 41 138 56 
429 0.2885407547026969 -0.08694237043965401 1.1386312559005523 0 0 0 0.33 64 76 87 38 114 429 129 42 152 35 182 63 
430 0.3281752050517264 -0.10167537431384312 1.0911665081313486 0 0 0 0.17 64 77 114 430 138 57 
431 0.3231866855776545 -0.09085927822439281 1.100824542145428 0 0 0 0.34 64 78 114 431 129 43 138 58 
432 0.31711546656010137 -0.08858342126016176 1.1246351022066066 0 0 0 0.31 64 79 114 432 138 59 
433 0.2957772538717289 -0.08325141712467096 1.1204927108189349 0 0 0 0.6 64 80 87 39 114 433 138 60 
434 0.3133833978083456 0.037026263895160415 1.1085706568844473 0 0 0 0.08 64 81 114 434 138 61 
435 0.2875688335216294 -0.05270799688505834 1.1290604071860388 0 0 0 0.13 64 82 114 435 138 62 
436 0.3059887219945222 0.06034576018868589 1.111642507755001 0 0 0 0.39 64 83 114 436 138 63 
