# 3D point list with one line of data per point:
#   POINT3D_ID, X, Y, Z, R, G, B, ERROR, TRACK[] as (IMAGE_ID, POINT2D_IDX)
# Number of points: 338, mean track length: 9.76
4448 -0.5675586004442008 -0.07710838296976788 0.6254929063005084 0 0 0 0.22 24 535 151 898 174 275 228 944 
4449 -0.5533337924530796 -0.18955507195884796 0.7233883819008433 0 0 0 0.4 30 631 94 604 145 549 174 276 177 1391 216 1044 228 945 
4450 -0.5565833839009402 -0.05570116998827424 0.681237045709579 0 0 0 0.27 30 632 34 677 45 178 46 427 55 884 90 181 116 904 125 653 140 1530 151 899 154 689 161 555 167 30 174 277 177 1392 183 472 205 553 218 994 233 565 
4451 -0.5512484549878265 -0.0020268847573679267 0.6774943077274725 0 0 0 0.53 30 633 55 885 140 1531 144 838 174 278 205 554 
4452 -0.5643717933087781 -0.1862293224790454 0.6778418077194988 0 0 0 0.24 30 634 55 886 94 605 116 905 140 1532 174 279 
4453 -0.567464139643299 -0.08028573599012839 0.6431241611485047 0 0 0 0.18 30 635 57 993 58 94 139 563 140 1533 161 556 174 280 183 473 212 594 216 1045 218 995 
4454 -0.5753965571316046 -0.13974736768701312 0.6548673735573035 0 0 0 0.24 30 636 174 281 205 555 
4455 -0.561927853538347 -0.07307026087578619 0.6596178118948668 0 0 0 0.36 30 637 57 994 58 95 59 676 94 606 99 932 116 906 125 654 144 839 149 643 154 690 161 557 174 282 193 1033 210 326 212 595 228 946 
4456 -0.5608642064387811 -0.008503029164868654 0.659614177387095 0 0 0 0.49 30 638 46 428 151 900 161 558 174 283 191 531 
4457 -0.5571657699994741 -0.00785928016456207 0.6670541231351237 0 0 0 0.32 30 639 34 678 174 284 
4458 -0.5708847575211634 -0.1805796296381139 0.6449227286846075 0 0 0 0.37 30 640 57 995 58 96 116 907 119 596 125 655 139 564 154 691 174 285 202 636 211 508 228 947 34 679 59 677 140 1534 144 840 150 934 151 901 193 1034 
4459 -0.5669827443139093 -0.0803534643941643 0.632256896981049 0 0 0 0.26 30 641 34 680 119 597 125 656 139 565 144 841 149 644 151 902 174 286 183 474 205 556 211 509 228 948 
4460 -0.5623848115372978 -0.13152401938342714 0.6646730057611443 0 0 0 0.26 30 642 161 559 174 287 205 557 216 1046 
4461 -0.4306843488981695 -0.05445672017304034 1.2181072854195152 0 0 0 0.32 30 643 116 908 154 692 174 288 
4462 -0.5467307745265276 -0.0051240282339829815 0.7179129423794814 0 0 0 0.54 30 644 116 909 174 289 183 475 189 611 
4463 -0.5420868413550123 -0.004268918636369482 0.756880189074764 0 0 0 0.54 30 645 116 910 140 1535 174 290 177 1393 193 1035 
4464 -0.5591611770556193 -0.015057017647015841 0.6657156625463593 0 0 0 0.31 30 646 161 560 174 291 205 558 216 1047 
4465 -0.5463554819013456 -0.012340115157023993 0.6971871680900978 0 0 0 0.37 30 647 55 887 161 561 174 292 
4466 -0.4890151790667702 -0.2560158450756317 0.894791233782856 0 0 0 0.2 31 1017 117 397 139 566 177 1394 
4467 -0.4758280184900806 -0.0815962165940094 1.0546474246842823 0 0 0 0.22 31 1018 34 681 37 484 46 429 94 607 116 911 117 398 122 204 140 1536 145 550 149 645 151 903 154 693 166 638 177 1395 183 476 193 1036 202 637 205 559 216 1048 218 996 226 729 228 949 
4468 -0.4752828966341058 -0.13300377905373412 1.0537266262805864 0 0 0 0.38 31 1019 34 682 47 305 57 996 59 678 72 1124 86 426 117 399 140 1537 144 842 150 935 161 562 177 1396 183 477 193 1037 205 560 216 1049 218 997 226 730 228 950 233 566 
4469 -0.34793099996175614 -0.1059612150893295 1.3675659730287164 0 0 0 0.6 31 1020 86 427 116 912 174 293 178 479 
4470 -0.5424130482996996 -0.8213298816753558 0.9354461720423007 0 0 0 0.4 34 683 94 608 151 904 166 639 210 327 218 998 
4471 -0.5220406867850174 -0.7609996880596197 0.9254053566750942 0 0 0 0.16 34 684 46 430 131 577 151 905 205 561 218 999 94 609 
4472 -0.49392264076137593 -0.7446261386023295 0.950675767408603 0 0 0 0.6 34 685 46 431 57 997 86 428 119 598 143 643 144 843 166 640 186 124 212 596 
4473 -0.5008499527132662 -0.7490685972302571 0.9941271327457725 0 0 0 0.44 34 686 45 179 46 432 57 998 94 610 116 913 119 599 131 578 139 567 149 646 151 906 166 641 189 612 205 562 211 510 212 597 218 1000 
4474 -0.4989613221295433 -0.7217802251240625 0.9518351098828755 0 0 0 0.31 34 687 37 485 45 180 57 999 86 429 94 611 116 914 119 600 143 644 144 844 149 647 151 907 166 642 183 478 189 613 191 532 205 563 211 511 212 598 218 1001 225 202 226 731 
4475 -0.5481251521334475 -0.7141676366283805 0.9188013203445989 0 0 0 0.44 34 688 46 433 59 679 86 430 90 182 94 612 131 579 139 568 144 845 151 908 166 643 173 1221 189 614 202 638 205 564 211 512 218 1002 
4476 -0.5030895708668761 -0.7161973730375464 0.9859477014393337 0 0 0 0.09 34 689 46 434 211 513 
4477 -0.49733926999385114 -0.6777333173567106 0.9442882963627685 0 0 0 0.35 34 690 57 1000 94 613 116 915 125 657 139 569 149 648 151 909 166 644 173 1222 186 125 202 639 205 565 211 514 218 1003 226 732 
4478 -0.4988490254887264 -0.6841118178042501 0.9572182774669594 0 0 0 0.38 34 691 131 580 139 570 144 846 57 1001 116 916 212 599 
4479 -0.497837592638113 -0.6670346982269783 0.9497546933233736 0 0 0 0.16 34 692 37 486 46 435 186 126 
4480 -0.49864676386166107 -0.6420277721894462 0.9436596221856076 0 0 0 0.27 34 693 46 436 94 614 102 629 116 917 144 847 151 910 173 1223 205 566 218 1004 
4481 -0.5609451681216482 -0.5747302647509428 0.8803929398474677 0 0 0 0.59 34 694 116 918 218 1005 
4482 -0.551261637958088 -0.5738354865235002 0.8930616973466531 0 0 0 0.27 34 695 59 680 86 431 116 919 143 645 144 848 151 911 166 645 173 1224 218 1006 
4483 -0.47646624556509914 -0.558847397706824 0.9260925027367726 0 0 0 0.23 34 696 57 1002 86 432 94 615 116 920 125 658 144 849 149 649 166 646 218 1007 
4484 -0.5422596843316169 -0.5077137285001524 0.9047094103635087 0 0 0 0.29 34 697 46 437 57 1003 145 551 191 533 226 733 117 400 
4485 -0.47565642872468494 -0.4958870056647632 0.9788905933208364 0 0 0 0.39 34 698 46 438 86 433 102 630 116 921 117 401 119 601 149 650 151 912 161 563 166 647 183 479 193 1038 205 567 210 328 216 1050 
4486 -0.4883630840976807 -0.45867779439208417 0.9173890924638307 0 0 0 0.79 34 699 94 616 116 922 117 402 202 640 211 515 47 306 57 1004 133 202 144 850 151 913 161 564 173 1225 193 1039 
4487 -0.4916087179246417 -0.47788755489789175 0.9798639272351797 0 0 0 0.3 34 700 37 487 116 923 117 403 125 659 139 571 149 651 154 694 183 480 193 1040 211 516 216 1051 218 1008 226 734 161 565 174 294 
4488 -0.46323857215781594 -0.3573222443328123 0.9713301723197818 0 0 0 0.38 34 701 46 439 94 617 117 404 125 660 166 648 
4489 -0.5901550661461378 -0.22609964005710667 0.4882359620312273 0 0 0 0.55 34 702 55 888 139 572 161 566 228 951 
4490 -0.4912486099789259 -0.26776615419391037 0.8764932158663857 0 0 0 0.49 34 703 37 488 47 307 57 1005 117 405 125 661 137 573 144 851 149 652 228 952 
4491 -0.5599512096642222 -0.19057773927990873 0.689638880661486 0 0 0 0.29 34 704 145 552 174 295 183 481 
4492 -0.5506837531263192 -0.13611562207039193 0.6943293638896934 0 0 0 0.22 34 705 45 181 149 653 151 914 174 296 205 568 216 1052 218 1009 
4493 -0.48628057482345105 -0.10147778982998941 1.0197748728199993 0 0 0 0.17 34 706 57 1006 117 406 145 553 183 482 205 569 
4494 -0.48757535153210496 -0.056633160317083514 1.015388656165085 0 0 0 0.23 34 707 37 489 94 618 117 407 140 1538 161 567 216 1053 228 953 
4495 -0.5659376064371473 -0.05350963969415692 0.6161593497708132 0 0 0 0.25 34 708 58 97 86 434 94 619 116 924 119 602 125 662 174 297 183 483 211 517 226 735 
4496 -0.45676441474359014 0.03729973718753122 1.0883321535496036 0 0 0 0.36 34 709 37 490 117 408 125 663 140 1539 143 646 144 852 151 915 186 127 193 1041 211 518 216 1054 228 954 233 567 
4497 -0.4393946272164716 0.04469779689352695 1.174262894308057 0 0 0 0.62 34 710 37 491 59 681 116 925 117 409 125 664 140 1540 144 853 191 534 212 600 228 955 
4498 -0.5032618402765489 -0.851349794128121 0.9939300159892481 0 0 0 0.41 34 711 46 440 57 1007 94 620 116 926 144 854 151 916 166 649 183 484 202 641 205 570 211 519 212 601 
4499 -0.5081154868895273 -0.8164904379698911 0.9570051135568644 0 0 0 0.57 34 712 46 441 57 1008 59 682 102 631 116 927 143 647 149 654 151 917 178 480 189 615 205 571 210 329 226 736 
4500 -0.519265267075344 -0.7837030359807143 0.9424941780173802 0 0 0 0.41 34 713 37 492 46 442 57 1009 94 621 102 632 137 574 143 648 144 855 151 918 173 1226 183 485 186 128 189 616 191 535 205 572 218 1010 226 737 
4501 -0.5509818081430153 -0.7802764878071893 0.9299183606335213 0 0 0 0.48 34 714 37 493 46 443 86 435 131 581 166 650 186 129 205 573 218 1011 
4502 -0.4953445516616993 -0.7644710113333747 0.9960756128479146 0 0 0 0.44 34 715 37 494 46 444 94 622 116 928 144 856 149 655 183 486 191 536 218 1012 
4503 -0.5121658317654847 -0.7029643442284982 0.9413260854253027 0 0 0 0.24 34 716 59 683 144 857 189 617 211 520 
4504 -0.5447602847048063 -0.7018747661027008 0.9123437944387678 0 0 0 0.38 34 717 94 623 131 582 166 651 189 618 202 642 205 574 226 738 
4505 -0.5516608018790009 -0.6621522796878513 0.9183010673977194 0 0 0 0.36 34 718 90 183 151 919 191 537 205 575 
4506 -0.5339858322017372 -0.6486476310324741 0.9166771687738683 0 0 0 0.31 34 719 37 495 55 889 125 665 149 656 151 920 174 298 178 481 189 619 205 576 
4507 -0.5395486414153668 -0.6446265563415184 0.916655517790961 0 0 0 0.21 34 720 37 496 45 182 46 445 57 1010 102 633 125 666 144 858 178 482 189 620 218 1013 
4508 -0.5377523691325312 -0.6593385160960028 0.9816840476440732 0 0 0 0.44 34 721 57 1011 117 410 125 667 144 859 
4509 -0.5494001027526155 -0.6117234061805982 0.9203238917499578 0 0 0 0.3 34 722 139 573 143 649 186 130 
4510 -0.49767597136219 -0.580971113838674 0.9360149369285886 0 0 0 0.48 34 723 46 446 116 929 125 668 139 574 144 860 151 921 166 652 173 1227 174 299 178 483 189 621 211 521 218 1014 226 739 
4511 -0.49074209917724837 -0.5524716891986121 0.9635042903301211 0 0 0 0.27 34 724 117 411 125 669 
4512 -0.6279980413148954 -0.5255112286495678 0.8994108136743338 0 0 0 0.26 34 725 59 684 173 1228 193 1042 218 1015 
4513 -0.6068334437822196 -0.5241392161491447 0.9133779016923008 0 0 0 0.34 34 726 57 1012 117 412 177 1397 193 1043 
4514 -0.48763489813854805 -0.4993420730603122 0.9788793594514228 0 0 0 0.5 34 727 46 447 59 685 117 413 119 603 125 670 137 575 139 575 144 861 151 922 161 568 177 1398 186 131 189 622 191 538 193 1044 205 577 211 522 212 602 
4515 -0.4719135269032626 -0.4923890674737325 0.9910284732723252 0 0 0 0.29 34 728 94 624 117 414 125 671 139 576 166 653 177 1399 189 623 193 1045 211 523 
4516 -0.5904984151104401 -0.2711313523661309 0.4885997903672853 0 0 0 0.52 34 729 57 1013 137 576 144 862 183 487 202 643 228 956 
4517 -0.5471801104921006 -0.3345681648209301 0.8639762343933667 0 0 0 0.39 34 730 45 183 59 686 90 184 117 415 125 672 131 583 132 29 144 863 202 644 228 957 
4518 -0.575932516867483 -0.19099040187506772 0.6298339035773959 0 0 0 0.4 34 731 37 497 174 300 131 584 193 1046 211 524 
4519 -0.5669181120147372 -0.18414706197082273 0.6674728384825516 0 0 0 0.21 34 732 57 1014 116 930 125 673 140 1541 174 301 211 525 
4520 -0.5856413742298059 -0.1466801869139517 0.6028625614051644 0 0 0 0.47 34 733 174 302 216 1055 57 1015 94 625 144 864 205 578 
4521 -0.5671697646261616 -0.1073230672675732 0.623584751737285 0 0 0 0.26 34 734 45 184 90 185 94 626 119 604 139 577 149 657 161 569 174 303 205 579 210 330 228 958 
4522 -0.5656011009072204 -0.07325577690846163 0.6436910805962751 0 0 0 0.27 34 735 86 436 174 304 55 890 131 585 144 865 151 923 167 31 183 488 191 539 205 580 216 1056 
4523 -0.5836858340795429 -0.06679929297483438 0.5681031991823378 0 0 0 0.4 34 736 86 437 174 305 183 489 
4524 -0.4687476372198263 -0.04619826733456033 1.0902809165867624 0 0 0 0.27 34 737 116 931 117 416 137 577 139 578 140 1542 143 650 145 554 151 924 166 654 193 1047 216 1057 218 1016 228 959 233 568 47 308 125 674 150 936 154 695 177 1400 178 484 189 624 211 526 
4525 -0.42884186896621174 0.013088206500799737 1.212447320376062 0 0 0 0.4 24 536 31 1021 34 738 45 185 46 448 59 687 94 627 102 634 117 417 122 205 125 675 140 1543 150 937 151 925 154 696 166 655 173 1229 174 306 180 859 186 132 193 1048 211 527 212 603 218 1017 228 960 233 569 
4526 -0.5376950213341695 0.011853126800305204 0.6368740213743586 0 0 0 0.3 34 739 144 866 174 307 177 1401 216 1058 218 1018 
4527 -0.5247286200139448 0.028671052874626384 0.6735358074030862 0 0 0 0.62 34 740 144 867 174 308 
4528 -0.5208902599721638 -0.817963312599203 0.9480065568541169 0 0 0 0.43 34 741 37 498 57 1016 86 438 94 628 116 932 131 586 144 868 151 926 178 485 186 133 189 625 218 1019 226 740 
4529 -0.49908291692536366 -0.7534765435714655 0.9722553705935252 0 0 0 0.29 34 742 94 629 144 869 151 927 166 656 189 626 205 581 211 528 212 604 
4530 -0.5312088545647456 -0.7220953541115113 0.9214111986729095 0 0 0 0.37 34 743 45 186 57 1017 59 688 94 630 116 933 131 587 139 579 149 658 151 928 166 657 174 309 178 486 211 529 218 1020 
4531 -0.5190453166354073 -0.6769500796018838 0.9335146333549253 0 0 0 0.51 34 744 57 1018 59 689 90 186 149 659 166 658 173 1230 202 645 225 203 
4532 -0.5371000140231955 -0.6790047125309557 0.9240830263264767 0 0 0 0.26 34 745 57 1019 59 690 116 934 125 676 139 580 149 660 151 929 178 487 186 134 212 605 218 1021 
4533 -0.5480084716493964 -0.6794995326676727 0.9231135875579538 0 0 0 0.36 34 746 102 635 116 935 125 677 131 588 139 581 173 1231 178 488 186 135 218 1022 226 741 
4534 -0.5133593300205647 -0.6503946381219692 0.940553725496315 0 0 0 0.12 34 747 94 631 116 936 144 870 151 930 189 627 212 606 
4535 -0.5476505423732108 -0.5990990185646355 0.916385351584831 0 0 0 0.58 34 748 117 418 215 95 
4536 -0.5551626300593719 -0.5752888857665354 0.8817233544108587 0 0 0 0.32 34 749 144 871 189 628 218 1023 
4537 -0.4986045059602225 -0.4334127708784587 0.8590797205381842 0 0 0 0.24 34 750 59 691 86 439 116 937 117 419 125 678 144 872 166 659 178 489 191 540 
4538 -0.48754195880913387 -0.38619979275150484 0.9080730378332758 0 0 0 0.27 34 751 47 309 116 938 117 420 144 873 151 931 161 570 193 1049 205 582 212 607 
4539 -0.5773391644334366 -0.20690629360657073 0.48100059194107664 0 0 0 0.65 34 752 58 98 94 632 116 939 144 874 46 449 119 605 137 578 216 1059 
4540 -0.48091623518609394 -0.24098716107220625 0.9325802766587491 0 0 0 0.27 34 753 59 692 117 421 144 875 150 938 151 932 183 490 202 646 216 1060 
4541 -0.5738953806206065 -0.1569075749100005 0.6543913582574281 0 0 0 0.3 34 754 125 679 139 582 143 651 144 876 174 310 183 491 193 1050 
4542 -0.4757096062265635 -0.12190235440156195 1.07295938210016 0 0 0 0.22 34 755 117 422 145 555 151 933 161 571 177 1402 183 492 218 1024 
4543 -0.466751112198249 -0.015119652147096471 1.1271032781422876 0 0 0 0.19 34 756 37 499 94 633 117 423 119 606 140 1544 145 556 154 697 177 1403 191 541 218 1025 
4544 -0.49856871893013494 -0.7545387358859562 0.9492034441239761 0 0 0 0.43 34 757 59 693 86 440 94 634 116 940 144 877 149 661 151 934 166 660 174 311 189 629 202 647 205 583 212 608 218 1026 
4545 -0.5032352699845123 -0.756282809647795 0.9930552263318876 0 0 0 0.55 34 758 57 1020 90 187 116 941 131 589 133 203 139 583 144 878 166 661 173 1232 178 490 211 530 212 609 218 1027 
4546 -0.5272562615717612 -0.6827398486288526 0.9162186648062898 0 0 0 0.82 34 759 46 450 55 891 94 635 102 636 125 680 131 590 133 204 174 312 218 1028 
4547 -0.5517703254597243 -0.647252913784463 0.9145337144512294 0 0 0 0.39 34 760 37 500 46 451 102 637 119 607 125 681 144 879 151 935 166 662 178 491 189 630 205 584 210 331 212 610 218 1029 
4548 -0.6032218720023915 -0.41952971541349093 0.49214275009745007 0 0 0 0.78 34 761 90 188 144 880 193 1051 
4549 -0.4887954366189753 -0.4861447764246579 0.9662277993371491 0 0 0 0.42 34 762 37 501 46 452 117 424 125 682 145 557 161 572 189 631 205 585 211 531 216 1061 57 1021 139 584 144 881 
4550 -0.516511562193856 -0.37014068254311716 0.8503200210172468 0 0 0 0.59 34 763 37 502 46 453 57 1022 86 441 94 636 139 585 161 573 174 313 205 586 211 532 226 742 
4551 -0.560379003497979 -0.16786656464389652 0.6897171698877371 0 0 0 0.42 34 764 45 187 139 586 144 882 145 558 149 662 151 936 154 698 174 314 177 1404 183 493 205 587 210 332 211 533 
4552 -0.5860998571215751 -0.148819447853349 0.5601921311013508 0 0 0 0.6 34 765 94 637 119 608 139 587 154 699 174 315 202 648 216 1062 226 743 228 961 
4553 -0.5894519343624415 -0.1469014269197905 0.6282420801323887 0 0 0 0.51 34 766 139 588 161 574 174 316 205 588 
4554 -0.60300869132006 -0.07758157177521285 0.497552640243985 0 0 0 0.89 34 767 174 317 228 962 
4555 -0.507262128512142 -0.807172882577271 0.9595627536955514 0 0 0 0.67 34 768 46 454 57 1023 59 694 86 442 94 638 102 638 116 942 131 591 143 652 144 883 149 663 166 663 189 632 202 649 205 589 212 611 218 1030 225 204 226 744 
4556 -0.5477648267256505 -0.7080418808715496 0.9161382585808505 0 0 0 0.47 34 769 55 892 59 695 86 443 94 639 102 639 116 943 133 205 144 884 166 664 174 318 178 492 202 650 205 590 211 534 218 1031 
4557 -0.506532511849606 -0.6658121944315641 0.9483369787089695 0 0 0 0.47 8 536 34 770 57 1024 59 696 86 444 94 640 102 640 116 944 125 683 131 592 133 206 144 885 151 937 166 665 173 1233 174 319 178 493 189 633 202 651 205 591 212 612 218 1032 
4558 -0.5542030742683617 -0.6245370625586828 0.9141606092724279 0 0 0 0.29 34 771 139 589 174 320 
4559 -0.5665963499349406 -0.5622036552500111 0.8683374150067028 0 0 0 0.57 34 772 117 425 161 575 174 321 189 634 
4560 -0.5786389469079971 -0.5014099204102761 0.883990885063093 0 0 0 0.98 34 773 57 1025 94 641 116 945 133 207 154 700 216 1063 
4561 -0.5804072966749491 -0.19406591572137655 0.4773879930173014 0 0 0 0.73 34 774 37 503 46 455 58 99 94 642 116 946 119 609 139 590 161 576 167 32 202 652 228 963 
4562 -0.4841133765033666 -0.19246516311477124 0.9234479895400085 0 0 0 0.32 34 775 46 456 47 310 117 426 140 1545 151 938 193 1052 202 653 
4563 -0.5876474418098027 -0.11486289043621108 0.4779392758093163 0 0 0 0.81 34 776 55 893 94 643 119 610 133 208 137 579 139 591 144 886 151 939 154 701 161 577 174 322 216 1064 228 964 
4564 -0.48856434121211806 -0.3307367463223373 0.88488278584858 0 0 0 0.54 34 777 37 504 57 1026 94 644 117 427 144 887 166 666 
4565 -0.5799215861375543 -0.17487645558849044 0.627506727243345 0 0 0 0.45 34 778 131 593 140 1546 144 888 151 940 174 323 183 494 228 965 
4566 -0.5722504296469447 -0.15142374070657547 0.6529477033808606 0 0 0 0.49 34 779 55 894 119 611 139 592 144 889 151 941 174 324 183 495 226 745 228 966 
4567 -0.5855521616726923 0.02346692667222417 0.45679036697897624 0 0 0 0.68 34 780 174 325 216 1065 
4568 -0.49905555841907434 -0.8199478687204389 0.9732046943570081 0 0 0 0.5 34 781 46 457 57 1027 59 697 94 645 116 947 131 594 133 209 137 580 144 890 149 664 151 942 166 667 186 136 189 635 202 654 205 592 211 535 212 613 218 1033 
4569 -0.5396312641343898 -0.7932740818423926 0.9294874685089333 0 0 0 0.61 34 782 46 458 57 1028 94 646 116 948 131 595 149 665 151 943 166 668 173 1234 178 494 186 137 189 636 205 593 218 1034 
4570 -0.565952497192795 -0.7707351339498945 0.9314013462233851 0 0 0 0.32 34 783 131 596 144 891 
4571 -0.5888093054428389 -0.0542022100411377 0.47857730210840627 0 0 0 0.93 34 784 137 581 151 944 174 326 
4572 -0.4289736759022152 0.016280419955910733 1.2115806659004835 0 0 0 0.5 34 785 45 188 117 428 133 210 139 593 174 327 177 1405 228 967 
4573 -0.5241236320987773 -0.7011447548793484 0.9223396162615196 0 0 0 0.84 34 786 45 189 57 1029 90 189 94 647 102 641 116 949 131 597 133 211 149 666 166 669 173 1235 174 328 178 495 189 637 202 655 218 1035 
4574 -0.5683587239465637 -0.6561319930063336 0.9015604358043554 0 0 0 0.74 34 787 125 684 166 670 174 329 205 594 
4575 -0.54655135187791 -0.6357138062172873 0.9259684640347476 0 0 0 0.67 34 788 46 459 94 648 133 212 139 594 151 945 174 330 189 638 202 656 205 595 
4576 -0.5432861960462188 -0.6481807581425683 0.9823255693394265 0 0 0 0.64 34 789 125 685 151 946 189 639 117 429 
4577 -0.5003183354964118 -0.5394110377477442 0.9958794749842069 0 0 0 0.91 34 790 46 460 117 430 125 686 137 582 149 667 161 578 205 596 211 536 216 1066 55 895 139 595 151 947 174 331 
4578 -0.568480490140894 -0.133602780378046 0.6897345121655194 0 0 0 0.29 34 791 161 579 174 332 205 597 211 537 
4579 -0.5802207968645261 -0.11473834212803002 0.6568974318828582 0 0 0 0.64 34 792 174 333 183 496 205 598 216 1067 
4580 -0.5001407468170974 -0.4878923068851957 0.9025980615450127 0 0 0 0.62 34 793 119 612 133 213 161 580 189 640 193 1053 205 599 211 538 212 614 117 431 215 96 
4581 -0.5067658518279998 -0.7377921903404878 0.9817654883712499 0 0 0 0.82 34 794 37 505 90 190 131 598 133 214 174 334 205 600 
4582 -0.5296926130085539 -0.8874294816052473 0.962851300259448 0 0 0 0.32 37 506 94 649 226 746 
4583 -0.5374483113140933 -0.8618596772141173 0.9306086917808204 0 0 0 0.48 37 507 117 432 151 948 
4584 -0.5099489263141873 -0.8728042073004392 1.0073330763697892 0 0 0 0.49 37 508 117 433 205 601 211 539 
4585 -0.5120602204211655 -0.8409869912522675 0.9490110769289591 0 0 0 0.55 37 509 46 461 86 445 94 650 116 950 144 892 151 949 166 671 186 138 205 602 211 540 212 615 218 1036 
4586 -0.5206537564479026 -0.8165164792605917 0.9395241106664222 0 0 0 0.21 37 510 46 462 94 651 
4587 -0.5163087758622273 -0.7431618198906751 0.934881852606245 0 0 0 0.46 37 511 46 463 139 596 205 603 
4588 -0.4937452484064501 -0.7288752982126289 0.949642496747054 0 0 0 0.3 37 512 86 446 94 652 116 951 139 597 149 668 151 950 166 672 173 1236 205 604 211 541 218 1037 226 747 
4589 -0.5175262899901992 -0.7265560874302462 0.923503857550087 0 0 0 0.5 37 513 90 191 94 653 116 952 139 598 149 669 166 673 
4590 -0.4956206655971554 -0.7257367657181216 0.9510775481959723 0 0 0 0.3 37 514 94 654 116 953 149 670 151 951 173 1237 210 333 226 748 
4591 -0.5438045094852574 -0.723393267068007 0.9182038537420797 0 0 0 0.57 37 515 45 190 46 464 86 447 90 192 94 655 102 642 116 954 149 671 166 674 173 1238 174 335 205 605 211 542 
4592 -0.5383041273201153 -0.7101883937638487 0.9201118933314225 0 0 0 0.37 37 516 46 465 90 193 116 955 149 672 173 1239 205 606 218 1038 226 749 
4593 -0.5398279834467288 -0.7063826005684322 0.9174133065691634 0 0 0 0.25 37 517 46 466 86 448 90 194 94 656 116 956 149 673 151 952 166 675 173 1240 205 607 211 543 
4594 -0.5185451376471335 -0.6812560901929389 0.9203908037161275 0 0 0 0.36 37 518 46 467 86 449 125 687 144 893 173 1241 186 139 202 657 212 616 218 1039 226 750 
4595 -0.5144799632276421 -0.680718370613544 0.9372925298348934 0 0 0 0.21 37 519 149 674 151 953 173 1242 183 497 218 1040 210 334 226 751 
4596 -0.4827228318054988 -0.6314824895957417 0.9347135223254281 0 0 0 0.18 37 520 94 657 116 957 125 688 151 954 166 676 173 1243 205 608 211 544 218 1041 
4597 -0.5678704957013482 -0.5725165858072407 0.8768446176650709 0 0 0 0.37 37 521 46 468 117 434 
4598 -0.5654757880345025 -0.5668098476579038 0.87996504515385 0 0 0 0.2 37 522 86 450 151 955 173 1244 189 641 202 658 218 1042 
4599 -0.5031185936882839 -0.5492151046494059 0.9382521297925328 0 0 0 0.28 37 523 94 658 117 435 125 689 139 599 166 677 218 1043 
4600 -0.5627770263949601 -0.5334565843859731 0.868772898135768 0 0 0 0.31 37 524 117 436 211 545 
4601 -0.5036462991240033 -0.5250303475614528 0.926560047170244 0 0 0 0.2 37 525 45 191 117 437 125 690 151 956 161 581 193 1054 218 1044 
4602 -0.6159931402167875 -0.5522391107792745 0.9120662998009788 0 0 0 0.15 37 526 46 469 94 659 193 1055 
4603 -0.6146673381202247 -0.5474638591069452 0.9101191358733479 0 0 0 0.18 37 527 46 470 151 957 154 702 193 1056 
4604 -0.6133403328320518 -0.5404343257010767 0.9102863315269369 0 0 0 0.22 37 528 46 471 177 1406 193 1057 
4605 -0.5123763863803044 -0.5055377588496203 0.9197408376887268 0 0 0 0.42 37 529 47 311 94 660 116 958 117 438 125 691 139 600 145 559 183 498 191 542 193 1058 215 97 226 752 
4606 -0.48885469017355576 -0.5112935779912872 0.9835676676523714 0 0 0 0.27 37 530 117 439 125 692 139 601 183 499 193 1059 211 546 
4607 -0.49066290231420867 -0.49690695646084104 0.9771194987363562 0 0 0 0.53 37 531 46 472 47 312 117 440 151 958 205 609 
4608 -0.4767519652643191 -0.4820462580198416 0.9423426795364143 0 0 0 0.36 37 532 117 441 139 602 151 959 183 500 
4609 -0.48879800943037816 -0.45361874856084256 0.8575110133875942 0 0 0 0.33 37 533 94 661 125 693 149 675 180 860 216 1068 
4610 -0.6081621298881504 -0.48846388734513285 0.9121636160750218 0 0 0 0.37 37 534 117 442 145 560 193 1060 
4611 -0.6078224990675141 -0.47536431661123446 0.9101592889312282 0 0 0 0.26 37 535 86 451 116 959 125 694 139 603 154 703 166 678 173 1245 177 1407 180 861 193 1061 205 610 211 547 218 1045 
4612 -0.4721551463223823 -0.4480018529361912 0.9682237888911962 0 0 0 0.21 37 536 117 443 161 582 173 1246 180 862 183 501 218 1046 
4613 -0.47072314990751124 -0.42767693138913015 0.9939993936933066 0 0 0 0.24 37 537 94 662 117 444 216 1069 
4614 -0.4830174976147921 -0.37647506861649366 0.8551541725663314 0 0 0 0.15 37 538 45 192 117 445 140 1547 
4615 -0.4856098874797185 -0.36926628650188403 0.8538737306583313 0 0 0 0.32 37 539 90 195 117 446 151 960 
4616 -0.47658276097736524 -0.3745540624000394 0.9110584440898285 0 0 0 0.19 37 540 117 447 140 1548 193 1062 216 1070 
4617 -0.5404828416145842 -0.38106523542976745 0.8668329604712801 0 0 0 0.36 37 541 72 1125 102 643 117 448 140 1549 143 653 145 561 150 939 177 1408 193 1063 218 1047 226 753 
4618 -0.47536596702060063 -0.36837335513840463 0.9082880058315281 0 0 0 0.3 37 542 46 473 86 452 90 196 94 663 117 449 125 695 140 1550 149 676 150 940 154 704 180 863 186 140 193 1064 211 548 215 98 216 1071 
4619 -0.4733091097400244 -0.3656446954164151 0.9188217073714453 0 0 0 0.24 37 543 94 664 116 960 117 450 140 1551 151 961 161 583 193 1065 205 611 216 1072 218 1048 
4620 -0.46315143545643156 -0.36918046543897565 0.9629535884576336 0 0 0 0.22 37 544 117 451 140 1552 149 677 193 1066 226 754 
4621 -0.4736108200036954 -0.3615056075958608 0.9217621155710252 0 0 0 0.36 37 545 46 474 86 453 116 961 117 452 125 696 144 894 154 705 183 502 193 1067 212 617 216 1073 218 1049 
4622 -0.4600938527639086 -0.359347108109832 0.9632815616266491 0 0 0 0.29 37 546 117 453 125 697 145 562 151 962 
4623 -0.49387324503378466 -0.35090723007497665 0.8688155144906065 0 0 0 0.42 37 547 46 475 94 665 117 454 125 698 145 563 150 941 218 1050 
4624 -0.46773234973962075 -0.36358321715718667 0.9889424678438987 0 0 0 0.26 37 548 117 455 161 584 205 612 211 549 
4625 -0.5127515831969819 -0.33091344455718563 0.8512447670875399 0 0 0 0.28 37 549 117 456 145 564 150 942 
4626 -0.5819456253374048 -0.3283496704917611 0.8750947658912868 0 0 0 0.33 37 550 59 698 117 457 125 699 132 30 143 654 151 963 173 1247 228 968 
4627 -0.5147984348520783 -0.30004277269813345 0.8513802709755726 0 0 0 0.47 37 551 72 1126 117 458 140 1553 143 655 150 943 218 1051 
4628 -0.4930120576878876 -0.2696232545465079 0.865830435926257 0 0 0 0.37 37 552 47 313 117 459 140 1554 150 944 193 1068 226 755 
4629 -0.5641246120745453 -0.3201231299659139 1.2071674070416627 0 0 0 0.44 37 553 117 460 161 585 193 1069 
4630 -0.46802527805681643 -0.2708911852758327 0.9614238961420233 0 0 0 0.34 37 554 117 461 125 700 140 1555 150 945 151 964 183 503 193 1070 228 969 
4631 -0.4930035480358637 -0.26168495272259745 0.8731414691904233 0 0 0 0.27 37 555 45 193 90 197 106 2456 116 962 117 462 125 701 145 565 154 706 161 586 183 504 
4632 -0.4687457701674041 -0.17823096865591606 0.9543436398371571 0 0 0 0.2 37 556 117 463 125 702 145 566 151 965 183 505 228 970 
4633 -0.4701961464804782 -0.17254928228215707 0.9567027778999332 0 0 0 0.34 37 557 46 476 47 314 117 464 125 703 140 1556 145 567 149 678 151 966 154 707 161 587 177 1409 183 506 193 1071 210 335 211 550 216 1074 226 756 228 971 233 570 
4634 -0.46713930212526383 -0.12043652714974344 0.9501916335487591 0 0 0 0.3 37 558 46 477 116 963 117 465 140 1557 151 967 166 679 183 507 193 1072 226 757 228 972 
4635 -0.47507340941861825 -0.11001118088397868 1.068369736680265 0 0 0 0.23 37 559 86 454 117 466 125 704 145 568 151 968 183 508 193 1073 211 551 228 973 
4636 -0.4873052151308327 -0.07099106165830389 1.0311045035918616 0 0 0 0.15 37 560 46 478 117 467 140 1558 
4637 -0.4194539456286211 -0.008642596262937802 1.2247823347985283 0 0 0 0.37 37 561 72 1127 117 468 140 1559 228 974 
4638 -0.4540700516104524 0.010312630594835288 1.1431285474138224 0 0 0 0.27 37 562 117 469 186 141 216 1075 226 758 228 975 
4639 -0.5299216349695678 -0.8613049569658822 0.9434403110639186 0 0 0 0.63 37 563 131 599 143 656 189 642 
4640 -0.506528356893343 -0.8640049101180278 1.0088531974244155 0 0 0 0.41 37 564 46 479 94 666 143 657 151 969 205 613 211 552 218 1052 
4641 -0.5447969152433371 -0.7712824471692906 0.9279428169294482 0 0 0 0.33 37 565 46 480 57 1030 59 699 86 455 94 667 102 644 131 600 144 895 151 970 166 680 173 1248 202 659 205 614 211 553 218 1053 
4642 -0.4780713070799825 -0.7309889219509402 0.9335684579524346 0 0 0 0.1 37 566 117 470 211 554 
4643 -0.5191966128712068 -0.6727705976152525 0.9235759180098655 0 0 0 0.28 37 567 46 481 86 456 94 668 125 705 173 1249 202 660 218 1054 226 759 
4644 -0.541934668625747 -0.6050216836640744 0.9168454874841414 0 0 0 0.14 37 568 46 482 86 457 116 964 125 706 144 896 151 971 189 643 212 618 226 760 
4645 -0.5525848667373915 -0.5807746526489705 0.8948147730725584 0 0 0 0.37 37 569 143 658 215 99 218 1055 226 761 
4646 -0.6153555763616955 -0.5538004042676868 0.9061419642810614 0 0 0 0.23 37 570 145 569 173 1250 193 1074 205 615 210 336 218 1056 
4647 -0.48876038839027064 -0.5172074341084855 0.9812626835831719 0 0 0 0.29 37 571 117 471 125 707 151 972 
4648 -0.48984483887892366 -0.46886629750614167 0.9792159243741987 0 0 0 0.32 37 572 46 483 116 965 117 472 119 613 125 708 143 659 149 679 151 973 154 708 161 588 166 681 205 616 211 555 
4649 -0.4633833524622931 -0.4477820006853427 0.9859941845036887 0 0 0 0.22 37 573 46 484 57 1031 117 473 119 614 125 709 139 604 193 1075 205 617 211 556 
4650 -0.4765808056642035 -0.3737326298753276 0.9380594173781375 0 0 0 0.28 37 574 46 485 47 315 94 669 116 966 117 474 125 710 140 1560 145 570 150 946 151 974 161 589 183 509 193 1076 211 557 215 100 216 1076 226 762 
4651 -0.4787816332987821 -0.3750176822005807 0.9505043245328618 0 0 0 0.24 37 575 117 475 139 605 161 590 183 510 
4652 -0.4659535104500813 -0.37160173821783354 0.9613635263172052 0 0 0 0.34 37 576 86 458 117 476 144 897 149 680 150 947 151 975 161 591 193 1077 212 619 218 1057 
4653 -0.45953992125877857 -0.37112725118379664 0.9780573880506802 0 0 0 0.21 37 577 86 459 117 477 125 711 139 606 140 1561 144 898 150 948 154 709 161 592 193 1078 205 618 216 1077 
4654 -0.4633415588236486 -0.35705906707770707 0.96203112566483 0 0 0 0.2 37 578 45 194 86 460 94 670 117 478 119 615 125 712 137 583 140 1562 144 899 150 949 151 976 193 1079 202 661 211 558 216 1078 226 763 
4655 -0.47961542327605067 -0.2812183046485722 0.9950589755900856 0 0 0 0.33 37 579 117 479 139 607 
4656 -0.5939146557158465 -0.19496216154838678 0.5378084963488339 0 0 0 0.73 37 580 46 486 144 900 167 33 174 336 228 976 
4657 -0.46751420582126063 -0.11517433863246525 0.9595641476066967 0 0 0 0.19 37 581 117 480 125 713 228 977 
4658 -0.4500393748499167 -0.10280859381569582 1.1788770406135425 0 0 0 0.22 37 582 117 481 131 601 145 571 216 1079 228 978 
4659 -0.5548021848772351 -0.09490710517275187 0.7098487131397581 0 0 0 0.29 37 583 55 896 125 714 149 681 174 337 183 511 
4660 -0.4539609338755111 0.0019251912886398012 1.1424288981124935 0 0 0 0.18 37 584 116 967 117 482 144 901 151 977 216 1080 228 979 
4661 -0.4681245284093282 0.031008946267415786 1.1269586228130457 0 0 0 0.24 37 585 117 483 119 616 125 715 140 1563 228 980 
4662 -0.5337077317216825 -0.9215049203669764 0.9562551260978396 0 0 0 0.46 37 586 46 487 186 142 189 644 
4663 -0.5185268348181361 -0.81351147658784 0.9615481513695932 0 0 0 0.71 37 587 119 617 137 584 183 512 205 619 211 559 
4664 -0.5127165270275714 -0.7473677386046395 0.9296526145197336 0 0 0 0.56 37 588 57 1032 144 902 151 978 189 645 191 543 
4665 -0.5520050447974278 -0.613006051977358 0.9150455693788888 0 0 0 0.25 37 589 205 620 226 764 
4666 -0.60671907241292 -0.42675925021449357 0.49789526054755046 0 0 0 0.8 37 590 45 195 55 897 90 198 161 593 
4667 -0.4754496351172057 -0.4176030251997137 0.972434947455073 0 0 0 0.37 37 591 45 196 90 199 116 968 117 484 125 716 140 1564 144 903 166 682 177 1410 183 513 189 646 193 1080 211 560 212 620 
4668 -0.5471817164300018 -0.41282075225917764 0.896058720482426 0 0 0 0.3 37 592 117 485 143 660 145 572 189 647 193 1081 211 561 
4669 -0.5151168074685275 -0.273680581780623 0.8467846484070741 0 0 0 0.19 37 593 46 488 117 486 131 602 143 661 150 950 189 648 193 1082 140 1565 177 1411 218 1058 226 765 
4670 -0.6039260221373063 -0.18851636366462943 0.5257989188414239 0 0 0 0.98 37 594 116 969 167 34 174 338 
4671 -0.4723188818384871 -0.11318199100454038 1.0873076187288981 0 0 0 0.22 37 595 116 970 117 487 119 618 144 904 193 1083 
4672 -0.45079610710351564 -0.10047361973929768 1.1932383211016735 0 0 0 0.38 37 596 117 488 137 585 211 562 143 662 150 951 154 710 166 683 216 1081 228 981 233 571 
4673 -0.45771799433603455 -0.0029150380955932863 1.1589588487128015 0 0 0 0.2 37 597 46 489 117 489 119 619 137 586 150 952 191 544 228 982 
4674 -0.529248286383529 -0.7896624322695865 0.9351086723636827 0 0 0 0.69 37 598 137 587 143 663 189 649 205 621 
4675 -0.5146096226043189 -0.7328769303063364 0.9245378687651772 0 0 0 0.35 37 599 46 490 131 603 189 650 218 1059 
4676 -0.5466213752742971 -0.276189818390883 0.8585740414398789 0 0 0 0.48 37 600 46 491 117 490 132 31 139 608 144 905 149 682 150 953 154 711 183 514 191 545 202 662 205 622 226 766 228 983 57 1033 86 461 94 671 115 95 116 971 143 664 151 979 166 684 174 339 178 496 186 143 212 621 216 1082 218 1060 
4677 -0.4529340244948468 -0.2778761860053661 1.2308809807191607 0 0 0 0.31 37 601 145 573 174 340 205 623 
4678 -0.6083782881134236 -0.189489963260191 0.5163220252175885 0 0 0 0.88 37 602 46 492 55 898 58 100 119 620 174 341 228 984 
4679 -0.5776170209693243 -0.18141158225568232 0.6738014968046463 0 0 0 0.17 37 603 140 1566 174 342 
4680 -0.44972820668715163 -0.05456708439039752 1.171298001315746 0 0 0 0.31 37 604 143 665 174 343 177 1412 191 546 218 1061 
4681 -0.5431639175457631 0.018755912420255504 0.6209659801264041 0 0 0 0.67 37 605 45 197 58 101 144 906 174 344 202 663 99 933 143 666 216 1083 
4682 -0.5538048798125679 -0.6251931932899286 0.9151363447332926 0 0 0 0.12 37 606 143 667 226 767 
4683 -0.51093203176348 -0.4956386644277118 0.9060133960289763 0 0 0 0.46 37 607 46 493 117 491 119 621 137 588 139 609 183 515 205 624 
4684 -0.4496650799143145 -0.058856423894127485 1.1885686350099505 0 0 0 0.16 37 608 117 492 143 668 144 907 166 685 
4685 -0.452604945470284 0.031348292501079414 1.1448154275518556 0 0 0 0.27 57 1034 117 493 137 589 228 985 
4686 -0.4954396766270741 -0.09634453363410851 1.0123254753746473 0 0 0 0.34 37 609 57 1035 117 494 119 622 125 717 139 610 145 574 186 144 189 651 211 563 
4687 -0.47774436887606847 -0.5332104743949977 0.98888485076989 0 0 0 0.71 37 610 46 494 117 495 125 718 131 604 133 215 137 590 139 611 144 908 151 980 166 686 174 345 193 1084 202 664 205 625 225 205 
4688 -0.4671740957697338 -0.13859393656522065 0.9689121610112484 0 0 0 0.57 37 611 94 672 117 496 133 216 143 669 150 954 191 547 211 564 212 622 
4689 -0.5009203544004021 -0.7425919852262604 0.9508123106157704 0 0 0 0.49 45 198 46 495 119 623 131 605 139 612 166 687 205 626 212 623 218 1062 
4690 -0.5086059773029483 -0.7097567907424691 0.9370667460341697 0 0 0 0.37 45 199 149 683 183 516 205 627 218 1063 
4691 -0.47895164502802945 -0.5587680772897833 0.9929573889532677 0 0 0 0.24 45 200 117 497 139 613 161 594 166 688 173 1251 205 628 218 1064 90 200 116 972 216 1084 226 768 
4692 -0.4871599083454879 -0.3726399223154517 0.8510867990662608 0 0 0 0.44 45 201 117 498 119 624 140 1567 145 575 177 1413 183 517 47 316 86 462 94 673 125 719 149 684 
4693 -0.5540107658530559 -0.16902065480311224 0.7259475665548175 0 0 0 0.19 45 202 57 1036 58 102 145 576 174 346 
4694 -0.474925675385729 -0.14242645369814685 1.0541286967891723 0 0 0 0.31 45 203 47 317 117 499 140 1568 154 712 180 864 226 769 228 986 233 572 116 973 
4695 -0.45399274123814287 -0.13411928524049732 1.1481483843871636 0 0 0 0.22 45 204 47 318 90 201 94 674 117 500 140 1569 154 713 216 1085 226 770 228 987 233 573 
4696 -0.46681323360839916 -0.08981468732581886 1.1108177196916809 0 0 0 0.24 45 205 72 1128 86 463 117 501 151 981 177 1414 226 771 
4697 -0.4525038708881313 -0.0855592736643292 1.1758610065558128 0 0 0 0.33 45 206 116 974 117 502 218 1065 228 988 
4698 -0.45449398665701823 -0.03484213773706634 1.1590335464985848 0 0 0 0.21 45 207 90 202 94 675 117 503 140 1570 151 982 228 989 
4699 -0.5422850227758758 0.03955300466389899 0.6080812181886671 0 0 0 0.62 45 208 58 103 174 347 
4700 -0.4791360815258904 -0.5481657281216008 0.9922121454252449 0 0 0 0.31 45 209 90 203 117 504 125 720 226 772 173 1252 177 1415 193 1085 
4701 -0.4932000692728571 -0.3096254571174368 0.8698502922989303 0 0 0 0.24 45 210 117 505 216 1086 
4702 -0.49288845652707813 -0.2585186059138204 0.8596251458779616 0 0 0 0.26 45 211 90 204 116 975 117 506 145 577 150 955 151 983 205 629 161 595 183 518 216 1087 
4703 -0.5060216423250324 -0.2808188821507049 1.3012885265949485 0 0 0 0.96 45 212 174 348 178 497 
4704 -0.5444377130879767 -0.17472997891667863 0.7620238361066709 0 0 0 0.4 45 213 57 1037 125 721 140 1571 144 909 167 35 174 349 193 1086 211 565 
4705 -0.5642506836621178 -0.14704476543688486 0.6887472284068494 0 0 0 0.17 137 591 139 614 218 1066 
4706 -0.4870331005313056 -0.08516733871128586 1.0194255234067158 0 0 0 0.19 45 214 117 507 145 578 183 519 226 773 
4707 -0.558226074063436 -0.07662138961160783 0.6823759994364642 0 0 0 0.2 45 215 57 1038 144 910 174 350 210 337 
4708 -0.5227837302576478 -0.6784414395668343 0.9200743342125182 0 0 0 0.37 45 216 90 205 139 615 151 984 174 351 205 630 
4709 -0.5781255685620215 -0.21221086508280165 0.46934104937096427 0 0 0 0.93 45 217 58 104 90 206 94 676 116 976 139 616 161 596 137 592 216 1088 
4710 -0.5536518060987163 -0.16180767725063877 0.6982582663971044 0 0 0 0.28 45 218 57 1039 94 677 116 977 144 911 149 685 174 352 205 631 
4711 -0.5487397424643252 -0.07229516415011229 0.7277121896794196 0 0 0 0.47 45 219 57 1040 94 678 119 625 140 1572 167 36 174 353 183 520 218 1067 225 206 
4712 -0.47324084126955157 0.023075446379927443 1.0721355423514067 0 0 0 0.34 45 220 125 722 174 354 
4713 -0.5937545406711636 -0.021509731048439992 0.53802477376247 0 0 0 0.27 45 221 174 355 211 566 
4714 -0.4906907903542274 -0.14027715060184967 0.8745027704790186 0 0 0 0.21 45 222 144 912 174 356 212 624 
4715 -0.5024098567917396 -0.8498191414613357 1.0014218778063197 0 0 0 0.75 46 496 90 207 117 508 205 632 211 567 
4716 -0.4935939324878797 -0.755167254162285 0.9526165160075603 0 0 0 0.2 46 497 94 679 116 978 144 913 149 686 151 985 186 145 212 625 218 1068 
4717 -0.5041904232540264 -0.7641108600039436 0.9936235650141527 0 0 0 0.41 46 498 94 680 116 979 144 914 183 521 
4718 -0.5187241953883536 -0.7319602301010744 0.9177270463738165 0 0 0 0.56 46 499 57 1041 86 464 90 208 94 681 102 645 116 980 139 617 149 687 151 986 166 689 173 1253 186 146 211 568 212 626 218 1069 
4719 -0.5058588456872625 -0.697078194663325 0.9372183295437255 0 0 0 0.38 46 500 90 209 94 682 149 688 151 987 218 1070 
4720 -0.4977814561984091 -0.6929252373868973 0.9610524076815966 0 0 0 0.37 46 501 86 465 117 509 
4721 -0.5601537814089207 -0.6843366680786922 0.9157281040332022 0 0 0 0.2 46 502 125 723 143 670 151 988 
4722 -0.5089620914909047 -0.6692335383643393 0.9439559136613922 0 0 0 0.19 46 503 94 683 116 981 125 724 143 671 149 689 151 989 173 1254 186 147 205 633 210 338 226 774 
4723 -0.47656090967953735 -0.639550151989347 0.9146797760795716 0 0 0 0.22 46 504 125 725 151 990 
4724 -0.48683485855304914 -0.5708765959845877 0.9248553586720661 0 0 0 0.19 46 505 57 1042 86 466 94 684 102 646 116 982 125 726 131 606 144 915 151 991 161 597 166 690 173 1255 205 634 211 569 218 1071 
4725 -0.5516885667068142 -0.5732753421794633 0.8855617031031175 0 0 0 0.2 46 506 125 727 143 672 151 992 161 598 173 1256 205 635 211 570 218 1072 226 775 
4726 -0.5060929707984277 -0.5649593844496317 0.9156754132003861 0 0 0 0.16 46 507 173 1257 218 1073 
4727 -0.4920309364636124 -0.4812249516532505 0.9182545952385475 0 0 0 0.43 46 508 86 467 117 510 125 728 151 993 166 691 173 1258 177 1416 193 1087 211 571 215 101 216 1089 218 1074 
4728 -0.5959612589058471 -0.48584776428046383 0.9070106394950563 0 0 0 0.35 46 509 117 511 125 729 
4729 -0.6108063988452793 -0.47112387523992405 0.9119969037756954 0 0 0 0.25 46 510 117 512 125 730 177 1417 193 1088 211 572 
4730 -0.5038028543325345 -0.45818240257760334 0.9759352195447832 0 0 0 0.09 46 511 117 513 125 731 
4731 -0.6287433201637812 -0.45796658706596327 0.9466822975504811 0 0 0 0.24 46 512 117 514 125 732 
4732 -0.5013847460163003 -0.38786502697263553 0.850967135362285 0 0 0 0.27 46 513 117 515 140 1573 173 1259 193 1089 218 1075 
4733 -0.5559923794286592 -0.38872731388883025 0.8749671474881489 0 0 0 0.25 46 514 72 1129 86 468 94 685 116 983 117 516 140 1574 145 579 151 994 154 714 166 692 173 1260 193 1090 211 573 218 1076 226 776 
4734 -0.4881348925382831 -0.3781080447821606 0.9032589434988074 0 0 0 0.32 46 515 47 319 117 517 151 995 161 599 193 1091 
4735 -0.4740352216482692 -0.3759971491216022 0.9307706110007065 0 0 0 0.47 46 516 47 320 86 469 117 518 140 1575 150 956 151 996 161 600 186 148 193 1092 205 636 211 574 215 102 
4736 -0.5843364820631611 -0.37823979829384 0.8723688664292681 0 0 0 0.3 46 517 86 470 94 686 117 519 125 733 140 1576 150 957 151 997 193 1093 
4737 -0.5724527072055552 -0.32534340310999477 1.2098696734277063 0 0 0 0.25 46 518 117 520 125 734 151 998 193 1094 
4738 -0.581017685500851 -0.21061613257969028 0.4899573379963214 0 0 0 0.38 46 519 57 1043 58 105 116 984 161 601 193 1095 228 990 
4739 -0.48693501828567587 -0.25516976840648353 0.9449389399337924 0 0 0 0.51 46 520 117 521 150 958 154 715 228 991 
4740 -0.5662527829440515 -0.2008638052477187 0.6695858847395256 0 0 0 0.33 46 521 58 106 140 1577 145 580 174 357 177 1418 211 575 218 1077 
4741 -0.5525578414609935 -0.18635070392033415 0.7259534311325996 0 0 0 0.26 46 522 58 107 140 1578 145 581 174 358 193 1096 
4742 -0.4678720784621188 -0.17750421852913237 0.9586687165926409 0 0 0 0.29 46 523 117 522 151 999 161 602 183 522 205 637 216 1090 228 992 
4743 -0.46892059691940385 -0.17362214631743045 0.9605682423313905 0 0 0 0.42 46 524 117 523 145 582 183 523 193 1097 210 339 216 1091 
4744 -0.4754376235561078 -0.10653302459159128 1.0847225125816056 0 0 0 0.24 46 525 117 524 122 206 226 777 
4745 -0.4800042023236476 -0.06711944837823758 0.9798217744309256 0 0 0 0.35 46 526 117 525 137 593 150 959 151 1000 161 603 183 524 205 638 211 576 228 993 
4746 -0.42134812984741943 -0.015041261261592947 1.2228796663982064 0 0 0 0.21 46 527 94 687 117 526 125 735 140 1579 151 1001 154 716 166 693 193 1098 216 1092 218 1078 226 778 228 994 
4747 -0.4751216938939528 -0.011501300527289381 1.0461648164676394 0 0 0 0.18 46 528 117 527 140 1580 145 583 154 717 216 1093 
4748 -0.45553478437996797 0.0036600757135418845 1.1543255299385062 0 0 0 0.34 46 529 116 985 117 528 140 1581 150 960 151 1002 193 1099 211 577 216 1094 226 779 228 995 
4749 -0.5117185450482401 -0.8638685947182395 0.9191889063885794 0 0 0 0.49 46 530 117 529 189 652 
4750 -0.5875307313614517 -0.8620109169001368 0.9541732795151154 0 0 0 0.52 46 531 131 607 151 1003 189 653 218 1079 
4751 -0.5037151695866356 -0.8066837400760768 0.9983974317388065 0 0 0 0.36 46 532 94 688 149 690 205 639 211 578 212 627 
4752 -0.5262760539075292 -0.6495565326949246 0.9226437211166081 0 0 0 0.15 46 533 57 1044 218 1080 
4753 -0.49425441526181557 -0.6222237415928016 0.9350876749115227 0 0 0 0.3 46 534 125 736 139 618 144 916 151 1004 205 640 211 579 
4754 -0.4892910180117028 -0.6069016114702768 0.931236070449128 0 0 0 0.19 46 535 117 530 186 149 
4755 -0.4976151241025219 -0.5851790188545862 0.9357606869418399 0 0 0 0.4 46 536 94 689 117 531 125 737 139 619 144 917 151 1005 166 694 186 150 202 665 218 1081 
4756 -0.4785079550142058 -0.5239154059345092 0.9791851797965333 0 0 0 0.32 46 537 57 1045 117 532 145 584 
4757 -0.6166059141912928 -0.5006759992415818 0.9010851099565631 0 0 0 0.29 46 538 94 690 116 986 125 738 151 1006 
4758 -0.5717613717418871 -0.4728700089535752 0.8786262346251714 0 0 0 0.25 46 539 94 691 125 739 144 918 189 654 193 1100 218 1082 
4759 -0.5660328620303144 -0.04852431810072328 0.6173197390151934 0 0 0 0.34 46 540 116 987 119 626 167 37 174 359 218 1083 
4760 -0.4952972132275076 -0.7951664172923739 0.9576508059892216 0 0 0 0.53 46 541 57 1046 94 692 144 919 189 655 225 207 
4761 -0.5456245254783014 -0.6496327082043146 0.9177511062072996 0 0 0 0.38 46 542 57 1047 102 647 119 627 139 620 144 920 174 360 186 151 211 580 218 1084 
4762 -0.5479869079831781 -0.648139482494901 0.9376419037376174 0 0 0 0.41 46 543 144 921 186 152 
4763 -0.5473451405301346 -0.5460386749561791 0.8976561491431468 0 0 0 0.32 46 544 59 700 116 988 131 608 173 1261 193 1101 57 1048 191 548 226 780 
4764 -0.5563316835705154 -0.4718332081464693 0.8802600187919447 0 0 0 0.63 46 545 94 693 145 585 173 1262 191 549 202 666 218 1085 
4765 -0.5117252278876355 -0.4469007486222986 0.9314033784553839 0 0 0 0.29 46 546 117 533 125 740 
4766 -0.604468417467667 -0.20319616469917937 0.5172900709946512 0 0 0 1.19 46 547 174 361 183 525 216 1095 
4767 -0.5516140037296821 -0.17802761313401655 0.7277931623490453 0 0 0 0.22 46 548 58 108 59 701 116 989 125 741 131 609 140 1582 144 922 145 586 167 38 174 362 177 1419 183 526 193 1102 202 667 211 581 228 996 
4768 -0.5486453459297047 -0.17697671998862935 0.7327336603014218 0 0 0 0.26 46 549 58 109 59 702 167 39 174 363 178 498 193 1103 228 997 
4769 -0.4647916420706686 -0.09930422783999078 0.9455980517918862 0 0 0 0.44 46 550 117 534 125 742 140 1583 144 923 186 153 191 550 212 628 
4770 -0.45162392103844257 -0.07030353962273922 1.1505393190274829 0 0 0 0.32 46 551 57 1049 117 535 144 924 189 656 
4771 -0.4724544787953744 -0.03615312103624967 1.1015073993655964 0 0 0 0.15 46 552 86 471 117 536 150 961 
4772 -0.5498721969502965 -0.001662744347450541 0.6393581204329881 0 0 0 0.46 46 553 144 925 174 364 183 527 211 582 
4773 -0.5467650593708606 -0.0012118570364504225 0.643043423310489 0 0 0 0.25 46 554 55 899 57 1050 119 628 144 926 174 365 183 528 211 583 
4774 -0.50900335038448 -0.7879373234757099 0.9936990510665676 0 0 0 0.64 46 555 94 694 116 990 137 594 139 621 144 927 151 1007 166 695 189 657 205 641 212 629 
4775 -0.5046842442412457 -0.5457037212787311 0.9299035408510969 0 0 0 0.32 46 556 86 472 90 210 117 537 122 207 139 622 149 691 186 154 211 584 212 630 
4776 -0.5084496195133726 -0.4701151565165605 0.865797587650019 0 0 0 0.56 46 557 94 695 119 629 131 610 137 595 144 928 173 1263 177 1420 189 658 193 1104 215 103 226 781 
4777 -0.49670283937098086 -0.7550669168258931 0.9988635650093122 0 0 0 0.39 46 558 90 211 94 696 116 991 149 692 151 1008 218 1086 
4778 -0.5180377085695264 -0.7619908793045999 0.9340063376848461 0 0 0 0.57 46 559 189 659 218 1087 226 782 
4779 -0.5227620075017201 -0.45801781194178176 0.9174858399689808 0 0 0 0.54 46 560 125 743 166 696 
4780 -0.4934984773745226 -0.5572302483000615 0.9249187038844691 0 0 0 0.33 117 538 125 744 218 1088 
4781 -0.5075491063798937 -0.5273550105934531 0.9177388067373621 0 0 0 0.22 94 697 117 539 145 587 161 604 193 1105 
4782 -0.5137774325383965 -0.5114420614290525 0.92414973987012 0 0 0 0.85 47 321 117 540 149 693 154 718 
4783 -0.5624028243568522 -0.4964239861227951 0.9066490123778184 0 0 0 0.31 117 541 119 630 145 588 177 1421 
4784 -0.4759495133293866 -0.43944591580463743 0.9616361101667681 0 0 0 0.51 117 542 125 745 193 1106 205 642 
4785 -0.47604318968120785 -0.4388462659275747 0.9680606896428178 0 0 0 0.22 72 1130 86 473 94 698 116 992 117 543 151 1009 161 605 173 1264 180 865 183 529 193 1107 218 1089 
