# 3D point list with one line of data per point:
#   POINT3D_ID, X, Y, Z, R, G, B, ERROR, TRACK[] as (IMAGE_ID, POINT2D_IDX)
# Number of points: 357, mean track length: 7.83
176 0.09283302628506115 0.2505474946453211 0.9679023967340773 0 0 0 0.37 148 42 152 93 158 63 175 8 176 66 181 35 185 15 204 81 219 61 222 57 
177 0.1982962560988256 0.25829107487889685 0.9866136513438695 0 0 0 0.39 148 43 158 64 164 66 213 79 217 69 25 31 63 15 73 25 96 32 162 34 165 10 208 40 235 11 
178 0.13653130929730128 0.14322069481175387 1.0226309631649149 0 0 0 0.37 148 44 152 94 157 56 159 29 164 67 172 50 198 34 213 80 217 70 220 59 221 53 232 86 1 54 25 32 26 29 56 76 63 16 69 27 71 29 73 26 81 32 111 29 118 43 127 30 158 65 163 6 208 41 222 58 
179 0.21514265259949636 0.19591168857351796 1.018997480406077 0 0 0 0.15 148 45 157 57 182 32 204 82 232 87 
180 -0.2939462265286332 0.122072099952704 0.9834970309373773 0 0 0 0.49 148 46 158 66 164 68 176 67 181 36 190 75 198 35 199 26 204 83 219 62 221 54 232 88 1 55 12 14 26 30 56 77 67 15 71 30 73 27 76 3 81 33 96 33 118 44 128 67 179 22 220 60 
181 -0.23717620614875182 0.12242515034154948 0.9869333688471064 0 0 0 0.53 148 47 198 36 217 71 220 61 26 31 56 78 65 21 67 16 71 31 96 34 97 18 118 45 127 31 199 27 
182 0.09217000316497631 0.11449058880899432 1.0204612338505596 0 0 0 1.18 148 48 152 95 199 28 217 72 219 63 220 62 221 55 232 89 
183 -0.2627219396630704 0.0974312602322302 0.9965900368898525 0 0 0 0.13 152 96 158 67 217 73 
184 0.022064490234861803 0.0885297937300343 1.0237381190266763 0 0 0 0.09 152 97 220 63 232 90 
185 0.23592802515104164 0.0894436440553684 1.0660582307989077 0 0 0 0.29 159 30 197 20 204 84 219 64 
186 -0.19422755410939427 0.10007591280882266 0.993609572489018 0 0 0 0.23 213 81 217 74 219 65 
187 -0.03554028360611398 0.09869161309274418 1.0089132751530927 0 0 0 0.2 152 98 157 58 158 68 159 31 190 76 217 75 232 91 
188 0.06701342246166395 0.12251487788080716 1.0180837676678482 0 0 0 0.27 152 99 157 59 159 32 190 77 196 35 214 26 217 76 220 64 
189 0.31021375164649045 0.1402478848387055 1.0568719732229324 0 0 0 0.41 164 69 196 36 204 85 213 82 232 92 60 26 63 17 91 7 111 30 126 8 148 49 162 35 165 11 184 4 198 37 208 42 221 56 
190 0.21360292399829653 0.18669731052710986 1.0256433056709606 0 0 0 0.21 172 51 182 33 190 78 219 66 
191 0.3634207570526498 0.19611531484199685 1.0548751056346544 0 0 0 0.24 182 34 204 86 222 59 232 93 
192 -0.2583793453136906 0.07124486573958326 1.0078164512336991 0 0 0 0.39 152 100 162 36 204 87 219 67 220 65 232 94 
193 -0.2569202285450351 0.09196763995417674 1.0005667788276675 0 0 0 0.1 213 83 217 77 232 95 
194 -0.23983772428171385 0.09948936855112092 0.9956836149578231 0 0 0 0.12 152 101 176 68 204 88 213 84 
195 0.11503572028488074 0.10403897185047101 1.0337163798376503 0 0 0 0.37 152 102 157 60 158 69 196 37 200 27 217 78 221 57 222 60 
196 0.23641569983360194 0.12524697091621562 1.050804031951124 0 0 0 0.55 157 61 158 70 162 37 182 35 204 89 220 66 1 56 25 33 56 79 67 17 69 28 96 35 97 19 110 7 111 31 127 32 148 50 152 103 163 7 165 12 208 43 217 79 227 17 235 12 
197 0.2685795007010539 0.12627504925927382 1.0572666922675757 0 0 0 0.25 158 71 162 38 164 70 182 36 196 38 214 27 
198 0.021704218209952924 0.12986536638233054 1.0057320219267134 0 0 0 0.19 152 104 181 37 213 85 217 80 232 96 
199 0.10859559081062961 0.13356328259362962 1.019481109223513 0 0 0 0.26 152 105 157 62 190 79 213 86 232 97 1 57 25 34 26 32 56 80 65 22 89 41 91 8 111 32 118 46 148 51 158 72 198 38 208 44 217 81 
200 0.30860415097593147 0.24984937303263563 1.0127331175179168 0 0 0 0.6 164 71 175 9 182 37 204 90 214 28 
201 -0.07685229173913448 0.04075999394671733 1.0275278951550695 0 0 0 0.19 152 106 219 68 232 98 
202 -0.16119785905618178 0.0764448355187367 1.0116975637486048 0 0 0 0.14 152 107 179 23 213 87 217 82 
203 0.29645841263393924 0.07644504074055371 1.0848809263810553 0 0 0 0.47 197 21 204 91 222 61 1 58 56 81 60 27 63 18 73 28 81 34 89 42 105 6 147 86 148 52 164 72 181 38 190 80 208 45 
204 0.2254023342155736 0.08179371046932615 1.095198307316885 0 0 0 0.38 190 81 204 92 232 99 1 59 56 82 81 35 89 43 118 47 147 87 152 108 182 38 197 22 221 58 
205 0.2042678112072003 0.09023868276047867 1.0598547874004172 0 0 0 0.32 164 73 182 39 232 100 56 83 69 29 81 36 147 88 217 83 
206 0.20454757584127398 0.14492227244534137 1.036019717770628 0 0 0 0.44 157 63 158 73 162 39 164 74 182 40 190 82 213 88 
207 0.09690733710796634 0.23966507789174377 0.9745061511842361 0 0 0 0.35 152 109 175 10 179 24 
208 -0.15380000924112752 0.0654912382552065 1.0176271288584584 0 0 0 0.29 152 110 190 83 198 39 204 93 219 69 220 67 1 60 25 35 26 33 56 84 60 28 67 18 81 37 88 10 127 33 181 39 
209 -0.017649621590583184 0.08307900683425568 1.0185696931556714 0 0 0 0.48 152 111 157 64 159 33 176 69 185 16 190 84 204 94 214 29 219 70 220 68 221 59 222 62 1 61 56 85 88 11 97 20 111 33 127 34 129 47 
210 -0.24619499086209598 0.09897964908592506 0.9954996359709511 0 0 0 0.45 152 112 157 65 176 70 198 40 204 95 213 89 219 71 220 69 232 101 81 38 208 46 
211 0.2436218262107235 0.25634371684148727 0.9897004808357338 0 0 0 0.53 152 113 164 75 190 85 213 90 221 60 56 86 
212 -0.2863961596400393 0.10090955739964004 0.9956552187383899 0 0 0 0.46 181 40 185 17 198 41 199 29 204 96 217 84 219 72 232 102 1 62 26 34 56 87 71 32 118 48 127 35 128 68 190 86 221 61 67 19 81 39 96 36 97 21 
213 0.2847705041181878 0.0748126022240984 1.0815495633294774 0 0 0 0.54 181 41 182 41 190 87 197 23 204 97 221 62 232 103 1 63 56 88 62 3 67 20 71 33 73 29 89 44 97 22 162 40 163 8 25 36 63 19 81 40 96 37 105 7 110 8 118 49 147 89 148 53 184 5 198 42 208 47 222 63 
214 -0.2574032891862941 0.06528969965163885 1.0111412073739512 0 0 0 0.63 190 88 204 98 213 91 219 73 221 63 1 64 25 37 26 35 56 89 67 21 71 34 73 30 81 41 96 38 118 50 127 36 138 7 152 114 179 25 198 43 208 48 
215 0.10290813881914149 0.2710892855152714 0.9628134850809215 0 0 0 0.44 152 115 158 74 175 11 196 39 198 44 56 90 118 51 181 42 
216 -0.2572241784486898 0.09033898929980201 1.0009248290129549 0 0 0 0.46 152 116 213 92 232 104 204 99 219 74 220 70 221 64 1 65 26 36 56 91 71 35 81 42 88 12 118 52 127 37 198 45 224 19 73 31 96 39 97 23 172 52 181 43 190 89 
217 -0.19883674628860853 0.0754424814598409 1.0068913732979772 0 0 0 0.21 157 66 204 100 219 75 
218 -0.2573123016530897 0.07906738960896743 1.005260889449774 0 0 0 0.31 157 67 158 75 162 41 204 101 219 76 
219 -0.055444519714379525 0.08417995175216249 1.0044143216350387 0 0 0 0.2 157 68 172 53 176 71 204 102 213 93 219 77 222 64 232 105 
220 -0.3039193943219411 0.11494124374051641 0.9875183189782185 0 0 0 0.18 157 69 200 28 219 78 
221 0.20753752020513258 0.2698369261613386 0.9833251085186362 0 0 0 0.35 157 70 158 76 181 44 1 66 56 92 69 30 73 32 88 13 89 45 111 34 127 38 134 3 217 85 
222 -0.25558605949892194 0.09869369836036379 0.9973319695972498 0 0 0 0.41 157 71 158 77 172 54 204 103 232 106 
223 -0.3014632966620528 0.132357583213932 0.9800197297964507 0 0 0 0.17 157 72 190 90 217 86 221 65 
224 0.31847920301589644 0.12803352618043623 1.0620184936963057 0 0 0 0.09 158 78 164 76 182 42 
225 0.30048538839943434 0.10109876368709314 1.0678250309223427 0 0 0 0.62 158 79 162 42 164 77 
226 -0.31101138357474933 0.12757627383650927 0.9803567458006491 0 0 0 0.26 158 80 162 43 213 94 232 107 
227 0.16776083627444827 0.2525338087496111 0.9835466689038447 0 0 0 0.24 158 81 175 12 217 87 
228 0.13894597042968254 0.272838808634405 0.9672562686727326 0 0 0 0.39 158 82 199 30 217 88 1 67 56 93 69 31 81 43 100 2 172 55 181 45 198 46 220 71 221 66 232 108 
229 -0.3003479288590957 0.12221660321817726 0.9851812872951884 0 0 0 0.53 159 34 162 44 164 78 179 26 219 79 200 29 224 20 
230 0.00850540626343339 0.10498750855601896 1.0143150937689158 0 0 0 0.13 159 35 172 56 217 89 222 65 
231 0.009151802638838842 0.12476655519530981 1.0051684106719545 0 0 0 0.35 159 36 172 57 176 72 200 30 204 104 217 90 219 80 220 72 25 38 56 94 63 20 81 44 88 14 138 8 147 90 199 31 208 49 
232 -0.014243842546177285 0.0771835531291878 1.021338909087476 0 0 0 0.32 172 58 204 105 214 30 219 81 
233 0.09922133237060761 0.09294111196096431 1.03684359188002 0 0 0 0.76 176 73 219 82 232 109 
234 -0.039470598928082634 0.09816546542997495 1.0094299633095063 0 0 0 0.12 176 74 220 73 222 66 
235 0.16533807002788217 0.10625693794306186 1.0448097502374138 0 0 0 0.17 172 59 204 106 219 83 222 67 232 110 
236 -0.19996914541894142 0.12290488292572069 0.9890009061994234 0 0 0 0.29 162 45 179 27 220 74 
237 -0.19232975385770662 0.12302751355554867 0.9913727826938389 0 0 0 0.22 162 46 179 28 190 91 
238 -0.26711369387755673 0.12386207326104892 0.9885106977444335 0 0 0 0.28 204 107 213 95 219 84 200 31 232 111 
239 0.1387718524864851 0.12988503834146742 1.0278073325417414 0 0 0 0.2 164 79 179 29 190 92 213 96 217 91 232 112 
240 -0.13189372189870407 0.06816304105012602 1.0199563282558985 0 0 0 0.45 164 80 204 108 213 97 217 92 221 67 232 113 
241 0.17992637507172995 0.08078762378496919 1.0538910643865187 0 0 0 0.06 190 93 219 85 232 114 
242 0.10233718075186854 0.09886135408590485 1.033790071176043 0 0 0 0.35 190 94 219 86 220 75 221 68 222 68 1 68 63 21 97 24 172 60 208 50 217 93 
243 0.13264958280348624 0.1266515908032735 1.0273816596604004 0 0 0 0.27 164 81 172 61 176 75 56 95 81 45 111 35 138 9 
244 0.08091578163992005 0.06783664687936693 1.0296935074708884 0 0 0 1.03 181 46 198 47 204 109 25 39 56 96 65 23 129 48 217 94 
245 -0.2252742942448404 0.16131778981539432 0.9801263767946167 0 0 0 0.44 172 62 198 48 213 98 219 87 
246 -0.2997101324470097 0.10115800365353819 0.9935070237613489 0 0 0 0.38 204 110 213 99 219 88 220 76 25 40 56 97 
247 -0.2846721243211037 0.10797043947704449 0.9810286320319854 0 0 0 0.26 198 49 204 111 213 100 219 89 221 69 232 115 
248 -0.32877464791153255 0.13463821050095315 0.9827324098798326 0 0 0 0.48 164 82 181 47 198 50 217 95 220 77 224 21 26 37 60 29 76 4 110 9 208 51 
249 -0.2131732859877124 0.10798697532364335 0.9926326802766362 0 0 0 0.55 204 112 217 96 220 78 25 41 26 38 56 98 71 36 81 46 88 15 96 40 127 39 
250 -0.14648575763572502 -0.20404609309745333 0.08429599225323976 0 0 0 0.33 1 69 26 39 56 99 
251 0.28346961981647384 0.04604902599270987 1.08822776902894 0 0 0 0.21 1 70 56 100 65 24 67 22 71 37 
252 -0.13068266909082193 -0.13263077207526 0.05845356084170701 0 0 0 0.48 1 71 26 40 56 101 
253 0.28912013202072745 0.055011888616514626 1.088850991980442 0 0 0 0.44 1 72 56 102 62 4 67 23 111 36 163 9 
254 0.1153687496085454 0.03674957592984584 1.1047400774146636 0 0 0 0.2 1 73 56 103 65 25 81 47 89 46 
255 0.18205556086358368 0.042733288258754165 1.073948053902832 0 0 0 0.14 1 74 56 104 67 24 97 25 134 4 181 48 
256 0.05985516093705344 0.035187267602623876 1.0534678091841505 0 0 0 0.19 1 75 26 41 73 33 81 48 126 9 147 91 208 52 232 116 
257 0.27626908902416364 0.0714732006060508 1.0824222055371098 0 0 0 0.45 1 76 56 105 60 30 63 22 89 47 96 41 127 40 147 92 162 47 163 10 190 95 198 51 208 53 222 69 232 117 
258 -0.07801368358578356 0.03189948222906496 1.0343589769092514 0 0 0 0.27 1 77 26 42 56 106 60 31 65 26 81 49 89 48 97 26 111 37 127 41 138 10 190 96 12 15 71 38 118 53 147 93 232 118 
259 -0.014309238966822952 0.04750664341961623 1.0317371006503893 0 0 0 0.25 1 78 56 107 81 50 222 70 
260 0.10332087284044125 0.07002349004880175 1.0480595978869174 0 0 0 0.26 1 79 56 108 164 83 
261 -0.04339828449513741 0.06022465178903868 1.0886904793367251 0 0 0 0.45 1 80 56 109 65 27 67 25 81 51 138 11 147 94 
262 -0.1390356440115044 0.07630403392524027 1.0117334846483164 0 0 0 0.27 1 81 25 42 26 43 56 110 63 23 65 28 67 26 71 39 81 52 89 49 96 42 97 27 111 38 118 54 128 69 138 12 162 48 164 84 172 63 179 30 221 70 232 119 127 42 181 49 
263 -0.14578340774949577 0.07782016493665687 1.0126101037475206 0 0 0 0.36 1 82 56 111 71 40 81 53 89 50 97 28 103 9 118 55 128 70 179 31 190 97 
264 -0.03030494116528248 0.10825306670664307 1.0056782403609634 0 0 0 0.37 1 83 26 44 56 112 63 24 71 41 88 16 118 56 127 43 152 117 158 83 164 85 198 52 199 32 217 97 220 79 224 22 232 120 
265 -0.25774026121177657 0.08411362235823071 1.008775322125774 0 0 0 0.52 1 84 56 113 65 29 67 27 71 42 88 17 97 29 103 10 127 44 128 71 221 71 
266 -0.05513264562439617 0.1087287507748087 1.0013897109943284 0 0 0 0.23 1 85 81 54 172 64 208 54 222 71 
267 -0.03054455124228012 0.1147577224162514 1.0020758454694247 0 0 0 0.3 1 86 56 114 88 18 89 51 96 43 111 39 127 45 147 95 162 49 164 86 217 98 222 72 224 23 234 11 
268 -0.2662933458107579 0.0920383050614257 1.0021057556420307 0 0 0 0.24 1 87 56 115 71 43 81 55 97 30 190 98 
269 0.038053855615552024 0.13138629349175152 1.008780386822488 0 0 0 0.27 1 88 26 45 56 116 60 32 65 30 118 57 129 49 198 53 220 80 232 121 
270 -0.2596377186402256 0.10063733294713686 1.0111089297370641 0 0 0 0.27 1 89 56 117 81 56 103 11 190 99 
271 -0.07504899648671204 0.12078510168202836 0.9938196903499842 0 0 0 0.31 1 90 20 0 26 46 56 118 60 33 88 19 162 50 199 33 
272 -0.016214459866614614 0.12934621597770438 0.999404181504017 0 0 0 0.31 1 91 25 43 56 119 71 44 103 12 118 58 128 72 129 50 152 118 158 84 164 87 217 99 224 24 
273 -0.3274947897099131 0.1074733109918903 0.9938277173439839 0 0 0 0.28 1 92 56 120 67 28 111 40 65 31 190 100 
274 0.09436665000138021 0.17962426776512408 1.0025173124518365 0 0 0 0.32 1 93 26 47 56 121 60 34 103 13 128 73 164 88 
275 -0.04474516218240484 0.17766312850614596 0.9773771275813897 0 0 0 0.23 1 94 56 122 67 29 89 52 100 3 138 13 158 85 172 65 181 50 
276 -0.0291723095806148 0.18875025180323665 0.9848267876726241 0 0 0 0.14 1 95 56 123 100 4 128 74 
277 -0.06545037356658778 0.18562526030881152 0.9699195175873858 0 0 0 0.33 1 96 26 48 56 124 65 32 111 41 127 46 128 75 217 100 
278 -0.2993911267996224 0.17141923697537684 0.9648830440171114 0 0 0 0.22 1 97 56 125 96 44 158 86 
279 -0.07305042065988263 0.2345252266271273 0.9418085971876071 0 0 0 0.41 1 98 26 49 56 126 63 25 67 30 71 45 89 53 220 81 221 72 
280 -0.11260693422998509 0.23637206170876193 0.9464218846087437 0 0 0 0.5 1 99 25 44 56 127 118 59 127 47 128 76 164 89 172 66 217 101 221 73 
281 -0.1615078011363424 0.23829377645510794 0.9356139631969771 0 0 0 0.41 1 100 56 128 221 74 
282 0.13245998467922657 0.2684693056970966 0.9672156897764246 0 0 0 0.16 1 101 56 129 65 33 69 32 152 119 
283 0.12910615680436469 0.2792107876370404 0.9649887866951324 0 0 0 0.46 1 102 26 50 56 130 197 24 
284 0.09736071570528824 0.2869720896784847 0.9559489646027166 0 0 0 0.49 1 103 56 131 88 20 96 45 111 42 181 51 208 55 
285 -0.15817841401368757 -0.3529992934435583 0.15029889064299348 0 0 0 0.64 1 104 20 1 26 51 56 132 76 5 208 56 
286 -0.15060466979519205 -0.269222356944645 0.16459171183322643 0 0 0 0.47 1 105 56 133 65 34 
287 -0.14271757220516912 -0.2090472167020174 0.08644188028837081 0 0 0 0.23 1 106 26 52 56 134 
288 0.1779965279656039 0.04770562726973083 1.0763889265082995 0 0 0 0.67 1 107 25 45 56 135 65 35 71 46 97 31 179 32 217 102 
289 0.0975797714653781 0.050104863526872156 1.1250238784184081 0 0 0 0.5 1 108 56 136 71 47 81 57 89 54 97 32 147 96 179 33 181 52 232 122 
290 0.06030558036398318 0.044015220460673236 1.0469359799687032 0 0 0 0.37 1 109 56 137 71 48 89 55 97 33 118 60 147 97 221 75 232 123 
291 0.13732840729551532 0.060377529102189714 1.0578268727808988 0 0 0 0.52 1 110 56 138 118 61 147 98 208 57 217 103 222 73 232 124 
292 0.24493763338742944 0.08447209708733056 1.1107727949775643 0 0 0 0.69 1 111 56 139 147 99 221 76 222 74 
293 0.11510968312143878 0.06295375546779262 1.0588078389406925 0 0 0 0.14 1 112 56 140 89 56 
294 0.26660300806300613 0.08692634724337002 1.074253861050314 0 0 0 0.36 1 113 56 141 67 31 73 34 81 58 96 46 111 43 128 77 134 5 147 100 164 90 182 43 190 101 197 25 208 58 
295 0.06887928730451698 0.06090354330092315 1.0479571595096455 0 0 0 0.6 1 114 12 16 56 142 71 49 81 59 221 77 
296 0.1758863639737618 0.07736350425639672 1.060400400900039 0 0 0 0.21 1 115 25 46 56 143 103 14 179 34 190 102 198 54 222 75 
297 0.08388994527309597 0.06215159948029639 1.0294710710760673 0 0 0 0.4 1 116 198 55 208 59 
298 0.016763604529085836 0.06067109703926043 1.029893567450271 0 0 0 0.55 56 144 89 57 118 62 172 67 
299 0.29106192106956963 0.11041320042558825 1.0679615121581618 0 0 0 0.43 1 117 56 145 69 33 81 60 89 58 105 8 152 120 182 44 221 78 
300 -0.12366719758321941 -0.1367884858657008 -0.14491372381929352 0 0 0 0.37 1 118 56 146 208 60 
301 -0.11210665853043685 0.08070091753255688 1.0170550169743786 0 0 0 0.37 1 119 26 53 56 147 60 35 71 50 81 61 111 44 147 101 190 103 217 104 232 125 
302 -0.24606506788185603 0.06767883531440973 1.014450541820118 0 0 0 0.14 1 120 56 148 67 32 81 62 88 21 96 47 181 53 
303 -0.27099755175743756 0.06766455564610893 1.0122168770191144 0 0 0 0.17 1 121 56 149 97 34 118 63 152 121 190 104 220 82 232 126 
304 0.19846398240384627 0.13612232725741408 1.0379260041166611 0 0 0 0.28 1 122 73 35 91 9 96 48 103 15 147 102 165 13 208 61 217 105 222 76 
305 -0.0652195874002429 0.10987107032225822 0.9995002938373299 0 0 0 0.36 1 123 25 47 26 54 56 150 63 26 71 51 89 59 111 45 118 64 152 122 158 87 162 51 172 68 190 105 220 83 222 77 224 25 232 127 
306 0.08710624552238322 0.13244620082206407 1.0142334179567902 0 0 0 0.29 56 151 198 56 232 128 
307 0.19346594131931655 0.1531662378879006 1.036066986414228 0 0 0 0.35 1 124 56 152 152 123 
308 -0.04968570572476099 0.12848945129262748 0.9933603916339013 0 0 0 0.2 1 125 67 33 208 62 
309 -0.08378898317562686 0.12858214434921522 0.9891069973167307 0 0 0 0.58 1 126 26 55 56 153 81 63 88 22 96 49 129 51 158 88 224 26 234 12 
310 0.05866092019429728 0.14913643232100052 1.0075021452401713 0 0 0 0.27 1 127 25 48 56 154 60 36 65 36 69 34 118 65 127 48 164 91 179 35 217 106 220 84 232 129 
311 0.06697657725187046 0.14901800499767298 1.0063421585184866 0 0 0 0.35 1 128 56 155 73 36 221 79 232 130 
312 0.22996558978361287 0.17969390581738462 1.0330358230816425 0 0 0 0.21 1 129 56 156 182 45 
313 0.1788767171345979 0.18287361006865552 1.016808384534368 0 0 0 0.25 1 130 56 157 71 52 136 1 147 103 182 46 197 26 217 107 
314 -0.2776719750475042 0.14158070443510534 0.9798443687981391 0 0 0 0.37 1 131 25 49 56 158 67 34 71 53 81 64 127 49 198 57 232 131 
315 0.17969406529496737 0.1947621553458106 1.0117574303454822 0 0 0 0.27 1 132 56 159 69 35 71 54 100 5 103 16 118 66 138 14 152 124 165 14 172 69 179 36 182 47 190 106 198 58 217 108 
316 -0.3015708278567523 0.1497206924675565 0.9791444398514071 0 0 0 0.32 1 133 26 56 56 160 81 65 
317 0.1791087551573034 0.20395984370028625 1.007524446035601 0 0 0 0.32 1 134 25 50 56 161 69 36 73 37 89 60 118 67 182 48 190 107 197 27 217 109 
318 0.05970519424331146 0.19228618864817737 0.9907391201940549 0 0 0 0.45 1 135 56 162 65 37 81 66 152 125 158 89 181 54 232 132 234 13 
319 -0.08576055831225526 0.18036125639651665 0.9716723553940612 0 0 0 0.4 1 136 56 163 60 37 63 27 65 38 88 23 179 37 199 34 208 63 221 80 
320 -0.007344735597510469 0.19003247263735984 0.9798488724857284 0 0 0 0.34 1 137 56 164 60 38 118 68 128 78 208 64 
321 -0.045919417532016095 0.18690570154534047 0.9748916249274592 0 0 0 0.05 1 138 26 57 56 165 81 67 
322 -0.281054130953604 0.17012908548696742 0.9650863106751313 0 0 0 0.31 1 139 56 166 81 68 88 24 96 50 158 90 199 35 232 133 
323 -0.14634076693649017 0.18915632599216595 0.9712902925292097 0 0 0 0.26 1 140 26 58 56 167 88 25 138 15 181 55 217 110 
324 -0.2366610719893673 0.18124244987113228 0.9643535634111651 0 0 0 0.38 1 141 26 59 56 168 60 39 71 55 76 6 88 26 97 35 111 46 129 52 158 91 172 70 
325 -0.1587377780284589 0.18755545965789786 0.9652916093865112 0 0 0 0.56 1 142 56 169 67 35 111 47 127 50 129 53 181 56 217 111 
326 -0.29580371278631806 0.18279070658157645 0.9632351741403555 0 0 0 0.23 1 143 56 170 67 36 73 38 
327 0.20191208041301825 0.24413691292982675 0.993027700635634 0 0 0 0.32 1 144 56 171 65 39 69 37 73 39 103 17 118 69 134 6 138 16 147 104 152 126 158 92 172 71 182 49 190 108 217 112 221 81 232 134 
328 0.14318727662019376 0.24148713249678216 0.9789626082223462 0 0 0 0.24 1 145 56 172 96 51 103 18 217 113 
329 0.2424585866479205 0.2577782778035662 0.9907089546675947 0 0 0 0.29 1 146 25 51 56 173 73 40 
330 0.1951438593188556 0.2556629764828619 0.9893215915666246 0 0 0 0.16 1 147 56 174 152 127 65 40 69 38 190 109 
331 -0.27285156001219846 0.21224101143151838 0.9467949056767485 0 0 0 0.38 1 148 25 52 56 175 158 93 190 110 217 114 
332 -0.034417353622178716 0.23491712533052195 0.950303696930834 0 0 0 0.55 1 149 56 176 65 41 128 79 198 59 232 135 127 51 164 92 234 14 
333 0.18286676639067498 0.267628010445364 0.9788038221680827 0 0 0 0.46 1 150 56 177 60 40 81 69 111 48 163 11 208 65 25 53 199 36 
334 -0.2372843254651071 0.2303385235462947 0.9451915672067177 0 0 0 0.31 1 151 25 54 56 178 128 80 
335 -0.3021195312339216 0.2399267782822026 0.9363554666648786 0 0 0 0.23 1 152 56 179 73 41 217 115 
336 -0.19273706780746708 -0.3833378934610224 -0.07238301569264581 0 0 0 0.45 1 153 56 180 76 7 
337 -0.16452341732970646 -0.2863647826197704 0.11590665000011502 0 0 0 0.38 1 154 26 60 56 181 
338 -0.11052357767531731 -0.22313582816748204 -0.1846376025608891 0 0 0 0.25 1 155 56 182 76 8 
339 -0.14059735661458644 -0.2285054346674716 0.09006724581789809 0 0 0 0.05 1 156 56 183 65 42 
340 -0.09963331243246802 -0.20285567583466935 -0.07707381399818498 0 0 0 0.4 1 157 56 184 76 9 88 27 
341 -0.12139854533687566 -0.2016539771852522 -0.10992495168521639 0 0 0 0.3 1 158 56 185 97 36 
342 -0.12994831590379247 -0.14830299040709413 0.06697820386252674 0 0 0 0.13 1 159 56 186 76 10 
343 -0.13116006821878393 -0.13848096003995697 0.0610730038252031 0 0 0 0.21 1 160 26 61 56 187 88 28 
344 0.2805426370576843 0.055514274912363555 1.1084362592862698 0 0 0 0.39 1 161 56 188 65 43 67 37 81 70 89 61 147 105 
345 0.18745171485200332 0.04769259138722348 1.0746445276315084 0 0 0 0.61 1 162 56 189 67 38 71 56 81 71 97 37 179 38 208 66 
346 0.13203755492824223 0.04700731671064961 1.0657901962320475 0 0 0 0.27 1 163 56 190 65 44 81 72 89 62 97 38 190 111 217 116 232 136 
347 0.27302988170943165 0.07582936431176718 1.0805246852058576 0 0 0 0.3 1 164 56 191 60 41 71 57 81 73 105 9 147 106 148 54 181 57 208 67 
348 -0.0042348272841744765 0.03777965537795562 1.0416009741265493 0 0 0 0.5 1 165 12 17 26 62 56 192 63 28 65 45 67 39 81 74 88 29 89 63 96 52 103 19 118 70 127 52 128 81 147 107 181 58 217 117 220 85 232 137 208 68 227 18 
349 0.17109867251748986 0.07207367993020532 1.061959399893891 0 0 0 0.47 1 166 26 63 56 193 63 29 81 75 89 64 96 53 147 108 152 128 181 59 190 112 208 69 217 118 222 78 232 138 
350 0.1392407489240217 0.06890898823052499 1.054858484955175 0 0 0 0.45 1 167 56 194 60 42 63 30 71 58 73 42 81 76 96 54 147 109 208 70 217 119 222 79 227 19 
351 0.05030442932797073 0.06634560873765187 1.0813951053346247 0 0 0 0.68 1 168 56 195 81 77 222 80 232 139 
352 0.15999019672185041 0.0885335395660889 1.0610946099322158 0 0 0 0.29 1 169 25 55 56 196 217 120 
353 -0.10822483838007323 -0.13409760520526823 -0.13366921466342452 0 0 0 0.4 1 170 56 197 208 71 
354 0.16066462930863093 0.09751530034851248 1.0472984152807745 0 0 0 0.45 1 171 26 64 56 198 60 43 63 31 73 43 96 55 103 20 111 49 127 53 138 17 162 52 163 12 164 93 165 15 179 39 198 60 208 72 220 86 222 81 227 20 235 13 
355 -0.10399492406356899 -0.1319753738748755 -0.1323673486003523 0 0 0 0.41 1 172 56 199 97 39 
356 -0.0858759717466613 0.0637215856396232 1.024217949935113 0 0 0 0.5 1 173 25 56 26 65 56 200 81 78 88 30 96 56 118 71 147 110 217 121 222 82 232 140 
357 -0.1255105122630359 0.0650638057543441 1.01924787200328 0 0 0 0.14 1 174 25 57 26 66 56 201 190 113 198 61 232 141 
358 -0.00875140670098645 0.08096058229323469 1.0195186152814897 0 0 0 0.47 1 175 26 67 56 202 71 59 81 79 88 31 89 65 96 57 97 40 111 50 118 72 147 111 152 129 158 94 172 72 190 114 198 62 199 37 221 82 232 142 234 15 
359 -0.12431755922139257 -0.13284143731917758 -0.13921889515376737 0 0 0 0.4 1 176 56 203 88 32 
360 -0.10733743638408841 0.07435135276400483 1.0377269669644122 0 0 0 0.34 1 177 25 58 56 204 71 60 81 80 118 73 147 112 217 122 232 143 
361 -0.08289248983287846 0.09001343341753798 1.0070878398693677 0 0 0 0.37 1 178 25 59 56 205 60 44 63 32 65 46 67 40 71 61 81 81 88 33 96 58 103 21 128 82 129 54 147 113 158 95 162 53 164 94 172 73 181 60 190 115 198 63 199 38 208 73 217 123 220 87 
362 -0.09135666595288322 0.09824564770162156 1.0095301910930163 0 0 0 0.51 1 179 25 60 26 68 56 206 63 33 65 47 67 41 71 62 81 82 88 34 96 59 118 74 128 83 129 55 147 114 172 74 181 61 190 116 198 64 199 39 217 124 220 88 232 144 
363 -0.1014125671401226 0.09807014641416137 1.00503825674358 0 0 0 0.25 1 180 25 61 26 69 56 207 63 34 65 48 67 42 81 83 88 35 96 60 118 75 127 54 128 84 158 96 181 62 198 65 199 40 217 125 220 89 224 27 232 145 
364 -0.12620496962637112 0.09680072938997322 1.0043856033697964 0 0 0 0.29 1 181 25 62 56 208 118 76 164 95 220 90 224 28 232 146 71 63 217 126 
365 0.07242895802690878 0.12710955688862005 1.017366613933666 0 0 0 1.07 1 182 12 18 56 209 65 49 97 41 128 85 129 56 
366 -0.12224843716815002 -0.12248299311215176 -0.1435232154403903 0 0 0 0.56 1 183 56 210 76 11 88 36 208 74 
367 -0.09732530578784611 -0.11772919869512631 -0.13774686892832427 0 0 0 0.49 1 184 56 211 208 75 
368 -0.283392088776571 0.09326480615705689 0.9990198589300847 0 0 0 0.33 1 185 56 212 73 44 96 61 103 22 
369 -0.08759903108205452 0.12244442935561557 0.9923491719170517 0 0 0 0.37 1 186 25 63 26 70 56 213 60 45 63 35 81 84 88 37 89 66 96 62 111 51 118 77 128 86 129 57 147 115 158 97 162 54 164 96 181 63 217 127 220 91 232 147 
370 -0.1231322646657429 -0.11887546699853864 -0.14669090651338668 0 0 0 0.28 1 187 56 214 76 12 
371 -0.0944609128187401 0.12993247749471762 0.9958034791590041 0 0 0 0.33 1 188 26 71 56 215 71 64 96 63 118 78 198 66 232 148 
372 -0.10306128857348122 0.1290613126288093 0.9885054481564961 0 0 0 0.28 1 189 56 216 88 38 89 67 129 58 158 98 217 128 
373 0.14465166528316542 0.17335319717845327 1.009855402911814 0 0 0 0.43 56 217 111 52 129 59 
374 0.01896193210095244 0.1588623043869914 0.995477837082416 0 0 0 0.54 1 190 56 218 89 68 127 55 129 60 158 99 
375 -0.3248175435772671 0.125848346747058 0.9884902140257353 0 0 0 0.35 1 191 56 219 81 85 96 64 118 79 172 75 232 149 
376 -0.30226670780668585 0.13329126193546145 0.9835901292379828 0 0 0 0.29 1 192 26 72 56 220 73 45 76 13 81 86 88 39 111 53 118 80 179 40 198 67 199 41 220 92 232 150 
377 0.018937104996873694 0.18868924873112958 0.9868785864732101 0 0 0 0.09 1 193 56 221 181 64 
378 -0.12331940259548037 0.18813064264429136 0.969568387853532 0 0 0 0.27 1 194 26 73 56 222 81 87 88 40 127 56 128 87 129 61 181 65 
379 -0.13181274492020956 -0.0399582993560558 0.02263103853291602 0 0 0 0.43 1 195 56 223 208 76 
380 0.23206728070834415 0.2701276202640787 0.9905311078035693 0 0 0 0.26 1 196 56 224 103 23 199 42 222 83 
381 -0.13680112276014197 0.2557714624385891 0.9394327011434723 0 0 0 0.64 1 197 25 64 56 225 81 88 111 54 127 57 158 100 164 97 220 93 224 29 
382 -0.21471164116297134 0.2557121971043211 0.932370062506095 0 0 0 0.51 1 198 26 74 56 226 81 89 162 55 217 129 
383 0.23773273756105537 0.2969042766693154 0.9790381008274883 0 0 0 0.39 1 199 25 65 56 227 60 46 65 50 71 65 96 65 105 10 111 55 118 81 134 7 147 116 164 98 165 16 172 76 181 66 182 50 190 117 208 77 217 130 222 84 232 151 235 14 
384 -0.2897100264189847 0.25705005938224973 0.9290124924237535 0 0 0 0.55 1 200 56 228 67 43 73 46 76 14 81 90 88 41 96 66 111 56 118 82 129 62 162 56 198 68 199 43 208 78 217 131 220 94 
385 0.19858959398507955 0.31215406109012805 0.9640610534854464 0 0 0 0.35 1 201 25 66 96 67 163 13 208 79 
386 -0.195781819844519 -0.3739296623545962 -0.07243519382813379 0 0 0 0.5 1 202 20 2 56 229 76 15 
387 -0.18970778609080052 -0.34531038108971673 -0.0799249818817658 0 0 0 0.52 1 203 20 3 56 230 76 16 
388 -0.10411339741427758 -0.2851260343545623 -0.19606805712507477 0 0 0 0.64 1 204 56 231 76 17 
389 -0.1039625242787345 -0.28038766569459517 -0.19800115171809785 0 0 0 0.67 1 205 56 232 76 18 
390 -0.1517699388718421 -0.36099715426026363 0.15429479613977806 0 0 0 0.27 1 206 56 233 76 19 
391 -0.12631612724390778 -0.26109693968415504 -0.09613199240829762 0 0 0 0.39 1 207 20 4 56 234 208 80 
392 -0.1535643360527882 -0.22043421686143222 -0.11765158935655758 0 0 0 0.34 1 208 56 235 208 81 
393 -0.1431094449520263 -0.20601748007742055 0.08549623552196707 0 0 0 0.1 1 209 56 236 88 42 
394 -0.2238072566269486 -0.18414559887134932 0.323389744683275 0 0 0 0.21 1 210 56 237 88 43 
395 0.2831487305112818 0.056291540003602376 1.0675877922376296 0 0 0 0.16 1 211 56 238 81 91 
396 0.05964446667839255 0.029672314312211748 1.0545796278334756 0 0 0 0.37 1 212 56 239 65 51 103 24 147 117 158 101 232 152 26 75 69 39 71 66 81 92 118 83 164 99 181 67 198 69 73 47 208 82 
397 -0.009708365087388865 0.027547808662107348 1.041764812049152 0 0 0 0.31 1 213 26 76 56 240 63 36 65 52 67 44 81 93 103 25 147 118 222 85 71 67 232 153 
398 0.06604211610161526 0.039641956174243854 1.051947384467178 0 0 0 0.45 1 214 12 19 26 77 56 241 60 47 71 68 73 48 81 94 89 69 96 68 97 42 103 26 118 84 147 119 181 68 190 118 198 70 208 83 217 132 227 21 232 154 
399 -0.07821540815350404 0.026682926507687842 1.0366438853696816 0 0 0 0.5 1 215 25 67 26 78 56 242 60 48 67 45 71 69 81 95 88 44 111 57 118 85 127 58 128 88 138 18 152 130 181 69 190 119 198 71 199 44 220 95 221 83 222 86 224 30 232 155 65 53 179 41 
400 -0.004976376916333251 0.04381813119101668 1.0278569785973735 0 0 0 0.8 1 216 56 243 65 54 81 96 164 100 181 70 
401 -0.1259623786574461 -0.14188644419770083 -0.14145118930001133 0 0 0 0.37 1 217 56 244 208 84 
402 -0.14861954463002075 -0.14331140736645478 -0.14378317438203694 0 0 0 0.14 1 218 56 245 208 85 
403 0.21193058974410278 0.10721644620657639 1.0518631499398339 0 0 0 0.55 1 219 12 20 56 246 147 120 165 17 182 51 222 87 235 15 
404 -0.10857086051859582 -0.1319895596759205 -0.13594367379189104 0 0 0 0.27 1 220 56 247 88 45 208 86 
405 0.14913854692341333 0.1041773624897613 1.039458465002048 0 0 0 0.46 1 221 12 21 60 49 65 55 81 97 89 70 96 69 97 43 103 27 111 58 126 10 147 121 162 57 163 14 198 72 208 87 217 133 220 96 227 22 
406 -0.1079001669989404 -0.12949648321184976 -0.13766754545299062 0 0 0 0.44 1 222 56 248 76 20 88 46 208 88 
407 0.0667017199949104 0.09693584198539414 1.0277921770340577 0 0 0 0.45 1 223 63 37 111 59 208 89 222 88 
408 -0.1003110785226084 -0.12734290532690284 -0.1339071157624359 0 0 0 0.35 1 224 56 249 208 90 
409 -0.1055211579866646 -0.12778942285703143 -0.13534701130570012 0 0 0 0.3 1 225 56 250 76 21 208 91 
410 0.22607914309269805 0.13285916240306542 1.0516317095536567 0 0 0 0.36 1 226 56 251 81 98 138 19 172 77 
411 -0.10435135537893313 -0.12532728624975367 -0.13685434319269862 0 0 0 0.36 1 227 56 252 76 22 208 92 
412 -0.09954756283969445 -0.12169491744595674 -0.13681694528458047 0 0 0 0.46 1 228 56 253 76 23 208 93 
413 0.11284628418503265 0.13673455557199674 1.0330248198069683 0 0 0 0.15 1 229 25 68 56 254 129 63 
414 -0.04381963232504959 0.12233648088478802 0.9961737497452255 0 0 0 0.37 1 230 12 22 26 79 56 255 60 50 67 46 89 71 96 70 111 60 127 59 158 102 181 71 222 89 232 156 
415 -0.3230426348261156 0.10793571900281004 0.9922981203073531 0 0 0 0.41 1 231 56 256 65 56 67 47 81 99 128 89 138 20 172 78 232 157 
416 0.21509737103460355 0.19569227196579658 1.0182665660670578 0 0 0 0.2 1 232 56 257 69 40 138 21 172 79 
417 -0.24432538274079546 0.18983152539221318 0.9611653412719997 0 0 0 0.37 1 233 25 69 56 258 67 48 198 73 221 84 232 158 
418 -0.25980899524459944 0.19034332780724916 0.9620820189722199 0 0 0 0.51 1 234 56 259 128 90 158 103 162 58 190 120 198 74 
419 -0.2831653349755001 0.19024430422255956 0.9614944977882555 0 0 0 0.12 1 235 56 260 198 75 232 159 
420 0.1839953627761578 0.3003992709825735 0.9645661040744531 0 0 0 0.38 1 236 25 70 81 100 199 45 208 94 
421 -0.10391302191143299 -0.27401649148678103 -0.20024549854088614 0 0 0 0.77 1 237 56 261 76 24 
422 -0.13170291091184066 -0.2764304381416739 -0.09326866494839861 0 0 0 0.28 1 238 56 262 76 25 
423 -0.1607609926310933 -0.2692675841798597 -0.10534684445134054 0 0 0 0.51 1 239 56 263 76 26 
424 -0.1252093992105732 -0.25975019464167554 -0.09320979895236407 0 0 0 0.53 1 240 20 5 56 264 76 27 208 95 
425 -0.16140367845444545 -0.27399388499991734 0.11334496685490297 0 0 0 0.21 1 241 56 265 76 28 
426 -0.12465002793401692 -0.22847604199298635 -0.10402897295505761 0 0 0 0.17 1 242 56 266 76 29 
427 -0.09465103538496965 -0.20478074814557698 -0.10292240867961926 0 0 0 0.11 1 243 56 267 76 30 
428 -0.14619095434825263 -0.19788080675785547 0.08330957221656894 0 0 0 0.5 1 244 56 268 76 31 
429 -0.09445261790070164 -0.18731365208865888 -0.10924550585835575 0 0 0 0.31 1 245 56 269 88 47 76 32 208 96 
430 -0.09646467239662528 -0.1864085270545245 -0.11168641189336698 0 0 0 0.28 1 246 56 270 76 33 88 48 
431 0.2921509426126585 0.053950266800508996 1.0861591259817276 0 0 0 0.23 1 247 56 271 65 57 67 49 
432 0.1307975327719237 0.032472818616727545 1.0702730469921655 0 0 0 0.49 1 248 56 272 65 58 81 101 97 44 103 28 118 86 129 64 147 122 190 121 221 85 222 90 232 160 
433 -0.12108604426216651 -0.14959054630281143 -0.12916600708032286 0 0 0 0.15 1 249 56 273 76 34 88 49 
434 0.297292609186387 0.0703744173849094 1.1073307149668143 0 0 0 0.68 1 250 56 274 63 38 71 70 73 49 
435 0.14191261136790856 0.04137843961494986 1.0608704409988323 0 0 0 0.69 1 251 25 71 56 275 65 59 81 102 138 22 179 42 190 122 217 134 
436 0.12271794598928017 0.042908207543009606 1.0845776654068713 0 0 0 0.49 1 252 12 23 56 276 65 60 81 103 89 72 97 45 103 29 118 87 147 123 190 123 197 28 232 161 
437 0.04471134372301847 0.056951420980855254 1.058448572255134 0 0 0 0.96 25 72 26 80 56 277 63 39 71 71 73 50 81 104 162 59 181 72 198 76 199 46 208 97 217 135 222 91 
438 -0.020992199228549568 0.05299852420436122 1.040476362724854 0 0 0 0.78 1 253 56 278 65 61 67 50 81 105 89 73 97 46 111 61 129 65 164 101 190 124 198 77 217 136 222 92 232 162 
439 0.1414425569648902 0.08335241343275057 1.0482205708865238 0 0 0 0.31 1 254 56 279 69 41 89 74 190 125 
440 -0.12148103650223654 0.0907658476477715 1.0090839906289175 0 0 0 0.32 1 255 25 73 26 81 56 280 63 40 67 51 71 72 81 106 88 50 89 75 96 71 103 30 118 88 127 60 128 91 164 102 217 137 220 97 224 31 
441 0.10091424819124103 0.12650795946160506 1.016604180934831 0 0 0 0.83 1 256 25 74 56 281 60 51 65 62 89 76 118 89 128 92 129 66 147 124 152 131 181 73 190 126 199 47 217 138 
442 -0.09922358820145365 0.1068858919267331 0.9970630061556952 0 0 0 0.5 1 257 25 75 26 82 56 282 65 63 67 52 71 73 89 77 96 72 118 90 127 61 128 93 147 125 164 103 181 74 190 127 198 78 217 139 220 98 221 86 60 52 81 107 88 51 111 62 162 60 199 48 224 32 
443 -0.2736559258764224 0.09400071143536799 1.0002005127571167 0 0 0 0.32 1 258 56 283 71 74 118 91 127 62 128 94 190 128 232 163 220 99 
444 -0.17183381203252102 0.10670968638462812 0.9936104731985409 0 0 0 0.94 1 259 26 83 56 284 81 108 127 63 164 104 217 140 224 33 
445 -0.08796624071106653 0.2521935843908539 0.9370490327792529 0 0 0 0.66 1 260 25 76 26 84 56 285 63 41 65 64 96 73 118 92 127 64 128 95 129 67 164 105 220 100 221 87 224 34 
446 0.19247632441572637 0.2923117425513987 0.9690978774802241 0 0 0 0.38 1 261 56 286 96 74 111 63 127 65 162 61 163 15 208 98 217 141 220 101 222 93 
447 -0.18635650842767965 -0.37035845249235544 -0.06944567775194027 0 0 0 0.64 1 262 56 287 76 35 
448 -0.1871095390476565 -0.3354774978215955 -0.08228546821932584 0 0 0 0.58 1 263 20 6 56 288 76 36 
449 -0.11623519725692784 -0.28097616891243565 -0.09032958766460736 0 0 0 0.26 1 264 56 289 76 37 
450 -0.1352201720867386 -0.28342292484879794 -0.09765634823945503 0 0 0 0.24 1 265 56 290 76 38 
451 -0.12249908379816458 -0.26952806742222324 -0.09096123139697739 0 0 0 0.7 1 266 56 291 76 39 
452 -0.16332997937341015 -0.2683210756179151 0.1103479487498783 0 0 0 0.5 1 267 56 292 76 40 
453 0.272675520529379 0.06744404134506435 1.1498078889867778 0 0 0 0.49 1 268 56 293 65 65 103 31 190 129 197 29 
454 0.10191635990006324 0.10495516106355357 1.0315250955401738 0 0 0 0.54 1 269 12 24 25 77 26 85 63 42 73 51 81 109 96 75 97 47 111 64 148 55 158 104 208 99 227 23 
455 -0.07370218597110265 0.0866286614411207 1.0075825173693265 0 0 0 0.55 1 270 26 86 56 294 81 110 88 52 111 65 118 93 127 66 147 126 164 106 181 75 190 130 198 79 220 102 232 164 
456 -0.13936653924282008 0.08805739488878633 1.0093104623360847 0 0 0 0.42 1 271 25 78 26 87 56 295 63 43 65 66 67 53 71 75 81 111 96 76 103 32 190 131 198 80 220 103 232 165 60 53 118 94 164 107 
457 -0.1558124909723857 0.09249354663228387 1.0061035032123167 0 0 0 0.41 1 272 26 88 56 296 63 44 71 76 81 112 88 53 127 67 164 108 190 132 198 81 217 142 220 104 224 35 232 166 25 79 118 95 128 96 
458 0.009817412025837859 0.11296384238248389 1.0081832451756054 0 0 0 0.72 1 273 25 80 26 89 56 297 71 77 81 113 88 54 89 78 97 48 111 66 118 96 127 68 129 68 152 132 162 62 164 109 172 80 190 133 198 82 217 143 221 88 222 94 232 167 
459 -0.07956265264316914 0.10833803176139212 0.9990980489677181 0 0 0 0.61 1 274 25 81 26 90 56 298 63 45 67 54 71 78 81 114 88 55 96 77 118 97 127 69 128 97 129 69 147 127 158 105 164 110 181 76 190 134 198 83 199 49 217 144 220 105 221 89 222 95 224 36 232 168 
460 -0.06883446929708818 0.11898881295674296 0.9981595323738894 0 0 0 0.65 1 275 26 91 56 299 63 46 65 67 67 55 71 79 81 115 89 79 96 78 111 67 118 98 127 70 128 98 147 128 152 133 164 111 181 77 190 135 198 84 199 50 217 145 221 90 224 37 232 169 25 82 88 56 97 49 103 33 129 70 138 23 158 106 162 63 172 81 179 43 
461 -0.16045811883380376 0.1228803463943395 0.9904273677873768 0 0 0 0.57 1 276 56 300 65 68 67 56 71 80 81 116 96 79 118 99 127 71 128 99 152 134 158 107 162 64 172 82 190 136 199 51 217 146 221 91 232 170 
462 -0.2351558807736043 0.15423097368887687 0.9785366500245624 0 0 0 0.23 1 277 25 83 56 301 67 57 81 117 88 57 127 72 164 112 181 78 198 85 217 147 71 81 199 52 
463 -0.2731316921731333 0.15752011516474362 0.9761595164084159 0 0 0 0.36 1 278 26 92 56 302 67 58 81 118 88 58 164 113 190 137 198 86 199 53 25 84 179 44 
464 0.10007653549262828 0.19626633550789974 0.9944046019708564 0 0 0 0.3 1 279 26 93 56 303 129 71 152 135 232 171 127 73 164 114 198 87 
465 -0.31086166464298587 0.15625389472410253 0.9742823463359611 0 0 0 0.26 1 280 25 85 26 94 56 304 60 54 71 82 73 52 76 41 88 59 96 80 111 68 118 100 128 100 172 83 190 138 208 100 220 106 221 92 232 172 
466 -0.00385008298874007 0.1947632982151442 0.9810705742682895 0 0 0 0.74 1 281 56 305 89 80 232 173 
467 -0.036354847096726865 0.19444539222335072 0.9725459860682638 0 0 0 0.44 1 282 26 95 56 306 65 69 118 101 129 72 232 174 100 6 
468 0.03120624283911171 0.2273155058617027 0.9655772895148987 0 0 0 0.2 1 283 56 307 232 175 
469 -0.11142393822852202 0.22763924144330627 0.9529192643040104 0 0 0 0.31 1 284 25 86 56 308 65 70 118 102 
470 -0.15820901264978332 -0.3488581249100232 0.14348291082924455 0 0 0 0.57 1 285 56 309 76 42 
471 -0.17290022552831344 -0.27030521051321643 0.10908460377117651 0 0 0 0.25 1 286 20 7 26 96 56 310 76 43 
472 -0.13150093482892536 -0.1970565222539466 -0.12151498364957719 0 0 0 0.57 1 287 56 311 208 101 
473 0.2029582327909968 0.13121111288889512 1.0378211912502988 0 0 0 0.56 56 312 65 71 69 42 73 53 111 69 179 45 182 52 217 148 234 16 89 81 127 74 197 30 208 102 
474 0.20355609834737473 0.16144526887033256 1.032246916692355 0 0 0 0.3 1 288 56 313 69 43 
475 -0.05472113622258624 0.1342024595113266 0.9912113875349557 0 0 0 0.59 1 289 12 25 25 87 26 97 56 314 60 55 67 59 71 83 89 82 103 34 118 103 127 75 129 73 147 129 164 115 172 84 179 46 181 79 190 139 198 88 199 54 220 107 221 93 222 96 232 176 
476 0.13361715470691515 0.15999082131646924 1.0174409573296201 0 0 0 0.53 1 290 26 98 56 315 73 54 89 83 97 50 118 104 190 140 197 31 198 89 234 17 
477 0.08120785012230064 0.163056727565922 1.0040334430450377 0 0 0 0.41 1 291 26 99 56 316 65 72 127 76 128 101 129 74 152 136 190 141 
478 -0.02145181603912461 0.16014715615226902 0.9891397951647799 0 0 0 0.16 1 292 56 317 100 7 118 105 129 75 217 149 
479 -0.05463825507699647 0.16074588027439 0.9850096609211457 0 0 0 0.35 1 293 12 26 26 100 56 318 71 84 100 8 111 70 118 106 128 102 129 76 147 130 217 150 221 94 232 177 
480 0.23953718936405075 0.20471892541870565 1.0210682704599008 0 0 0 0.41 1 294 56 319 81 119 118 107 129 77 147 131 152 137 222 97 
481 0.1704489866357964 0.20029874170872622 1.008766453507738 0 0 0 0.46 1 295 56 320 81 120 128 103 147 132 221 95 222 98 25 88 65 73 69 44 89 84 118 108 
482 0.0468406728705453 0.19003550550905723 0.9892476282158364 0 0 0 0.25 1 296 56 321 65 74 129 78 152 138 198 90 232 178 127 77 
483 -0.2537949232463777 0.162193743562288 0.9753087538641338 0 0 0 0.35 1 297 26 101 56 322 88 60 198 91 199 55 
484 -0.21644809174237553 0.16367904963288651 0.9785809841930865 0 0 0 0.42 1 298 26 102 56 323 76 44 88 61 198 92 208 103 111 71 172 85 199 56 217 151 
485 0.012338534858561777 0.18910256723483249 0.9844965687749414 0 0 0 0.45 1 299 26 103 56 324 65 75 128 104 152 139 198 93 232 179 217 152 
486 -0.2918049549921285 0.16311655224401136 0.9731514794690115 0 0 0 0.64 1 300 12 27 26 104 56 325 65 76 71 85 76 45 81 121 88 62 111 72 118 109 127 78 199 57 208 104 232 180 220 108 
487 -0.1564865955732046 0.17527217741776044 0.9733552095231548 0 0 0 0.51 1 301 26 105 56 326 60 56 81 122 111 73 118 110 138 24 164 116 179 47 63 47 97 51 221 96 224 38 
488 -0.05323301679128302 0.1871398413498791 0.9725879193300581 0 0 0 0.52 1 302 56 327 71 86 128 105 129 79 164 117 221 97 232 181 67 60 89 85 100 9 111 74 217 153 
489 -0.21374438369944815 0.1910283764267758 0.9625615519438322 0 0 0 0.49 1 303 26 106 56 328 67 61 127 79 164 118 217 154 220 109 221 98 224 39 88 63 118 111 128 106 232 182 
490 -0.2519122130237029 0.19034578995728102 0.9613866685456605 0 0 0 0.49 1 304 26 107 56 329 67 62 81 123 88 64 96 81 97 52 164 119 190 142 198 94 208 105 217 155 220 110 232 183 71 87 
491 -0.2898852581823187 0.1918299640141045 0.9590795328101814 0 0 0 0.36 1 305 26 108 56 330 76 46 81 124 88 65 96 82 164 120 190 143 198 95 220 111 232 184 71 88 73 55 127 80 199 58 
492 0.20812249112117592 0.2764230513486073 0.9824168029742266 0 0 0 0.53 1 306 25 89 56 331 63 48 65 77 69 45 81 125 96 83 110 10 118 112 127 81 129 80 158 108 162 65 163 16 182 53 199 59 208 106 222 99 232 185 
493 -0.12555788854794706 -0.1468960002301737 -0.13917588110622814 0 0 0 0.65 1 307 56 332 76 47 208 107 
494 -0.056944140644450233 0.05234835881998647 1.079119463935945 0 0 0 0.87 1 308 56 333 65 78 89 86 97 53 138 25 147 133 152 140 172 86 190 144 217 156 
495 -0.1217760123275451 0.04719329574310694 1.0138025893760894 0 0 0 0.59 1 309 56 334 71 89 88 66 127 82 198 96 
496 0.22068249983122287 0.14712083021482764 1.0397069252705784 0 0 0 0.34 1 310 56 335 69 46 
497 0.11464688125746796 0.13761858166271018 1.0201686049247451 0 0 0 0.93 1 311 56 336 103 35 234 18 
498 0.08097925326905556 0.13959052772911518 1.0131662345896084 0 0 0 0.84 1 312 12 28 25 90 26 109 56 337 69 47 103 36 129 81 198 97 232 186 234 19 
499 -0.12731719976162445 -0.1217285375035036 -0.1486801027512236 0 0 0 0.45 1 313 56 338 76 48 
500 0.010769670303602359 0.13563403206652921 1.0015823157083759 0 0 0 0.49 1 314 25 91 26 110 56 339 60 57 65 79 100 10 118 113 127 83 128 107 138 26 147 134 190 145 198 98 221 99 222 100 232 187 136 2 
501 -0.02204498123025396 0.13582959867719682 0.995274211854719 0 0 0 0.61 1 315 26 111 56 340 60 58 89 87 100 11 118 114 129 82 138 27 147 135 158 109 164 121 179 48 199 60 221 100 232 188 234 20 
502 0.1876681791532505 0.1689588877214487 1.0278835222415879 0 0 0 0.24 1 316 56 341 69 48 128 108 
503 0.15148562837268842 0.1683534410107876 1.019214798744443 0 0 0 0.39 1 317 26 112 56 342 65 80 89 88 97 54 118 115 172 87 217 157 
504 -0.21573848339396265 0.14017442216105028 0.982421857787294 0 0 0 0.58 1 318 26 113 56 343 67 63 71 90 81 126 127 84 181 80 
505 0.2218169406465962 0.19909402077360974 1.019297719356706 0 0 0 0.36 1 319 56 344 69 49 222 101 81 127 158 110 
506 -0.1769102855656913 0.1622977304253558 0.9789701186559737 0 0 0 0.43 1 320 26 114 56 345 67 64 81 128 88 67 111 75 127 85 128 109 138 28 179 49 217 158 220 112 224 40 
507 -0.11302054948887123 0.18123485163923697 0.9770217828388825 0 0 0 0.27 1 321 56 346 67 65 81 129 89 89 
508 -0.13211212466180083 0.22296367695913283 0.955168876456191 0 0 0 0.54 1 322 12 29 56 347 65 81 96 84 118 116 128 110 
509 -0.06854483965757148 0.07341975994328148 1.0174702357968395 0 0 0 0.73 1 323 25 92 26 115 56 348 71 91 81 130 88 68 89 90 97 55 118 117 129 83 147 136 181 81 190 146 198 99 217 159 220 113 221 101 224 41 232 189 
510 -0.1773065944507786 -0.44377249704222965 0.2001834352937166 0 0 0 0.33 1 324 56 349 208 108 20 8 
511 0.05764726706615868 0.10573251257975425 1.0219209470357027 0 0 0 1.39 1 325 56 350 63 49 81 131 89 91 97 56 128 111 147 137 190 147 208 109 222 102 232 190 
512 0.025906409603158025 0.026700369209404634 1.0545894905563296 0 0 0 0.32 1 326 56 351 97 57 118 118 147 138 232 191 
513 -0.1017867308627221 0.05862814299026373 1.0185422990499162 0 0 0 0.72 1 327 25 93 26 116 56 352 71 92 118 119 138 29 181 82 198 100 
514 0.3768341614659305 0.11750391529494085 1.0794720368603565 0 0 0 0.51 63 50 67 66 97 58 110 11 172 88 196 40 197 32 199 61 227 24 232 192 
515 0.4594249709609141 0.22881102896781616 1.111075339683122 0 0 0 0.33 56 353 97 59 103 37 165 18 221 102 222 103 235 16 
516 0.39027674106778426 0.2438132253669946 1.048001133600002 0 0 0 0.2 63 51 110 12 126 11 165 19 184 6 208 110 235 17 
517 0.27087007943644026 0.29847301982275387 0.9842486498126475 0 0 0 0.36 56 354 63 52 89 92 96 85 105 11 134 8 136 3 147 139 158 111 162 66 220 114 235 18 
518 0.3394034409072983 0.07035831317329932 1.1853138897115647 0 0 0 0.32 56 355 62 5 65 82 67 67 71 93 73 56 89 93 97 60 103 38 147 140 190 148 221 103 232 193 
519 -0.3146672286935419 0.071095476709142 1.0394437360431148 0 0 0 0.66 12 30 26 117 56 356 71 94 73 57 81 132 96 86 118 120 128 112 181 83 208 111 65 83 
520 0.24746102147011237 0.12542297126344934 1.052306959118813 0 0 0 0.44 12 31 60 59 71 95 73 58 89 94 91 10 96 87 105 12 118 121 129 84 148 56 158 112 184 7 196 41 197 33 208 112 217 160 220 115 221 104 227 25 232 194 235 19 
521 -0.15132093430531396 -0.047701408439315134 0.12465270522722632 0 0 0 0.45 12 32 56 357 65 84 
522 -0.1689918871244988 -0.017410545510195156 0.16474310304195244 0 0 0 0.37 12 33 56 358 65 85 
523 -0.1416795512507518 -0.030912042060587525 0.08053414591348973 0 0 0 0.34 12 34 25 94 56 359 
524 0.41959823190462364 0.22879825194889192 1.0805853228576592 0 0 0 0.13 73 59 103 39 165 20 208 113 
525 -0.313294969511859 0.21179080234651493 0.7791080613075064 0 0 0 0.34 12 35 26 118 181 84 196 42 198 101 199 62 208 114 
526 0.3642353886657018 0.2764015486450409 1.0190502514572943 0 0 0 0.27 56 360 71 96 73 60 181 85 190 149 198 102 222 104 
527 0.37618367595284585 0.2801596515497631 1.017201528933032 0 0 0 0.39 56 361 71 97 73 61 100 12 105 13 110 13 118 122 120 0 128 113 129 85 147 141 148 57 164 122 165 21 196 43 197 34 198 103 221 105 222 105 235 20 
528 0.26980134197825834 0.2825846339349035 0.9923424271779211 0 0 0 0.38 56 362 89 95 127 86 147 142 172 89 190 150 232 195 
529 0.26232824067650223 0.2897544186101785 0.9937876705407512 0 0 0 0.14 56 363 97 61 182 54 
530 0.34739839687268137 0.29584772210521 1.0005079651973492 0 0 0 0.34 56 364 63 53 71 98 73 62 91 11 105 14 118 123 120 1 162 67 165 22 196 44 197 35 222 106 227 26 235 21 
531 0.3948122874315886 0.31298911585304445 1.022367770096677 0 0 0 0.4 56 365 60 60 105 15 118 124 120 2 147 143 162 68 
532 0.3893203892157985 0.3114827101086468 1.017846421539476 0 0 0 0.38 56 366 97 62 120 3 127 87 162 69 163 17 165 23 
