# 3D point list with one line of data per point:
#   POINT3D_ID, X, Y, Z, R, G, B, ERROR, TRACK[] as (IMAGE_ID, POINT2D_IDX)
# Number of points: 272, mean track length: 17.53
672 0.5479733099896046 0.17863101772677445 1.4187599320473012 86 69 61 0.57 40 522 41 513 42 471 43 433 44 452 45 423 46 391 47 444 48 496 
673 0.6912311266673932 -0.021478767960549087 1.1873957915779578 117 114 108 0.64 21 542 22 573 23 558 25 478 27 405 33 317 35 358 37 385 38 511 39 497 40 523 41 514 42 472 43 434 44 453 45 424 46 392 47 445 48 497 
674 0.15394725259719239 -0.15116244955592403 0.7397334812744036 35 32 30 0.4 40 524 41 515 42 473 43 435 44 454 45 425 46 393 47 446 48 498 
675 0.4016406447471448 0.27524720319170265 1.6807768451693397 45 35 34 0.63 40 525 44 455 45 426 46 394 47 447 48 499 
676 0.8048664127057439 0.27284312160100965 1.131253122346624 57 60 70 1.1 31 259 33 318 43 436 44 456 45 427 46 395 47 448 48 500 
677 0.5786409965325321 0.21760538170015725 0.8448810194651427 67 58 57 1.06 44 457 45 428 46 396 47 449 48 501 
678 0.29358932085202094 0.07238987426413196 1.9462071873266655 132 136 139 0.67 40 526 41 516 42 474 43 437 44 458 45 429 46 397 47 450 48 502 
679 0.5777765341226374 0.19639557995510573 1.068779999510139 79 89 103 0.75 23 559 25 479 27 406 29 345 31 260 33 319 35 359 37 386 38 512 39 498 40 527 41 517 42 475 43 438 44 459 45 430 46 398 47 451 48 503 
680 0.39388525265331026 0.2552886652169384 1.6986462809601686 69 59 62 0.7 40 528 43 439 44 460 45 431 46 399 47 452 48 504 
681 0.632034376457207 0.03796805942419639 1.2889338103968488 125 123 117 0.42 40 529 41 518 42 476 43 440 44 461 45 432 46 400 47 453 48 505 
682 0.675728122479619 0.24998124834826477 0.8547167924073846 48 55 24 0.84 40 530 42 477 43 441 44 462 45 433 47 454 48 506 
683 0.7000929041886624 0.061009224001305866 1.1570232376888414 116 114 109 0.75 21 543 22 574 23 560 25 480 27 407 29 346 31 261 33 320 35 360 37 387 38 513 39 499 40 531 41 519 42 478 43 442 44 463 45 434 46 401 47 455 48 507 
684 0.6838913014214509 0.19724970468734082 1.1618494776495492 85 75 73 0.4 21 544 39 500 40 532 41 520 42 479 43 443 44 464 45 435 46 402 47 456 48 508 
685 0.5758314469600924 0.2212139352698103 1.0365306822645575 34 26 27 0.48 22 575 23 561 25 481 27 408 29 347 31 262 33 321 35 361 36 385 37 388 38 514 39 501 40 533 41 521 42 480 43 444 44 465 45 436 46 403 47 457 48 509 
686 0.6822681196838608 0.10122328670697463 1.1818767513422335 91 84 83 0.27 21 545 39 502 40 534 41 522 42 481 43 445 44 466 45 437 46 404 47 458 48 510 
687 0.7076139657714896 0.24285890057122847 1.1025237065017204 113 112 111 0.83 21 546 22 576 25 482 27 409 29 348 31 263 33 322 35 362 37 389 38 515 39 503 40 535 41 523 42 482 43 446 44 467 45 438 46 405 47 459 48 511 
688 0.6574968881901385 -0.006774023716441634 1.1474024167972794 127 134 138 0.41 21 547 22 577 23 562 25 483 27 410 29 349 33 323 35 363 37 390 38 516 39 504 40 536 41 524 42 483 43 447 44 468 45 439 46 406 47 460 48 512 
689 0.4838419730391002 -0.05369076995877536 1.5812936986294508 124 125 126 0.47 40 537 41 525 42 484 43 448 44 469 45 440 46 407 47 461 48 513 
690 0.7379242550666544 0.25116288624627797 0.9719782622878063 49 51 57 0.39 43 449 44 470 45 441 46 408 47 462 48 514 
691 0.44685481886466744 0.1616113841472468 1.0018327174124406 65 73 83 0.87 21 548 22 578 23 563 24 443 25 484 30 369 31 264 32 403 33 324 34 426 35 364 36 386 37 391 38 517 39 505 40 538 41 526 42 485 43 450 44 471 45 442 46 409 47 463 48 515 
692 0.810379825612794 0.25576878376530515 0.9648163196788808 52 50 56 1.28 31 265 42 486 43 451 44 472 45 443 46 410 47 464 48 516 
693 0.6846580953041662 -0.09035307424850679 1.1877692369944486 125 128 129 0.58 21 549 22 579 23 564 25 485 27 411 29 350 31 266 33 325 35 365 37 392 38 518 39 506 40 539 41 527 42 487 43 452 44 473 45 444 46 411 47 465 48 517 
694 0.5958978821490553 0.021080542012128906 1.358630985049665 140 143 140 0.34 40 540 41 528 42 488 43 453 44 474 45 445 46 412 47 466 48 518 
695 0.5756770962884622 0.17246245402406316 1.0641520393048376 93 102 119 0.82 22 580 23 565 25 486 27 412 29 351 31 267 33 326 35 366 36 387 37 393 38 519 39 507 40 541 41 529 42 489 43 454 44 475 45 446 46 413 47 467 48 519 
696 0.6104958538579054 0.23795641661870467 0.9082282709517829 30 36 42 0.42 44 476 45 447 46 414 47 468 48 520 
697 0.4820864069295982 0.08892342024543946 1.0236557397074477 86 79 76 0.77 21 550 22 581 26 390 27 413 28 398 29 352 30 370 31 268 32 404 33 327 34 427 35 367 36 388 37 394 38 520 39 508 40 542 41 530 42 490 43 455 44 477 45 448 46 415 47 469 48 521 
698 0.39022660359190237 0.4512347718648133 1.658666616097549 54 45 45 0.33 44 478 45 449 46 416 47 470 48 522 
699 0.44112341324974835 0.3926142965846465 1.5837430183962034 30 18 19 1.23 40 543 45 450 46 417 47 471 48 523 
700 0.6954275691752427 0.2446742729896291 1.0931646288579182 117 115 114 1.0 21 551 22 582 25 487 27 414 29 353 31 269 33 328 35 368 37 395 38 521 39 509 40 544 41 531 42 491 43 456 44 479 45 451 46 418 47 472 48 524 
701 0.41751320227463135 -0.16937927138329065 1.031883361172016 14 12 15 0.66 32 405 33 329 34 428 35 369 36 389 37 396 38 522 39 510 40 545 41 532 42 492 43 457 44 480 45 452 46 419 47 473 48 525 
702 0.46522313091221434 0.36842780807638664 1.5409038022582244 111 100 95 0.61 40 546 45 453 46 420 47 474 48 526 
703 0.5246479869447581 0.41883040735752136 1.4606508117811492 87 92 82 0.29 44 481 45 454 46 421 47 475 48 527 
704 0.4726119142673298 -0.20513465106528683 0.8872881591819972 111 149 163 0.85 21 552 22 583 23 566 24 444 27 415 35 370 37 397 38 523 39 511 40 547 41 533 42 493 43 458 44 482 45 455 46 422 47 476 48 528 
705 0.7051367315847501 0.21617473195162093 1.1230896331645281 87 75 73 0.7 21 553 22 584 23 567 25 488 27 416 29 354 31 270 33 330 35 371 37 398 38 524 39 512 40 548 41 534 42 494 43 459 44 483 45 456 46 423 47 477 48 529 
706 0.7094784801428634 0.2632391908476707 1.0751435596636825 54 50 48 1.1 27 417 29 355 35 372 37 399 39 513 40 549 41 535 42 495 43 460 44 484 45 457 46 424 47 478 48 530 
707 0.6534393641921405 0.24785730848586524 1.059454763865388 86 83 88 0.85 21 554 22 585 40 550 41 536 42 496 43 461 44 485 45 458 46 425 47 479 48 531 
708 0.22283523093785002 -0.34215135020630366 0.8096348022577505 215 224 231 0.79 37 400 38 525 39 514 40 551 41 537 42 497 43 462 44 486 45 459 46 426 47 480 48 532 
709 0.5960257102459079 0.2365202515708747 0.7563028385362579 68 60 60 1.37 44 487 45 460 48 533 
710 0.6618142544133983 -0.1112377694456653 1.184447383359323 112 117 121 0.76 21 555 22 586 23 568 25 489 27 418 29 356 33 331 35 373 37 401 38 526 39 515 40 552 41 538 42 498 43 463 44 488 45 461 46 427 47 481 48 534 
711 0.6792523993345836 -0.12476331760521613 1.2473818621664836 144 171 190 0.93 21 556 38 527 39 516 40 553 41 539 42 499 43 464 44 489 45 462 46 428 47 482 48 535 
712 0.5162696946187129 -0.02120453427543912 1.5130236685210547 140 139 134 0.4 40 554 41 540 42 500 43 465 44 490 45 463 46 429 47 483 48 536 
713 0.6939968539598764 0.06606565642385512 1.1466555728227792 84 83 86 0.62 21 557 22 587 23 569 25 490 27 419 29 357 31 271 33 332 35 374 37 402 38 528 39 517 40 555 41 541 42 501 43 466 44 491 45 464 46 430 47 484 48 537 
714 0.6395903194087406 0.09002240759941992 1.264266847984406 130 129 130 0.2 40 556 41 542 42 502 43 467 44 492 45 465 46 431 47 485 48 538 
715 0.6553256073992343 0.0168839511779808 1.1387684945856944 142 143 144 0.44 21 558 22 588 23 570 25 491 27 420 29 358 33 333 35 375 37 403 38 529 39 518 40 557 41 543 42 503 43 468 44 493 45 466 46 432 47 486 48 539 
716 0.6215337533819417 0.17810564717063884 1.0830395715803207 78 77 78 0.53 22 589 23 571 25 492 27 421 29 359 31 272 33 334 35 376 37 404 38 530 39 519 40 558 41 544 42 504 43 469 44 494 45 467 46 433 47 487 48 540 
717 0.5366060945265061 0.1118918533938447 1.455232584891769 112 111 108 0.46 40 559 41 545 42 505 43 470 44 495 45 468 46 434 47 488 48 541 
718 0.6431190255081596 0.23748962108391167 1.0678860645865698 51 46 41 0.75 21 559 22 590 23 572 27 422 29 360 31 273 33 335 35 377 37 405 38 531 39 520 40 560 41 546 42 506 43 471 44 496 45 469 46 435 47 489 48 542 
719 0.5778224969515736 0.07263320905919109 1.382636081225073 132 129 125 0.41 40 561 41 547 42 507 43 472 44 497 45 470 46 436 47 490 48 543 
720 0.31191108971756487 0.15431665734798053 0.7152301142940619 111 113 119 0.54 42 508 43 473 44 498 45 471 46 437 47 491 48 544 
721 0.5096961637394543 0.19044173497607633 1.4849938558271296 101 98 93 0.51 40 562 41 548 42 509 44 499 45 472 46 438 47 492 48 545 
722 0.581629980199269 0.17264140592457822 1.0760427152557557 122 145 160 0.8 22 591 23 573 25 493 27 423 29 361 31 274 33 336 35 378 37 406 38 532 39 521 40 563 41 549 42 510 43 474 44 500 45 473 46 439 47 493 48 546 
723 0.6458704634971828 0.0058936158445350535 1.2673515375620379 125 125 122 0.36 40 564 41 550 42 511 43 475 44 501 45 474 46 440 47 494 48 547 
724 0.5235337463566692 0.21157888707760367 1.4582085077293636 102 100 98 0.82 40 565 41 551 42 512 45 475 46 441 47 495 48 548 
725 0.572245522241422 0.009436905195708563 1.1075708455027518 157 176 192 0.64 22 592 23 574 24 445 25 494 27 424 28 399 29 362 31 275 33 337 35 379 36 390 37 407 38 533 39 522 40 566 41 552 42 513 43 476 44 502 45 476 46 442 47 496 48 549 
726 0.7032552276739402 0.2463666009470695 1.1173866120438438 95 85 83 0.76 21 560 22 593 25 495 27 425 29 363 31 276 33 338 35 380 37 408 38 534 39 523 40 567 41 553 42 514 43 477 44 503 45 477 46 443 47 497 48 550 
727 0.19410162996231986 0.04640861344098997 0.8850387375359555 57 44 39 1.11 22 594 23 575 24 446 25 496 26 391 27 426 28 400 29 364 30 371 35 381 36 391 37 409 38 535 39 524 40 568 43 478 44 504 45 478 46 444 47 498 48 551 
728 0.4816430932133584 -0.20698035558265565 1.633605325523562 63 57 62 0.5 40 569 41 554 42 515 43 479 44 505 45 479 46 445 47 499 48 552 
729 0.5245867435859283 0.27007906687259775 1.4520996459744853 113 109 107 0.26 40 570 46 446 47 500 48 553 
730 0.6204064506383264 0.012038349438829983 1.3137252498258054 135 132 126 0.37 40 571 41 555 42 516 43 480 44 506 45 480 46 447 47 501 48 554 
731 0.6248964278300274 -0.09958231044487917 1.15718198673379 83 82 88 0.51 21 561 22 595 23 576 25 497 27 427 29 365 31 277 33 339 35 382 37 410 38 536 39 525 40 572 41 556 42 517 43 481 44 507 45 481 46 448 47 502 48 555 
732 0.6946032744128425 -0.030057523634886146 1.1810486585909727 128 129 124 0.64 21 562 22 596 23 577 25 498 27 428 29 366 33 340 35 383 37 411 38 537 39 526 40 573 41 557 42 518 43 482 44 508 45 482 46 449 47 503 48 556 
733 0.024315755442765357 0.05291996538479543 0.801780786644508 59 45 39 1.23 21 563 22 597 23 578 24 447 25 499 26 392 34 429 35 384 36 392 37 412 38 538 42 519 43 483 44 509 46 450 47 504 48 557 
734 0.39683975100502245 0.27671358634478294 1.6873827172801263 69 58 55 0.6 40 574 44 510 45 483 46 451 47 505 48 558 
735 0.44685481886466744 0.1616113841472468 1.0018327174124406 65 73 83 0.87 21 564 22 598 23 579 24 448 25 500 30 372 31 278 32 406 33 341 34 430 35 385 36 393 37 413 38 539 39 527 40 575 41 558 42 520 43 484 44 511 45 484 46 452 47 506 48 559 
736 0.4552817398058288 -0.11569285322046365 0.9132073132413197 66 70 74 1.27 21 565 22 599 23 580 24 449 25 501 27 429 28 401 29 367 30 373 31 279 33 342 34 431 35 386 36 394 37 414 38 540 39 528 40 576 41 559 42 521 43 485 44 512 45 485 46 453 47 507 48 560 
737 0.6431363776380081 -0.1281481842299993 1.1758150761935022 35 34 35 0.69 21 566 22 600 23 581 25 502 27 430 29 368 33 343 35 387 37 415 38 541 39 529 40 577 41 560 42 522 43 486 44 513 45 486 46 454 47 508 48 561 
738 0.36842165277160777 0.1933198852123228 0.9197660309602834 66 62 64 0.88 24 450 25 503 27 431 29 369 38 542 39 530 40 578 41 561 42 523 43 487 44 514 45 487 46 455 47 509 48 562 
739 0.654445406688124 0.09303499608711559 1.1159964749267206 129 129 131 0.51 21 567 22 601 23 582 25 504 27 432 29 370 31 280 33 344 35 388 37 416 38 543 39 531 40 579 41 562 42 524 43 488 44 515 45 488 46 456 47 510 48 563 
740 0.876496421440855 0.29676474019714016 1.1774657663926982 33 31 36 1.53 45 489 47 511 48 564 
741 0.782871150737393 0.24364210887852766 0.9523871793781046 52 45 47 1.24 31 281 33 345 42 525 43 489 44 516 45 490 46 457 47 512 48 565 
742 0.4510740199652354 0.22491661783950617 1.5874660988145015 88 69 64 0.73 40 580 41 563 44 517 45 491 46 458 47 513 48 566 
743 0.5261229010796983 -0.058214674880453725 1.4990852221577686 132 116 111 0.57 40 581 41 564 42 526 43 490 44 518 45 492 46 459 47 514 48 567 
744 0.6528304475497679 -0.005794847866462347 1.2534005161409094 130 128 123 0.31 40 582 41 565 42 527 43 491 44 519 45 493 46 460 47 515 48 568 
745 0.4803893127842436 -0.21435663515534878 0.8899226259882427 26 26 29 0.97 21 568 22 602 23 583 24 451 27 433 33 346 35 389 37 417 38 544 39 532 40 583 41 566 42 528 43 492 44 520 45 494 46 461 47 516 48 569 
746 0.648152098775117 0.08392385203507273 1.252121535511532 131 125 117 0.31 40 584 41 567 42 529 43 493 44 521 45 495 46 462 47 517 48 570 
747 0.6991889237461523 0.12190106989055029 1.1328741476096986 120 114 114 0.57 21 569 22 603 23 584 25 505 27 434 29 371 31 282 33 347 35 390 37 418 38 545 39 533 40 585 41 568 42 530 43 494 44 522 45 496 46 463 47 518 48 571 
748 0.4534689079517546 -0.17068534868057245 0.8844206528042281 129 146 155 0.87 21 570 22 604 23 585 24 452 26 393 27 435 34 432 35 391 36 395 37 419 38 546 39 534 40 586 41 569 42 531 43 495 44 523 45 497 46 464 47 519 48 572 
749 0.5438958273608471 0.20122655467155612 1.4272841121341473 52 50 55 0.63 40 587 41 570 42 532 45 498 46 465 47 520 48 573 
750 0.7039056138987523 0.175651715374835 1.1325597547543396 108 106 109 0.61 21 571 22 605 23 586 25 506 27 436 29 372 31 283 33 348 35 392 37 420 38 547 39 535 40 588 41 571 42 533 43 496 44 524 45 499 46 466 47 521 48 574 
751 0.6791904422971226 0.04946027957926702 1.143580500234025 134 137 141 0.48 21 572 22 606 23 587 25 507 27 437 31 284 33 349 35 393 37 421 38 548 39 536 40 589 41 572 42 534 43 497 44 525 45 500 46 467 47 522 48 575 
752 0.1588773400989164 0.10734412715590776 0.6557451726157064 107 111 117 0.43 40 590 41 573 42 535 43 498 44 526 45 501 46 468 47 523 48 576 
753 0.47015700807824035 0.1738044710964602 0.8056752279966418 75 83 76 1.06 21 573 22 607 23 588 24 453 25 508 26 394 27 438 28 402 29 373 30 374 31 285 32 407 33 350 34 433 35 394 36 396 37 422 38 549 39 537 40 591 41 574 42 536 43 499 44 527 45 502 46 469 47 524 48 577 
754 0.5840022814612186 0.061768942354110415 1.3726635554260929 117 117 114 0.38 40 592 41 575 42 537 43 500 44 528 45 503 46 470 47 525 48 578 
755 0.8251290783514544 0.2865086641268556 1.1317803685839785 52 45 49 0.73 44 529 45 504 46 471 47 526 48 579 
756 0.572730697915977 -0.010488891554772152 1.1222409354584686 101 115 130 0.8 22 608 23 589 24 454 25 509 27 439 28 403 29 374 31 286 33 351 35 395 37 423 38 550 39 538 40 593 41 576 42 538 43 501 44 530 45 505 46 472 47 527 48 580 
757 0.6877707739075001 0.1171868567256046 1.1695119111102514 117 112 106 0.62 21 574 22 609 23 590 25 510 27 440 35 396 37 424 38 551 39 539 40 594 41 577 42 539 43 502 44 531 45 506 46 473 47 528 48 581 
758 0.4794848953054137 -0.17739294615962367 1.6168304482781053 85 85 85 0.52 40 595 41 578 42 540 43 503 44 532 45 507 46 474 47 529 48 582 
759 0.8273601834758323 0.28665384888046813 1.133398587645124 32 33 42 0.73 44 533 45 508 46 475 47 530 48 583 
760 0.6165887880775082 0.17648133534821875 1.0835406668535528 134 144 156 0.68 22 610 23 591 25 511 27 441 29 375 31 287 33 352 35 397 37 425 38 552 39 540 40 596 41 579 42 541 43 504 44 534 45 509 46 476 47 531 48 584 
761 0.6269933848270905 0.0014103584333895968 1.3049645909296976 123 118 110 0.41 40 597 41 580 42 542 43 505 44 535 45 510 46 477 47 532 48 585 
762 0.47863524702606586 -0.20729828027870195 0.897900208163083 23 23 25 0.86 21 575 22 611 23 592 24 455 25 512 27 442 33 353 35 398 37 426 38 553 39 541 40 598 41 581 42 543 43 506 44 536 45 511 46 478 47 533 48 586 
763 0.5718804966805244 0.12630502649328051 1.0764822808358676 91 109 134 0.47 23 593 25 513 27 443 29 376 31 288 33 354 35 399 36 397 37 427 38 554 39 542 40 599 41 582 42 544 43 507 44 537 45 512 46 479 47 534 48 587 
764 0.45005759917575033 -0.011951189414474003 0.8692530488943312 77 79 82 1.35 21 576 22 612 23 594 25 514 26 395 27 444 28 404 29 377 30 375 31 289 32 408 34 434 35 400 36 398 37 428 38 555 39 543 40 600 41 583 42 545 43 508 44 538 45 513 46 480 47 535 
765 0.5097443039911047 0.18749984018676985 0.8299590410048006 66 71 65 1.15 42 546 43 509 44 539 45 514 46 481 47 536 48 588 
766 0.5182868598422797 0.22429306854367773 0.8523412295626935 57 58 65 1.36 44 540 45 515 46 482 47 537 48 589 
767 0.2701516057857649 0.13352446887137573 0.9061188787324003 41 38 41 1.07 21 577 22 613 23 595 24 456 31 290 32 409 33 355 34 435 35 401 37 429 38 556 40 601 41 584 42 547 43 510 44 541 45 516 46 483 47 538 48 590 
768 0.7544285639609326 0.26948212173715513 1.2289052351829766 21 22 18 0.51 35 402 42 548 43 511 44 542 45 517 46 484 47 539 48 591 
769 0.5413072879830112 0.20382348099949382 1.4300477847942887 61 57 58 0.73 40 602 41 585 42 549 45 518 46 485 47 540 48 592 
770 0.693914901538797 0.19468536422704086 1.2239009547408606 72 73 69 0.99 37 430 38 557 39 544 40 603 41 586 42 550 43 512 44 543 45 519 46 486 47 541 48 593 
771 0.5667130111241345 0.23134891770178528 0.8805461052187292 57 60 64 0.67 42 551 43 513 44 544 45 520 46 487 47 542 48 594 
772 0.3181646389631846 0.10592255768262668 1.8658373593913338 90 87 85 0.77 40 604 41 587 42 552 43 514 44 545 45 521 46 488 47 543 48 595 
773 0.6849771617829721 0.02047834814336442 1.1537777610750928 129 129 128 0.44 21 578 22 614 23 596 25 515 27 445 33 356 35 403 37 431 38 558 39 545 40 605 41 588 42 553 43 515 44 546 45 522 46 489 47 544 48 596 
774 0.5989590116675848 -0.02439504928019317 1.3543126526912208 131 126 118 0.4 40 606 41 589 42 554 43 516 44 547 45 523 46 490 47 545 48 597 
775 0.5658080466004068 -0.03484834661322673 1.1161727352929027 133 154 179 0.7 22 615 23 597 24 457 25 516 27 446 28 405 29 378 31 291 33 357 35 404 36 399 37 432 38 559 39 546 40 607 41 590 42 555 43 517 44 548 45 524 46 491 47 546 48 598 
776 0.7018000529019872 0.26782882430033866 1.1204531386805014 77 69 67 1.07 27 447 35 405 37 433 38 560 39 547 40 608 41 591 42 556 43 518 44 549 45 525 46 492 47 547 48 599 
777 0.707802372763553 -0.1358542496427276 1.201758440383955 173 192 208 1.18 21 579 22 616 23 598 25 517 27 448 31 292 33 358 35 406 37 434 38 561 39 548 40 609 41 592 42 557 43 519 44 550 45 526 46 493 47 548 48 600 
778 0.5913823557735669 0.21970024910903133 0.9104875179528802 24 27 32 0.14 45 527 46 494 47 549 48 601 
779 0.6143586524967677 0.23235501852748594 0.8724361313708278 57 51 54 1.07 35 407 38 562 39 549 40 610 41 593 42 558 43 520 44 551 45 528 46 495 47 550 48 602 
780 0.6830701686196284 0.028082305998014284 1.193383159152913 134 130 122 0.68 21 580 23 599 37 435 38 563 39 550 40 611 41 594 42 559 43 521 44 552 45 529 46 496 47 551 48 603 
781 0.7061884408931647 0.22447638665843095 1.1177555987397843 69 57 53 0.79 21 581 22 617 23 600 25 518 27 449 29 379 31 293 33 359 35 408 37 436 38 564 39 551 40 612 41 595 42 560 43 522 44 553 45 530 46 497 47 552 48 604 
782 0.7594904083921395 0.275031765043745 1.23855640111633 13 20 13 0.76 35 409 42 561 43 523 44 554 45 531 46 498 47 553 48 605 
783 0.7069396251151474 0.27169157533716704 1.062515812207528 20 21 28 0.92 27 450 35 410 39 552 40 613 41 596 42 562 43 524 44 555 45 532 46 499 47 554 48 606 
784 0.689861414500338 0.2165629079529172 1.100002181989009 112 115 115 0.55 21 582 22 618 23 601 25 519 27 451 29 380 31 294 33 360 35 411 37 437 38 565 39 553 40 614 41 597 42 563 43 525 44 556 45 533 46 500 47 555 48 607 
785 0.5753799727659324 0.22705638022325078 0.8512000501417392 51 41 43 1.02 41 598 42 564 43 526 44 557 45 534 46 501 47 556 48 608 
786 0.5695562491067604 -0.010078448542986087 1.1199531604190334 26 35 42 0.76 23 602 24 458 25 520 27 452 28 406 29 381 31 295 33 361 35 412 37 438 38 566 39 554 40 615 41 599 42 565 43 527 44 558 45 535 46 502 47 557 48 609 
787 0.3872517094859883 0.057596913214516605 0.9708245161849902 85 81 80 0.88 22 619 23 603 24 459 25 521 26 396 27 453 28 407 29 382 34 436 35 413 36 400 37 439 38 567 39 555 40 616 41 600 42 566 43 528 44 559 45 536 46 503 47 558 48 610 
788 0.4626633349862019 -0.10747102405836985 1.6249293851975941 152 152 149 0.41 40 617 41 601 42 567 43 529 44 560 45 537 46 504 47 559 48 611 
789 0.471097718018659 0.40695486325173313 1.5301139565269435 42 44 53 1.05 40 618 45 538 46 505 47 560 48 612 
790 0.399867589453804 0.015205750497124682 0.9951876405097536 30 30 37 0.73 22 620 23 604 24 460 25 522 26 397 27 454 28 408 29 383 32 410 34 437 35 414 36 401 37 440 38 568 39 556 40 619 41 602 42 568 43 530 44 561 45 539 46 506 47 561 48 613 
791 0.4664777439398554 0.39003950373295443 1.5381541270887342 77 58 51 0.93 40 620 45 540 46 507 47 562 48 614 
792 0.634254010452404 0.1023849355651366 1.1032972590992922 60 55 56 0.42 21 583 22 621 23 605 25 523 27 455 29 384 31 296 33 362 35 415 37 441 38 569 39 557 40 621 41 603 42 569 43 531 44 562 45 541 46 508 47 563 48 615 
793 0.7469549291608062 0.25472806992147456 1.2226948820380161 26 32 27 0.91 31 297 33 363 35 416 42 570 43 532 44 563 45 542 46 509 47 564 48 616 
794 0.11949907542383599 -0.13483454285596855 0.7093343996857783 62 52 49 0.53 39 558 40 622 41 604 42 571 43 533 44 564 45 543 46 510 47 565 48 617 
795 0.6589239500022215 -0.06918889944147709 1.2528347205749344 142 141 135 0.61 40 623 41 605 42 572 43 534 44 565 45 544 46 511 47 566 48 618 
796 0.7175168728178942 0.2589250737110993 1.0817534731217024 49 49 52 1.07 25 524 27 456 29 385 31 298 35 417 39 559 40 624 41 606 42 573 43 535 44 566 45 545 46 512 47 567 48 619 
797 0.6856774394014638 0.1551582322209688 1.1647702717392103 96 85 81 0.53 21 584 22 622 23 606 25 525 39 560 40 625 41 607 42 574 43 536 44 567 45 546 46 513 47 568 48 620 
798 0.6607600313656697 0.16010351704301665 1.2107420260611097 74 69 69 0.43 22 623 40 626 41 608 42 575 43 537 44 568 45 547 46 514 47 569 48 621 
799 0.5321210925312544 0.20947873227756358 1.015401426217621 91 86 84 0.66 24 461 25 526 27 457 28 409 29 386 31 299 32 411 33 364 34 438 35 418 36 402 37 442 38 570 39 561 40 627 41 609 42 576 43 538 44 569 45 548 46 515 47 570 48 622 
800 0.43086110809305683 0.30125899721316585 1.608521015400125 40 26 28 1.04 40 628 44 570 45 549 46 516 47 571 48 623 
801 0.555085025792237 0.20885362604898403 1.3828253123823224 33 24 25 1.23 41 610 42 577 43 539 47 572 48 624 
802 0.6609926039670654 0.24163351622133145 1.0749949712326552 126 126 125 0.84 21 585 22 624 23 607 27 458 29 387 31 300 33 365 35 419 37 443 38 571 39 562 40 629 41 611 42 578 43 540 44 571 45 550 46 517 47 573 48 625 
803 0.5997383650646424 -0.09645896055430533 1.149822052195545 17 15 18 0.71 22 625 23 608 25 527 27 459 29 388 31 301 33 366 35 420 36 403 37 444 38 572 39 563 40 630 41 612 42 579 43 541 44 572 45 551 46 518 47 574 48 626 
804 0.386330958403285 0.3832308084258328 1.7655588733508238 35 35 32 0.9 43 542 44 573 45 552 46 519 47 575 48 627 
805 0.2246917929136901 -0.3512350286764506 0.8084101208048738 207 223 230 0.79 21 586 37 445 38 573 39 564 40 631 41 613 42 580 43 543 44 574 45 553 46 520 47 576 48 628 
806 0.6118834509939797 -0.02166925722924135 1.1341179495297908 39 41 44 0.6 21 587 22 626 23 609 25 528 27 460 29 389 33 367 35 421 37 446 38 574 39 565 40 632 41 614 42 581 43 544 44 575 45 554 46 521 47 577 48 629 
807 0.6863804652772834 0.20000944337860752 1.1032972319883179 50 50 51 0.77 21 588 22 627 23 610 25 529 27 461 29 390 31 302 33 368 35 422 37 447 38 575 39 566 40 633 41 615 42 582 43 545 44 576 45 555 46 522 47 578 48 630 
808 0.5796150964884303 0.2183759101086759 1.0546275445024105 124 144 161 0.84 22 628 23 611 25 530 27 462 29 391 31 303 33 369 35 423 36 404 37 448 38 576 39 567 40 634 41 616 42 583 43 546 44 577 45 556 46 523 47 579 48 631 
809 0.3684872819059734 0.41006110793613954 1.7175987252722797 66 54 48 0.71 40 635 44 578 45 557 46 524 47 580 48 632 
810 0.28292351014469874 -0.1461165992093854 0.7845627815298992 48 47 50 0.98 36 405 37 449 38 577 39 568 40 636 41 617 42 584 43 547 44 579 45 558 46 525 47 581 48 633 
811 0.7200908175846213 0.27976556627678034 1.0785723842404298 47 34 31 1.44 27 463 35 424 37 450 39 569 40 637 41 618 42 585 43 548 44 580 45 559 46 526 47 582 48 634 
812 0.6929468460464538 -0.12181767642281686 1.2012772283972422 58 48 41 1.03 21 589 22 629 23 612 25 531 27 464 29 392 31 304 33 370 35 425 37 451 38 578 39 570 40 638 41 619 42 586 43 549 44 581 45 560 46 527 47 583 48 635 
813 0.46118516296910633 -0.03502536068685591 1.0556491382553765 88 86 90 1.09 21 590 22 630 23 613 28 410 29 393 32 412 33 371 34 439 35 426 36 406 37 452 38 579 39 571 40 639 41 620 42 587 43 550 44 582 45 561 46 528 47 584 48 636 
814 0.41590810101198167 -0.14945396117219986 1.0474382776116815 59 59 61 0.58 33 372 34 440 35 427 36 407 37 453 38 580 39 572 40 640 41 621 42 588 43 551 44 583 45 562 46 529 47 585 48 637 
815 0.4804061387021073 0.021709202388885927 1.0411024213051072 26 17 14 0.68 21 591 22 631 23 614 26 398 27 465 28 411 29 394 31 305 32 413 33 373 34 441 35 428 36 408 37 454 38 581 39 573 40 641 41 622 42 589 43 552 44 584 45 563 46 530 47 586 48 638 
816 0.43544152248940443 0.16633797051030041 0.8259347188913961 45 41 44 0.37 44 585 45 564 46 531 47 587 48 639 
817 0.700312115847954 0.2919952284345572 1.1584665931890643 58 45 40 1.2 42 590 43 553 44 586 45 565 46 532 47 588 48 640 
818 0.5777433646713585 0.21555362746862577 1.0568616882827915 90 109 127 0.73 23 615 25 532 27 466 29 395 31 306 33 374 35 429 36 409 37 455 38 582 39 574 40 642 41 623 42 591 43 554 44 587 45 566 46 533 47 589 48 641 
819 0.4766081178835496 0.1555677406512199 1.5514249486931695 133 131 129 0.51 40 643 41 624 42 592 43 555 44 588 45 567 46 534 47 590 48 642 
820 0.624631325061486 0.10096367530195134 1.2920012261153258 112 109 107 0.3 40 644 41 625 42 593 43 556 44 589 45 568 46 535 47 591 48 643 
821 0.48040120028221517 -0.21096007093722483 0.8927099572901436 24 24 28 0.73 21 592 22 632 23 616 24 462 33 375 35 430 37 456 38 583 39 575 40 645 41 626 42 594 43 557 44 590 45 569 46 536 47 592 48 644 
822 0.433276121182565 -0.12644463562515937 0.854210431775889 65 64 71 1.15 21 593 23 617 27 467 34 442 36 410 38 584 39 576 40 646 41 627 42 595 43 558 44 591 45 570 46 537 47 593 
823 0.6753938044493307 0.2556087937960127 0.8837366701417234 28 40 18 0.61 39 577 42 596 43 559 44 592 45 571 46 538 47 594 48 645 
824 0.1554039468393726 0.14428999541680607 0.6631921169386695 92 93 98 0.76 39 578 40 647 41 628 42 597 43 560 44 593 45 572 46 539 47 595 48 646 
825 0.6394393610568555 0.08785782729147872 1.1085334308988695 111 101 102 0.52 21 594 22 633 23 618 25 533 27 468 29 396 31 307 33 376 35 431 37 457 38 585 39 579 40 648 41 629 42 598 43 561 44 594 45 573 46 540 47 596 48 647 
826 0.8636960970019837 0.2952409145467846 1.1660020278046044 51 51 61 0.23 46 541 47 597 48 648 
827 0.6926490982928996 0.21481368651165084 1.2144778210338583 36 50 42 0.56 39 580 40 649 41 630 42 599 43 562 44 595 45 574 46 542 47 598 48 649 
828 0.5856482856716301 -0.040794459874065755 1.133513186503002 49 66 73 0.66 22 634 23 619 24 463 25 534 27 469 29 397 31 308 33 377 35 432 36 411 37 458 38 586 39 581 40 650 41 631 42 600 43 563 44 596 45 575 46 543 47 599 48 650 
829 0.6826949253096194 0.04512819874586761 1.188207228152597 135 133 129 0.58 21 595 23 620 37 459 38 587 39 582 40 651 41 632 42 601 43 564 44 597 45 576 46 544 47 600 48 651 
830 0.6203710908569313 0.24047124775490164 0.8059728940471196 26 40 18 1.26 38 588 39 583 40 652 41 633 42 602 43 565 44 598 45 577 46 545 47 601 48 652 
831 0.8680981046243712 0.29774125274718954 1.1707027928018856 21 22 27 1.1 45 578 46 546 47 602 48 653 
832 0.6681552338647923 0.04896935641599617 1.2173676375686435 118 112 103 0.31 40 653 41 634 42 603 43 566 44 599 45 579 46 547 47 603 48 654 
833 0.6172776697479043 0.044919389517630526 1.1127142783576658 133 131 126 0.54 21 596 22 635 23 621 25 535 27 470 29 398 31 309 33 378 35 433 37 460 38 589 39 584 40 654 41 635 42 604 43 567 44 600 45 580 46 548 47 604 48 655 
834 0.5441112406508881 0.36640588255342493 1.3953931400935207 76 64 61 1.39 41 636 42 605 43 568 44 601 45 581 46 549 47 605 48 656 
835 0.5111519459718472 0.17477230651210554 1.4846387272560233 122 117 115 0.52 40 655 41 637 42 606 43 569 44 602 45 582 46 550 47 606 48 657 
836 0.45534306726862817 0.25160574832770527 1.5839428387540144 26 20 20 0.7 40 656 44 603 45 583 46 551 47 607 48 658 
837 0.540072012559057 0.18855938809370143 1.4359479965077961 68 66 71 0.53 40 657 41 638 42 607 44 604 45 584 46 552 47 608 48 659 
838 0.5518782052593182 8.819864672362977e-05 1.086314806143446 114 113 111 0.9 22 636 23 622 24 464 25 536 27 471 28 412 29 399 31 310 32 414 33 379 34 443 35 434 36 412 37 461 38 590 39 585 40 658 41 639 42 608 43 570 44 605 45 585 46 553 47 609 48 660 
839 0.49800409088202147 0.394617877998179 1.479145027718579 78 67 66 0.84 44 606 45 586 46 554 47 610 48 661 
840 0.5329942490836304 0.038136281092889045 1.064819154815265 118 117 114 1.08 21 597 23 623 24 465 25 537 26 399 27 472 28 413 29 400 32 415 33 380 34 444 35 435 36 413 37 462 38 591 39 586 40 659 41 640 42 609 43 571 44 607 45 587 46 555 47 611 48 662 
841 0.8664538149882436 0.28859539299534975 1.1677138018061721 28 30 35 0.79 46 556 47 612 48 663 
842 0.5869546720471934 0.23258853669934904 0.9900127273016087 56 57 60 0.6 44 608 45 588 46 557 47 613 48 664 
843 0.707474993727059 0.21804255340781425 1.1152366857363736 103 98 96 0.72 21 598 22 637 23 624 25 538 27 473 29 401 31 311 33 381 35 436 37 463 38 592 39 587 40 660 41 641 42 610 43 572 44 609 45 589 46 558 47 614 48 665 
844 0.5751840798991339 0.19428361208883968 1.0610867516959737 126 146 166 0.75 22 638 23 625 25 539 27 474 29 402 31 312 33 382 35 437 36 414 37 464 38 593 39 588 40 661 41 642 42 611 43 573 44 610 45 590 46 559 47 615 48 666 
845 0.45231403458577984 -0.11225769367072572 0.9154284056546225 59 54 51 1.31 21 599 22 639 23 626 25 540 26 400 27 475 28 414 29 403 30 376 33 383 34 445 35 438 36 415 37 465 38 594 39 589 40 662 41 643 42 612 43 574 44 611 45 591 46 560 47 616 48 667 
846 0.8105782720934499 0.25718452206240455 1.0067199940498797 38 44 52 0.64 45 592 46 561 47 617 48 668 
847 0.6785195540093327 0.03236634698997118 1.148402843378427 130 133 134 0.45 21 600 22 640 23 627 25 541 27 476 33 384 35 439 37 466 38 595 39 590 40 663 41 644 42 613 43 575 44 612 45 593 46 562 47 618 48 669 
848 0.39879188007875155 0.45217715832633426 1.611054572285733 39 24 25 0.65 44 613 45 594 46 563 47 619 48 670 
849 0.5911990227425451 0.057133995292507886 1.3606605205373008 136 136 134 0.34 40 664 41 645 42 614 43 576 44 614 45 595 46 564 47 620 48 671 
850 0.6268298039942809 0.015505373451243996 1.3004590196675507 125 121 117 0.38 40 665 41 646 42 615 43 577 44 615 45 596 46 565 47 621 48 672 
851 0.8181782425053461 0.2853149909710142 1.1279113120051147 26 27 33 1.06 33 385 43 578 44 616 45 597 46 566 47 622 48 673 
852 0.6407297327979717 0.10007306660753591 1.1087136668683981 134 138 139 0.5 21 601 22 641 23 628 25 542 27 477 29 404 31 313 33 386 35 440 37 467 38 596 39 591 40 666 41 647 42 616 43 579 44 617 45 598 46 567 47 623 48 674 
853 0.22811188012099018 -0.1745356439375516 0.7727562344679301 203 217 221 0.58 41 648 42 617 43 580 44 618 45 599 46 568 47 624 48 675 
854 0.6881279535885995 -0.03666641516839151 1.1723928591362014 151 155 154 0.47 21 602 22 642 23 629 25 543 27 478 29 405 33 387 35 441 37 468 38 597 39 592 40 667 41 649 42 618 43 581 44 619 45 600 46 569 47 625 48 676 
855 0.47875057911531155 0.08799896611971897 1.021547157616188 40 37 39 0.77 21 603 22 643 23 630 26 401 27 479 28 415 29 406 30 377 31 314 32 416 33 388 34 446 35 442 36 416 37 469 38 598 39 593 40 668 41 650 42 619 43 582 44 620 45 601 46 570 47 626 48 677 
856 0.678901140301606 0.04331664983888361 1.145364698019777 127 129 131 0.41 21 604 22 644 23 631 25 544 27 480 31 315 33 389 35 443 37 470 38 599 39 594 40 669 41 651 42 620 43 583 44 621 45 602 46 571 47 627 48 678 
857 0.4675174975579032 0.41828237037796306 1.534248789609423 45 32 34 1.67 40 670 44 622 45 603 46 572 47 628 48 679 
858 0.7083863434698443 0.2332319777837841 1.1104381741233602 102 94 95 0.77 21 605 22 645 25 545 27 481 29 407 31 316 33 390 35 444 37 471 38 600 39 595 40 671 41 652 42 621 43 584 44 623 45 604 46 573 47 629 48 680 
859 0.1576815611722478 -0.13174628158158577 0.7298216667505596 42 37 35 1.41 21 606 23 632 24 466 25 546 26 402 30 378 32 417 33 391 34 447 36 417 37 472 38 601 39 596 40 672 41 653 42 622 43 585 44 624 45 605 46 574 47 630 48 681 
860 0.31819991507278 0.001060512750554098 0.9557279732745309 45 38 38 1.15 21 607 31 317 33 392 34 448 35 445 39 597 40 673 41 654 42 623 43 586 44 625 45 606 46 575 47 631 48 682 
861 0.7645574279967712 0.25048561632029775 0.9400268086300958 44 47 52 0.96 31 318 39 598 41 655 42 624 43 587 44 626 45 607 46 576 47 632 48 683 
862 0.4739130548414591 -0.10917498835344824 1.0771915624465254 68 58 56 0.87 21 608 22 646 27 482 28 416 29 408 30 379 32 418 33 393 34 449 35 446 36 418 37 473 38 602 39 599 40 674 41 656 42 625 43 588 44 627 45 608 46 577 47 633 48 684 
863 0.6950988339776945 -0.006200711575418214 1.170401802874801 91 91 91 0.6 21 609 22 647 23 633 25 547 27 483 29 409 33 394 35 447 37 474 38 603 39 600 40 675 41 657 42 626 43 589 44 628 45 609 46 578 47 634 48 685 
864 0.37138955969738147 0.05723671526254486 1.7636953039104357 109 102 99 0.56 40 676 41 658 42 627 43 590 44 629 45 610 46 579 47 635 48 686 
865 0.48006356912572357 0.21799178547775155 1.5392421533456702 158 164 170 0.7 40 677 41 659 44 630 45 611 46 580 47 636 48 687 
866 0.5377831207356939 0.25957472521990166 1.4273061907514868 98 94 91 0.72 40 678 41 660 46 581 47 637 48 688 
867 0.3213424779345043 -0.13758765224092914 0.8157726846227127 47 43 42 1.23 21 610 22 648 39 601 40 679 41 661 42 628 43 591 44 631 45 612 46 582 47 638 48 689 
868 0.6382006098854446 0.045180142353800114 1.2717026457411862 131 126 122 0.26 40 680 41 662 42 629 43 592 44 632 45 613 46 583 47 639 48 690 
869 0.3622065929769231 0.2953714112566286 1.7494798370782714 86 78 75 1.08 40 681 44 633 45 614 46 584 47 640 48 691 
870 0.594372569019891 0.10895052853910096 1.0937809989554061 34 34 33 0.5 22 649 23 634 25 548 27 484 29 410 31 319 33 395 35 448 36 419 37 475 38 604 39 602 40 682 41 663 42 630 43 593 44 634 45 615 46 585 47 641 48 692 
871 0.7537500017340909 0.2744985203959912 1.2191379598098986 31 33 29 0.76 31 320 35 449 42 631 43 594 44 635 45 616 46 586 47 642 48 693 
872 0.15271817909629817 -0.13581364307740806 0.7423836045043621 104 97 99 0.39 41 664 42 632 43 595 44 636 45 617 46 587 47 643 48 694 
873 0.5795714069547104 -0.1368640914495123 1.1355879316136213 72 70 72 0.62 22 650 23 635 24 467 27 485 29 411 33 396 35 450 36 420 37 476 38 605 39 603 40 683 41 665 42 633 43 596 44 637 45 618 46 588 47 644 48 695 
874 0.47714770624693087 -0.20527340030055577 0.8992698162492722 27 27 29 0.82 21 611 22 651 23 636 24 468 25 549 27 486 33 397 35 451 37 477 38 606 39 604 40 684 41 666 42 634 43 597 44 638 45 619 46 589 47 645 48 696 
875 0.76718084466542 0.37412506961304837 1.2772539130108793 35 31 34 0.21 45 620 46 590 47 646 48 697 
876 0.4746305671946594 -0.11120645905453767 1.0771390154039504 74 67 68 0.94 21 612 22 652 26 403 27 487 28 417 29 412 30 380 32 419 33 398 34 450 35 452 36 421 37 478 38 607 39 605 40 685 41 667 42 635 43 598 44 639 45 621 46 591 47 647 48 698 
877 0.009614226221783765 0.06930945141972028 0.5950247344843063 104 113 120 0.41 42 636 43 599 44 640 45 622 46 592 47 648 48 699 
878 0.5896249708933469 0.17571711344095145 1.3370166762488152 18 19 14 1.07 40 686 41 668 42 637 43 600 44 641 45 623 46 593 47 649 48 700 
879 0.4833500582159607 -0.03471325996821018 1.5746099950745913 142 136 132 0.47 40 687 41 669 42 638 43 601 44 642 45 624 46 594 47 650 48 701 
880 0.48353090036238494 -0.14299857816061182 1.594758059489532 144 145 142 0.51 40 688 41 670 42 639 43 602 44 643 45 625 46 595 47 651 48 702 
881 -0.22155111903804947 -0.03508050376883719 0.7173459507142083 64 64 59 1.57 38 608 39 606 43 603 44 644 46 596 47 652 48 703 
882 0.45962187475091676 0.015415320853142735 0.8514528646241571 131 139 146 1.07 21 613 22 653 23 637 24 469 25 550 26 404 27 488 28 418 29 413 30 381 32 420 34 451 35 453 36 422 37 479 38 609 39 607 40 689 41 671 42 640 43 604 44 645 45 626 46 597 47 653 48 704 
883 0.4626347762353322 0.025847319450900033 1.6050562345776442 125 116 114 0.42 40 690 41 672 42 641 43 605 44 646 45 627 46 598 47 654 48 705 
884 -0.06803343059383361 -0.02063250429595755 0.776070371831473 34 23 16 1.75 30 382 32 421 34 452 37 480 38 610 40 691 41 673 44 647 45 628 47 655 48 706 
885 0.2953512425012174 -0.1202863728130968 0.786755049560667 71 63 61 1.65 21 614 22 654 23 638 25 551 27 489 28 419 29 414 30 383 31 321 32 422 36 423 37 481 38 611 39 608 40 692 41 674 42 642 43 606 44 648 45 629 46 599 47 656 48 707 
886 0.7433753452786198 0.23460376657900706 1.2438429609528192 17 26 17 0.72 35 454 42 643 43 607 44 649 45 630 46 600 47 657 48 708 
887 0.4366289930473779 0.18485368650986883 0.9946457579042974 47 57 62 0.69 22 655 23 639 24 470 32 423 33 399 34 453 35 455 36 424 37 482 38 612 39 609 40 693 41 675 42 644 43 608 44 650 45 631 46 601 47 658 48 709 
888 0.14184606686084525 0.03254679521632223 0.6901190941402636 116 120 126 0.58 39 610 40 694 41 676 42 645 43 609 44 651 45 632 46 602 47 659 48 710 
889 0.42863492304833284 0.31642567750806644 1.612744379431093 34 21 22 0.82 40 695 45 633 46 603 47 660 48 711 
890 0.45531933206320063 0.15000917496200766 1.5956770546199142 76 74 78 0.54 40 696 41 677 42 646 43 610 44 652 45 634 46 604 47 661 48 712 
891 0.5850911904690436 -0.07877026780808802 1.148293204980663 160 185 197 0.65 22 656 23 640 24 471 25 552 27 490 29 415 31 322 33 400 35 456 37 483 38 613 39 611 40 697 41 678 42 647 43 611 44 653 45 635 46 605 47 662 48 713 
892 -0.0028715303601155153 -0.14204352262005404 0.6539201488155894 42 40 38 1.12 21 615 23 641 24 472 25 553 27 491 30 384 38 614 39 612 40 698 41 679 42 648 43 612 44 654 45 636 46 606 47 663 48 714 
893 0.4857547657256015 0.23272949959220468 1.5314034537357912 117 111 105 0.71 40 699 44 655 45 637 46 607 47 664 48 715 
894 0.46227286069691714 0.25169106575435884 1.5733720737163512 85 82 80 0.65 40 700 44 656 45 638 46 608 47 665 48 716 
895 0.7104020920202249 0.25485357158243716 0.8856999585284011 44 49 24 0.84 42 649 43 613 44 657 45 639 48 717 
896 0.14390440741742294 -0.033065060616429276 0.7079477526115937 105 112 119 0.39 39 613 40 701 41 680 42 650 43 614 44 658 45 640 46 609 47 666 48 718 
897 0.6929368071412103 0.03377142440330086 1.1758237294626168 128 133 137 0.65 21 616 22 657 23 642 25 554 27 492 33 401 35 457 37 484 38 615 39 614 40 702 41 681 42 651 43 615 44 659 45 641 46 610 47 667 48 719 
898 0.6599078593638631 0.19984204542663678 1.0881194038171664 111 105 102 0.53 21 617 22 658 23 643 25 555 27 493 29 416 31 323 33 402 35 458 37 485 38 616 39 615 40 703 41 682 42 652 43 616 44 660 45 642 46 611 47 668 48 720 
899 0.6260144988613178 0.03435746037364927 1.1190285405683018 75 71 67 0.49 21 618 22 659 23 644 25 556 27 494 29 417 31 324 33 403 35 459 37 486 38 617 39 616 40 704 41 683 42 653 43 617 44 661 45 643 46 612 47 669 48 721 
900 0.504945915270036 -0.04923004966067528 1.533031313235934 139 128 122 0.44 40 705 41 684 42 654 43 618 44 662 45 644 46 613 47 670 48 722 
901 0.5015577639807398 0.1654258723289994 1.49950184978173 131 132 135 0.48 40 706 41 685 42 655 43 619 44 663 45 645 46 614 47 671 48 723 
902 0.6355301164330329 0.0747234744472538 1.2724335825206021 124 120 115 0.36 40 707 41 686 42 656 43 620 44 664 45 646 46 615 47 672 48 724 
903 0.5988609061819664 0.014454492604475249 1.3517121010133926 118 119 115 0.35 40 708 41 687 42 657 43 621 44 665 45 647 46 616 47 673 48 725 
904 0.48637102747871014 0.00525968722159782 1.5649902686838963 137 132 127 0.42 40 709 41 688 42 658 43 622 44 666 45 648 46 617 47 674 48 726 
905 0.38764280969526915 0.08281841251377509 0.9619436119222171 76 69 67 0.84 22 660 23 645 24 473 25 557 26 405 27 495 29 418 34 454 35 460 36 425 37 487 38 618 39 617 40 710 41 689 42 659 43 623 44 667 45 649 46 618 47 675 48 727 
906 0.623715330255117 -0.07964182909380897 1.1543998201788406 134 134 134 0.6 21 619 22 661 23 646 25 558 27 496 29 419 31 325 33 404 35 461 37 488 38 619 39 618 40 711 41 690 42 660 43 624 44 668 45 650 46 619 47 676 48 728 
907 0.7025154457603439 0.2614005075753435 1.115885235003364 100 93 90 0.75 27 497 31 326 35 462 37 489 38 620 39 619 40 712 41 691 42 661 43 625 44 669 45 651 46 620 47 677 48 729 
908 0.7282921736252274 0.2257911704768339 0.9795344236961071 62 63 68 0.23 44 670 45 652 46 621 47 678 48 730 
909 0.6144175630662226 0.08161152037470676 1.0989520308729224 120 113 110 0.44 21 620 22 662 23 647 25 559 27 498 29 420 31 327 33 405 35 463 37 490 38 621 39 620 40 713 41 692 42 662 43 626 44 671 45 653 46 622 47 679 48 731 
910 0.7151173581469145 -0.14403565606279606 1.2012204225399739 133 149 160 1.05 21 621 22 663 23 648 25 560 27 499 29 421 31 328 33 406 35 464 37 491 38 622 39 621 40 714 41 693 42 663 43 627 44 672 45 654 46 623 47 680 48 732 
911 0.5250151664526299 0.2716938857361079 1.4509487255362514 86 74 72 0.37 40 715 46 624 47 681 48 733 
912 0.6827336370143285 0.27773314671947735 1.1516895995566994 64 55 49 0.56 39 622 40 716 41 694 42 664 43 628 44 673 45 655 46 625 47 682 48 734 
913 0.5263601784139711 -0.12377911769860914 1.50785013530343 122 119 119 0.56 40 717 41 695 42 665 43 629 44 674 45 656 46 626 47 683 48 735 
914 0.4369744895282947 0.09465809697588447 1.009458428075985 25 24 24 0.69 21 622 22 664 23 649 24 474 25 561 30 385 31 329 32 424 33 407 34 455 35 465 36 426 37 492 38 623 39 623 40 718 41 696 42 666 43 630 44 675 45 657 46 627 47 684 48 736 
915 0.8218449559165624 0.2865832129722001 1.1336783970678492 87 79 86 0.67 44 676 45 658 46 628 47 685 48 737 
916 0.46015459131555253 0.12896962145524837 0.8023855635309409 119 130 140 0.92 21 623 22 665 23 650 24 475 25 562 26 406 27 500 28 420 29 422 30 386 31 330 32 425 33 408 34 456 35 466 36 427 37 493 38 624 39 624 40 719 41 697 42 667 43 631 44 677 45 659 46 629 47 686 48 738 
917 0.4842442723949204 -0.17881256337075133 1.6091383994799056 74 70 67 0.58 40 720 41 698 42 668 43 632 44 678 45 660 46 630 47 687 48 739 
918 0.3892693270748684 -0.12168025545152315 1.0322560706451618 25 30 41 0.93 21 624 22 666 23 651 24 476 28 421 34 457 35 467 36 428 37 494 38 625 39 625 40 721 41 699 42 669 43 633 44 679 45 661 46 631 47 688 48 740 
919 0.15901509659273214 -0.17746359766834854 0.7393454756879245 228 235 239 0.86 36 429 38 626 39 626 40 722 41 700 42 670 43 634 44 680 45 662 46 632 47 689 48 741 
920 -0.0002076430815476368 -0.18570811641114027 0.667426788049555 163 178 188 0.56 39 627 40 723 41 701 42 671 43 635 44 681 45 663 46 633 47 690 48 742 
921 0.5117265551914009 0.1590722822578248 1.4854263526995517 122 117 115 0.47 40 724 41 702 42 672 43 636 44 682 45 664 46 634 47 691 48 743 
922 0.6530242199820094 0.08562182246931965 1.2398002232042953 119 117 117 0.2 40 725 41 703 42 673 43 637 44 683 45 665 46 635 47 692 48 744 
923 0.4654946006323914 0.12985243332336083 0.8127775190166174 124 129 135 0.92 21 625 22 667 23 652 24 477 25 563 26 407 27 501 28 422 29 423 30 387 31 331 32 426 33 409 34 458 35 468 36 430 37 495 38 627 39 628 40 726 41 704 42 674 43 638 44 684 45 666 46 636 47 693 48 745 
924 0.540287533845631 -0.015580093162075434 1.4685108881629971 117 113 109 0.38 40 727 41 705 42 675 43 639 44 685 45 667 46 637 47 694 48 746 
925 0.39146146557204703 -0.09047086980296322 1.0115613270594006 71 77 85 0.77 22 668 23 653 24 478 25 564 26 408 28 423 29 424 34 459 35 469 36 431 37 496 38 628 39 629 40 728 41 706 42 676 43 640 44 686 45 668 46 638 47 695 48 747 
926 0.33996449498779224 0.075666548424761 0.9459785105821744 62 47 42 1.12 24 479 25 565 26 409 27 502 28 424 29 425 30 388 31 332 32 427 33 410 38 629 39 630 40 729 41 707 42 677 43 641 44 687 45 669 46 639 47 696 48 748 
927 0.5012173978961595 0.0657032943764881 1.5264226511676007 117 114 111 0.45 40 730 41 708 42 678 43 642 44 688 45 670 46 640 47 697 48 749 
928 0.5609273270281632 0.13925428680850505 1.40344688340931 120 119 117 0.46 40 731 41 709 42 679 43 643 44 689 45 671 46 641 47 698 48 750 
929 0.14720714187096245 -0.09235858100838734 0.7125454061540922 134 146 153 0.61 21 626 22 669 23 654 24 480 25 566 26 410 27 503 28 425 29 426 30 389 31 333 32 428 33 411 34 460 35 470 36 432 37 497 38 630 39 631 40 732 41 710 42 680 43 644 44 690 45 672 46 642 47 699 48 751 
930 0.05081081715603311 0.1918623536899459 0.5291283549445784 69 69 76 1.2 21 627 22 670 23 655 24 481 25 567 26 411 27 504 28 426 30 390 32 429 34 461 36 433 38 631 39 632 40 733 41 711 42 681 43 645 44 691 45 673 46 643 
931 0.11831480180075346 0.19216485239882852 0.5436234647594769 57 55 59 0.65 26 412 27 505 28 427 29 427 30 391 32 430 34 462 36 434 
932 -0.3453930171402052 0.09796265760313513 0.6365830394010784 79 70 74 1.19 21 628 22 671 23 656 24 482 26 413 28 428 30 392 32 431 34 463 36 435 39 633 40 734 43 646 44 692 46 644 48 752 
933 0.3090829823440349 0.18313367865069816 0.6013809922899125 48 48 55 0.64 28 429 29 428 30 393 31 334 32 432 33 412 
934 0.4723720838333967 0.18530574974151792 1.005865259190057 85 93 98 1.0 21 629 22 672 23 657 24 483 28 430 29 429 30 394 31 335 32 433 33 413 34 464 35 471 36 436 37 498 38 632 39 634 40 735 41 712 42 682 43 647 44 693 45 674 46 645 47 700 48 753 
935 -0.07970118601922067 -0.14458554492544526 0.7494241059146424 100 89 78 0.92 28 431 30 395 32 434 34 465 36 437 37 499 43 648 
936 -0.022060902655997774 -0.029228935620622183 0.8149953415652632 92 93 93 1.04 22 673 23 658 24 484 25 568 26 414 27 506 28 432 29 430 30 396 31 336 34 466 35 472 36 438 38 633 39 635 
937 0.34635510734344227 -0.1310025525093549 0.8382676088881121 64 60 51 0.88 21 630 22 674 23 659 24 485 25 569 26 415 27 507 28 433 29 431 30 397 31 337 32 435 34 467 35 473 36 439 37 500 38 634 39 636 40 736 41 713 42 683 43 649 44 694 45 675 46 646 47 701 48 754 
938 0.03689229794587134 0.18882481911221927 0.5866821964384192 82 73 74 1.25 21 631 22 675 24 486 25 570 26 416 27 508 28 434 29 432 30 398 32 436 34 468 36 440 38 635 39 637 40 737 41 714 42 684 43 650 44 695 45 676 46 647 
939 0.2890838624393849 0.10880258938258391 0.9413622233413763 88 120 135 0.83 21 632 22 676 23 660 26 417 27 509 28 435 29 433 30 399 31 338 32 437 33 414 34 469 35 474 36 441 37 501 39 638 40 738 41 715 42 685 43 651 44 696 45 677 46 648 47 702 48 755 
940 0.25584987902474465 0.22342157742264865 0.5932068217179165 48 38 37 1.17 21 633 22 677 23 661 24 487 25 571 26 418 27 510 28 436 29 434 30 400 31 339 32 438 33 415 34 470 35 475 36 442 38 636 40 739 41 716 42 686 43 652 44 697 45 678 47 703 
941 0.15126235394454737 0.2035483120107117 0.5189498156790278 29 30 30 0.91 21 634 22 678 23 662 24 488 25 572 26 419 27 511 28 437 29 435 30 401 32 439 34 471 36 443 38 637 40 740 41 717 
942 0.17430112345800844 0.1676665806045017 0.6780600417173552 57 55 54 1.13 21 635 22 679 23 663 24 489 25 573 26 420 27 512 28 438 29 436 30 402 31 340 32 440 33 416 34 472 35 476 36 444 37 502 38 638 39 639 40 741 41 718 42 687 43 653 44 698 45 679 46 649 
943 0.4239005898376947 -0.10975175283805506 0.855214756144259 53 63 31 1.03 21 636 22 680 23 664 24 490 25 574 26 421 27 513 28 439 29 437 30 403 31 341 32 441 33 417 34 473 35 477 36 445 37 503 38 639 39 640 40 742 41 719 42 688 43 654 44 699 45 680 46 650 47 704 48 756 
