# 3D point list with one line of data per point:
#   POINT3D_ID, X, Y, Z, R, G, B, ERROR, TRACK[] as (IMAGE_ID, POINT2D_IDX)
# Number of points: 308, mean track length: 11.18
7601 0.5913821680981964 0.2072884112894813 1.1827809698132974 0 0 0 0.68 159 1484 163 644 176 2127 197 843 213 2894 220 1195 127 1177 128 1280 148 2147 11 2490 27 1938 204 1639 
7602 0.46856934916193094 0.2170115939369716 1.220377506050596 0 0 0 0.28 159 1485 162 1396 164 2607 200 1750 224 902 77 2197 127 1178 148 2148 2 2087 40 1000 136 1562 
7603 0.642904986925796 0.2040984757782891 1.1647215853452013 0 0 0 0.19 159 1486 165 1340 213 2895 214 1821 146 2072 157 1513 175 917 176 2128 200 1751 
7604 0.6454957544947109 0.2045071967888437 1.1640267454129372 0 0 0 0.34 159 1487 165 1341 176 2129 
7605 0.4716044630167541 0.21814423923980464 1.2194161394167136 0 0 0 0.53 159 1488 164 2608 176 2130 213 2896 214 1822 224 903 92 1826 124 1670 157 1514 110 1292 148 2149 200 1752 231 947 2 2088 11 2491 36 765 44 1887 98 617 39 298 13 801 
7606 0.5710969357879848 0.21023002723119297 1.1867372906864226 0 0 0 0.43 159 1489 164 2609 176 2131 185 1081 136 1563 146 2073 2 2089 11 2492 33 1871 124 1671 13 802 
7607 0.4185993435292796 0.2250627331306103 1.2387986699594453 0 0 0 0.28 159 1490 204 1640 96 1451 148 2150 227 1161 103 1119 28 1595 146 2074 157 1515 176 2132 213 2897 11 2493 33 1872 36 766 109 907 16 1077 231 948 
7608 0.6268156302218489 0.21079882845015604 1.174098122734908 0 0 0 0.23 159 1491 164 2610 214 1823 92 1827 93 1311 110 1293 2 2090 44 1888 91 1209 
7609 0.6470253375066631 0.21257203840994793 1.162200032427779 0 0 0 0.37 159 1492 214 1824 235 1326 4 2458 16 1078 91 1210 92 1828 109 908 32 892 146 2075 175 918 
7610 0.6406530163202957 0.21367048317050324 1.1642091187333914 0 0 0 0.29 159 1493 165 1342 213 2898 214 1825 124 1672 146 2076 157 1516 175 919 176 2133 4 2459 9 1492 16 1079 33 1873 91 1211 109 909 
7611 0.7560499700518231 0.2064887954523447 1.1315649299377126 0 0 0 0.31 159 1494 185 1082 200 1753 
7612 0.6297339142897035 0.21802777899030407 1.170598018810182 0 0 0 0.37 159 1495 175 920 223 976 
7613 0.40230317353671213 0.23703939639911353 1.244223601155113 0 0 0 0.49 158 1623 159 1496 162 1397 164 2611 172 1480 176 2134 204 1641 227 1162 110 1294 157 1517 128 1281 60 1492 19 1507 40 1001 41 459 
7614 0.18796843054237727 0.25855117114666604 1.345970012697488 0 0 0 0.48 159 1497 164 2612 176 2135 92 1829 127 1179 209 266 
7615 0.5807954132155213 0.22253840707142766 1.179700035266303 0 0 0 0.33 159 1498 176 2136 185 1083 213 2899 214 1826 223 977 77 2198 146 2077 92 1830 231 949 4 2460 16 1080 
7616 0.4545190459204416 0.23513762314913772 1.2182434258681891 0 0 0 0.18 159 1499 213 2900 214 1827 224 904 
7617 0.4900469275339301 0.2356465712753404 1.2061078544540405 0 0 0 0.43 159 1500 164 2613 196 1788 213 2901 214 1828 231 950 77 2199 128 1282 85 1771 92 1831 223 978 60 1493 93 1312 157 1518 2 2091 9 1493 16 1081 19 1508 27 1939 33 1874 44 1889 127 1180 11 2494 224 905 98 618 
7618 0.37168675867962947 0.24997316098930297 1.253833053408835 0 0 0 0.33 159 1501 164 2614 176 2137 185 1084 200 1754 224 906 28 1596 92 1832 146 2078 148 2151 2 2092 11 2495 17 1931 19 1509 44 1890 50 2076 
7619 0.1603256548840064 0.25019251198118503 1.1564689050518797 0 0 0 0.64 159 1502 164 2615 196 1789 
7620 0.43278376366037746 0.24838407315936625 1.2203026208671124 0 0 0 0.19 159 1503 176 2138 213 2902 4 2461 
7621 0.4700641990391649 0.2510556128287897 1.213101154495491 0 0 0 0.3 159 1504 185 1085 214 1829 148 2152 200 1755 
7622 0.3025089233775247 0.2754773012605233 1.2805702668771157 0 0 0 0.28 159 1505 164 2616 213 2903 
7623 0.5192425944169512 0.25645445414674006 1.1884620197042366 0 0 0 0.39 159 1506 176 2139 213 2904 214 1830 77 2200 85 1772 92 1833 148 2153 16 1082 38 790 109 910 4 2462 187 627 234 1108 
7624 0.5738643681742285 0.25477384004182774 1.1706334046729887 0 0 0 0.46 159 1507 185 1086 197 844 223 979 
7625 0.6345376291391619 0.2490272873955 1.1521946397781768 0 0 0 0.45 159 1508 165 1343 175 921 185 1087 223 980 
7626 0.5603463556618123 0.25658206767830843 1.172097079134288 0 0 0 0.32 159 1509 185 1088 223 981 
7627 0.6253443548246388 0.25166825539420423 1.1540704482541924 0 0 0 0.47 159 1510 175 922 176 2140 185 1089 200 1756 213 2905 11 2496 
7628 0.7575572569543118 0.23998139629666868 1.1178569493079826 0 0 0 0.31 159 1511 165 1344 184 796 185 1090 235 1327 77 2201 110 1295 164 2617 2 2093 11 2497 
7629 0.27519824518755015 0.29488323435485647 1.288455374772275 0 0 0 0.23 159 1512 164 2618 196 1790 200 1757 148 2154 224 907 
7630 0.561406483330553 0.26196086886876463 1.1740590747058182 0 0 0 0.2 159 1513 176 2141 213 2906 231 951 157 1519 11 2498 16 1083 13 803 146 2079 175 923 
7631 0.7012563770569165 0.2521066764657023 1.1322886662588625 0 0 0 0.51 159 1514 185 1091 223 982 235 1328 4 2463 11 2499 146 2080 157 1520 176 2142 
7632 0.5713807469495944 0.26546097920516465 1.168676145285128 0 0 0 0.26 158 1624 159 1515 176 2143 185 1092 196 1791 197 845 221 1669 223 983 
7633 0.5933116250036463 0.26606950269556856 1.1614308058861336 0 0 0 0.42 159 1516 164 2619 223 984 85 1773 91 1212 148 2155 136 1564 33 1875 
7634 0.40888034360992387 0.2870718074283239 1.2222958811970135 0 0 0 0.19 159 1517 176 2144 185 1093 92 1834 
7635 0.43761761563873147 0.28336216163509276 1.2061381639324196 0 0 0 0.52 159 1518 164 2620 176 2145 213 2907 214 1831 92 1835 146 2081 157 1521 16 1084 27 1940 44 1891 50 2077 77 2202 33 1876 38 791 
7636 0.20168626958141872 0.31458184829741276 1.313431591791443 0 0 0 0.38 159 1519 164 2621 224 908 27 1941 
7637 0.17765331944370702 0.3204757902054484 1.3253086019624454 0 0 0 0.47 159 1520 164 2622 224 909 77 2203 85 1774 92 1836 148 2156 9 1494 19 1510 44 1892 27 1942 21 329 
7638 0.24883252450119117 0.3144359892806781 1.295153933091919 0 0 0 0.55 159 1521 164 2623 220 1196 224 910 9 1495 
7639 0.166776020187975 0.32538632573779797 1.3304369793483366 0 0 0 0.4 159 1522 164 2624 196 1792 224 911 148 2157 
7640 0.6294064027783296 0.27204345611059133 1.1483074437280612 0 0 0 0.22 159 1523 185 1094 194 727 200 1758 
7641 0.47167955990772165 0.29276504589231356 1.1923878380608808 0 0 0 0.3 159 1524 162 1398 164 2625 214 1832 60 1494 
7642 0.3383884047665316 0.3132097641982891 1.2483093830120957 0 0 0 0.26 159 1525 176 2146 213 2908 11 2500 33 1877 41 460 146 2082 
7643 0.16706587317056013 0.30497319462497946 1.1625973211594078 0 0 0 0.39 159 1526 164 2626 196 1793 220 1197 148 2158 2 2094 50 2078 126 942 
7644 0.3096919335159942 0.32812412985084904 1.2598045401379192 0 0 0 0.25 159 1527 196 1794 213 2909 224 912 52 1452 148 2159 4 2464 11 2501 50 2079 113 244 229 269 
7645 0.17191446733443835 0.31706840945223624 1.1590857322353212 0 0 0 0.5 159 1528 164 2627 196 1795 77 2204 
7646 0.2014907595019157 0.3667512142871919 1.2907305533716333 0 0 0 0.54 159 1529 164 2628 224 913 77 2205 92 1837 96 1452 
7647 0.7647127634329834 0.2874526796013392 1.0854121839362718 0 0 0 0.26 159 1530 165 1345 213 2910 
7648 0.6515654328348977 0.30593287622983645 1.11914845187178 0 0 0 0.34 159 1531 165 1346 185 1095 40 1002 42 393 148 2160 142 610 
7649 0.4006550352456875 0.34092555703831817 1.1997095662491926 0 0 0 0.48 159 1532 164 2629 176 2147 213 2911 146 2083 157 1522 11 2502 
7650 0.4945462618503498 0.3288707584247261 1.1621862811596564 0 0 0 0.14 159 1533 196 1796 224 914 
7651 0.4969900907649935 0.3300508499231927 1.1630184129489851 0 0 0 0.2 159 1534 196 1797 224 915 42 394 229 270 
7652 0.7627650513179967 0.29519955521031693 1.083091640843935 0 0 0 0.31 159 1535 165 1347 184 797 
7653 0.40969779959610375 0.34512240311063247 1.1982794546342133 0 0 0 0.34 159 1536 164 2630 176 2148 185 1096 213 2912 92 1838 146 2084 60 1495 2 2095 4 2465 16 1085 124 1673 27 1943 
7654 0.649257608556679 0.31067093248897076 1.115217829389674 0 0 0 0.23 159 1537 165 1348 235 1329 60 1496 
7655 0.46804576356014255 0.3354431602458306 1.171312608271652 0 0 0 0.46 158 1625 159 1538 164 2631 196 1798 204 1642 213 2913 214 1833 223 985 232 1864 77 2206 127 1181 148 2161 85 1775 60 1497 4 2466 16 1086 19 1511 33 1878 41 461 44 1893 52 1453 103 1120 109 911 118 2130 27 1944 162 1399 224 916 128 1283 
7656 0.651960234558748 0.31095881348241217 1.1168995940381141 0 0 0 0.47 159 1539 164 2632 165 1349 196 1799 213 2914 214 1834 220 1198 223 986 235 1330 85 1776 110 1296 148 2162 9 1496 19 1512 33 1879 38 792 60 1498 109 912 142 611 
7657 0.766836574870461 0.29924304037309846 1.0827423570280188 0 0 0 0.53 159 1540 184 798 194 728 223 987 85 1777 146 2085 
7658 0.5915128925033774 0.3228153664694225 1.1284533201437594 0 0 0 0.6 159 1541 185 1097 223 988 
7659 0.6364320234060238 0.319253739924705 1.1203569168015959 0 0 0 0.44 159 1542 164 2633 176 2149 213 2915 234 1109 146 2086 11 2503 28 1597 38 793 201 366 77 2207 148 2163 194 729 223 989 
7660 0.5265520945083056 0.33455330845004294 1.1484891917039153 0 0 0 0.51 159 1543 164 2634 196 1800 213 2916 28 1598 92 1839 93 1313 135 378 9 1497 11 2504 19 1513 33 1880 36 767 38 794 50 2080 60 1499 148 2164 16 1087 124 1674 146 2087 157 1523 
7661 0.6573925631076403 0.3189648432040565 1.1170924729837617 0 0 0 0.17 159 1544 165 1350 235 1331 
7662 0.17457492231769034 0.355839020887768 1.1547049268158311 0 0 0 1.05 159 1545 164 2635 196 1801 77 2208 148 2165 229 271 
7663 0.5358891614847419 0.33669093771087055 1.1501770344478999 0 0 0 0.31 159 1546 164 2636 213 2917 214 1835 223 990 77 2209 85 1778 92 1840 93 1314 135 379 146 2088 194 730 4 2467 11 2505 16 1088 38 795 
7664 0.41262067341955955 0.3569661024677043 1.1898117199550777 0 0 0 0.33 159 1547 164 2637 176 2150 185 1098 213 2918 214 1836 146 2089 2 2096 4 2468 11 2506 
7665 0.4149006398957751 0.3586586188611953 1.1891303813823204 0 0 0 0.71 159 1548 164 2638 176 2151 185 1099 196 1802 200 1759 213 2919 214 1837 223 991 28 1599 61 2204 77 2210 92 1841 93 1315 107 978 110 1297 146 2090 148 2166 157 1524 60 1500 2 2097 4 2469 11 2507 19 1514 27 1945 44 1894 109 913 16 1089 38 796 
7666 0.41333337585214247 0.36156004394357244 1.1901635865102458 0 0 0 0.34 159 1549 164 2639 176 2152 185 1100 213 2920 223 992 224 917 92 1842 110 1298 128 1284 148 2167 146 2091 214 1838 4 2470 11 2508 16 1090 17 1932 109 914 38 797 127 1182 
7667 0.2523138159696242 0.39114185482980196 1.2613672454074125 0 0 0 0.74 159 1550 162 1400 164 2640 172 1481 176 2153 213 2921 232 1865 77 2211 148 2168 157 1525 53 1614 21 330 33 1881 44 1895 50 2081 4 2471 204 1643 9 1498 
7668 0.2598400719762255 0.3879914535122236 1.2527590605092456 0 0 0 0.48 159 1551 164 2641 176 2154 204 1644 213 2922 113 245 110 1299 53 1615 4 2472 17 1933 
7669 0.3877747361555524 0.3674839214711062 1.2011722759185168 0 0 0 0.26 159 1552 164 2642 176 2155 213 2923 214 1839 85 1779 92 1843 11 2509 16 1091 28 1600 
7670 0.3779919190596096 0.3695281570002462 1.2056019855453775 0 0 0 0.37 159 1553 164 2643 176 2156 196 1803 213 2924 28 1601 77 2212 85 1780 92 1844 118 2131 128 1285 146 2092 148 2169 214 1840 53 1616 96 1453 2 2098 9 1499 11 2510 17 1934 50 2082 
7671 0.2775284765309445 0.3906628174692603 1.243830991580505 0 0 0 0.22 159 1554 176 2157 213 2925 204 1645 110 1300 157 1526 
7672 0.24870810975437754 0.3964984263708034 1.2584627918239963 0 0 0 0.36 159 1555 162 1401 164 2644 172 1482 176 2158 196 1804 204 1646 213 2926 221 1670 227 1163 232 1866 52 1454 61 2205 77 2213 118 2132 157 1527 92 1845 148 2170 146 2093 2 2099 11 2511 33 1882 50 2083 4 2473 17 1935 19 1515 27 1946 40 1003 44 1896 21 331 96 1454 209 267 224 918 229 272 
7673 0.3623160731863792 0.3778970884432835 1.2056826064952404 0 0 0 0.3 159 1556 176 2159 204 1647 221 1671 232 1867 52 1455 77 2214 92 1846 164 2645 53 1617 11 2512 27 1947 113 246 157 1528 213 2927 146 2094 
7674 0.27010078983198127 0.3964540691326586 1.2452244085706479 0 0 0 0.16 159 1557 176 2160 204 1648 113 247 
7675 0.7022751818630425 0.1356657299472362 1.2064108882424889 0 0 0 0.42 159 1558 162 1402 163 645 185 1101 
7676 0.7543476786498413 0.13651933060074817 1.1548141753893653 0 0 0 0.36 159 1559 184 799 185 1102 213 2928 235 1332 85 1781 148 2171 4 2474 
7677 0.5386257310524917 0.15333111260575547 1.2222595550791333 0 0 0 0.27 159 1560 162 1403 164 2646 
7678 0.6057144442167811 0.149816423163983 1.2012835907919566 0 0 0 0.68 159 1561 196 1805 223 993 77 2215 85 1782 148 2172 234 1110 2 2100 11 2513 27 1948 
7679 0.7486429751847994 0.14550245127583827 1.1586055342543429 0 0 0 0.2 159 1562 185 1103 196 1806 
7680 0.6459442009465739 0.15890403761166674 1.1831788408645523 0 0 0 0.52 159 1563 165 1351 176 2161 185 1104 196 1807 200 1760 213 2929 235 1333 85 1783 157 1529 4 2475 40 1004 136 1565 42 395 
7681 0.55187553102764 0.1706562847419546 1.209120878863376 0 0 0 0.4 159 1564 164 2647 172 1483 176 2162 185 1105 196 1808 200 1761 204 1649 213 2930 222 1198 223 994 227 1164 77 2216 85 1784 92 1847 96 1455 110 1301 118 2133 128 1286 136 1566 146 2095 148 2173 157 1530 214 1841 234 1111 28 1602 60 1501 61 2206 69 794 124 1675 2 2101 3 1218 4 2476 9 1500 11 2514 14 615 16 1092 17 1936 19 1516 27 1949 32 893 33 1883 36 768 38 798 40 1005 41 462 44 1897 50 2084 52 1456 93 1316 109 915 126 943 179 400 160 409 29 573 42 396 142 612 231 952 13 804 98 619 187 628 39 299 
7682 0.7696349525975905 0.16040978791181215 1.135317148069273 0 0 0 0.4 159 1565 164 2648 165 1352 176 2163 213 2931 77 2217 91 1213 110 1302 146 2096 148 2174 50 2085 
7683 0.7085641452328936 0.16465607897408116 1.1612455888953936 0 0 0 0.67 159 1566 164 2649 165 1353 235 1334 77 2218 96 1456 146 2097 227 1165 4 2477 27 1950 2 2102 11 2515 213 2932 148 2175 
7684 0.7699338242827295 0.16261022627325547 1.1363728128135038 0 0 0 0.47 164 2650 165 1354 196 1809 235 1335 62 499 77 2219 105 853 110 1303 146 2098 148 2176 159 1567 11 2516 52 1457 2 2103 32 894 33 1884 61 2207 
7685 0.7689636502768838 0.1648299196940047 1.1339642437930413 0 0 0 0.25 159 1568 165 1355 235 1336 110 1304 
7686 0.5296543874651527 0.18034065407651736 1.2147738479242915 0 0 0 0.39 159 1569 185 1106 223 995 146 2099 157 1531 200 1762 213 2933 4 2478 16 1093 33 1885 109 916 187 629 98 620 
7687 0.7355556670343713 0.17520303904352524 1.1463639539488877 0 0 0 0.41 159 1570 165 1356 176 2164 185 1107 213 2934 235 1337 148 2177 175 924 27 1951 
7688 0.5909254470492977 0.1861925903736516 1.191407896275672 0 0 0 0.81 159 1571 176 2165 185 1108 77 2220 92 1848 110 1305 146 2100 214 1842 11 2517 27 1952 36 769 38 799 52 1458 109 917 
7689 0.27283408521821684 0.21000882956262673 1.320162073497165 0 0 0 0.48 159 1572 196 1810 224 919 77 2221 92 1849 9 1501 19 1517 36 770 40 1006 44 1898 93 1317 107 979 126 944 229 273 
7690 0.6771001939875619 0.1826995984395799 1.1626249924881387 0 0 0 0.47 159 1573 162 1404 213 2935 234 1112 92 1850 146 2101 2 2104 4 2479 32 895 40 1007 
7691 0.7518858972802298 0.17919490827897105 1.1381985220888349 0 0 0 0.61 159 1574 162 1405 164 2651 176 2166 184 800 61 2208 62 500 73 1150 77 2222 85 1785 92 1851 60 1502 2 2105 9 1502 33 1886 44 1899 50 2086 124 1676 4 2480 11 2518 27 1953 13 805 187 630 
7692 0.4455054334898168 0.2013086006779031 1.2319829084418306 0 0 0 0.51 159 1575 164 2652 196 1811 224 920 61 2209 77 2223 85 1786 92 1852 136 1567 146 2102 148 2178 157 1532 2 2106 9 1503 40 1008 109 918 50 2087 16 1094 27 1954 214 1843 
7693 0.32871828309003964 0.21386512061216756 1.2934543487552883 0 0 0 0.38 159 1576 164 2653 176 2167 92 1853 127 1183 148 2179 224 921 2 2107 4 2481 11 2519 27 1955 32 896 33 1887 50 2088 110 1306 111 1611 126 945 19 1518 85 1787 179 401 204 1650 213 2936 209 268 160 410 157 1533 9 1504 36 771 44 1900 109 919 
7694 0.621374655349381 0.19233950817982445 1.1794708550739654 0 0 0 0.54 159 1577 164 2654 185 1109 213 2937 221 1672 96 1457 146 2103 157 1534 4 2482 17 1937 27 1956 32 897 44 1901 50 2089 
7695 0.35413592390779175 0.21475690472470274 1.2778746702702368 0 0 0 0.32 159 1578 172 1484 176 2168 185 1110 232 1868 4 2483 
7696 0.762703370266198 0.1860371137452722 1.1323270041657016 0 0 0 0.41 164 2655 165 1357 184 801 213 2938 235 1338 159 1579 200 1763 
7697 0.6864430205519603 0.19416828940097686 1.1553290822427127 0 0 0 0.53 159 1580 176 2169 182 666 213 2939 77 2224 85 1788 92 1854 148 2180 157 1535 4 2484 9 1505 11 2520 19 1519 32 898 40 1009 109 920 
7698 0.7010633833520955 0.19461418834665126 1.1500939984028007 0 0 0 0.38 159 1581 165 1358 185 1111 148 2181 184 802 
7699 0.7375959759345341 0.19491531558593303 1.138520335831554 0 0 0 0.27 159 1582 175 925 184 803 185 1112 2 2108 4 2485 11 2521 33 1888 105 854 148 2182 157 1536 176 2170 
7700 0.23169036262613713 0.23959519644686605 1.3312292653571316 0 0 0 0.56 159 1583 162 1406 164 2656 196 1812 224 922 71 1481 77 2225 85 1789 92 1855 93 1318 111 1612 146 2104 26 1473 60 1503 103 1121 53 1618 65 655 128 1287 9 1506 27 1957 44 1902 2 2109 3 1219 4 2486 12 795 19 1520 33 1889 40 1010 41 463 50 2090 109 921 148 2183 179 402 138 239 190 1151 127 1184 209 269 217 1028 42 397 
7701 0.22805201755684798 0.2435520331035674 1.3093341482343281 0 0 0 0.49 159 1584 164 2657 196 1813 77 2226 
7702 0.35872502982155235 0.23334409507260756 1.2619951761384378 0 0 0 0.32 159 1585 204 1651 77 2227 96 1458 157 1537 227 1166 146 2105 176 2171 213 2940 60 1504 111 1613 162 1407 3 1220 4 2487 11 2522 27 1958 41 464 50 2091 172 1485 179 403 
7703 0.6930737777981679 0.2129198509366223 1.1522815176853984 0 0 0 0.23 159 1586 164 2658 185 1113 
7704 0.6908636178349241 0.21436729678194436 1.1515668540281878 0 0 0 0.59 159 1587 164 2659 165 1359 185 1114 214 1844 235 1339 52 1459 54 804 110 1307 148 2184 91 1214 4 2488 26 1474 33 1890 40 1011 142 613 19 1521 
7705 0.3669820273124484 0.24504883698690152 1.2576596818490435 0 0 0 0.39 159 1588 213 2941 224 923 85 1790 96 1459 110 1308 127 1185 148 2185 4 2489 11 2523 33 1891 229 274 13 806 39 300 50 2092 
7706 0.14835920864700372 0.24254022305571793 1.148223544109928 0 0 0 0.95 159 1589 196 1814 224 924 229 275 
7707 0.4944977159943566 0.2345437949455454 1.205230853689593 0 0 0 0.3 159 1590 164 2660 214 1845 92 1856 200 1764 60 1505 19 1522 33 1892 44 1903 124 1677 136 1568 
7708 0.28522550593197427 0.2573524260479847 1.2950249519936836 0 0 0 0.61 159 1591 164 2661 172 1486 176 2172 190 1152 196 1815 77 2228 96 1460 111 1614 118 2134 157 1538 110 1309 127 1186 53 1619 2 2110 17 1938 19 1523 36 772 109 922 126 946 29 574 142 614 
7709 0.6608411776948578 0.22339713023665408 1.1588820987517499 0 0 0 0.26 159 1592 163 646 165 1360 185 1115 220 1199 19 1524 214 1846 
7710 0.36576022153638005 0.24987851305892336 1.255816646996983 0 0 0 0.5 159 1593 172 1487 204 1652 4 2490 11 2524 27 1959 63 865 
7711 0.1690572689519267 0.2713372857464969 1.3510942349155333 0 0 0 0.51 159 1594 196 1816 224 925 92 1857 110 1310 142 615 
7712 0.17289072560722898 0.27132475263488987 1.3530115635018893 0 0 0 0.43 159 1595 164 2662 196 1817 224 926 26 1475 92 1858 111 1615 110 1311 148 2186 2 2111 9 1507 19 1525 27 1960 36 773 44 1904 71 1482 109 923 21 332 60 1506 
7713 0.35707074009959805 0.252019254874333 1.2575911855532842 0 0 0 0.31 159 1596 176 2173 85 1791 
7714 0.6630492193285835 0.2251518651069443 1.1569601314428828 0 0 0 0.22 159 1597 163 647 196 1818 220 1200 
7715 0.2458234206927117 0.2661313666243752 1.3102773059040331 0 0 0 0.54 159 1598 196 1819 227 1167 77 2229 96 1461 127 1187 148 2187 190 1153 53 1620 4 2491 11 2525 17 1939 229 276 
7716 0.6611465162766466 0.23545807992817488 1.1530860456513121 0 0 0 0.33 159 1599 162 1408 165 1361 196 1820 220 1201 235 1340 60 1507 9 1508 19 1526 27 1961 124 1678 194 731 200 1765 
7717 0.20405846065679703 0.28647706456045 1.3254140795942644 0 0 0 0.93 159 1600 162 1409 172 1488 176 2174 224 927 227 1168 96 1462 111 1616 196 1821 164 2663 77 2230 85 1792 92 1859 157 1539 127 1188 53 1621 128 1288 71 1483 103 1122 60 1508 2 2112 27 1962 44 1905 109 924 21 333 126 947 19 1527 40 1012 43 978 52 1460 50 2093 3 1221 179 404 209 270 9 1509 12 796 148 2188 41 465 64 245 
7718 0.3633352137338525 0.2684504961739927 1.2512916618340988 0 0 0 0.12 159 1601 164 2664 224 928 
7719 0.17250880973792712 0.2920548762693304 1.3400861190245552 0 0 0 0.64 159 1602 181 675 224 929 26 1476 52 1461 77 2231 92 1860 148 2189 60 1509 9 1510 44 1906 73 1151 21 334 19 1528 85 1793 142 616 196 1822 220 1202 
7720 0.18719113624023043 0.29240458455783813 1.3360783560843135 0 0 0 0.42 159 1603 196 1823 224 930 85 1794 19 1529 
7721 0.5475757051126275 0.2528393007505802 1.1796682213403047 0 0 0 0.36 159 1604 185 1116 214 1847 222 1199 
7722 0.15514744115780074 0.3006875247108776 1.3467345002805953 0 0 0 0.43 159 1605 196 1824 224 931 44 1907 77 2232 126 948 
7723 0.17026164125797602 0.2994922992298975 1.3415952785239518 0 0 0 0.33 159 1606 196 1825 224 932 73 1152 92 1861 148 2190 85 1795 9 1511 19 1530 109 925 220 1203 
7724 0.7550733204613935 0.23607855568890346 1.1193247418781211 0 0 0 0.24 159 1607 164 2665 184 804 85 1796 110 1312 
7725 0.5291289780031265 0.26056026392867687 1.1880394354943384 0 0 0 0.14 159 1608 162 1410 214 1848 126 949 
7726 0.17055014805328064 0.2782128209175783 1.1738611056796184 0 0 0 0.49 159 1609 164 2666 224 933 
7727 0.15667737466810489 0.308921087300747 1.3449397146587994 0 0 0 0.52 159 1610 196 1826 224 934 52 1462 77 2233 85 1797 92 1862 148 2191 9 1512 19 1531 36 774 40 1013 44 1908 109 926 126 950 142 617 
7728 0.481065630095968 0.270116434485825 1.1980588006595712 0 0 0 0.33 159 1611 222 1200 52 1463 77 2234 85 1798 11 2526 27 1963 109 927 148 2192 
7729 0.15370203731499055 0.31390514085659216 1.3406464270811065 0 0 0 0.43 159 1612 196 1827 224 935 52 1464 85 1799 148 2193 9 1513 19 1532 40 1014 44 1909 109 928 229 277 
7730 0.5222680725272854 0.26954593575512 1.182551842657672 0 0 0 0.66 159 1613 176 2175 185 1117 214 1849 223 996 28 1603 85 1800 92 1863 96 1463 118 2135 148 2194 109 929 
7731 0.15090231914228422 0.31761262303383603 1.3420761362605744 0 0 0 0.43 159 1614 196 1828 224 936 
7732 0.6022343430386936 0.2685686328483531 1.1585143427775613 0 0 0 0.12 159 1615 176 2176 185 1118 
7733 0.47515918187942185 0.2848045269242461 1.1975322129111134 0 0 0 0.32 159 1616 164 2667 185 1119 232 1869 52 1465 77 2235 96 1464 
7734 0.1506288834198436 0.2874597094215678 1.1262358518772628 0 0 0 0.6 159 1617 196 1829 224 937 126 951 148 2195 21 335 
7735 0.5778110150534448 0.2747787492756819 1.1652435549806184 0 0 0 0.33 159 1618 162 1411 185 1120 222 1201 146 2106 176 2177 204 1653 11 2527 16 1095 17 1940 3 1222 172 1489 200 1766 213 2942 
7736 0.16659403932012012 0.2969377847439897 1.168849587148993 0 0 0 0.75 159 1619 164 2668 181 676 196 1830 73 1153 77 2236 148 2196 224 938 2 2113 19 1533 40 1015 126 952 21 336 142 618 
7737 0.2812318815460597 0.31279842925008383 1.2787117678666868 0 0 0 0.13 159 1620 176 2178 224 939 
7738 0.31918609792322145 0.32167089066880195 1.261474881427772 0 0 0 0.18 159 1621 196 1831 224 940 148 2197 214 1850 9 1514 44 1910 92 1864 19 1534 
7739 0.41974454332902733 0.3087946555077149 1.213671983794843 0 0 0 0.15 159 1622 185 1121 214 1851 4 2492 164 2669 
7740 0.1772302219207616 0.32375657755812876 1.1831165611889758 0 0 0 1.05 159 1623 164 2670 196 1832 109 930 229 278 
7741 0.17160478137416932 0.3222602100611438 1.1657441336932182 0 0 0 0.57 159 1624 164 2671 196 1833 148 2198 229 279 
7742 0.736801485718169 0.2868592660950596 1.0977172432269608 0 0 0 0.24 159 1625 185 1122 196 1834 19 1535 
7743 0.4663731613812716 0.3225017549716016 1.1791570870232073 0 0 0 0.4 159 1626 162 1412 185 1123 224 941 148 2199 164 2672 2 2114 33 1893 4 2493 16 1096 157 1540 176 2179 204 1654 
7744 0.4947058967535775 0.3216220714932598 1.1681764627154085 0 0 0 0.63 159 1627 185 1124 196 1835 204 1655 128 1289 148 2200 11 2528 15 873 16 1097 44 1911 61 2210 77 2237 
7745 0.4656169908019388 0.3341848457829276 1.1713608769244372 0 0 0 0.31 159 1628 176 2180 185 1125 200 1767 213 2943 221 1673 146 2107 175 926 162 1413 196 1836 224 942 148 2201 77 2238 2 2115 4 2494 11 2529 15 874 16 1098 28 1604 33 1894 38 800 44 1912 50 2094 19 1536 
7746 0.3932338481230211 0.3500753205607262 1.2032829243271048 0 0 0 0.19 159 1629 164 2673 9 1515 19 1537 26 1477 32 899 43 979 44 1913 92 1865 
7747 0.5375673638280862 0.33425646984787266 1.1500424062469317 0 0 0 0.15 159 1630 194 732 204 1656 227 1169 
7748 0.17432690835932624 0.35578282641220454 1.1491331215922487 0 0 0 0.64 159 1631 164 2674 196 1837 220 1204 77 2239 148 2202 
7749 0.5193749394021882 0.33824878432171607 1.1513729404806634 0 0 0 0.29 159 1632 188 53 213 2944 214 1852 194 733 204 1657 28 1605 77 2240 146 2108 92 1866 148 2203 11 2530 16 1099 38 801 229 280 187 631 164 2675 
7750 0.3751135188591667 0.3676115111620041 1.2051409903172603 0 0 0 0.19 159 1633 176 2181 204 1658 214 1853 92 1867 25 1264 53 1622 
7751 0.25480872521610765 0.39229998888828577 1.2558621026939725 0 0 0 0.38 159 1634 172 1490 176 2182 190 1154 204 1659 
7752 0.3663417338305556 0.37721904577694043 1.204180786847327 0 0 0 0.25 159 1635 164 2676 204 1660 232 1870 11 2531 17 1941 
7753 0.20955837715187373 0.4199449371354647 1.2611214978085103 0 0 0 0.69 159 1636 162 1414 164 2677 196 1838 220 1205 221 1674 232 1871 77 2241 85 1801 92 1868 118 2136 2 2116 4 2495 50 2095 73 1154 176 2183 148 2204 9 1516 27 1964 44 1914 109 931 21 337 
7754 0.7539102723296055 0.11788071353864946 1.1654095832046834 0 0 0 0.87 159 1637 164 2678 185 1126 213 2945 9 1517 36 775 92 1869 15 875 17 1942 234 1113 27 1965 184 805 221 1675 19 1538 40 1016 65 656 105 855 
7755 0.6985804328937147 0.14817826660524427 1.168039601099392 0 0 0 0.48 159 1638 162 1415 163 648 
7756 0.5798175625383858 0.17709762228455497 1.1965407927822471 0 0 0 0.66 159 1639 176 2184 204 1661 77 2242 96 1465 110 1313 223 997 11 2532 27 1966 160 411 232 1872 98 621 164 2679 
7757 0.6924638577955189 0.17098335380578228 1.1561574954977287 0 0 0 0.48 159 1640 232 1873 235 1341 118 2137 
7758 0.37079074959604214 0.2180002971106367 1.2733811375254662 0 0 0 0.38 159 1641 185 1127 221 1676 
7759 0.647321038242851 0.19881756926404695 1.1667336820488927 0 0 0 0.31 159 1642 163 649 185 1128 204 1662 221 1677 11 2533 27 1967 54 805 96 1466 
7760 0.63857741154359 0.2003111669845383 1.1692807062337722 0 0 0 0.38 159 1643 172 1491 185 1129 204 1663 11 2534 27 1968 54 806 77 2243 96 1467 63 866 
7761 0.3712001103006186 0.22494280159128544 1.2660432898155518 0 0 0 0.64 159 1644 176 2185 77 2244 61 2211 92 1870 103 1123 110 1314 128 1290 146 2109 200 1768 9 1518 44 1915 32 900 85 1802 21 338 39 301 204 1664 213 2946 232 1874 60 1510 2 2117 4 2496 11 2535 41 466 
7762 0.2794844349866099 0.2353761470373246 1.311511471434624 0 0 0 0.56 159 1645 176 2186 185 1130 204 1665 200 1769 220 1206 224 943 77 2245 
7763 0.26534653010677217 0.24225631593935223 1.3101114445470787 0 0 0 0.32 159 1646 162 1416 185 1131 224 944 
7764 0.4627793289071858 0.22944257642709653 1.2186339503881047 0 0 0 0.39 159 1647 172 1492 176 2187 232 1875 96 1468 118 2138 27 1969 
7765 0.2903334251042514 0.24652275869076407 1.2947306550078577 0 0 0 0.47 159 1648 164 2680 9 1519 32 901 40 1017 44 1916 19 1539 224 945 142 619 
7766 0.18818870628790868 0.28332934938038384 1.3402473884382702 0 0 0 0.63 159 1649 196 1839 224 946 164 2681 220 1207 77 2246 110 1315 103 1124 2 2118 4 2497 19 1540 27 1970 36 776 44 1917 92 1871 126 953 21 339 60 1511 209 271 40 1018 85 1803 109 932 142 620 52 1466 229 281 
7767 0.754240297156237 0.22560740152240297 1.1234374423240283 0 0 0 0.13 159 1650 185 1132 196 1840 110 1316 148 2205 
7768 0.7764667796164175 0.22462538904350193 1.1146011445521473 0 0 0 0.24 159 1651 165 1362 213 2947 235 1342 4 2498 27 1971 176 2188 
7769 0.16749990941659743 0.2871285081059823 1.3472895263827975 0 0 0 0.46 159 1652 181 677 224 947 77 2247 92 1872 164 2682 148 2206 220 1208 9 1520 44 1918 21 340 
7770 0.7693048012364959 0.2250273991803477 1.116369809712796 0 0 0 0.65 159 1653 184 806 232 1876 4 2499 44 1919 62 501 164 2683 
7771 0.6827397726901288 0.23504924546101602 1.1419881003706183 0 0 0 0.16 159 1654 162 1417 185 1133 163 650 200 1770 
7772 0.7209343234753166 0.2341749432757629 1.130223905171551 0 0 0 0.13 159 1655 163 651 185 1134 
7773 0.14792549479670014 0.3022149122656193 1.3484037638645945 0 0 0 0.47 159 1656 196 1841 224 948 85 1804 9 1521 40 1019 109 933 142 621 229 282 
7774 0.669510328069483 0.2630126152629525 1.1369437302828642 0 0 0 0.52 159 1657 185 1135 194 734 15 876 25 1265 33 1895 38 802 54 807 71 1484 111 1617 126 954 
7775 0.5913368645714941 0.2754672387592897 1.1572911355459794 0 0 0 0.3 159 1658 185 1136 223 998 19 1541 38 803 91 1215 126 955 
7776 0.38718684036304335 0.29969623828206415 1.2278229700334256 0 0 0 0.17 159 1659 196 1842 85 1805 126 956 142 622 
7777 0.6105476866913345 0.2777086777578924 1.148958021594319 0 0 0 0.27 159 1660 162 1418 163 652 185 1137 
7778 0.17062091337788643 0.30713195203722043 1.1741146436040224 0 0 0 0.74 159 1661 164 2684 196 1843 220 1209 224 949 77 2248 148 2207 19 1542 126 957 21 341 142 623 42 398 229 283 
7779 0.14863362835468708 0.3412663413340093 1.3344639514120489 0 0 0 0.4 159 1662 196 1844 224 950 9 1522 40 1020 44 1920 85 1806 109 934 229 284 
7780 0.7284151059853524 0.26959857814685523 1.1193164907511832 0 0 0 0.35 159 1663 163 653 185 1138 
7781 0.17365821480110716 0.3090959926130075 1.1736928015791563 0 0 0 0.68 159 1664 164 2685 224 951 196 1845 220 1210 77 2249 
7782 0.18151002243287992 0.31658268956993096 1.1985785247063314 0 0 0 0.56 159 1665 164 2686 220 1211 148 2208 
7783 0.7375923981247603 0.27944247971469277 1.1020561515806675 0 0 0 0.53 159 1666 164 2687 185 1139 85 1807 92 1873 4 2500 213 2948 
7784 0.6505945324520324 0.29281379690490605 1.123467076924102 0 0 0 0.49 159 1667 185 1140 223 999 148 2209 220 1212 
7785 0.17172199099907795 0.325648036339077 1.1567952450944485 0 0 0 0.46 159 1668 164 2688 196 1846 142 624 
7786 0.6403265739891806 0.2940398390558078 1.123258940029101 0 0 0 0.44 159 1669 185 1141 223 1000 126 958 
7787 0.620100304285617 0.29793959274325754 1.1313328728045988 0 0 0 0.3 159 1670 185 1142 223 1001 
7788 0.1548942266153785 0.37160585755875053 1.3185035648986685 0 0 0 0.39 159 1671 196 1847 224 952 85 1808 148 2210 9 1523 19 1543 40 1021 44 1921 52 1467 142 625 229 285 
7789 0.42939591488609474 0.33155520239126035 1.1901388746659332 0 0 0 0.18 159 1672 185 1143 214 1854 
7790 0.6702647377547516 0.3023724161479323 1.1155363416184185 0 0 0 0.29 159 1673 194 735 196 1848 19 1544 33 1896 40 1022 148 2211 63 867 126 959 220 1213 142 626 
7791 0.38432570872715166 0.34959506399422596 1.222393469489831 0 0 0 0.39 159 1674 185 1144 126 960 
7792 0.17281507036759816 0.3513494453747455 1.1478059537938672 0 0 0 0.69 159 1675 164 2689 196 1849 220 1214 224 953 77 2250 148 2212 126 961 142 627 
7793 0.16330529307665984 0.35136871919449686 1.1294117542695827 0 0 0 0.46 159 1676 196 1850 220 1215 148 2213 142 628 229 286 
7794 0.18114305628520144 0.36327914413135787 1.1683267101423918 0 0 0 0.67 159 1677 164 2690 196 1851 220 1216 77 2251 148 2214 
7795 0.18442402935223304 0.3677731277438923 1.179681109398037 0 0 0 0.24 159 1678 164 2691 220 1217 
7796 0.1641957029235382 0.3560772880512172 1.1248704797100932 0 0 0 0.38 159 1679 196 1852 220 1218 148 2215 
7797 0.2077241842103612 0.41878770357933587 1.267968937996722 0 0 0 0.3 159 1680 176 2189 85 1809 
7798 0.1520695161332482 0.4322978393781381 1.295850200059117 0 0 0 0.63 159 1681 196 1853 224 954 52 1468 85 1810 19 1545 109 935 229 287 
7799 0.15765215362642496 0.43233851077802654 1.2915997206375223 0 0 0 0.54 159 1682 196 1854 224 955 52 1469 85 1811 19 1546 40 1023 229 288 109 936 
7800 0.2612728523537412 0.4244646190251075 1.2392612417963218 0 0 0 0.74 159 1683 162 1419 164 2692 176 2190 196 1855 204 1666 217 1029 220 1219 224 956 1 811 52 1470 73 1155 77 2252 81 709 85 1812 92 1874 107 980 111 1618 148 2216 200 1771 53 1623 60 1512 21 342 33 1897 50 2096 114 301 209 272 2 2119 9 1524 19 1547 
7801 0.15871044930003242 0.21379979612314162 1.1903167400974686 0 0 0 0.65 159 1684 196 1856 198 863 199 728 19 1548 73 1156 96 1469 111 1619 232 1877 164 2693 209 273 224 957 148 2217 229 289 2 2120 17 1943 
7802 0.14774474031582996 0.2199983597949935 1.1537273585325245 0 0 0 0.36 159 1685 196 1857 224 958 142 629 
7803 0.19559813978724028 0.23707618989342802 1.3572375474017022 0 0 0 0.83 159 1686 162 1420 176 2191 232 1878 3 1223 4 2501 43 980 77 2253 126 962 17 1944 
7804 0.16296915226320846 0.22904294743926393 1.1850040643661222 0 0 0 0.69 159 1687 164 2694 196 1858 224 959 19 1549 40 1024 77 2254 
7805 0.19565898135145524 0.2479371236900358 1.3557891910990114 0 0 0 0.47 159 1688 181 678 196 1859 224 960 
7806 0.46128496479727915 0.23699842664380588 1.217133245307533 0 0 0 0.68 159 1689 176 2192 185 1145 85 1813 204 1667 1 812 4 2502 33 1898 71 1485 126 963 179 405 
7807 0.5777202901223178 0.22902647002143156 1.1793080625505317 0 0 0 0.57 159 1690 185 1146 214 1855 127 1189 148 2218 220 1220 63 868 126 964 
7808 0.7276765115661084 0.2172263358984903 1.1369387217726477 0 0 0 0.12 159 1691 162 1421 220 1221 
7809 0.6677415123779832 0.22604818259421577 1.1507943012098925 0 0 0 0.33 159 1692 196 1860 220 1222 164 2695 165 1363 235 1343 60 1513 71 1486 111 1620 27 1972 29 575 54 808 
7810 0.16282378344671625 0.2734601515833457 1.172089651592836 0 0 0 0.76 159 1693 164 2696 196 1861 220 1223 77 2255 148 2219 126 965 21 343 224 961 142 630 229 290 
7811 0.32414270502735487 0.29924288662069154 1.260107855331291 0 0 0 0.42 159 1694 220 1224 224 962 77 2256 92 1875 97 935 127 1190 128 1291 148 2220 176 2193 157 1541 198 864 60 1514 2 2121 9 1525 3 1224 172 1493 
7812 0.16788377835506613 0.2925420293691127 1.1750489923857539 0 0 0 0.77 159 1695 164 2697 181 679 196 1862 77 2257 2 2122 50 2097 128 1292 126 966 142 631 
7813 0.723465155098168 0.2603410109694562 1.1231054683679769 0 0 0 0.46 159 1696 162 1422 223 1002 63 869 148 2221 
7814 0.6105871174890862 0.27194273131877666 1.150587213850902 0 0 0 0.34 159 1697 163 654 185 1147 63 870 126 967 162 1423 
7815 0.2627198215852864 0.34709584605032795 1.2737180928849303 0 0 0 0.54 159 1698 164 2698 198 865 199 729 92 1876 96 1470 113 248 148 2222 157 1542 172 1494 
7816 0.15912850271308032 0.3667454035470146 1.3155851691609912 0 0 0 0.61 159 1699 196 1863 224 963 85 1814 9 1526 19 1550 40 1025 92 1877 109 937 142 632 229 291 
7817 0.4703111585910635 0.32824403955788206 1.1703894493513998 0 0 0 0.24 159 1700 220 1225 224 964 
7818 0.16511311086765607 0.3487099712939678 1.1430822667055593 0 0 0 0.46 159 1701 196 1864 220 1226 148 2223 142 633 229 292 
7819 0.17158253032793713 0.3567825263264687 1.1467061799927856 0 0 0 0.28 159 1702 164 2699 196 1865 220 1227 126 968 148 2224 181 680 
7820 0.16703565057619255 0.35479184474880643 1.137840983893245 0 0 0 0.44 159 1703 164 2700 196 1866 148 2225 21 344 224 965 142 634 
7821 0.7515833813246359 0.1318975579115758 1.15972670204533 0 0 0 0.39 159 1704 164 2701 181 681 185 1148 232 1879 62 502 77 2258 85 1815 103 1125 128 1293 136 1569 141 337 176 2194 126 969 15 877 147 1214 
7822 0.4857765509078401 0.1500302576651018 1.2430968656219865 0 0 0 0.38 159 1705 185 1149 196 1867 148 2226 63 871 126 970 142 635 9 1527 
7823 0.7606803817456326 0.15267502289372967 1.1455526423266091 0 0 0 0.33 159 1706 213 2949 232 1880 235 1344 197 846 54 809 77 2259 110 1317 4 2503 15 878 27 1973 38 804 63 872 71 1487 
7824 0.6371602221772334 0.17711742520488333 1.1811584169818123 0 0 0 0.84 159 1707 164 2702 165 1364 235 1345 77 2260 85 1816 26 1478 126 971 142 636 221 1678 
7825 0.541005728041193 0.22863410811649584 1.2018974277033259 0 0 0 0.54 159 1708 162 1424 198 866 214 1856 60 1515 127 1191 
7826 0.13500665197575032 0.27510570065678813 1.3679357291696201 0 0 0 0.47 159 1709 196 1868 224 966 85 1817 40 1026 109 938 142 637 229 293 
7827 0.1372992971522282 0.2817144575301546 1.3739836624337738 0 0 0 0.34 159 1710 196 1869 224 967 9 1528 40 1027 85 1818 109 939 142 638 229 294 
7828 0.7722839853341745 0.22524742782296608 1.1152526616195881 0 0 0 0.24 147 1215 163 655 165 1365 172 1495 176 2195 184 807 197 847 204 1668 213 2950 217 1030 221 1679 232 1881 235 1346 14 616 54 810 62 503 69 795 73 1157 77 2261 91 1216 118 2139 120 831 146 2110 53 1624 61 2212 67 688 81 710 128 1294 227 1170 2 2123 3 1225 4 2504 11 2536 12 797 15 879 17 1945 27 1974 29 576 32 902 43 981 44 1922 50 2098 71 1488 103 1126 136 1570 63 873 56 602 182 667 
7829 0.1655920336519587 0.27655789020079835 1.1738643471542896 0 0 0 0.68 159 1711 164 2703 196 1870 220 1228 77 2262 148 2227 25 1266 26 1479 126 972 
7830 0.15043491676913112 0.3069437894964014 1.3478130359918905 0 0 0 0.51 159 1712 196 1871 224 968 52 1471 85 1819 142 639 40 1028 229 295 19 1551 
7831 0.1647696169573066 0.28333748427418787 1.1737170747672403 0 0 0 0.48 159 1713 181 682 220 1229 
7832 0.6729187120979232 0.2533211459983432 1.1399777934374071 0 0 0 0.3 159 1714 185 1150 194 736 63 874 
7833 0.160182591434189 0.2855241426057 1.1575168215604363 0 0 0 0.66 159 1715 164 2704 196 1872 220 1230 148 2228 142 640 229 296 
7834 0.7335248349970328 0.25251419295982186 1.1222401257338412 0 0 0 0.31 159 1716 162 1425 163 656 185 1151 85 1820 
7835 0.15293268567769047 0.32699375814895165 1.3355852924593175 0 0 0 0.49 159 1717 196 1873 224 969 52 1472 85 1821 19 1552 40 1029 109 940 142 641 229 297 
7836 0.6551584355598287 0.27026132372072 1.1402992979692166 0 0 0 0.42 159 1718 185 1152 223 1003 
7837 0.6548022145656274 0.2787245186576065 1.135794075473522 0 0 0 0.42 159 1719 185 1153 223 1004 63 875 
7838 0.659767429986017 0.2957526956394319 1.129611882683898 0 0 0 0.39 159 1720 185 1154 194 737 220 1231 
7839 0.6858524120102656 0.29996535092185717 1.1118200635942805 0 0 0 0.4 159 1721 164 2705 185 1155 198 867 222 1202 63 876 176 2196 213 2951 227 1171 232 1882 96 1471 118 2140 53 1625 179 406 160 412 15 880 221 1680 
7840 0.4175379833034734 0.3412641928704962 1.2113925024940038 0 0 0 1.04 159 1722 185 1156 223 1005 
7841 0.15617806106046342 0.39195956891599326 1.3108912000144362 0 0 0 0.48 159 1723 196 1874 224 970 85 1822 148 2229 40 1030 109 941 142 642 229 298 
7842 0.6857843022866031 0.31540296316308847 1.1039702319935316 0 0 0 0.54 159 1724 194 738 196 1875 
7843 0.18616384400784589 0.3648709953055664 1.1784360136959073 0 0 0 0.46 159 1725 164 2706 220 1232 
7844 0.19134022927830996 0.42474865407407636 1.278938796909038 0 0 0 0.44 159 1726 196 1876 224 971 142 643 
7845 0.7169812274025681 0.1572608849986539 1.1631801464702982 0 0 0 0.57 158 1626 159 1727 176 2197 185 1157 197 848 222 1203 232 1883 85 1823 92 1878 96 1472 124 1679 110 1318 3 1226 4 2505 9 1529 19 1553 27 1975 60 1516 111 1621 127 1192 63 877 126 973 141 338 148 2230 196 1877 208 349 160 413 13 807 
7846 0.70700478411511 0.15879803378768703 1.162552333332709 0 0 0 0.79 163 657 176 2198 184 808 185 1158 204 1669 217 1031 222 1204 232 1884 67 689 96 1473 208 350 53 1626 111 1622 159 1728 227 1172 27 1976 63 878 126 974 56 603 129 446 9 1530 15 881 19 1554 162 1426 77 2263 118 2141 127 1193 128 1295 152 955 160 414 11 2537 179 407 
7847 0.15275879488465452 0.19657465392519968 1.192001705155673 0 0 0 0.64 159 1729 181 683 196 1878 126 975 40 1031 42 399 
7848 0.6785830333080901 0.151963108696723 1.1781099696414028 0 0 0 0.26 159 1730 162 1427 185 1159 
7849 0.5314388015617969 0.17350942843274209 1.2141361330510845 0 0 0 0.53 159 1731 204 1670 42 400 85 1824 
7850 0.5675234262632676 0.2173579405168273 1.1888231786691015 0 0 0 0.39 159 1732 181 684 198 868 220 1233 
7851 0.17223275901176976 0.2913762215593198 1.182570326213451 0 0 0 0.8 159 1733 164 2707 181 685 196 1879 220 1234 224 972 77 2264 40 1032 126 976 21 345 26 1480 142 644 
7852 0.16035582033390816 0.2837807386031251 1.355080960934662 0 0 0 0.61 159 1734 220 1235 224 973 148 2231 
7853 0.16114962773848876 0.2743604798965164 1.166006719233998 0 0 0 0.71 159 1735 196 1880 224 974 148 2232 21 346 126 977 142 645 
7854 0.16478950003395412 0.3036985235449895 1.1731481641334265 0 0 0 0.91 159 1736 196 1881 220 1236 224 975 126 978 21 347 19 1555 
7855 0.1711593961998783 0.3126676621743756 1.1776055683775486 0 0 0 0.82 159 1737 196 1882 224 976 148 2233 21 348 220 1237 142 646 40 1033 229 299 
7856 0.15634860206148707 0.39473870459006466 1.3139986139036137 0 0 0 0.75 159 1738 196 1883 224 977 52 1473 85 1825 19 1556 40 1034 142 647 
7857 0.7790091637293174 0.12548445613422826 1.180528126463207 0 0 0 0.72 162 1428 165 1366 235 1347 
7858 0.668949515922837 0.16556619110868975 1.1745824625004913 0 0 0 0.6 197 849 220 1238 221 1681 232 1885 54 811 71 1489 77 2265 128 1296 85 1826 204 1671 53 1627 73 1158 103 1127 148 2234 63 879 159 1739 185 1160 126 979 142 648 0 857 
7859 0.6614852362187901 0.27089143708647734 1.1343471999414192 0 0 0 0.67 159 1740 163 658 185 1161 
7860 0.5652370599851473 0.1615752138157934 1.211935490143991 0 0 0 0.3 162 1429 164 2708 185 1162 
7861 0.4672234979411049 0.19042041244000454 1.2299810827698427 0 0 0 0.45 162 1430 213 2952 128 1297 148 2235 9 1531 27 1977 33 1899 50 2099 231 953 
7862 0.306814604163268 0.22598390051966516 1.3006027092745442 0 0 0 0.44 162 1431 172 1496 176 2199 96 1474 204 1672 209 274 
7863 0.42676463439495393 0.2046526662708443 1.2420105761153306 0 0 0 0.53 162 1432 185 1163 220 1239 224 978 96 1475 158 1627 19 1557 44 1923 16 1100 63 880 
7864 0.37303104668942544 0.22334248710547594 1.2675800263063721 0 0 0 0.55 162 1433 196 1884 224 979 96 1476 127 1194 3 1227 27 1978 63 881 126 980 9 1532 17 1946 159 1741 176 2200 204 1673 77 2266 92 1879 232 1886 
7865 0.3646207522814294 0.22549970831468316 1.2673528063559254 0 0 0 0.09 162 1434 196 1885 224 980 
7866 0.33277858972037105 0.23277683735087115 1.2795357787251236 0 0 0 0.45 162 1435 196 1886 224 981 60 1517 
7867 0.6003357344052949 0.20377985391675663 1.1792217300120764 0 0 0 0.48 162 1436 176 2201 196 1887 197 850 77 2267 85 1827 92 1880 96 1477 110 1319 127 1195 2 2124 16 1101 41 467 201 367 
7868 0.26834773579871907 0.26744208936168123 1.2998789340604855 0 0 0 0.32 162 1437 172 1497 176 2202 93 1319 111 1623 146 2111 9 1533 11 2538 33 1900 
7869 0.24896316564588042 0.27832146185186213 1.306130942390529 0 0 0 0.31 162 1438 172 1498 176 2203 196 1888 213 2953 224 982 92 1881 93 1320 118 2142 157 1543 110 1320 148 2236 60 1518 2 2125 4 2506 9 1534 11 2539 19 1558 32 903 33 1901 36 777 44 1924 50 2100 109 942 
7870 0.4770453748852039 0.23758763935657132 1.2190224697242482 0 0 0 0.26 162 1439 185 1164 224 983 19 1559 148 2237 
7871 0.7399958059720585 0.19928422460048295 1.1379784769612256 0 0 0 0.33 162 1440 165 1367 185 1165 235 1348 
7872 0.4562717018019537 0.2653484448394803 1.2087796099674428 0 0 0 0.2 162 1441 185 1166 222 1205 
7873 0.8294850848575376 0.21388961648749635 1.1052843346857606 0 0 0 0.31 162 1442 184 809 197 851 213 2954 3 1228 9 1535 11 2540 15 882 27 1979 36 778 77 2268 12 798 29 577 32 904 35 407 107 981 63 882 232 1887 
7874 0.6410567981099553 0.2570787576933012 1.1465188926976475 0 0 0 0.25 162 1443 163 659 196 1889 
7875 0.6877032889357486 0.25522626023369405 1.1352527252864832 0 0 0 0.13 162 1444 165 1368 196 1890 235 1349 19 1560 33 1902 60 1519 
7876 0.47974624525915094 0.2921469500575343 1.193729264118298 0 0 0 0.2 162 1445 164 2709 185 1167 213 2955 214 1857 176 2204 232 1888 92 1882 77 2269 128 1298 146 2112 16 1102 
7877 0.5473369462353005 0.28435703199537044 1.1731740064217078 0 0 0 0.32 162 1446 164 2710 221 1682 
7878 0.21509204008132413 0.35335323178063943 1.2911527118308632 0 0 0 0.49 162 1447 176 2205 196 1891 221 1683 224 984 25 1267 77 2270 96 1478 113 249 118 2143 2 2126 3 1229 4 2507 12 799 17 1947 27 1980 43 982 50 2101 61 2213 
7879 0.5932499572316201 0.30755462828649693 1.1445946511960488 0 0 0 0.09 162 1448 164 2711 185 1168 60 1520 
7880 0.4297692399044344 0.3388835293440753 1.1824311321972476 0 0 0 0.55 162 1449 185 1169 213 2956 222 1206 11 2541 127 1196 
7881 0.2073378304093032 0.39006575305324487 1.280558348722507 0 0 0 0.42 162 1450 164 2712 176 2206 196 1892 220 1240 224 985 118 2144 85 1828 148 2238 2 2127 9 1536 19 1561 32 905 36 779 44 1925 52 1474 109 943 4 2508 
7882 0.49958549473323677 0.3300227620749378 1.1640215578932849 0 0 0 0.47 159 1742 162 1451 164 2713 185 1170 200 1772 214 1858 77 2271 92 1883 127 1197 33 1903 38 805 44 1926 93 1321 
7883 0.6644925051596968 0.3083784339198089 1.1176872068660948 0 0 0 0.2 162 1452 163 660 172 1499 
7884 0.37487773307716843 0.3682417929620681 1.2061009521795785 0 0 0 0.17 162 1453 220 1241 224 986 
7885 0.8147407732422232 0.29587877323115086 1.0750742939193032 0 0 0 0.76 162 1454 197 852 213 2957 4 2509 11 2542 12 800 71 1490 73 1159 111 1624 163 661 
7886 0.30941168341738384 0.3926660900626735 1.2275490598079464 0 0 0 0.27 162 1455 176 2207 204 1674 221 1684 61 2214 118 2145 128 1299 148 2239 2 2128 4 2510 11 2543 17 1948 41 468 44 1927 50 2102 
7887 0.23138517027699843 0.4169172327871971 1.2550062014630883 0 0 0 0.91 162 1456 172 1500 176 2208 213 2958 224 987 113 250 118 2146 157 1544 2 2129 4 2511 32 906 44 1928 50 2103 61 2215 209 275 
7888 0.775304438001795 0.32565567012789054 1.0706666831221696 0 0 0 0.44 162 1457 163 662 194 739 196 1893 127 1198 148 2240 60 1521 42 401 
7889 0.5128448436681926 0.3757125398974842 1.1425363851044639 0 0 0 0.39 162 1458 164 2714 220 1242 
7890 0.30442661651475206 0.419634141834634 1.21801738079775 0 0 0 0.53 162 1459 164 2715 224 988 77 2272 111 1625 113 251 118 2147 148 2241 213 2959 232 1889 27 1981 33 1904 21 349 0 858 176 2209 
7891 0.3486083963553547 0.4124165993909882 1.1983993301649785 0 0 0 0.17 162 1460 172 1501 224 989 
7892 0.7959728856160779 0.34624927530222316 1.0521221229558948 0 0 0 0.47 162 1461 163 663 196 1894 
7893 0.6755601289004537 0.3790608712152004 1.0814385826813273 0 0 0 1.03 162 1462 163 664 223 1006 60 1522 
7894 0.5146401532282256 0.17425735458679203 1.2222915170388897 0 0 0 0.74 162 1463 217 1032 220 1243 1 813 25 1268 77 2273 118 2148 127 1199 147 1216 148 2242 92 1884 4 2512 19 1562 27 1982 96 1479 142 649 158 1628 
7895 0.6582547069428588 0.15772345803118654 1.1807604268143816 0 0 0 0.46 162 1464 165 1369 196 1895 220 1244 235 1350 14 617 77 2274 110 1321 148 2243 60 1523 32 907 53 1628 61 2216 118 2149 36 780 19 1563 27 1983 40 1035 69 796 
7896 0.6932182392988983 0.1526309737341733 1.165980330620609 0 0 0 0.34 162 1465 163 665 185 1171 
7897 0.396891342942695 0.21482647380716569 1.2581089305661257 0 0 0 0.49 162 1466 172 1502 227 1173 157 1545 16 1103 17 1949 43 983 
7898 0.23079751470035695 0.2475898803950639 1.3207085530675535 0 0 0 0.51 164 2716 185 1172 224 990 77 2275 27 1984 33 1905 127 1200 
7899 0.5451205601247279 0.22408565246041973 1.1937961780646014 0 0 0 0.38 162 1467 185 1173 217 1033 127 1201 148 2244 159 1743 220 1245 63 883 
7900 0.2812826755657234 0.2710242391891047 1.2928399729591327 0 0 0 0.42 162 1468 172 1503 176 2210 110 1322 204 1675 224 991 53 1629 60 1524 2 2130 4 2513 11 2544 19 1564 27 1985 44 1929 118 2150 0 859 209 276 
7901 0.5887283846269546 0.2188641994199599 1.1842410048713137 0 0 0 0.56 162 1469 164 2717 185 1174 77 2276 
7902 0.6523276459949751 0.21657923090842288 1.163386987913405 0 0 0 0.19 162 1470 196 1896 220 1246 19 1565 33 1906 40 1036 126 981 142 650 
7903 0.6056921615002856 0.2773720608788338 1.1254099957025225 0 0 0 0.15 162 1471 163 666 185 1175 
7904 0.7072637738915387 0.3016539763794519 1.0992034497575551 0 0 0 0.15 162 1472 163 667 196 1897 19 1566 
7905 0.5475349316470345 0.1202540529239567 1.2224928682330816 0 0 0 0.74 162 1473 185 1176 199 730 
7906 0.8011149550813732 0.22529020785363543 1.1052059965835497 0 0 0 0.29 152 956 158 1629 162 1474 176 2211 182 668 190 1155 197 853 204 1676 221 1685 232 1890 92 1885 146 2113 170 178 141 339 53 1630 103 1128 3 1230 11 2545 15 883 50 2104 63 884 126 982 222 1207 
7907 0.5510406459753255 0.13591034208822111 1.2293347905009857 0 0 0 0.54 162 1475 185 1177 220 1247 127 1202 148 2245 63 885 126 983 142 651 196 1898 
7908 0.6643956473885149 0.3796633848677928 1.089269834098707 0 0 0 0.44 162 1476 164 2718 220 1248 
