# 3D point list with one line of data per point:
#   POINT3D_ID, X, Y, Z, R, G, B, ERROR, TRACK[] as (IMAGE_ID, POINT2D_IDX)
# Number of points: 250, mean track length: 20.84
48 0.0812520831823349 0.11426310241222382 0.5739394426345825 115 104 102 1.93 0 48 1 48 2 47 3 45 4 38 6 32 7 38 8 40 9 48 10 48 11 48 12 48 13 48 14 45 15 45 16 39 17 40 18 39 19 28 98 44 99 45 
49 0.1413298398256302 0.08478570729494095 0.5786044597625732 34 24 26 3.2 0 49 1 49 2 48 3 46 6 33 7 39 8 41 9 49 10 49 11 49 12 49 13 49 14 46 15 46 16 40 17 41 18 40 19 29 98 45 99 46 
50 0.08504495024681091 -0.07959690690040588 0.6251782774925232 179 195 208 3.4 0 50 1 50 2 49 3 47 4 39 5 30 6 34 7 40 8 42 9 50 10 50 11 50 12 50 13 50 14 47 15 47 16 41 17 42 18 41 19 30 98 46 99 47 
51 0.13670650124549866 -0.008249645121395588 0.5933655500411987 98 97 99 1.85 0 51 1 51 2 50 3 48 6 35 7 41 8 43 9 51 10 51 11 51 12 51 13 51 14 48 15 48 16 42 17 43 18 42 19 31 98 47 99 48 
52 0.1416541188955307 0.13014991581439972 0.5670543909072876 30 20 21 2.63 0 52 1 52 2 51 3 49 5 31 6 36 7 42 8 44 9 52 10 52 11 52 12 52 13 52 14 49 15 49 16 43 17 44 18 43 19 32 98 48 99 49 
53 0.11831668764352798 0.08556203544139862 0.5839082598686218 66 49 52 1.59 0 53 1 53 2 52 3 50 7 43 8 45 9 53 10 53 11 53 12 53 13 53 14 50 15 50 16 44 17 45 18 44 98 49 99 50 
54 0.14296825230121613 0.1730838418006897 0.5538619756698608 59 58 53 1.26 0 54 1 54 2 53 3 51 4 40 5 32 6 37 7 44 8 46 9 54 10 54 11 54 12 54 13 54 14 51 15 51 16 45 17 46 18 45 19 33 99 51 
55 0.10103251039981842 -0.07815375179052353 0.6274895668029785 159 183 192 2.44 0 55 1 55 2 54 3 52 4 41 6 38 7 45 8 47 9 55 10 55 11 55 12 55 13 55 14 52 15 52 16 46 17 47 18 46 98 50 99 52 
56 0.13351696729660034 0.12193059921264648 0.57265305519104 60 42 46 2.5 0 56 1 56 2 55 3 53 6 39 7 46 8 48 9 56 10 56 11 56 12 56 13 56 14 53 15 53 16 47 17 48 18 47 98 51 99 53 
57 0.25621432065963745 0.17069657146930695 0.5367097854614258 84 85 82 3.92 0 57 1 57 2 56 3 54 4 42 5 33 6 40 7 47 8 49 9 57 10 57 11 57 12 57 13 57 14 54 15 54 16 48 17 49 18 48 19 34 20 3 98 52 99 54 
58 0.0026142706628888845 0.15516413748264313 0.4676099121570587 103 97 109 1.58 0 58 1 58 2 57 3 55 4 43 5 34 6 41 7 48 8 50 9 58 10 58 11 58 12 58 13 58 14 55 15 55 98 53 99 55 
59 0.08970080316066742 0.04870985448360443 0.5875222682952881 83 68 75 2.0 0 59 1 59 2 58 3 56 4 44 7 49 8 51 9 59 10 59 11 59 12 59 13 59 14 56 15 56 16 49 17 50 18 49 98 54 99 56 
60 -0.06464198976755142 0.0152058657258749 0.6130834221839905 93 85 82 1.25 0 60 1 60 2 59 3 57 4 45 8 52 9 60 10 60 11 60 12 60 13 60 14 57 15 57 16 50 17 51 18 50 98 55 99 57 
61 -0.01705252379179001 0.15699425339698792 0.4731251299381256 91 66 74 1.79 0 61 1 61 2 60 3 58 4 46 5 35 6 42 7 50 8 53 9 61 10 61 11 61 12 61 13 61 14 58 15 58 98 56 99 58 
62 -0.017643487080931664 0.1722019463777542 0.45454707741737366 43 61 34 1.34 0 62 1 62 2 61 3 59 4 47 5 36 6 43 7 51 8 54 9 62 10 62 11 62 12 62 13 62 15 59 98 57 99 59 
63 0.06806576251983643 0.06939110159873962 0.583780825138092 143 142 138 2.15 0 63 1 63 2 62 3 60 7 52 8 55 9 63 10 63 11 63 12 63 13 63 14 59 15 60 16 51 17 52 18 51 19 35 98 58 99 60 
64 -0.13195590674877167 0.06570401787757874 0.6095974445343018 123 111 99 0.67 0 64 1 64 2 63 3 61 4 48 5 37 9 64 10 64 11 64 12 64 13 64 14 60 15 61 16 52 17 53 18 52 98 59 99 61 
65 0.13260355591773987 -0.016769777983427048 0.6046963930130005 159 171 183 4.15 0 65 1 65 2 64 3 62 6 44 7 53 8 56 9 65 10 65 11 65 12 65 13 65 14 61 15 62 16 53 17 54 18 53 19 36 98 60 99 62 
66 0.021799545735120773 0.1659550964832306 0.46164512634277344 119 123 133 1.66 0 66 1 66 2 65 3 63 4 49 5 38 6 45 7 54 8 57 9 66 10 66 11 66 12 66 13 66 14 62 15 63 98 61 99 63 
67 0.08683393895626068 -0.030584292486310005 0.6133200526237488 197 212 225 2.87 0 67 1 67 2 66 3 64 4 50 6 46 7 55 8 58 9 67 10 67 11 67 12 67 13 67 14 63 15 64 16 54 17 55 18 54 19 37 98 62 99 64 
68 0.14220884442329407 0.18986816704273224 0.5123504996299744 61 55 52 2.61 0 68 1 68 2 67 3 65 4 51 5 39 6 47 98 63 99 65 
69 0.09010954201221466 0.10739041119813919 0.5796843767166138 71 55 58 2.11 0 69 1 69 2 68 3 66 4 52 6 48 7 56 8 59 9 68 10 68 11 68 12 68 13 68 14 64 15 65 16 55 17 56 18 55 19 38 98 64 99 66 
70 -0.01657356135547161 0.0495515838265419 0.5977514982223511 92 84 81 2.83 0 70 1 70 2 69 3 67 4 53 8 60 9 69 10 69 11 69 12 69 13 69 14 65 15 66 16 56 17 57 18 56 19 39 98 65 99 67 
71 0.40029972791671753 0.20486071705818176 0.6497055888175964 31 23 24 23.93 0 71 1 71 2 70 3 68 4 54 5 40 6 49 7 57 8 61 9 70 10 70 11 70 12 70 13 70 14 66 15 67 16 57 17 58 18 57 19 40 20 4 21 3 22 3 23 1 26 3 36 0 38 1 39 0 40 0 41 0 42 0 43 0 46 0 47 0 
72 0.13575629889965057 0.16480115056037903 0.5621902346611023 57 41 46 3.27 0 72 1 72 2 71 3 69 4 55 5 41 6 50 7 58 8 62 9 71 10 71 11 71 12 71 13 71 14 67 15 68 16 58 17 59 18 58 19 41 99 68 
73 0.11794169247150421 -0.03240681439638138 0.6157673001289368 142 160 172 2.59 0 73 1 73 2 72 3 70 6 51 7 59 8 63 9 72 10 72 11 72 12 72 13 72 14 68 15 69 16 59 17 60 18 59 98 66 99 69 
74 0.1470990777015686 -0.06912314146757126 0.6091130375862122 160 158 153 1.9 0 74 1 74 2 73 3 71 6 52 7 60 8 64 9 73 10 73 11 73 12 73 13 73 14 69 15 70 16 60 17 61 18 60 98 67 99 70 
75 0.13876569271087646 0.1899339258670807 0.5049925446510315 32 26 22 1.93 0 75 1 75 2 74 3 72 4 56 5 42 6 53 98 68 99 71 
76 0.06830620020627975 -0.05619437247514725 0.6150724291801453 152 148 139 1.8 0 76 1 76 2 75 3 73 4 57 6 54 7 61 8 65 9 74 10 74 11 74 12 74 13 74 14 70 15 71 16 61 17 62 18 61 19 42 98 69 99 72 
77 -0.10206139832735062 0.030461622402071953 0.6129801273345947 74 68 68 0.67 0 77 1 77 2 76 3 74 4 58 5 43 9 75 10 75 11 75 12 75 13 75 14 71 15 72 16 62 17 63 18 62 98 70 99 73 
78 0.10413306206464767 0.07616317272186279 0.5861647129058838 34 23 26 1.04 0 78 1 78 2 77 3 75 7 62 8 66 9 76 10 76 11 76 12 76 13 76 14 72 15 73 16 63 17 64 18 63 98 71 99 74 
79 0.07542074471712112 0.1833437830209732 0.5434170365333557 98 91 78 2.51 0 79 1 79 2 78 3 76 4 59 5 44 6 55 7 63 8 67 9 77 10 77 11 77 12 77 13 77 14 73 15 74 16 64 17 65 18 64 
80 0.10119391977787018 -0.08349385112524033 0.6284903287887573 161 180 190 2.27 0 80 1 80 2 79 3 77 4 60 6 56 7 64 8 68 9 78 10 78 11 78 12 78 13 78 14 74 15 75 16 65 17 66 18 65 98 72 99 75 
81 -0.001628449303098023 0.0475122332572937 0.5929316878318787 186 199 217 1.23 0 81 1 81 2 80 3 78 4 61 8 69 9 79 10 79 11 79 12 79 13 79 14 75 15 76 16 66 17 67 18 66 19 43 98 73 99 76 
82 0.1533699631690979 0.04339819401502609 0.5816266536712646 150 143 135 1.97 0 82 1 82 2 81 3 79 6 57 7 65 8 70 9 80 10 80 11 80 12 80 13 80 14 76 15 77 16 67 17 68 18 67 19 44 98 74 99 77 
83 0.092473603785038 0.1670869141817093 0.5646660923957825 70 53 60 1.67 0 83 1 83 2 82 3 80 4 62 5 45 6 58 7 66 8 71 9 81 10 81 11 81 12 81 13 81 14 77 15 78 16 68 17 69 18 68 
84 0.1506490260362625 0.14235690236091614 0.5595470070838928 145 136 128 2.06 0 84 1 84 2 83 3 81 4 63 5 46 6 59 7 67 8 72 9 82 10 82 11 82 12 82 13 82 14 78 15 79 16 69 17 70 18 69 19 45 98 75 99 78 
85 -0.0073333545587956905 0.177034392952919 0.4415171146392822 42 48 31 2.77 0 85 1 85 2 84 3 82 4 64 5 47 6 60 7 68 8 73 9 83 10 83 11 83 12 83 13 83 98 76 99 79 
86 0.47395968437194824 0.3492215573787689 1.3654297590255737 76 73 77 5.62 35 0 37 0 38 2 39 1 40 1 41 1 42 1 43 1 46 1 47 1 48 0 49 0 
87 0.3817358613014221 0.31005367636680603 1.430371880531311 135 130 125 9.54 21 4 22 4 23 2 35 1 37 1 38 3 39 2 40 2 41 2 42 2 43 2 46 2 47 2 48 1 49 1 
88 0.15333132445812225 0.1995093673467636 1.4779311418533325 128 122 117 3.76 40 3 41 3 42 3 43 3 46 3 47 3 48 2 49 2 
89 0.36950597167015076 0.1342902034521103 1.4139366149902344 111 122 136 4.2 6 61 7 69 8 74 9 84 21 5 22 5 23 3 35 2 37 2 38 4 39 3 40 4 41 4 42 4 43 4 46 4 47 4 48 3 49 3 
90 0.3545111417770386 0.261077344417572 1.2350493669509888 90 102 112 6.8 6 62 7 70 8 75 9 85 10 84 11 84 18 70 19 46 21 6 22 6 23 4 26 4 35 3 36 1 37 3 38 5 39 4 40 5 41 5 42 5 43 5 46 5 47 5 48 4 49 4 
91 0.3516957759857178 0.10447924584150314 1.2529213428497314 136 155 169 5.0 6 63 7 71 8 76 9 86 10 85 11 85 12 84 19 47 22 7 23 5 26 5 35 4 36 2 37 4 38 6 39 5 40 6 41 6 42 6 43 6 46 6 47 6 48 5 49 5 
92 0.33137837052345276 0.3454791307449341 1.4307725429534912 58 52 50 5.2 40 7 41 7 42 7 43 7 46 7 47 7 48 6 49 6 
93 0.3506932258605957 0.11409362405538559 1.1140425205230713 45 38 32 4.78 5 48 6 64 7 72 8 77 9 87 10 86 11 86 12 85 13 84 14 79 17 71 18 71 20 5 21 7 22 8 23 6 35 5 36 3 37 5 38 7 41 8 42 8 43 8 46 8 47 8 48 7 49 7 
94 0.07020983844995499 0.10277272015810013 1.5034294128417969 125 119 113 2.58 40 8 41 9 42 9 43 9 46 9 47 9 48 8 49 8 
95 0.39293453097343445 0.38206490874290466 1.5131076574325562 31 34 40 7.02 43 10 46 10 47 10 48 9 49 9 
96 0.3534978926181793 0.1306806206703186 1.2697343826293945 19 19 17 4.65 6 65 7 73 8 78 9 88 10 87 11 87 18 72 20 6 21 8 22 9 23 7 26 6 35 6 36 4 37 6 38 8 39 6 40 9 41 10 42 10 43 11 46 11 47 11 48 10 49 10 
97 0.4406323730945587 0.07163678109645844 0.8332890868186951 115 116 119 3.32 4 65 5 49 6 66 7 74 8 79 9 89 10 88 11 88 12 86 13 85 14 80 15 80 16 70 17 72 18 73 19 48 20 7 21 9 22 10 23 8 26 7 36 5 38 9 39 7 40 10 41 11 42 11 43 12 46 12 47 12 48 11 49 11 
98 0.36797791719436646 0.17095766961574554 1.2954962253570557 109 108 106 6.21 6 67 7 75 8 80 9 90 10 89 17 73 18 74 20 8 21 10 22 11 26 8 35 7 36 6 37 7 38 10 39 8 40 11 41 12 42 12 43 13 46 13 47 13 48 12 49 12 
99 0.36659184098243713 0.16040228307247162 1.372930645942688 114 118 127 4.3 6 68 7 76 8 81 9 91 19 49 20 9 22 12 23 9 35 8 36 7 37 8 38 11 39 9 40 12 41 13 42 13 43 14 46 14 47 14 48 13 49 13 
100 0.4964495599269867 0.3425695300102234 1.278888463973999 32 42 21 9.05 35 9 36 8 38 12 39 10 40 13 41 14 42 14 43 15 46 15 47 15 48 14 49 14 
101 0.5371541976928711 0.3159095048904419 1.2078081369400024 83 76 75 29.71 12 87 19 50 20 10 21 11 22 13 23 10 26 9 35 10 36 9 38 13 39 11 40 14 41 15 42 15 43 16 46 16 47 16 48 15 
102 0.3600643575191498 0.09330040961503983 1.4059010744094849 113 131 149 5.64 6 69 7 77 8 82 9 92 10 90 19 51 22 14 23 11 35 11 36 10 37 9 38 14 39 12 40 15 41 16 42 16 43 17 46 17 47 17 48 16 49 15 
103 0.3796800971031189 0.19354557991027832 1.4516392946243286 55 59 64 7.96 6 70 7 78 8 83 20 11 21 12 22 15 23 12 35 12 37 10 38 15 39 13 40 16 41 17 42 17 43 18 46 18 47 18 48 17 49 16 
104 0.45769649744033813 0.3363586664199829 1.3812404870986938 24 26 26 4.92 35 13 37 11 38 16 39 14 40 17 41 18 42 18 43 19 46 19 47 19 48 18 49 17 
105 0.4895651042461395 0.33449915051460266 1.3011434078216553 55 46 48 15.46 35 14 36 11 37 12 38 17 39 15 40 18 41 19 42 19 43 20 46 20 47 20 48 19 49 18 
106 0.3640159070491791 0.3182627558708191 1.4361059665679932 86 72 68 8.06 21 13 22 16 23 13 35 15 37 13 38 18 39 16 40 19 41 20 42 20 43 21 46 21 47 21 48 20 49 19 
107 0.38029515743255615 0.24318796396255493 1.4411526918411255 62 39 39 7.9 6 71 7 79 8 84 20 12 21 14 22 17 23 14 35 16 37 14 38 19 39 17 40 20 41 21 42 21 43 22 46 22 47 22 48 21 49 20 
108 0.37920787930488586 0.22217907011508942 1.4295705556869507 136 136 133 7.59 6 72 7 80 8 85 20 13 21 15 22 18 23 15 35 17 37 15 38 20 39 18 40 21 41 22 42 22 43 23 46 23 47 23 48 22 49 21 
109 0.3938039243221283 0.3815714120864868 1.495384931564331 29 29 34 9.03 42 23 43 24 46 24 47 24 48 23 49 22 
110 0.007467963267117739 0.40173840522766113 1.4513307809829712 84 98 112 1.67 46 25 47 25 48 24 49 23 
111 0.3703263998031616 0.3048585057258606 1.3334661722183228 36 25 28 6.31 6 73 7 81 8 86 22 19 23 16 35 18 36 12 37 16 38 21 39 19 40 22 41 23 42 24 43 25 46 26 47 26 48 25 49 24 
112 0.4510330855846405 -0.00978698581457138 0.9574867486953735 60 56 54 2.43 4 66 5 50 6 74 7 82 8 87 9 93 10 91 11 89 12 88 13 86 14 81 15 81 16 71 17 74 18 75 19 52 20 14 21 16 22 20 23 17 26 10 36 13 37 17 38 22 39 20 40 23 41 24 42 25 43 26 46 27 47 27 48 26 49 25 
113 0.375092476606369 0.21085450053215027 1.3902461528778076 104 97 91 5.81 6 75 7 83 8 88 9 94 21 17 22 21 23 18 35 19 37 18 38 23 39 21 40 24 41 25 42 26 43 27 46 28 47 28 48 27 49 26 
114 0.3472791314125061 0.24709199368953705 1.1054120063781738 104 118 131 5.35 6 76 7 84 8 89 9 95 10 92 11 90 12 89 13 87 14 82 17 75 18 76 20 15 21 18 22 22 23 19 26 11 35 20 36 14 37 19 39 22 40 25 41 26 42 27 43 28 46 29 47 29 48 28 49 27 
115 0.4675276577472687 0.023446019738912582 1.149423599243164 207 219 226 3.93 7 85 8 90 9 96 10 93 11 91 12 90 13 88 14 83 15 82 16 72 17 76 18 77 19 53 20 16 21 19 22 23 23 20 26 12 35 21 36 15 37 20 38 24 39 23 40 26 41 27 42 28 43 29 46 30 47 30 48 29 49 28 
116 0.3816080093383789 0.3147030770778656 1.421971321105957 110 107 106 9.06 21 20 22 24 23 21 35 22 37 21 38 25 39 24 40 27 41 28 42 29 43 30 46 31 47 31 48 30 49 29 
117 0.48192062973976135 0.010515615344047546 1.2516939640045166 51 47 44 6.38 7 86 8 91 9 97 10 94 11 92 12 91 13 89 14 84 15 83 16 73 17 77 18 78 19 54 20 17 21 21 22 25 23 22 35 23 37 22 38 26 39 25 40 28 41 29 42 30 43 31 46 32 47 32 48 31 49 30 
118 0.45550304651260376 0.06648899614810944 1.231332540512085 136 142 148 4.49 5 51 10 95 11 93 12 92 13 90 14 85 15 84 16 74 17 78 18 79 19 55 20 18 21 22 22 26 23 23 26 13 35 24 36 16 37 23 38 27 39 26 40 29 41 30 42 31 43 32 46 33 47 33 48 32 49 31 
119 0.2911912202835083 0.17778225243091583 1.4742481708526611 135 130 126 4.14 40 30 41 31 42 32 43 33 46 34 47 34 48 33 49 32 
120 0.45329615473747253 -0.004537681117653847 0.9804301857948303 81 80 83 2.83 4 67 6 77 7 87 8 92 9 98 10 96 11 94 12 93 13 91 14 86 15 85 16 75 17 79 18 80 19 56 20 19 21 23 22 27 23 24 26 14 36 17 37 24 38 28 39 27 40 31 41 32 42 33 43 34 46 35 47 35 48 34 49 33 
121 0.4510388672351837 0.34729573130607605 1.3843733072280884 25 23 28 5.0 35 25 37 25 38 29 39 28 40 32 41 33 42 34 43 35 46 36 47 36 48 35 49 34 
122 0.27971455454826355 0.3706127405166626 1.5057443380355835 45 45 41 4.66 42 35 43 36 46 37 47 37 48 36 49 35 
123 0.3673282563686371 0.24677202105522156 1.383104681968689 32 50 58 4.14 6 78 7 88 8 93 21 24 22 28 23 25 35 26 37 26 38 30 39 29 40 33 41 34 42 36 43 37 46 38 47 38 48 37 49 36 
124 0.3813515901565552 0.31610891222953796 1.408868670463562 95 82 81 8.83 21 25 22 29 23 26 35 27 37 27 38 31 39 30 40 34 41 35 42 37 43 38 46 39 47 39 48 38 49 37 
125 0.3370165228843689 0.12051315605640411 0.9816585779190063 41 31 27 3.3 5 52 6 79 7 89 8 94 9 99 10 97 11 95 12 94 13 92 14 87 15 86 16 76 17 80 19 57 20 20 21 26 22 30 23 27 26 15 35 28 36 18 37 28 39 31 40 35 41 36 42 38 46 40 47 40 48 39 49 38 
126 0.35798272490501404 0.2586655914783478 1.139593243598938 73 76 80 4.25 6 80 7 90 8 95 9 100 10 98 11 96 12 95 19 58 20 21 21 27 23 28 26 16 35 29 36 19 37 29 38 32 39 32 40 36 41 37 42 39 43 39 46 41 47 41 48 40 49 39 
127 0.3646072447299957 0.27319878339767456 1.3565635681152344 117 126 140 8.19 6 81 19 59 20 22 22 31 23 29 35 30 36 20 37 30 38 33 39 33 40 37 41 38 42 40 43 40 46 42 47 42 48 41 49 40 
128 0.2951226532459259 0.24880267679691315 1.4574583768844604 99 88 83 4.04 40 38 41 39 42 41 43 41 46 43 47 43 48 42 49 41 
129 0.3709183633327484 0.13972987234592438 1.3579450845718384 122 120 116 6.34 6 82 7 91 8 96 9 101 10 99 17 81 19 60 20 23 22 32 23 30 35 31 36 21 37 31 38 34 39 34 40 39 41 40 42 42 43 42 46 44 47 44 48 43 49 42 
130 0.2901652455329895 0.26989004015922546 1.453577995300293 110 107 104 4.33 40 40 41 41 42 43 43 43 46 45 47 45 48 44 49 43 
131 0.3446110188961029 0.22676816582679749 0.9778434038162231 65 46 41 8.41 5 53 6 83 7 92 8 97 9 102 10 100 11 97 12 96 13 93 14 88 15 87 16 77 17 82 18 81 19 61 20 24 21 28 22 33 23 31 26 17 35 32 36 22 37 32 38 35 39 35 40 41 41 42 42 44 43 44 46 46 47 46 48 45 49 44 
132 0.36895686388015747 0.10883313417434692 1.351793885231018 137 134 126 5.5 6 84 7 93 8 98 9 103 10 101 17 83 20 25 23 32 26 18 35 33 36 23 37 33 38 36 39 36 40 42 41 43 42 45 43 45 46 47 47 47 48 46 49 45 
133 0.3646855354309082 0.27512821555137634 1.3697896003723145 126 143 157 5.95 19 62 22 34 23 33 35 34 37 34 38 37 39 37 40 43 41 44 42 46 43 46 46 48 47 48 48 47 49 46 
134 0.3901902437210083 0.06594999879598618 1.5068787336349487 138 155 166 9.28 20 26 21 29 22 35 23 34 35 35 37 35 38 38 39 38 40 44 41 45 42 47 43 47 46 49 47 49 48 48 49 47 
135 0.4177433252334595 0.344937264919281 1.4222503900527954 13 12 14 21.69 35 36 37 36 38 39 39 39 40 45 41 46 42 48 43 48 46 50 47 50 48 49 49 48 
136 0.38058894872665405 0.3197898864746094 1.3836380243301392 119 119 118 8.15 6 85 8 99 21 30 22 36 23 35 35 37 37 37 38 40 39 40 40 46 41 47 42 49 43 49 46 51 47 51 48 50 49 49 
137 0.33216726779937744 0.18926912546157837 1.469201683998108 115 109 102 4.76 40 47 41 48 42 50 43 50 46 52 47 52 48 51 49 50 
138 0.37186914682388306 0.16789795458316803 1.3569414615631104 63 53 51 5.52 6 86 7 94 8 100 9 104 10 102 19 63 20 27 22 37 23 36 35 38 36 24 37 38 38 41 39 41 40 48 41 49 42 51 43 51 46 53 47 53 48 52 49 51 
139 0.37969982624053955 0.31762224435806274 1.4352703094482422 105 98 95 8.96 21 31 22 38 35 39 37 39 38 42 39 42 40 49 41 50 42 52 43 52 46 54 47 54 48 53 49 52 
140 0.38661664724349976 0.3238615095615387 1.3455123901367188 78 73 73 4.28 21 32 22 39 23 37 35 40 37 40 38 43 39 43 40 50 41 51 42 53 43 53 46 55 47 55 48 54 49 53 
141 0.34893885254859924 0.11263059824705124 1.2629731893539429 86 101 113 5.41 6 87 7 95 8 101 9 105 10 103 11 98 19 64 21 33 22 40 23 38 26 19 35 41 36 25 37 41 38 44 39 44 40 51 41 52 42 54 43 54 46 56 47 56 48 55 49 54 
142 0.3923475444316864 0.38401612639427185 1.503468632698059 22 23 28 8.18 43 55 46 57 47 57 48 56 49 55 
143 0.36804428696632385 0.2729453444480896 1.447312593460083 121 118 116 8.25 20 28 21 34 22 41 23 39 35 42 37 42 38 45 39 45 40 52 41 53 42 55 43 56 46 58 47 58 48 57 49 56 
144 0.3759773075580597 0.13023141026496887 1.4805524349212646 134 132 127 9.15 20 29 21 35 22 42 23 40 35 43 37 43 38 46 39 46 40 53 41 54 42 56 43 57 46 59 47 59 48 58 49 57 
145 0.3774760067462921 0.2975232005119324 1.3816707134246826 71 72 74 6.62 6 88 7 96 8 102 21 36 22 43 23 41 35 44 37 44 38 47 39 47 40 54 41 55 42 57 43 58 46 60 47 60 48 59 49 58 
146 0.2900543808937073 0.26271870732307434 1.454811930656433 116 110 104 4.34 40 55 41 56 42 58 43 59 46 61 47 61 48 60 49 59 
147 0.4100904166698456 0.31396159529685974 1.3255988359451294 37 34 38 16.83 6 89 21 37 22 44 23 42 35 45 36 26 37 45 38 48 39 48 40 56 41 57 42 59 43 60 46 62 47 62 48 61 49 60 
148 0.3784545660018921 0.3469593822956085 1.4277998208999634 88 76 71 8.06 35 46 37 46 38 49 39 49 40 57 41 58 42 60 43 61 46 63 47 63 48 62 49 61 
149 0.3811798691749573 0.3037296533584595 1.4198856353759766 31 35 39 9.13 21 38 22 45 23 43 35 47 37 47 38 50 39 50 40 58 41 59 42 61 43 62 46 64 47 64 48 63 49 62 
150 0.12156454473733902 0.2609063982963562 1.4651899337768555 89 90 86 3.09 40 59 41 60 46 65 47 65 48 64 49 63 
151 0.38119763135910034 0.28134849667549133 1.4385300874710083 109 104 101 9.26 7 97 20 30 21 39 22 46 23 44 35 48 37 48 38 51 39 51 40 60 41 61 42 62 43 63 46 66 47 66 48 65 49 64 
152 0.37999671697616577 0.17679432034492493 1.456067681312561 129 124 121 8.65 7 98 8 103 20 31 21 40 22 47 23 45 35 49 37 49 38 52 39 52 40 61 41 62 42 63 43 64 46 67 47 67 48 66 49 65 
153 -0.01389587577432394 0.13054333627223969 1.502636432647705 135 129 124 2.73 40 62 41 63 42 64 43 65 46 68 47 68 48 67 49 66 
154 0.47783878445625305 0.3897465467453003 1.5625659227371216 64 69 74 29.43 6 90 46 69 47 69 48 68 49 67 
155 0.42412304878234863 0.03510824963450432 0.8583915829658508 84 77 75 6.52 4 68 5 54 6 91 7 99 8 104 9 106 10 104 11 99 12 97 13 94 14 89 15 88 16 78 17 84 18 82 19 65 20 32 21 41 22 48 23 46 26 20 38 53 39 53 40 63 41 64 42 65 43 66 46 70 47 70 48 69 49 68 
156 0.3657936453819275 0.08856966346502304 1.3193305730819702 122 121 119 6.07 5 55 6 92 7 100 8 105 9 107 10 105 17 85 18 83 20 33 21 42 22 49 35 50 36 27 37 50 38 54 39 54 40 64 41 65 42 66 43 67 46 71 47 71 48 70 49 69 
157 0.3808802366256714 0.3306293487548828 1.3892852067947388 123 119 116 8.22 22 50 23 47 35 51 37 51 38 55 39 55 40 65 41 66 42 67 43 68 46 72 47 72 48 71 49 70 
158 0.17006073892116547 0.22618290781974792 1.4700850248336792 123 116 110 3.67 40 66 41 67 42 68 43 69 46 73 47 73 48 72 49 71 
159 0.4787810444831848 0.030983593314886093 1.2292828559875488 97 94 93 5.92 7 101 8 106 9 108 10 106 11 100 12 98 13 95 14 90 15 89 16 79 17 86 18 84 19 66 20 34 21 43 22 51 23 48 26 21 35 52 36 28 37 52 38 56 39 56 40 67 41 68 42 69 43 70 46 74 47 74 48 73 49 72 
160 0.3656458258628845 0.1855926364660263 1.1967263221740723 84 71 68 3.37 6 93 7 102 8 107 9 109 10 107 11 101 18 85 19 67 21 44 22 52 23 49 26 22 35 53 36 29 37 53 38 57 39 57 40 68 41 69 42 70 43 71 46 75 47 75 48 74 49 73 
161 0.3487927317619324 0.0637139305472374 1.2699065208435059 71 79 87 4.82 6 94 7 103 8 108 9 110 10 108 11 102 12 99 18 86 19 68 21 45 22 53 23 50 26 23 35 54 36 30 37 54 38 58 39 58 40 69 41 70 42 71 43 72 46 76 47 76 48 75 49 74 
162 0.3691423535346985 0.07433447986841202 1.3853293657302856 22 19 21 6.84 6 95 7 104 8 109 9 111 10 109 17 87 20 35 22 54 23 51 35 55 36 31 37 55 38 59 39 59 40 70 41 71 42 72 43 73 46 77 47 77 48 76 49 75 
163 0.1344539225101471 0.24368469417095184 1.467954158782959 105 90 82 3.39 40 71 41 72 42 73 46 78 47 78 48 77 49 76 
164 -0.20541983842849731 0.28521567583084106 1.472245693206787 94 91 88 2.96 40 72 46 79 47 79 48 78 49 77 
165 0.45281651616096497 -0.005816388409584761 0.9736947417259216 52 48 45 3.31 4 69 5 56 6 96 7 105 8 110 9 112 10 110 11 103 12 100 13 96 14 91 15 90 16 80 17 88 18 87 19 69 20 36 21 46 22 55 23 52 26 24 36 32 37 56 38 60 39 60 40 73 41 73 42 74 43 74 46 80 47 80 48 79 49 78 
166 0.37986594438552856 0.21001878380775452 1.4447523355484009 137 137 134 7.62 6 97 7 106 8 111 9 113 20 37 21 47 22 56 23 53 35 56 37 57 38 61 39 61 40 74 41 74 42 75 43 75 46 81 47 81 48 80 49 79 
167 0.34934794902801514 0.2635781466960907 1.4503860473632812 124 122 118 6.6 23 54 39 62 40 75 41 75 42 76 43 76 46 82 47 82 48 81 49 80 
168 0.48177534341812134 0.06325177103281021 1.2164429426193237 107 108 116 7.23 4 70 5 57 7 107 8 112 9 114 10 111 11 104 12 101 13 97 14 92 15 91 16 81 17 89 18 88 19 70 20 38 21 48 22 57 23 55 26 25 35 57 36 33 37 58 38 62 39 63 40 76 41 76 42 77 43 77 46 83 47 83 48 82 49 81 
169 0.31934455037117004 0.17199985682964325 1.4739348888397217 97 99 99 4.28 40 77 41 77 42 78 43 78 46 84 47 84 48 83 49 82 
170 0.3919841945171356 0.38690030574798584 1.5149033069610596 30 26 31 8.27 43 79 46 85 47 85 48 84 49 83 
171 0.361156165599823 0.12456005811691284 1.3896349668502808 102 118 136 6.57 6 98 7 108 20 39 22 58 23 56 35 58 36 34 37 59 38 63 39 64 40 78 41 78 42 79 43 80 46 86 47 86 48 85 49 84 
172 0.44474366307258606 0.006309464108198881 0.9966245293617249 34 30 27 2.66 4 71 5 58 7 109 8 113 9 115 10 112 11 105 12 102 13 98 14 93 15 92 16 82 17 90 18 89 19 71 20 40 21 49 22 59 23 57 26 26 36 35 37 60 38 64 39 65 40 79 41 79 42 80 43 81 46 87 47 87 48 86 49 85 
173 0.46679750084877014 0.03332521393895149 1.1506901979446411 64 54 52 4.03 7 110 8 114 9 116 10 113 11 106 12 103 13 99 14 94 15 93 16 83 17 91 18 90 19 72 20 41 21 50 22 60 23 58 26 27 35 59 36 36 37 61 38 65 39 66 40 80 41 80 42 81 43 82 46 88 47 88 48 87 49 86 
174 0.36850398778915405 0.14565005898475647 1.3233959674835205 112 105 101 5.68 6 99 7 111 8 115 9 117 10 114 17 92 20 42 21 51 23 59 26 28 35 60 36 37 37 62 38 66 39 67 40 81 41 81 42 82 43 83 46 89 47 89 48 88 49 87 
175 0.38194653391838074 0.3274061977863312 1.4205671548843384 123 120 118 8.54 21 52 22 61 35 61 37 63 38 67 39 68 40 82 41 82 42 83 43 84 46 90 47 90 48 89 49 88 
176 0.34894195199012756 0.11533355712890625 1.254364252090454 36 48 56 4.96 6 100 7 112 8 116 9 118 10 115 11 107 19 73 22 62 23 60 26 29 35 62 36 38 37 64 38 68 39 69 40 83 41 83 42 84 43 85 46 91 47 91 48 90 49 89 
177 0.05628791078925133 0.061623748391866684 1.5125030279159546 125 123 121 2.41 40 84 41 84 42 85 43 86 46 92 47 92 48 91 49 90 
178 0.3684379458427429 0.2937646508216858 1.3724992275238037 93 102 111 4.26 6 101 7 113 8 117 21 53 22 63 23 61 35 63 37 65 38 69 39 70 40 85 41 85 42 86 43 87 46 93 47 93 48 92 49 91 
179 0.38655051589012146 0.3798375427722931 1.5013903379440308 15 19 23 8.24 35 64 42 87 43 88 46 94 47 94 48 93 49 92 
180 0.3598244786262512 0.12114334851503372 1.3793861865997314 145 168 185 5.59 6 102 7 114 8 118 9 119 20 43 22 64 23 62 35 65 36 39 37 66 38 70 39 71 40 86 41 86 42 88 43 89 46 95 47 95 48 94 49 93 
181 0.37996482849121094 0.21514074504375458 1.447522759437561 45 47 50 8.08 6 103 7 115 8 119 20 44 21 54 22 65 23 63 35 66 37 67 38 71 39 72 40 87 41 87 42 89 43 90 46 96 47 96 48 95 49 94 
182 0.44517892599105835 -0.029449013993144035 0.9338427186012268 220 230 232 3.4 5 59 6 104 7 116 8 120 9 120 10 116 11 108 12 104 13 100 14 95 15 94 16 84 17 93 18 91 19 74 20 45 21 55 22 66 23 64 26 30 36 40 37 68 38 72 39 73 40 88 41 88 42 90 43 91 46 97 47 97 48 96 49 95 
183 0.37977150082588196 0.1439107209444046 1.4638789892196655 149 150 149 7.64 6 105 7 117 8 121 9 121 20 46 21 56 22 67 23 65 35 67 37 69 38 73 39 74 40 89 41 89 42 91 43 92 46 98 47 98 48 97 49 96 
184 0.507710874080658 0.34466254711151123 1.2749898433685303 26 43 16 4.34 35 68 36 41 38 74 39 75 40 90 41 90 42 92 43 93 46 99 47 99 48 98 49 97 
185 0.32881733775138855 0.2285619080066681 1.4598091840744019 107 99 96 5.12 39 76 40 91 41 91 42 93 43 94 46 100 47 100 48 99 49 98 
186 0.3827996850013733 0.33777379989624023 1.4229284524917603 41 44 47 7.66 35 69 37 70 38 75 39 77 40 92 41 92 42 94 43 95 46 101 47 101 48 100 49 99 
187 0.3160175085067749 0.17628711462020874 1.473081111907959 128 122 115 4.23 40 93 41 93 42 95 43 96 46 102 47 102 48 101 49 100 
188 0.3810521960258484 0.1561848372220993 1.4714418649673462 126 116 110 8.66 7 118 8 122 9 122 20 47 21 57 22 68 23 66 35 70 37 71 38 76 39 78 40 94 41 94 42 96 43 97 46 103 47 103 48 102 49 101 
189 0.13404333591461182 0.1907999962568283 1.4810445308685303 123 120 116 3.39 40 95 41 95 42 97 43 98 46 104 47 104 48 103 49 102 
190 0.3910376727581024 0.07281304895877838 1.5037559270858765 169 184 194 10.62 20 48 21 58 22 69 23 67 35 71 37 72 38 77 39 79 40 96 41 96 42 98 43 99 46 105 47 105 48 104 49 103 
191 0.3612425625324249 0.2672065794467926 1.2519700527191162 64 71 71 3.92 6 106 7 119 8 123 9 123 10 117 20 49 21 59 22 70 23 68 26 31 35 72 36 42 37 73 38 78 39 80 40 97 41 97 42 99 43 100 46 106 47 106 48 105 49 104 
192 0.34182876348495483 0.19999748468399048 1.1185322999954224 63 70 76 4.25 6 107 7 120 8 124 9 124 10 118 11 109 12 105 13 101 17 94 18 92 19 75 20 50 21 60 22 71 23 69 26 32 35 73 36 43 37 74 38 79 39 81 40 98 41 98 42 100 43 101 46 107 47 107 48 106 49 105 
193 0.07506779581308365 -0.04164594039320946 1.5491063594818115 21 19 30 3.92 40 99 41 99 42 101 43 102 46 108 47 108 48 107 49 106 
194 0.3413768410682678 0.06880254298448563 1.1310421228408813 24 19 16 3.31 6 108 7 121 8 125 9 125 10 119 11 110 12 106 13 102 14 96 17 95 18 93 20 51 21 61 22 72 23 70 26 33 35 74 36 44 37 75 38 80 40 100 41 100 42 102 43 103 46 109 47 109 48 108 49 107 
195 0.37984737753868103 0.24375006556510925 1.4319003820419312 93 81 79 7.67 6 109 7 122 8 126 20 52 21 62 22 73 23 71 35 75 37 76 38 81 39 82 40 101 41 101 42 103 43 104 46 110 47 110 48 109 49 108 
196 0.4361295700073242 0.35209035873413086 1.4121887683868408 31 29 34 23.82 35 76 37 77 38 82 39 83 40 102 41 102 42 104 43 105 46 111 47 111 48 110 49 109 
197 0.34707310795783997 0.2834305763244629 1.4456720352172852 103 92 88 6.95 21 63 23 72 38 83 39 84 40 103 41 103 42 105 43 106 46 112 47 112 48 111 49 110 
198 0.43812355399131775 -0.07246852666139603 0.8558275699615479 164 172 178 2.86 4 72 5 60 6 110 7 123 8 127 9 126 10 120 11 111 12 107 13 103 14 97 15 95 16 85 17 96 18 94 19 76 20 53 21 64 22 74 23 73 26 34 36 45 38 84 39 85 40 104 41 104 42 106 43 107 46 113 47 113 48 112 49 111 
199 0.07652983069419861 0.025262391194701195 1.5188078880310059 141 145 145 2.36 40 105 41 105 42 107 43 108 46 114 47 114 48 113 49 112 
200 0.4790704548358917 0.04829007387161255 1.2182098627090454 96 100 106 4.66 4 73 5 61 7 124 8 128 9 127 10 121 11 112 12 108 13 104 14 98 15 96 16 86 17 97 18 95 19 77 20 54 21 65 22 75 23 74 26 35 35 77 36 46 37 78 38 85 39 86 40 106 41 106 42 108 43 109 46 115 47 115 48 114 49 113 
201 0.3767842650413513 0.2672463059425354 1.4480071067810059 131 132 133 9.22 20 55 21 66 22 76 23 75 35 78 37 79 38 86 39 87 40 107 41 107 42 109 43 110 46 116 47 116 48 115 49 114 
202 0.07555177807807922 -0.024335626512765884 1.5325175523757935 37 32 30 2.88 40 108 41 108 42 110 43 111 46 117 47 117 48 116 49 115 
203 0.3600304126739502 0.09435320645570755 1.4074738025665283 110 123 136 5.56 6 111 7 125 8 129 9 128 10 122 19 78 21 67 22 77 23 76 35 79 36 47 37 80 38 87 39 88 40 109 41 109 42 111 43 112 46 118 47 118 48 117 49 116 
204 0.3534410893917084 0.22345612943172455 1.1393898725509644 72 75 82 6.24 5 62 6 112 7 126 8 130 9 129 10 123 11 113 12 109 13 105 17 98 18 96 19 79 20 56 21 68 22 78 23 77 26 36 35 80 36 48 37 81 38 88 39 89 40 110 41 110 42 112 43 113 46 119 47 119 48 118 49 117 
205 0.3595658540725708 0.2611047327518463 1.4505518674850464 117 110 108 8.37 21 69 22 79 23 78 35 81 37 82 38 89 39 90 40 111 41 111 42 113 43 114 46 120 47 120 48 119 49 118 
206 0.34409791231155396 0.20436197519302368 1.4650623798370361 116 109 102 5.51 39 91 40 112 41 112 42 114 43 115 46 121 47 121 48 120 49 119 
207 0.4812812805175781 0.3828046917915344 1.5057255029678345 82 78 85 12.03 42 115 43 116 46 122 47 122 48 121 49 120 
208 0.3487231433391571 0.08016598969697952 1.2629393339157104 51 61 67 3.87 5 63 6 113 7 127 8 131 9 130 10 124 11 114 18 97 19 80 21 70 22 80 23 79 26 37 35 82 36 49 37 83 38 90 39 92 40 113 41 113 42 116 43 117 46 123 47 123 48 122 49 121 
209 0.3786793053150177 0.21115918457508087 1.4249869585037231 143 142 140 7.35 6 114 7 128 8 132 20 57 21 71 22 81 23 80 35 83 37 84 38 91 39 93 40 114 41 114 42 117 43 118 46 124 47 124 48 123 49 122 
210 0.4747192859649658 0.0325247198343277 1.2062231302261353 197 212 219 4.21 7 129 8 133 9 131 10 125 11 115 12 110 13 106 14 99 15 97 16 87 17 99 18 98 19 81 20 58 21 72 22 82 23 81 26 38 35 84 36 50 37 85 38 92 39 94 40 115 41 115 42 118 43 119 46 125 47 125 48 124 49 123 
211 0.3780946135520935 0.19220198690891266 1.4258699417114258 141 142 142 6.91 6 115 7 130 8 134 20 59 21 73 22 83 23 82 35 85 37 86 38 93 39 95 40 116 41 116 42 119 43 120 46 126 47 126 48 125 49 124 
212 0.34931737184524536 0.21177244186401367 1.1062690019607544 26 17 18 5.64 6 116 7 131 8 135 9 132 10 126 11 116 12 111 13 107 14 100 17 100 18 99 20 60 21 74 22 84 23 83 26 39 35 86 36 51 37 87 38 94 40 117 41 117 42 120 43 121 46 127 47 127 48 126 49 125 
213 0.2739926278591156 0.1094079315662384 1.4904487133026123 122 115 109 3.79 40 118 41 118 42 121 43 122 46 128 47 128 48 127 49 126 
214 0.3819740414619446 0.32870519161224365 1.402374029159546 51 32 32 9.0 21 75 22 85 23 84 35 87 37 88 38 95 39 96 40 119 41 119 42 122 43 123 46 129 47 129 48 128 49 127 
215 0.5040879845619202 0.37323251366615295 1.4394298791885376 46 40 42 18.87 35 88 39 97 40 120 41 120 42 123 43 124 46 130 47 130 48 129 49 128 
216 0.3638802468776703 0.28947755694389343 1.341933012008667 27 36 42 7.94 6 117 7 132 20 61 22 86 23 85 35 89 36 52 37 89 38 96 39 98 40 121 41 121 42 124 43 125 46 131 47 131 48 130 49 129 
217 0.3715232014656067 0.34300512075424194 1.4290056228637695 111 102 96 7.48 35 90 37 90 38 97 39 99 40 122 41 122 42 125 43 126 46 132 47 132 48 131 49 130 
218 0.4455510973930359 -0.0956682413816452 0.8326364159584045 18 14 18 6.97 4 74 5 64 6 118 7 133 8 136 9 133 10 127 11 117 12 112 13 108 14 101 15 98 16 88 17 101 18 100 19 82 20 62 21 76 22 87 23 86 26 40 36 53 38 98 39 100 40 123 41 123 42 126 43 127 46 133 47 133 48 132 49 131 
219 0.4742162525653839 0.10343793779611588 1.1811519861221313 68 52 45 4.05 4 75 5 65 7 134 8 137 9 134 10 128 11 118 12 113 13 109 14 102 15 99 16 89 17 102 18 101 19 83 20 63 21 77 22 88 23 87 26 41 35 91 36 54 37 91 38 99 39 101 40 124 41 124 42 127 43 128 46 134 47 134 48 133 49 132 
220 0.3794785737991333 0.2725045084953308 1.4145914316177368 111 104 102 8.31 7 135 20 64 21 78 22 89 23 88 35 92 37 92 38 100 39 102 40 125 41 125 42 128 43 129 46 135 47 135 48 134 49 133 
221 0.03795955702662468 0.11043551564216614 1.5039080381393433 122 120 118 2.36 40 126 41 126 42 129 43 130 46 136 47 136 48 135 49 134 
222 0.3641938865184784 0.2372605949640274 1.3490269184112549 101 119 143 5.95 6 119 7 136 8 138 9 135 20 65 22 90 23 89 35 93 36 55 37 93 38 101 39 103 40 127 41 127 42 130 43 131 46 137 47 137 48 136 49 135 
223 0.3595608174800873 0.08548932522535324 1.4019131660461426 154 169 175 5.95 6 120 7 137 9 136 10 129 20 66 22 91 23 90 35 94 36 56 37 94 38 102 39 104 40 128 41 128 42 131 43 132 46 138 47 138 48 137 49 136 
224 0.4928165674209595 0.3504328727722168 1.3402228355407715 48 47 49 9.37 35 95 37 95 38 103 39 105 40 129 41 129 42 132 43 133 46 139 47 139 48 138 49 137 
225 0.4674913287162781 0.0327310711145401 1.0873222351074219 55 56 60 5.66 4 76 5 66 7 138 8 139 9 137 10 130 11 119 12 114 13 110 14 103 15 100 16 90 17 103 18 102 19 84 20 67 21 79 22 92 23 91 26 42 35 96 36 57 37 96 38 104 39 106 40 130 41 130 42 133 43 134 46 140 47 140 48 139 49 138 
226 0.37296682596206665 0.15251226723194122 1.4134328365325928 130 155 172 5.36 6 121 7 139 8 140 9 138 21 80 22 93 23 92 35 97 37 97 38 105 39 107 40 131 41 131 42 134 43 135 46 141 47 141 48 140 49 139 
227 0.3777916133403778 0.31319937109947205 1.3267250061035156 62 60 62 6.87 6 122 8 141 22 94 23 93 35 98 36 58 37 98 38 106 39 108 40 132 41 132 42 135 43 136 46 142 47 142 48 141 49 140 
228 0.485544890165329 0.2723880112171173 1.0489938259124756 131 133 135 14.2 4 77 5 67 8 142 9 139 10 131 11 120 12 115 13 111 14 104 16 91 17 104 18 103 19 85 20 68 21 81 22 95 23 94 26 43 35 99 36 59 37 99 38 107 39 109 40 133 41 133 42 136 43 137 46 143 47 143 48 142 
229 0.06132272258400917 0.21409477293491364 1.4790822267532349 123 118 114 3.35 40 134 41 134 42 137 43 138 46 144 47 144 48 143 49 141 
230 0.4777766466140747 0.06972741335630417 1.2063546180725098 97 99 105 6.25 4 78 5 68 7 140 8 143 9 140 10 132 11 121 12 116 13 112 14 105 15 101 16 92 17 105 18 104 19 86 20 69 21 82 22 96 23 95 26 44 35 100 36 60 37 100 38 108 39 110 40 135 41 135 42 138 43 139 46 145 47 145 48 144 49 142 
231 0.3818807601928711 0.3271499574184418 1.40421724319458 109 107 107 9.16 21 83 22 97 23 96 35 101 37 101 38 109 39 111 40 136 41 136 42 139 43 140 46 146 47 146 48 145 49 143 
232 0.36884787678718567 0.3469025790691376 1.4281582832336426 102 93 88 7.28 35 102 37 102 38 110 39 112 40 137 41 137 42 140 43 141 46 147 47 147 48 146 49 144 
233 0.4574088752269745 0.34458452463150024 1.4035813808441162 39 42 41 9.34 35 103 37 103 38 111 39 113 40 138 41 138 42 141 43 142 46 148 47 148 48 147 49 145 
234 0.3602668344974518 0.13523049652576447 1.2521933317184448 93 96 104 5.9 6 123 7 141 8 144 9 141 10 133 11 122 18 105 19 87 21 84 22 98 23 97 26 45 35 104 36 61 37 104 38 112 39 114 40 139 41 139 42 142 43 143 46 149 47 149 48 148 49 146 
235 0.3638787269592285 0.20081333816051483 1.2657570838928223 17 16 15 5.58 6 124 7 142 8 145 9 142 10 134 17 106 18 106 20 70 21 85 22 99 23 98 26 46 35 105 36 62 37 105 38 113 39 115 40 140 41 140 42 143 43 144 46 150 47 150 48 149 49 147 
236 0.44455236196517944 0.12921345233917236 1.0759148597717285 62 60 60 4.17 4 79 5 69 8 146 9 143 10 135 11 123 12 117 13 113 14 106 15 102 16 93 17 107 18 107 19 88 20 71 21 86 22 100 23 99 26 47 35 106 36 63 37 106 38 114 39 116 40 141 41 141 42 144 43 145 46 151 47 151 
237 0.43957167863845825 0.1927793323993683 0.8603398203849792 70 62 64 12.11 4 80 5 70 6 125 7 143 8 147 9 144 10 136 11 124 12 118 13 114 14 107 15 103 16 94 17 108 18 108 19 89 20 72 21 87 22 101 23 100 26 48 35 107 36 64 37 107 38 115 39 117 40 142 41 142 42 145 43 146 46 152 47 152 48 150 49 148 
238 0.3587312400341034 0.15409184992313385 1.3837641477584839 36 43 41 3.91 6 126 7 144 8 148 9 145 19 90 22 102 23 101 35 108 36 65 37 108 38 116 39 118 40 143 41 143 42 146 43 147 46 153 47 153 48 151 49 149 
239 0.45189598202705383 0.24009351432323456 1.0718451738357544 101 88 80 7.8 4 81 5 71 6 127 8 149 9 146 10 137 11 125 12 119 13 115 14 108 15 104 16 95 17 109 18 109 19 91 20 73 21 88 22 103 23 102 26 49 35 109 36 66 37 109 38 117 39 119 40 144 41 144 42 147 43 148 46 154 47 154 48 152 49 150 
240 0.45984551310539246 -0.05333768576383591 0.9946080446243286 186 195 195 4.63 6 128 7 145 8 150 9 147 10 138 11 126 12 120 13 116 14 109 15 105 16 96 17 110 18 110 19 92 20 74 21 89 22 104 23 103 26 50 35 110 36 67 37 110 38 118 39 120 40 145 41 145 42 148 43 149 46 155 47 155 48 153 49 151 
241 0.32134753465652466 0.36857420206069946 1.4703456163406372 28 22 19 4.43 42 149 43 150 46 156 47 156 48 154 49 152 
242 0.365696519613266 0.09832099080085754 1.4195935726165771 169 193 204 4.1 6 129 7 146 9 148 19 93 21 90 22 105 23 104 35 111 37 111 38 119 39 121 40 146 41 146 42 150 43 151 46 157 47 157 48 155 49 153 
243 0.37415534257888794 0.2917400002479553 1.2942962646484375 118 118 117 6.74 6 130 7 147 8 151 9 149 20 75 21 91 23 105 35 112 36 68 37 112 38 120 39 122 40 147 41 147 42 151 43 152 46 158 47 158 48 156 49 154 
244 0.3197706639766693 0.19899135828018188 1.4673203229904175 116 108 99 4.48 40 148 41 148 42 152 43 153 46 159 47 159 48 157 49 155 
245 0.3637256920337677 0.27533096075057983 1.3479021787643433 31 39 42 6.82 6 131 7 148 8 152 19 94 20 76 22 106 23 106 35 113 36 69 37 113 38 121 39 123 40 149 41 149 42 153 43 154 46 160 47 160 48 158 49 156 
246 0.37809300422668457 0.08321715146303177 1.4680931568145752 100 106 110 9.28 20 77 21 92 22 107 23 107 35 114 37 114 38 122 39 124 40 150 41 150 42 154 43 155 46 161 47 161 48 159 49 157 
247 0.3676658868789673 0.23197373747825623 1.1784824132919312 65 60 57 3.27 6 132 7 149 8 153 9 150 10 139 11 127 18 111 19 95 22 108 23 108 26 51 35 115 36 70 37 115 38 123 39 125 40 151 41 151 42 155 43 156 46 162 47 162 48 160 49 158 
248 0.4810090661048889 0.3815872073173523 1.5348020792007446 66 65 72 31.57 6 133 42 156 43 157 46 163 47 163 48 161 49 159 
249 0.3799375891685486 0.23716774582862854 1.4356609582901 128 127 128 7.69 6 134 7 150 8 154 20 78 21 93 22 109 23 109 35 116 37 116 38 124 39 126 40 152 41 152 42 157 43 158 46 164 47 164 48 162 49 160 
250 0.39635950326919556 0.391457736492157 1.553768277168274 52 44 50 6.72 46 165 47 165 48 163 49 161 
251 0.2879990041255951 0.20761902630329132 1.4670660495758057 126 125 123 4.15 40 153 41 153 42 158 43 159 46 166 47 166 48 164 49 162 
252 0.4564211964607239 0.3294219374656677 1.2767236232757568 41 39 40 7.42 23 110 35 117 36 71 37 117 38 125 39 127 40 154 41 154 42 159 43 160 46 167 47 167 48 165 49 163 
253 0.457063227891922 0.208399698138237 1.181980013847351 84 88 90 3.38 4 82 5 72 6 135 8 155 9 151 10 140 11 128 12 121 13 117 14 110 16 97 17 111 18 112 19 96 20 79 21 94 22 110 23 111 26 52 35 118 36 72 37 118 38 126 39 128 40 155 41 155 42 160 43 161 46 168 47 168 48 166 49 164 
254 0.3656863272190094 0.26874101161956787 1.342962622642517 116 136 158 6.71 6 136 7 151 8 156 19 97 20 80 22 111 23 112 35 119 36 73 37 119 38 127 39 129 40 156 41 156 42 161 43 162 46 169 47 169 48 167 49 165 
255 0.4481712281703949 0.3120315670967102 1.2549909353256226 50 45 45 6.8 20 81 21 95 22 112 23 113 35 120 36 74 37 120 38 128 39 130 40 157 41 157 42 162 43 163 46 170 47 170 48 168 49 166 
256 -0.1967208981513977 0.11608801037073135 1.5121738910675049 94 88 83 2.06 40 158 41 158 42 163 43 164 46 171 47 171 48 169 49 167 
257 0.3636661469936371 0.22145035862922668 1.3532334566116333 32 28 27 4.74 6 137 7 152 8 157 9 152 19 98 20 82 22 113 23 114 35 121 36 75 37 121 38 129 39 131 40 159 41 159 42 164 43 165 46 172 47 172 48 170 49 168 
258 0.3812163770198822 0.3084760010242462 1.4113187789916992 125 122 119 8.51 21 96 22 114 23 115 35 122 37 122 38 130 39 132 40 160 41 160 42 165 43 166 46 173 47 173 48 171 49 169 
259 0.479508638381958 0.3804003894329071 1.529779076576233 54 54 59 23.99 6 138 42 166 43 167 46 174 47 174 48 172 49 170 
260 0.36507901549339294 0.06106148287653923 1.2383214235305786 111 126 139 5.7 5 73 6 139 7 153 8 158 9 153 10 141 11 129 16 98 18 113 19 99 21 97 22 115 23 116 26 53 35 123 36 76 37 123 38 131 39 133 40 161 41 161 42 167 43 168 46 175 47 175 48 173 49 171 
261 0.44219771027565 0.08776667714118958 1.0892369747161865 87 75 65 8.96 4 83 5 74 6 140 7 154 8 159 9 154 10 142 11 130 12 122 13 118 14 111 15 106 16 99 17 112 18 114 19 100 20 83 21 98 22 116 23 117 26 54 36 77 37 124 38 132 39 134 40 162 41 162 42 168 43 169 46 176 47 176 48 174 49 172 
262 0.3312433362007141 0.19621922075748444 1.4674944877624512 110 104 99 4.83 40 163 41 163 42 169 43 170 46 177 47 177 48 175 49 173 
263 0.32877373695373535 -0.010349324904382229 1.0198789834976196 8 5 5 3.82 6 141 7 155 8 160 9 155 10 143 11 131 12 123 13 119 14 112 15 107 16 100 17 113 19 101 20 84 21 99 22 117 26 55 36 78 38 133 39 135 40 164 41 164 42 170 46 178 47 178 48 176 49 174 
264 0.08346670120954514 0.3911935091018677 1.446451187133789 69 76 72 2.54 46 179 47 179 48 177 49 175 
265 0.36879509687423706 0.16327962279319763 1.4040836095809937 49 68 78 5.75 6 142 7 156 8 161 9 156 21 100 22 118 23 118 35 124 36 79 37 125 38 134 39 136 40 165 41 165 42 171 43 171 46 180 47 180 48 178 49 176 
266 0.3584797978401184 0.10462512820959091 1.3869483470916748 143 164 178 4.81 6 143 7 157 8 162 9 157 10 144 20 85 22 119 23 119 35 125 36 80 37 126 38 135 39 137 40 166 41 166 42 172 43 172 46 181 47 181 48 179 49 177 
267 -0.20352786779403687 0.08577140420675278 1.5211056470870972 107 98 95 2.18 40 167 41 167 42 173 43 173 46 182 47 182 48 180 49 178 
268 -0.05667963996529579 0.4099888503551483 1.4809612035751343 68 74 89 2.93 43 174 46 183 47 183 48 181 49 179 
269 0.45551741123199463 0.01624070666730404 1.0412604808807373 129 129 130 8.46 4 84 5 75 7 158 8 163 9 158 10 145 11 132 12 124 13 120 14 113 15 108 16 101 17 114 18 115 19 102 20 86 21 101 22 120 23 120 26 56 35 126 36 81 37 127 38 136 39 138 40 168 41 168 42 174 43 175 46 184 47 184 48 182 49 180 
270 0.3807660937309265 0.2555616497993469 1.448465347290039 122 112 109 9.09 6 144 20 87 21 102 22 121 23 121 35 127 37 128 38 137 39 139 40 169 41 169 42 175 43 176 46 185 47 185 48 183 49 181 
271 0.3651612401008606 0.07387690246105194 1.389274001121521 15 13 14 5.81 6 145 7 159 8 164 9 159 10 146 17 115 22 122 23 122 35 128 36 82 37 129 38 138 39 140 40 170 41 170 42 176 43 177 46 186 47 186 48 184 49 182 
272 0.09785182774066925 0.24740992486476898 1.46932852268219 104 100 98 3.35 40 171 41 171 46 187 47 187 48 185 49 183 
273 0.37808912992477417 0.15262828767299652 1.4371119737625122 138 139 138 7.86 7 160 8 165 20 88 21 103 22 123 23 123 35 129 37 130 38 139 39 141 40 172 41 172 42 177 43 178 46 188 47 188 48 186 49 184 
274 0.4861796498298645 0.2678447961807251 1.0863158702850342 62 60 62 38.18 8 166 9 160 10 147 11 133 12 125 13 121 14 114 16 102 17 116 18 116 19 103 20 89 21 104 22 124 23 124 26 57 35 130 36 83 37 131 38 140 39 142 40 173 41 173 42 178 43 179 46 189 47 189 48 187 
275 0.5405722260475159 0.31875526905059814 1.2214752435684204 52 57 54 4.22 19 104 35 131 36 84 38 141 39 143 40 174 41 174 42 179 43 180 46 190 47 190 48 188 
276 0.3617662489414215 0.1263623833656311 1.397409200668335 100 117 135 5.74 6 146 7 161 8 167 9 161 20 90 22 125 23 125 35 132 36 85 37 132 38 142 39 144 40 175 41 175 42 180 43 181 46 191 47 191 48 189 49 185 
277 0.37723568081855774 0.18191920220851898 1.4218655824661255 112 113 119 6.4 6 147 7 162 8 168 9 162 18 117 20 91 21 105 22 126 23 126 35 133 37 133 38 143 39 145 40 176 41 176 42 181 43 182 46 192 47 192 48 190 49 186 
278 0.3770591616630554 0.18333248794078827 1.41958487033844 68 67 75 6.42 6 148 7 163 8 169 9 163 18 118 20 92 21 106 22 127 23 127 35 134 37 134 38 144 39 146 40 177 41 177 42 182 43 183 46 193 47 193 48 191 49 187 
279 0.5221216082572937 0.31039300560951233 1.0719802379608154 32 30 32 4.48 12 126 18 119 19 105 20 93 21 107 22 128 23 128 26 58 35 135 36 86 38 145 39 147 40 178 41 178 42 183 43 184 46 194 47 194 48 192 
280 0.36588913202285767 0.14635857939720154 1.2874020338058472 84 78 79 5.29 6 149 7 164 8 170 9 164 10 148 17 117 18 120 20 94 21 108 22 129 23 129 26 59 35 136 36 87 37 135 38 146 39 148 40 179 41 179 42 184 43 185 46 195 47 195 48 193 49 188 
281 0.3588445484638214 0.11602144688367844 1.3818776607513428 238 251 255 4.91 6 150 7 165 8 171 9 165 10 149 20 95 22 130 23 130 35 137 36 88 37 136 38 147 39 149 40 180 41 180 42 185 43 186 46 196 47 196 48 194 49 189 
282 0.3802366554737091 0.2003563493490219 1.4614803791046143 99 85 86 8.62 7 166 8 172 20 96 21 109 22 131 23 131 35 138 37 137 38 148 39 150 40 181 41 181 42 186 43 187 46 197 47 197 48 195 49 190 
283 0.3792487680912018 0.1839379221200943 1.4484611749649048 125 126 126 7.62 6 151 7 167 8 173 20 97 21 110 22 132 23 132 35 139 37 138 38 149 39 151 40 182 41 182 42 187 43 188 46 198 47 198 48 196 49 191 
284 0.38067296147346497 0.1607673466205597 1.472515344619751 107 100 101 9.07 6 152 7 168 8 174 9 166 18 121 20 98 21 111 22 133 23 133 35 140 37 139 38 150 39 152 40 183 41 183 42 188 43 189 46 199 47 199 48 197 49 192 
285 0.5073792338371277 0.371870219707489 1.4628024101257324 66 53 54 11.17 41 184 42 189 43 190 46 200 47 200 48 198 49 193 
286 0.3793005645275116 0.09953352808952332 1.4783629179000854 81 79 82 9.55 20 99 21 112 22 134 23 134 35 141 37 140 38 151 39 153 40 184 41 185 42 190 43 191 46 201 47 201 48 199 49 194 
287 0.34987226128578186 0.24961963295936584 1.1030149459838867 27 17 16 6.4 6 153 7 169 8 175 9 167 10 150 11 134 12 127 13 122 17 118 18 122 20 100 21 113 22 135 23 135 26 60 35 142 36 89 37 141 38 152 40 185 41 186 42 191 43 192 46 202 47 202 48 200 49 195 
288 0.35884109139442444 0.07786621153354645 1.5001318454742432 78 76 75 8.53 35 143 37 142 38 153 39 154 40 186 41 187 42 192 43 193 46 203 47 203 48 201 49 196 
289 0.4610181748867035 0.39282602071762085 1.5621333122253418 41 37 42 22.25 6 154 46 204 47 204 48 202 49 197 
290 0.45270276069641113 -0.013973976485431194 1.0046178102493286 216 226 228 3.01 7 170 8 176 9 168 10 151 11 135 12 128 13 123 14 115 15 109 16 103 17 119 18 123 19 106 20 101 21 114 22 136 23 136 26 61 36 90 37 143 38 154 39 155 40 187 41 188 42 193 43 194 46 205 47 205 48 203 49 198 
291 0.356785386800766 0.20909357070922852 1.2315425872802734 72 76 87 6.23 6 155 7 171 8 177 9 169 10 152 11 136 18 124 19 107 21 115 22 137 23 137 26 62 35 144 36 91 37 144 38 155 39 156 40 188 41 189 42 194 43 195 46 206 47 206 48 204 49 199 
292 0.35908523201942444 0.07960253208875656 1.391141414642334 175 192 200 5.62 7 172 8 178 9 170 10 153 20 102 22 138 23 138 35 145 36 92 37 145 38 156 39 157 40 189 41 190 42 195 43 196 46 207 47 207 48 205 49 200 
293 0.37673789262771606 0.21715672314167023 1.403455376625061 117 106 105 5.86 6 156 7 173 8 179 9 171 21 116 22 139 23 139 35 146 37 146 38 157 39 158 40 190 41 191 42 196 43 197 46 208 47 208 48 206 49 201 
294 0.38001343607902527 0.25502094626426697 1.428253412246704 118 119 119 7.44 6 157 7 174 8 180 20 103 21 117 22 140 23 140 35 147 37 147 38 158 39 159 40 191 41 192 42 197 43 198 46 209 47 209 48 207 49 202 
295 0.4682766795158386 0.04901890829205513 1.167995810508728 55 64 71 6.25 4 85 5 76 7 175 8 181 9 172 10 154 11 137 12 129 13 124 14 116 15 110 16 104 17 120 18 125 19 108 20 104 21 118 22 141 23 141 26 63 35 148 36 93 37 148 38 159 39 160 40 192 41 193 42 198 43 199 46 210 47 210 48 208 49 203 
296 0.22035907208919525 0.23991477489471436 1.4628674983978271 101 91 83 3.67 40 193 41 194 42 199 43 200 46 211 47 211 48 209 49 204 
297 0.34939390420913696 0.1250324547290802 1.2525464296340942 22 25 27 3.66 6 158 7 176 8 182 9 173 10 155 11 138 18 126 19 109 21 119 22 142 23 142 26 64 35 149 36 94 37 149 38 160 39 161 40 194 41 195 42 200 43 201 46 212 47 212 48 210 49 205 
