# 3D point list with one line of data per point:
#   POINT3D_ID, X, Y, Z, R, G, B, ERROR, TRACK[] as (IMAGE_ID, POINT2D_IDX)
# Number of points: 402, mean track length: 7.33
1220 -0.33340754706391124 -0.016128285195045236 0.8997518167870944 0 0 0 0.59 21 567 148 432 224 325 
1221 -0.3493571079490948 -0.003675285646337489 0.7840402278449212 0 0 0 0.44 21 568 26 123 73 106 142 306 181 16 199 65 126 120 76 12 209 187 
1222 -0.3434875663554198 0.004973921885913371 0.8796590160354341 0 0 0 0.41 21 569 26 124 148 433 181 17 199 66 
1223 -0.3398758637777772 0.010042178067203136 0.8896065480976255 0 0 0 0.16 21 570 159 223 224 326 
1224 -0.3431219747336969 0.01779895492740615 0.9086333009892226 0 0 0 0.26 21 571 148 434 164 347 
1225 -0.34206013056777096 0.024140188153639316 0.8453378783987906 0 0 0 0.48 21 572 142 307 159 224 196 280 
1226 -0.3591765377997941 0.011202309022637158 0.5761172669418125 0 0 0 0.05 21 573 73 107 199 67 
1227 -0.34269342578767353 0.05360565966548395 0.8692580529416135 0 0 0 0.3 21 574 142 308 148 435 
1228 -0.21746790356103707 0.08832612949330189 1.0156341269322395 0 0 0 0.57 21 575 60 152 77 286 88 32 111 125 146 171 158 48 162 138 172 86 232 77 81 36 96 60 157 109 44 243 209 188 217 16 
1229 -0.34331328935686906 0.06888152486128483 0.8674877695681441 0 0 0 0.37 21 576 142 309 148 436 
1230 -0.3528742731618096 -0.1515947341243169 0.6486119533568417 0 0 0 0.56 21 577 224 327 229 802 
1231 -0.3700080295860434 -0.13814019297292876 0.48452579775973836 0 0 0 0.32 21 578 73 108 199 68 
1232 -0.3461530325896957 -0.13428577886883677 0.7097649135052877 0 0 0 0.4 21 579 63 53 142 310 
1233 -0.22611020250488112 -0.11605763094469493 1.0547170790042635 0 0 0 0.52 21 580 60 153 103 57 172 87 81 37 111 126 179 48 209 189 
1234 -0.25805570589513765 -0.1173987371418858 1.0575768849814313 0 0 0 0.34 21 581 60 154 162 139 172 88 209 190 
1235 -0.34879480404572427 -0.11602375870263644 0.727091491757151 0 0 0 0.57 21 582 26 125 63 54 73 109 199 69 
1236 -0.34858980311651233 -0.10741512678264872 0.771756679105975 0 0 0 0.17 21 583 26 126 142 311 
1237 -0.3531695555448205 -0.10462348553548122 0.7371199358095755 0 0 0 0.11 21 584 142 312 229 803 
1238 -0.34641429063008944 -0.10306308091346392 0.7968682471703754 0 0 0 0.45 21 585 26 127 126 121 142 313 
1239 -0.35277556850203734 -0.10110118997916266 0.7605916676540518 0 0 0 0.41 21 586 26 128 142 314 199 70 229 804 
1240 -0.3513052281956596 -0.09654829540435313 0.7870898252743839 0 0 0 0.41 21 587 26 129 73 110 199 71 229 805 
1241 -0.3480974673610126 -0.08434700948704238 0.8146658605558119 0 0 0 0.5 21 588 26 130 126 122 142 315 229 806 
1242 -0.35411350416434567 -0.08020827489312214 0.7330540999830302 0 0 0 0.28 21 589 142 316 229 807 
1243 -0.3512055024625701 -0.05598161527447543 0.7532023939074203 0 0 0 0.19 21 590 26 131 73 111 142 317 199 72 
1244 -0.3471307232130627 -0.03046160153207992 0.8030396527757364 0 0 0 0.71 21 591 26 132 71 93 73 112 126 123 224 328 199 73 
1245 -0.34991765140234476 -0.01759948317942927 0.7623413955460832 0 0 0 0.37 21 592 26 133 71 94 73 113 126 124 142 318 224 329 
1246 -0.3492110323012704 -0.00871162856864045 0.8021763550579898 0 0 0 0.46 21 593 26 134 73 114 181 18 199 74 71 95 81 38 198 30 209 191 
1247 -0.3502277432070176 0.005749933381026699 0.7699166089013741 0 0 0 0.49 21 594 26 135 142 319 
1248 -0.3527434730541515 0.02761741308817952 1.0483067929287924 0 0 0 0.54 21 595 26 136 44 244 92 108 164 348 199 75 
1249 -0.26239552382608844 0.07203814534903345 1.0238595600454101 0 0 0 0.26 21 596 128 79 148 437 
1250 -0.353102652269516 0.034724091437183004 0.6949108287778253 0 0 0 0.22 21 597 63 55 142 320 
1251 -0.2864398288223547 0.09068408395612838 1.0261439364997949 0 0 0 0.76 21 598 27 117 33 202 50 159 77 287 81 39 96 61 111 127 118 111 128 80 146 172 172 89 221 46 209 192 217 17 43 29 224 330 
1252 -0.3521804271767984 -0.1308190981242881 0.6449179967678118 0 0 0 0.43 21 599 142 321 199 76 229 808 
1253 -0.2426573588162862 -0.11681737484300762 1.057223342980382 0 0 0 0.37 21 600 103 58 111 128 164 349 172 90 179 49 209 193 114 45 
1254 -0.2237396263991755 -0.050175631085050215 1.0427687066897589 0 0 0 0.4 21 601 25 73 43 30 53 28 60 155 67 16 81 40 88 33 96 62 111 129 114 46 118 112 127 90 128 81 146 173 157 110 164 350 181 19 213 161 219 40 220 77 224 331 232 78 26 137 50 160 
1255 -0.3392248303930983 -0.05806554092984176 0.9074574635080876 0 0 0 0.32 21 602 71 96 164 351 181 20 
1256 -0.2979326078601158 -0.048403236790606846 1.0546355241438639 0 0 0 0.45 21 603 32 38 44 245 77 288 146 174 148 438 158 49 25 74 26 138 27 118 43 31 50 161 60 156 61 51 67 17 71 97 73 115 81 41 88 34 92 109 96 63 111 130 113 160 118 113 127 91 157 111 164 352 172 91 179 50 181 21 199 77 213 162 219 41 232 79 1 18 65 14 103 59 110 128 126 125 128 82 176 122 190 13 198 31 204 22 209 194 221 47 
1257 -0.3471113545610323 -0.03148353107694299 0.648671690976603 0 0 0 0.45 21 604 142 322 224 332 
1258 -0.324170161889833 -0.012391238757386428 1.0547153224090053 0 0 0 0.42 21 605 26 139 71 98 113 161 148 439 199 78 
1259 -0.3522811148068054 0.03209112530008782 0.8190480726834466 0 0 0 0.7 21 606 199 79 224 333 
1260 -0.22682720864884856 0.07334704815847874 1.0187621802435494 0 0 0 0.34 21 607 26 140 60 157 67 18 81 42 103 60 111 131 158 50 162 140 172 92 232 80 71 99 126 126 
1261 -0.24592370298663102 0.10592412950574992 1.0166841765868884 0 0 0 0.66 21 608 25 75 26 141 32 39 36 19 44 246 52 234 81 43 88 35 110 129 126 127 142 323 148 440 164 353 181 22 199 80 
1262 -0.35001059518523886 -0.12155476926922067 1.0777637298834308 0 0 0 0.7 21 609 26 142 36 20 60 158 148 441 181 23 224 334 199 81 
1263 -0.3180589481828714 -0.11529306057250667 1.0665545075970129 0 0 0 0.37 21 610 60 159 73 116 77 289 92 110 103 61 209 195 
1264 -0.20431734498112658 -0.042340518243044196 1.0365886448078776 0 0 0 0.87 21 611 110 130 114 47 164 354 219 42 232 81 
1265 -0.242281003060904 -0.042279981075503716 1.0450607274398438 0 0 0 0.49 21 612 43 32 67 19 88 36 146 175 164 355 181 24 213 163 220 78 224 335 71 100 1 19 65 15 118 114 158 51 190 14 209 196 217 18 
1266 -0.2791868291187563 -0.04096598333932827 1.0506371890517106 0 0 0 0.71 21 613 26 143 32 40 43 33 71 101 73 117 81 44 88 37 110 131 111 132 113 162 114 48 118 115 127 92 146 176 164 356 199 82 224 336 1 20 25 76 65 16 103 62 126 128 176 123 209 197 217 19 77 290 
1267 -0.22324370610126992 -0.02698023854991141 1.0378859012560373 0 0 0 0.39 21 614 26 144 43 34 53 29 61 52 67 20 81 45 88 38 96 64 111 133 113 163 114 49 128 83 146 177 172 93 232 82 
1268 -0.2617693499121871 -0.023892712924434248 1.0444827722976662 0 0 0 0.4 21 615 50 162 67 21 81 46 118 116 146 178 213 164 
1269 -0.29910331839083554 -0.02344660142031772 1.0493693826958999 0 0 0 0.63 21 616 26 145 27 119 44 247 52 235 71 102 73 118 77 291 114 50 118 117 127 93 128 84 142 324 213 165 224 337 232 83 1 21 25 77 65 17 103 63 113 164 164 357 190 15 209 198 217 20 220 79 221 48 
1270 -0.3526366059544733 -0.02643902519830554 0.7098755706891873 0 0 0 0.42 21 617 26 146 142 325 
1271 -0.20547237728971307 0.012441181674128457 1.02900565811933 0 0 0 0.3 21 618 88 39 92 111 
1272 -0.2076334442749258 0.07226260838261152 1.014682119937674 0 0 0 0.5 21 619 60 160 111 134 162 141 172 94 92 112 
1273 -0.2446094169322874 0.07222040932103417 1.0208059428616376 0 0 0 0.5 21 620 26 147 33 203 60 161 67 22 77 292 81 47 92 113 96 65 111 135 126 129 148 442 162 142 181 25 220 80 43 35 219 43 1 22 146 179 209 199 232 84 
1274 -0.22568369790573006 0.08342203832464257 1.0163399079868385 0 0 0 0.68 21 621 26 148 32 41 36 21 44 248 53 30 60 162 81 48 85 235 88 40 111 136 113 165 118 118 128 85 158 52 162 143 164 358 181 26 50 163 213 166 
1275 -0.32051965450066194 0.0896799360389487 1.0290460435875834 0 0 0 0.46 21 622 44 249 142 326 164 359 221 49 224 338 
1276 -0.28277935053142683 0.10803459709180008 1.0221947593532044 0 0 0 0.52 21 623 26 149 43 36 44 250 88 41 162 144 164 360 221 50 1 23 209 200 220 81 
1277 -0.20562111731504357 -0.06440372030656898 1.042460782868387 0 0 0 0.97 21 624 81 49 181 27 127 94 199 83 
1278 -0.3633285329245322 -0.07188008488045554 0.5853082407090333 0 0 0 0.34 21 625 73 119 199 84 
1279 -0.26089316104305427 0.08821436981031437 1.0212868130315838 0 0 0 0.57 21 626 26 150 43 37 71 103 92 114 96 66 157 112 164 361 199 85 1 24 25 78 50 164 60 163 81 50 111 137 176 124 209 201 220 82 232 85 118 119 
1280 -0.2238742704753276 -0.12553930805900476 1.0508151348631012 0 0 0 0.38 1 25 111 138 114 51 209 202 
1281 -0.2195375150851172 0.008581663528626795 1.0296270558296714 0 0 0 0.37 1 26 50 165 71 104 128 86 209 203 
1282 -0.3305794683200458 0.07180479080734767 1.039914019465227 0 0 0 0.27 1 27 43 38 44 251 71 105 73 120 92 115 96 67 111 139 157 113 162 145 164 362 172 95 209 204 220 83 224 339 
1283 -0.32073883016090443 0.07213616622917199 1.0332478890910097 0 0 0 0.24 1 28 25 79 60 164 71 106 92 116 96 68 111 140 113 166 162 146 190 16 209 205 
1284 -0.19130840327999316 -0.11571345627877525 1.0472488206591197 0 0 0 0.44 1 29 60 165 65 18 81 51 111 141 172 96 176 125 179 51 204 23 209 206 219 44 227 33 
1285 -0.3162776151911896 -0.08427844640504106 1.0671341374505612 0 0 0 0.31 1 30 50 166 53 31 65 19 96 69 103 64 111 142 128 87 172 97 209 207 213 167 232 86 179 52 
1286 -0.284934171683736 -0.02040488771681042 1.0471490487107553 0 0 0 0.14 1 31 61 53 114 52 209 208 
1287 -0.2443192371711035 0.051438797519834385 1.0248328184482953 0 0 0 0.18 1 32 111 143 209 209 
1288 -0.26924604493801235 0.1124890012579152 1.017376111776135 0 0 0 0.17 1 33 209 210 227 34 
1289 -0.2803435727995877 -0.0841262610534829 1.0518224789445956 0 0 0 0.39 1 34 53 32 60 166 71 107 73 121 81 52 111 144 179 53 198 32 209 211 
1290 -0.2611187127929646 -0.047035783835531926 1.0494699282366198 0 0 0 0.38 1 35 43 39 53 33 60 167 61 54 65 20 71 108 81 53 92 117 96 70 114 53 118 120 146 180 157 114 158 53 172 98 209 212 213 168 217 21 219 45 227 35 232 87 25 80 50 167 164 363 190 17 
1291 -0.24234203656524173 -0.01536391252408793 1.0368872201946209 0 0 0 0.59 1 36 111 145 158 54 172 99 209 213 
1292 -0.24067214088918587 -0.16695709807045697 1.0648231838684763 0 0 0 0.28 21 627 77 293 146 181 164 364 209 214 224 340 
1293 -0.19600474331104473 -0.08514643743786283 1.0415433329545807 0 0 0 0.04 21 628 158 55 209 215 
1294 -0.3737258784185406 -0.08494755948062746 0.4389116959820942 0 0 0 0.37 21 629 209 216 224 341 
1295 -0.3619175681506956 -0.05037336486865076 1.0667822593902492 0 0 0 0.49 21 630 60 168 209 217 
1296 -0.20188018908287925 -0.016863351615875526 1.0326091865525822 0 0 0 0.19 21 631 50 168 61 55 146 182 157 115 209 218 213 169 
1297 -0.2168847104107306 -0.01822010155967465 1.0357322501111672 0 0 0 0.11 21 632 50 169 61 56 146 183 209 219 224 342 
1298 -0.33788807008802335 -0.03575902486330095 1.0586779151619892 0 0 0 0.24 21 633 209 220 221 51 
1299 -0.3445359778634955 -0.0002398996330100546 1.0511372275369455 0 0 0 0.27 21 634 114 54 209 221 220 84 
1300 -0.19390362990413137 0.058474994214779016 1.011522153956584 0 0 0 0.09 21 635 209 222 219 46 
1301 -0.25233618834005206 0.0570072756147238 1.0249076885966044 0 0 0 0.08 21 636 172 100 209 223 
1302 -0.22446677055912065 0.06071039523775748 1.0187672523597682 0 0 0 0.11 21 637 60 169 209 224 
1303 -0.23344123719537177 0.10447613192257324 1.0116319143350299 0 0 0 0.14 21 638 44 252 209 225 
1304 -0.3709570911878181 -0.19771119972701331 0.45423260616140065 0 0 0 0.7 21 639 209 226 224 343 
1305 -0.3702949963518179 -0.1969808555910268 0.4582851855738327 0 0 0 0.63 21 640 209 227 224 344 
1306 -0.3712508238551601 -0.19608643785334343 0.45636743860335355 0 0 0 0.81 21 641 209 228 224 345 
1307 -0.34782334355754707 -0.12119557653157112 1.0727822242615137 0 0 0 0.5 21 642 25 81 71 109 77 294 92 118 96 71 110 132 127 95 209 229 232 88 73 122 198 33 81 54 
1308 -0.23847292536740386 -0.08776472559064047 1.0495677152465739 0 0 0 0.33 21 643 111 146 172 101 209 230 
1309 -0.26662705515963314 -0.09151633431745611 1.0537851934241667 0 0 0 0.35 21 644 113 167 172 102 209 231 
1310 -0.37339038842913214 -0.08741947529892917 0.43906057656110264 0 0 0 0.41 21 645 209 232 224 346 
1311 -0.3016222907350703 -0.08682880528463323 1.0597062641943684 0 0 0 0.26 21 646 111 147 172 103 209 233 
1312 -0.3637845191897391 -0.08661460096460011 1.0718337221265297 0 0 0 0.19 21 647 44 253 111 148 209 234 
1313 -0.33811400374315914 -0.07311629327260306 1.0670225859532636 0 0 0 0.24 21 648 111 149 209 235 
1314 -0.3725689045394156 -0.19053376732705143 0.43203879773770976 0 0 0 0.64 21 649 209 236 224 347 
1315 -0.18054816065473875 -0.07520564911636259 1.034738946593855 0 0 0 0.22 21 650 111 150 209 237 
1316 -0.31153579663180686 -0.056648418745012454 1.0543864144514372 0 0 0 0.3 21 651 111 151 209 238 232 89 
1317 -0.35191544545047343 -0.028024425275347983 0.6342064983637432 0 0 0 0.45 21 652 209 239 224 348 
1318 -0.19344592002559474 0.03836801267640378 1.0167963852922948 0 0 0 0.16 21 653 61 57 209 240 
1319 -0.2607031976555898 0.05386477057757043 1.026879091471283 0 0 0 0.08 21 654 111 152 209 241 
1320 -0.307976855765735 0.12850221578445362 1.0157911450173918 0 0 0 0.49 21 655 92 119 164 365 209 242 
1321 -0.3389842875147093 -0.07362615837819603 0.9155424789011803 0 0 0 0.44 21 656 164 366 209 243 
1322 -0.1832488290105933 -0.09319305969435909 1.0390644049307964 0 0 0 0.39 21 657 162 147 209 244 
1323 -0.26474143559441227 0.11549327504787436 1.0190805074215354 0 0 0 1.25 21 658 146 184 209 245 
1324 -0.3343560304369059 -0.12055296101558213 1.0759797543110428 0 0 0 0.23 25 82 50 170 53 34 71 110 81 55 114 55 118 121 157 116 179 54 209 246 219 47 
1325 -0.26962634387610546 -0.02232118761760642 1.0427949724580736 0 0 0 0.33 25 83 50 171 60 170 71 111 92 120 110 133 113 168 114 56 118 122 126 130 146 185 158 56 176 126 204 24 209 247 213 170 219 48 232 90 
1326 -0.33957347967378404 -0.013360108975584628 1.0554136649688 0 0 0 0.34 25 84 50 172 113 169 162 148 209 248 
1327 -0.3038987154159749 -3.5132077181933264e-05 1.0448771582003797 0 0 0 0.66 25 85 61 58 111 153 146 186 172 104 209 249 227 36 
1328 -0.2703468642150818 0.09912709477276319 1.0193508340903294 0 0 0 0.25 25 86 50 173 73 123 110 134 111 154 162 149 164 367 172 105 204 25 209 250 227 37 232 91 
1329 -0.356630244438483 -0.12165869948257667 1.0766385301186003 0 0 0 0.19 25 87 71 112 73 124 96 72 110 135 111 155 114 57 162 150 164 368 209 251 
1330 -0.35031091661556557 -0.05173170139822567 0.7792697193776664 0 0 0 0.44 25 88 71 113 73 125 76 13 103 65 126 131 198 34 199 86 209 252 
1331 -0.3026246897996075 -0.01274435488999206 1.0470698676973667 0 0 0 0.31 25 89 61 59 114 58 190 18 198 35 209 253 221 52 232 92 
1332 -0.3491920737911892 -0.007427914566385969 0.7682691524827052 0 0 0 0.52 25 90 73 126 198 36 199 87 209 254 224 349 76 14 
1333 -0.3466396577611108 0.04788874411382173 0.8486451182991739 0 0 0 0.29 25 91 73 127 198 37 199 88 209 255 
1334 -0.25836632476294064 0.11066272633301584 1.0141049514737963 0 0 0 0.21 25 92 50 174 209 256 213 171 
1335 -0.2961878313829579 -0.0075768848692068435 1.1109855202745562 0 0 0 0.69 25 93 71 114 113 170 209 257 217 22 
1336 -0.24481155713621214 -0.1596059937179806 1.0575320716052716 0 0 0 0.13 60 171 146 187 209 258 
1337 -0.18831232449013405 -0.059750877408454986 1.0353440377678813 0 0 0 0.13 60 172 146 188 148 443 157 117 209 259 
1338 -0.2940362001979947 -0.061124777579118245 1.0554346869979205 0 0 0 0.26 50 175 77 295 164 369 209 260 
1339 -0.2660496793098542 -0.021748992660129866 1.04162493969068 0 0 0 0.17 50 176 60 173 61 60 164 370 209 261 213 172 
1340 -0.3401322857864052 0.022125162542481785 1.047057811161387 0 0 0 0.23 60 174 77 296 148 444 209 262 224 350 
1341 -0.3420474689679871 0.023326200547122453 1.045743628268063 0 0 0 0.32 50 177 60 175 127 96 128 88 209 263 
1342 -0.2299246597363543 0.0681959118744952 1.0185993355116287 0 0 0 0.22 44 254 146 189 176 127 209 264 157 118 213 173 
1343 -0.1842692315346061 -0.13245653559197515 1.0502687599377913 0 0 0 0.46 92 121 164 371 176 128 209 265 
1344 -0.3374719613040068 -0.12420050639443204 1.0760894889168602 0 0 0 0.18 50 178 53 35 60 176 61 61 96 73 103 66 118 123 128 89 157 119 176 129 179 55 209 266 232 93 
1345 -0.3553850027592012 -0.10056897595880898 1.072536137633076 0 0 0 0.25 44 255 60 177 77 297 103 67 111 156 114 59 148 445 164 372 209 267 224 351 
1346 -0.35119467430143314 -0.09619040162699219 1.069397403715568 0 0 0 0.2 60 178 92 122 103 68 113 171 209 268 221 53 
1347 -0.3482686260522726 -0.08162628805027583 1.0708277591589777 0 0 0 0.16 60 179 110 136 209 269 
1348 -0.34780554352298076 -0.07679834223740505 1.0687003825721249 0 0 0 0.3 60 180 92 123 110 137 209 270 
1349 -0.3164496936146845 -0.06745097535743522 1.0613014762856565 0 0 0 0.33 50 179 60 181 61 62 77 298 92 124 110 138 111 157 127 97 146 190 157 120 164 373 172 106 176 130 209 271 224 352 
1350 -0.26559266940338694 -0.05665983444668491 1.0475776603569498 0 0 0 0.26 60 182 111 158 176 131 209 272 
1351 -0.2343166482418788 -0.02983143833049923 1.040685079747793 0 0 0 0.12 60 183 127 98 146 191 209 273 213 174 
1352 -0.34001732167336945 0.008746061431045093 1.0468050784204694 0 0 0 0.26 60 184 162 151 164 374 209 274 224 353 
1353 -0.22841678864826723 0.0428893932160463 1.0206472634576766 0 0 0 0.12 118 124 209 275 213 175 
1354 -0.328912802862795 0.10400733511824814 1.034811145297409 0 0 0 0.25 60 185 209 276 232 94 
1355 -0.29561804233374533 -0.12219844556782493 1.0646419643819747 0 0 0 0.25 77 299 127 99 146 192 162 152 209 277 
1356 -0.31004238757342373 -0.10021096507287984 1.0595102357427897 0 0 0 0.2 71 115 111 159 114 60 209 278 113 172 
1357 -0.331681802908174 -0.0484191896212416 1.0612743499379351 0 0 0 0.3 44 256 50 180 77 300 111 160 118 125 127 100 148 446 162 153 164 375 172 107 196 281 209 279 221 54 224 354 
1358 -0.29471575747026 -0.12659992698624023 1.0735379269451377 0 0 0 0.74 60 186 71 116 73 128 77 301 110 139 114 61 127 101 146 193 162 154 164 376 209 280 224 355 
1359 -0.27205347567238775 -0.07301779155898697 1.0520015457723757 0 0 0 0.26 50 181 73 129 114 62 146 194 157 121 209 281 
1360 -0.30612951394795096 -0.06911357295034491 1.0587200709376066 0 0 0 0.39 44 257 50 182 60 187 71 117 73 130 77 302 146 195 158 57 209 282 224 356 227 38 
1361 -0.3414068132910858 -0.03798837781786118 1.0540721580585988 0 0 0 0.25 113 173 198 38 209 283 
1362 -0.20575051825169616 -0.01473765085853451 1.0329781092217276 0 0 0 0.27 50 183 53 36 71 118 92 125 96 74 111 161 113 174 118 126 128 90 146 196 148 447 157 122 158 58 164 377 176 132 179 56 190 19 209 284 217 23 220 85 227 39 232 95 
1363 -0.2906216690017202 -0.1291763208046636 1.0830663624745995 0 0 0 0.7 73 131 77 303 103 69 111 162 114 63 146 197 199 89 209 285 
1364 -0.2586740805561053 0.06900672723898946 1.0218791593174368 0 0 0 0.28 50 184 61 63 81 56 103 70 111 163 209 286 213 176 227 40 
1365 -0.32661583360747054 0.07758500896721918 1.034386341559075 0 0 0 0.46 50 185 81 57 111 164 118 127 162 155 199 90 209 287 221 55 
1366 -0.2823810100090785 0.07295995693162773 1.029161057974589 0 0 0 0.41 50 186 53 37 65 21 92 126 96 75 103 71 111 165 148 448 162 156 164 378 176 133 209 288 217 24 220 86 
1367 -0.18184174544262588 -0.12356166651168947 1.0469117403196218 0 0 0 0.28 43 40 60 188 71 119 111 166 179 57 209 289 219 49 
1368 -0.3380289337108865 -0.10069381063812353 1.0735573956027127 0 0 0 0.32 43 41 53 38 71 120 111 167 128 91 209 290 
1369 -0.34435607643187477 -0.09432248083769373 1.0689544295502773 0 0 0 0.34 43 42 50 187 73 132 103 72 111 168 148 449 164 379 196 282 209 291 220 87 224 357 
1370 -0.3439424592907666 -0.0625122950556149 1.0640829220248476 0 0 0 0.2 43 43 111 169 209 292 44 258 60 189 77 304 103 73 220 88 
1371 -0.27580981188283665 -0.023265931980271857 1.0459666079479883 0 0 0 0.36 43 44 53 39 110 140 172 108 176 134 209 293 219 50 220 89 
1372 -0.3106636235957412 0.09305188968791339 1.0262997067620028 0 0 0 0.3 43 45 50 188 71 121 111 170 162 157 172 109 209 294 217 25 221 56 232 96 
1373 -0.3545528713186722 -0.1405617990172123 1.079987150573984 0 0 0 0.27 43 46 50 189 71 122 77 305 103 74 111 171 118 128 148 450 162 158 196 283 209 295 221 57 224 358 
1374 -0.2715987120479193 -0.013439433974270016 1.0435488051787862 0 0 0 0.27 43 47 60 190 77 306 103 75 118 129 158 59 204 26 209 296 220 90 
1375 -0.32454704826805897 0.0946881721465724 1.024216633505022 0 0 0 0.38 43 48 71 123 209 297 111 172 
1376 -0.3009538255787082 0.0161434191248883 1.0516459899325588 0 0 0 0.79 43 49 60 191 209 298 
1377 -0.14575589801829292 -0.1461384633577403 1.0456738164415413 0 0 0 0.82 44 259 128 92 209 299 
1378 -0.1837987562234469 -0.1265115492685574 1.0453264753390727 0 0 0 0.38 44 260 77 307 146 198 209 300 
1379 -0.35580550947487394 -0.11201568269642348 1.075779867303163 0 0 0 0.47 44 261 92 127 209 301 
1380 -0.3651399301984959 -0.10674938639895008 1.0781850104066237 0 0 0 0.47 44 262 71 124 77 308 92 128 110 141 111 173 148 451 164 380 209 302 
1381 -0.2291022190171078 -0.08481691971479775 1.046485349837017 0 0 0 0.31 44 263 60 192 157 123 158 60 172 110 204 27 209 303 
1382 -0.3510812901932023 -0.08845475886459521 1.0709563713383163 0 0 0 0.49 44 264 60 193 209 304 
1383 -0.26965963031183254 -0.08137307834992787 1.0519303671404197 0 0 0 0.33 44 265 50 190 60 194 96 76 110 142 128 93 146 199 157 124 172 111 176 135 179 58 204 28 209 305 213 177 219 51 220 91 224 359 227 41 127 102 
1384 -0.33406459750522227 -0.06016904632895785 1.0642575414604427 0 0 0 0.17 44 266 77 309 148 452 209 306 
1385 -0.25762518569976317 -0.03822901170258165 1.0436618469866894 0 0 0 0.19 44 267 50 191 157 125 209 307 
1386 -0.21138866176379087 -0.019031291095798708 1.033052416658778 0 0 0 0.23 44 268 50 192 60 195 92 129 146 200 157 126 176 136 209 308 213 178 
1387 -0.1952736242130158 0.06507406087254279 1.012566883011465 0 0 0 0.29 44 269 50 193 60 196 162 159 176 137 209 309 
1388 -0.22334174688460987 0.10523500035756787 1.0109388780278137 0 0 0 0.17 44 270 60 197 209 310 
1389 -0.1883822350775679 -0.12390598282482396 1.048131748304227 0 0 0 0.19 44 271 60 198 176 138 209 311 
1390 -0.24944816884468715 -0.07745826410599976 1.0500672684664254 0 0 0 0.23 44 272 50 194 92 130 110 143 158 61 209 312 221 58 224 360 
1391 -0.2444362866819949 -0.07741521289458586 1.0487190399039998 0 0 0 0.34 44 273 53 40 60 199 110 144 113 175 162 160 172 112 176 139 204 29 209 313 224 361 
1392 -0.19094511452974083 -0.06007055543675661 1.0350536751177446 0 0 0 0.25 44 274 50 195 92 131 111 174 113 176 146 201 204 30 209 314 227 42 
1393 -0.3651222750672877 -0.01459369233846381 1.0602371604441725 0 0 0 0.15 44 275 209 315 224 362 
1394 -0.30718378716818423 0.07915047405701421 1.0290232431578392 0 0 0 0.34 44 276 50 196 53 41 60 200 61 64 71 125 111 175 118 130 128 94 157 127 162 161 164 381 209 316 227 43 232 97 
1395 -0.31369851109287183 0.08121518071959137 1.0286672505910586 0 0 0 0.71 50 197 61 65 118 131 146 202 162 162 176 140 209 317 213 179 224 363 
1396 -0.3046212730009087 0.12242387434571009 1.021504950702091 0 0 0 0.28 44 277 50 198 111 176 209 318 
1397 -0.33804034890103435 0.024628601952250827 1.047167666600867 0 0 0 0.38 44 278 50 199 77 310 103 76 148 453 196 284 209 319 227 44 
1398 -0.23566910594263638 0.06409157120692022 1.0184119674495837 0 0 0 0.45 44 279 50 200 111 177 113 177 209 320 
1399 -0.2611161625644701 0.1000014838509511 1.0170664707432417 0 0 0 0.3 44 280 77 311 164 382 172 113 209 321 224 364 
1400 -0.31541919305724997 0.07660776452541222 1.030939395999734 0 0 0 0.3 44 281 50 201 60 201 61 66 71 126 81 58 111 178 209 322 217 26 220 92 221 59 
1401 -0.18484845536178532 -0.11489680123684523 1.0453723382288636 0 0 0 0.45 44 282 92 132 114 64 209 323 111 179 179 59 
1402 -0.26173973197361544 0.015874072752833323 1.0377795192479986 0 0 0 0.3 44 283 81 59 162 163 209 324 
1403 -0.341791370102321 -0.15104788790541357 0.8901048014444525 0 0 0 0.66 50 202 209 325 224 365 
1404 -0.341544941485807 -0.14912704833924126 0.8925657223697461 0 0 0 0.68 50 203 209 326 224 366 
1405 -0.19233532047207186 -0.1199277406940836 1.0502817717923358 0 0 0 0.31 50 204 146 203 209 327 
1406 -0.2654150649556076 -0.1116715275167697 1.0588991206233587 0 0 0 0.21 50 205 176 141 209 328 213 180 
1407 -0.2039510270648201 -0.08516893079855917 1.0433351451433577 0 0 0 0.3 50 206 113 178 157 128 176 142 179 60 209 329 
1408 -0.19560577069489665 -0.07077176469995586 1.0411409447416453 0 0 0 0.38 50 207 146 204 209 330 
1409 -0.18262581063926128 -0.060782153617260984 1.0344099858321312 0 0 0 0.15 50 208 146 205 157 129 209 331 213 181 
1410 -0.18497841534496418 -0.05981360266838809 1.0353023693846641 0 0 0 0.13 50 209 60 202 113 179 146 206 157 130 209 332 213 182 
1411 -0.3153716933505003 -0.045605819182781726 1.0539816156959976 0 0 0 0.21 50 210 110 145 146 207 176 143 209 333 213 183 
1412 -0.2552264095304582 -0.031611007729082374 1.0459414279024801 0 0 0 0.32 50 211 61 67 118 132 164 383 172 114 209 334 224 367 227 45 
1413 -0.21780933919523307 -0.032723006814544625 1.0403665545065002 0 0 0 0.4 50 212 60 203 209 335 227 46 
1414 -0.25144878526666453 -0.02942360525912998 1.0437051890125217 0 0 0 0.14 50 213 61 68 113 180 146 208 158 62 209 336 213 184 
1415 -0.2975713508635479 -0.0064780018183041525 1.044080930452589 0 0 0 0.06 50 214 61 69 209 337 
1416 -0.24320842704937265 0.04985709890536372 1.0287109114985906 0 0 0 0.22 50 215 157 131 158 63 176 144 209 338 213 185 
1417 -0.22992785760181486 0.07155604012236319 1.018107369968048 0 0 0 0.21 50 216 157 132 176 145 209 339 213 186 
1418 -0.2726474134691964 0.08368931324763633 1.0227098594594675 0 0 0 0.12 50 217 61 70 157 133 176 146 209 340 
1419 -0.24730355449254107 0.09194683992944719 1.0197578003653933 0 0 0 0.3 50 218 61 71 162 164 209 341 224 368 
1420 -0.23551417481835402 0.09474027005611502 1.014074751108812 0 0 0 0.44 50 219 61 72 176 147 209 342 227 47 
1421 -0.2174308373385112 0.10743959445530588 1.0100993692702893 0 0 0 0.17 50 220 110 146 196 285 209 343 
1422 -0.33474606203823265 -0.10633336500306413 1.0733824739304845 0 0 0 0.52 50 221 53 42 103 77 128 95 179 61 209 344 219 52 
1423 -0.34694993648380745 -0.07153552221447608 1.0658190531457872 0 0 0 0.15 50 222 164 384 209 345 
1424 -0.3192512717061414 -0.06906303036735464 1.0620690300499478 0 0 0 0.36 50 223 53 43 60 204 77 312 103 78 111 180 128 96 157 134 164 385 176 148 190 20 209 346 227 48 
1425 -0.3407653404240341 -0.06479483518164436 1.0625180328060855 0 0 0 0.57 50 224 60 205 77 313 110 147 113 181 127 103 128 97 209 347 224 369 148 454 
1426 -0.22428738464986253 -0.06613618739200487 1.043486946860944 0 0 0 0.14 50 225 118 133 146 209 209 348 224 370 
1427 -0.18670650588029836 -0.06551837064222332 1.0359690096105723 0 0 0 0.22 50 226 158 64 172 115 204 31 209 349 219 53 
1428 -0.2918792903641436 -0.02670441812842447 1.0476634916314997 0 0 0 0.26 50 227 162 165 209 350 
1429 -0.26978473898793903 -0.0275331795507387 1.043487601902019 0 0 0 0.27 50 228 61 73 128 98 146 210 209 351 
1430 -0.2034296538135717 -0.02697859462838099 1.0341941597824353 0 0 0 0.23 50 229 146 211 158 65 209 352 213 187 219 54 
1431 -0.2322787137180105 -0.01980235481830278 1.0382532216739944 0 0 0 0.3 50 230 53 44 103 79 110 148 172 116 176 149 179 62 204 32 209 353 
1432 -0.26680499705867433 -0.0016573572266662777 1.038301497284253 0 0 0 0.21 50 231 158 66 209 354 
1433 -0.203821069069153 0.003564056050731344 1.0288885728666588 0 0 0 0.41 50 232 146 212 158 67 209 355 
1434 -0.22027300995706003 0.07953633930695068 1.0143488914582004 0 0 0 0.45 50 233 164 386 176 150 209 356 227 49 
1435 -0.30080364205015314 -0.12629206748496852 1.067765059938148 0 0 0 0.33 50 234 71 127 77 314 103 80 111 181 127 104 146 213 148 455 164 387 209 357 224 371 
1436 -0.31706780231017084 -0.08006866467222173 1.0631252226605097 0 0 0 0.27 50 235 128 99 172 117 209 358 
1437 -0.19226925189538105 -0.07511786235738033 1.0366099509754996 0 0 0 0.37 50 236 61 74 157 135 158 68 209 359 227 50 
1438 -0.20020981463284018 -0.0248719064235527 1.0329826380925335 0 0 0 0.3 50 237 77 315 111 182 158 69 204 33 209 360 232 98 
1439 -0.21586024862776404 0.003722908388069384 1.0345211729525667 0 0 0 0.22 50 238 60 206 71 128 96 77 146 214 209 361 232 99 
1440 -0.23768889842011753 0.04060053238213126 1.0265272617800425 0 0 0 0.13 50 239 61 75 110 149 209 362 
1441 -0.3104136274951825 0.06718450915696744 1.0320571677601997 0 0 0 0.31 50 240 111 183 113 182 162 166 190 21 209 363 227 51 
1442 -0.24898392234298528 0.0970666506121255 1.0203394281772147 0 0 0 0.42 50 241 61 76 146 215 157 136 209 364 213 188 
1443 -0.24104857263698962 -0.12523403541782555 1.06051340935263 0 0 0 0.34 50 242 103 81 111 184 157 137 158 70 162 167 179 63 209 365 227 52 232 100 
1444 -0.28822628890371 -0.05691490689072576 1.0543210859223129 0 0 0 0.34 50 243 114 65 118 134 176 151 209 366 
1445 -0.2817242348795924 -0.032320130697758374 1.0523487291972613 0 0 0 0.23 50 244 53 45 61 77 71 129 73 133 77 316 96 78 113 183 146 216 157 138 209 367 217 27 232 101 
1446 -0.32546738168099987 -0.10134311110909512 1.0745769943623902 0 0 0 0.74 50 245 53 46 65 22 81 60 114 66 118 135 128 100 146 217 157 139 176 152 179 64 190 22 209 368 
1447 -0.30751788073031594 -0.09122835161304055 1.064912761846576 0 0 0 0.36 50 246 81 61 111 185 146 218 209 369 
1448 -0.1972978726994016 -0.07444806524093249 1.0384746478316476 0 0 0 0.34 50 247 81 62 164 388 179 65 190 23 209 370 227 53 
1449 -0.2559114209145414 -0.03970645763630148 1.0451348328226278 0 0 0 0.16 50 248 81 63 176 153 204 34 209 371 
1450 -0.23406597662650827 0.004086412652306548 1.0357663780388133 0 0 0 0.34 50 249 111 186 209 372 
1451 -0.3231425035818772 0.08280821215688546 1.0278298564932034 0 0 0 0.39 50 250 190 24 209 373 219 55 
1452 -0.20351443096722788 -0.07436620864960988 1.045901056656299 0 0 0 0.33 50 251 172 118 179 66 198 39 209 374 227 54 
1453 -0.2881624853809896 0.049846230181788485 1.041654227539591 0 0 0 0.57 50 252 111 187 172 119 209 375 
1454 -0.3167198081395659 -0.09295331857672472 1.0703238353722837 0 0 0 0.48 50 253 53 47 65 23 81 64 103 82 111 188 118 136 128 101 146 219 157 140 209 376 
1455 -0.32714786399645684 -0.0837637633937155 1.0632557283140278 0 0 0 0.3 53 48 111 189 209 377 
1456 -0.30858142068618066 0.0574437761232989 1.031267590635491 0 0 0 0.36 53 49 60 207 61 78 209 378 
1457 -0.23102727116339947 0.10717835427175706 1.0111373990582249 0 0 0 0.4 53 50 60 208 179 67 209 379 
1458 -0.3204976706117809 -0.08728788204424766 1.0683617140254542 0 0 0 0.26 53 51 128 102 179 68 209 380 213 189 227 55 
1459 -0.2321744141939299 -0.026509111624197165 1.0387978225582948 0 0 0 0.34 53 52 92 133 114 67 158 71 172 120 176 154 209 381 
1460 -0.31060018891736896 0.06109220945132558 1.0340900507731727 0 0 0 0.21 53 53 60 209 61 79 96 79 111 190 113 184 172 121 190 25 209 382 213 190 217 28 
1461 -0.26995840675756894 0.06733059066813088 1.0259108272617474 0 0 0 0.33 53 54 162 168 209 383 
1462 -0.3419586739673138 -0.13395530586700655 1.0807715170896508 0 0 0 0.45 53 55 65 24 73 134 81 65 103 83 111 191 127 105 158 72 199 91 209 384 
1463 -0.2609824194688402 -0.12445720827515377 1.0579121429500276 0 0 0 0.3 60 210 209 385 227 56 
1464 -0.35516798546668094 -0.09002594458607224 1.0694976162417085 0 0 0 0.29 60 211 77 317 110 150 113 185 148 456 209 386 
1465 -0.3454195636595974 -0.08777253507964233 1.0669156111971159 0 0 0 0.28 148 457 162 169 209 387 
1466 -0.33896674651653996 -0.07108927072626017 1.06378473287077 0 0 0 0.29 60 212 148 458 209 388 
1467 -0.3035394917180243 -0.05802457813834661 1.0558580491974716 0 0 0 0.14 60 213 164 389 209 389 
1468 -0.3008426073164147 -0.05803400694545851 1.055126937649722 0 0 0 0.08 60 214 127 106 209 390 
1469 -0.3588785521379006 -0.048126388986586194 1.064167296345886 0 0 0 0.12 60 215 148 459 209 391 
1470 -0.3345095751055901 -0.02326718759049335 1.0573490363485218 0 0 0 0.1 60 216 209 392 224 372 
1471 -0.27566258891629786 -0.016358830854596787 1.0465081287754687 0 0 0 0.24 60 217 172 122 176 155 209 393 
1472 -0.2235700551370736 0.007839130748275799 1.0312473967736435 0 0 0 0.33 60 218 96 80 209 394 
1473 -0.21858311989408824 0.02611939384315703 1.0292661081065755 0 0 0 0.21 60 219 146 220 164 390 209 395 
1474 -0.23065978651355096 0.05621188394854473 1.0161574587372482 0 0 0 0.1 60 220 176 156 209 396 
1475 -0.22956803756417454 0.06071629967631084 1.0156078982042347 0 0 0 0.18 60 221 113 186 209 397 
1476 -0.3073994030231155 0.06775580446608062 1.031042607589316 0 0 0 0.22 60 222 172 123 190 26 209 398 227 57 
1477 -0.31323953920554576 0.09585904020149014 1.027323534529732 0 0 0 0.24 60 223 113 187 209 399 213 191 
1478 -0.35297269216005184 -0.11457542193632525 1.0718142412911116 0 0 0 0.31 60 224 127 107 176 157 209 400 
1479 -0.23549402188135599 -0.08476796511065982 1.0484182076452886 0 0 0 0.49 60 225 158 73 172 124 204 35 209 401 219 56 
1480 -0.2587332113148772 -0.08198068905817447 1.0523827298584265 0 0 0 0.28 60 226 110 151 113 188 209 402 
1481 -0.35753242848496697 -0.0638632488965821 1.0665256487037675 0 0 0 0.31 60 227 111 192 164 391 209 403 
1482 -0.36511442021062723 -0.052357442599621065 1.0699640334359382 0 0 0 0.34 60 228 110 152 209 404 
1483 -0.2053270139740476 -0.011249716903082957 1.036903065588909 0 0 0 0.23 60 229 113 189 179 69 209 405 219 57 
1484 -0.2665620767270333 -0.007768603065857838 1.0401032183158583 0 0 0 0.13 60 230 179 70 209 406 
1485 -0.3478357691849066 0.009621176120223758 1.049832590035309 0 0 0 0.31 60 231 176 158 209 407 
1486 -0.3564560781793483 -0.13028666873728678 1.0790031676486675 0 0 0 0.3 71 130 77 318 96 81 103 84 114 68 162 170 164 392 209 408 
1487 -0.2483818772991006 -0.10903866278273996 1.0564732522784568 0 0 0 0.18 60 232 111 193 209 409 
1488 -0.3437760850852879 -0.06789825626035 1.0636760247724824 0 0 0 0.22 60 233 77 319 164 393 209 410 220 93 224 373 
1489 -0.22483964108827884 0.10180897188720302 1.0108258611298349 0 0 0 0.44 60 234 209 411 227 58 
1490 -0.36088158158560923 -0.08258147911803958 1.0719998801611474 0 0 0 0.28 60 235 71 131 209 412 
1491 -0.34058006312663736 -0.057744754296502276 1.0580379126305242 0 0 0 0.33 60 236 111 194 126 132 209 413 
1492 -0.23361461464807912 -0.1380922359502491 1.0561863677827859 0 0 0 0.34 60 237 114 69 146 221 209 414 
1493 -0.22774347620453278 -0.01132045368239798 1.0357745101665088 0 0 0 0.26 60 238 204 36 209 415 
1494 -0.2223868649650563 0.09835611363758068 1.01113870151977 0 0 0 0.61 60 239 209 416 227 59 
1495 -0.20359901817107115 0.09393612589026949 1.0126677047670636 0 0 0 0.34 61 80 96 82 158 74 176 159 209 417 
1496 -0.244140807324137 -0.013675136497467775 1.042764701997427 0 0 0 0.22 61 81 158 75 209 418 
1497 -0.31943267790103114 -0.0544824657866002 1.0566744955732401 0 0 0 0.17 61 82 198 40 209 419 
1498 -0.2080602430912384 0.05144702911076758 1.0214916848792395 0 0 0 0.16 61 83 96 83 209 420 
1499 -0.30899331969186905 0.004758863438270377 1.0469625369666489 0 0 0 0.28 61 84 81 66 103 85 111 195 114 70 172 125 209 421 
1500 -0.28903341603317434 0.06721993493790886 1.0296809776576252 0 0 0 0.23 61 85 111 196 204 37 209 422 
1501 -0.235274140666296 -0.03803669306545253 1.0421140541063934 0 0 0 0.32 61 86 190 27 209 423 
1502 -0.3393484260565462 0.028189929491644866 1.0502238122515968 0 0 0 0.56 65 25 118 137 209 424 
1503 -0.33751697760609606 -0.07073058544415226 1.0584751383557005 0 0 0 0.71 65 26 71 132 103 86 209 425 
1504 -0.3656801210626957 -0.09975812185093677 1.0773310066530624 0 0 0 0.09 71 133 111 197 209 426 
1505 -0.34974980983749293 -0.03890945650091082 0.6438166355877734 0 0 0 0.13 71 134 73 135 209 427 
1506 -0.3502752271199204 -0.01304775397349046 0.7733635773823698 0 0 0 0.27 71 135 96 84 209 428 
1507 -0.24593275674480447 0.04408283785589022 1.028448812783227 0 0 0 0.3 71 136 118 138 164 394 176 160 190 28 209 429 213 192 224 374 
1508 -0.2929522547588227 -0.1407048180100245 1.0926385120039193 0 0 0 0.34 71 137 73 136 81 67 103 87 114 71 162 171 209 430 
1509 -0.2933244996748949 -0.11461879595224822 1.0694323417860139 0 0 0 0.44 71 138 128 103 209 431 
1510 -0.33695817808852896 -0.034616813279304375 1.1032213448168557 0 0 0 0.31 71 139 113 190 209 432 
1511 -0.3609510480159676 -0.06546961440050027 0.5127344989218882 0 0 0 0.52 71 140 76 15 209 433 224 375 
1512 -0.3541656874847118 -0.18928614089712884 0.7592250402912805 0 0 0 0.17 73 137 199 92 209 434 
1513 -0.3509692388334942 -0.034265482509852674 0.6686728826686915 0 0 0 0.35 73 138 103 88 209 435 
1514 -0.360257231392117 -0.12150781959499075 0.557099132271481 0 0 0 0.3 73 139 209 436 224 376 
1515 -0.36106651546974394 -0.0860684109285025 0.5889417360963397 0 0 0 0.12 73 140 209 437 221 60 
1516 -0.3554878097374585 0.019990341075096358 0.5889003901880159 0 0 0 0.18 73 141 209 438 224 377 
1517 -0.34106782743607333 -0.1031223701362909 0.9389755451727182 0 0 0 0.05 73 142 199 93 209 439 
1518 -0.3357970259804727 -0.09595360499394885 0.9368831384724305 0 0 0 0.18 73 143 199 94 209 440 
1519 -0.32986476791929553 -0.006342363803855644 1.0537521867669728 0 0 0 0.51 73 144 110 153 113 191 209 441 220 94 
1520 -0.2979257495243042 0.04404547383734964 1.0231454146053767 0 0 0 0.27 73 145 111 198 209 442 
1521 -0.3427482756802596 -0.11666493381934172 0.8568933159217158 0 0 0 0.3 73 146 76 16 198 41 199 95 209 443 221 61 
1522 -0.3422527479949253 -0.039606531033837926 0.7950980127079204 0 0 0 0.61 73 147 96 85 209 444 
1523 -0.3387741553500568 0.01695340593166061 0.9009018140109378 0 0 0 0.36 73 148 110 154 199 96 209 445 
1524 -0.3619128024977915 -0.21424170710617974 0.556836376398303 0 0 0 0.67 73 149 96 86 199 97 209 446 224 378 
1525 -0.35038819644487773 -0.0697717578316005 0.8170004003648957 0 0 0 0.25 73 150 198 42 199 98 209 447 
1526 -0.37583877253630654 -0.005873831057069266 0.42720294824745386 0 0 0 0.77 73 151 198 43 209 448 224 379 
1527 -0.35222270785984466 -0.18118172469943547 0.7732847743940318 0 0 0 0.57 73 152 96 87 199 99 209 449 221 62 
1528 -0.35213379877750817 -0.16096624771214366 0.8204397254213652 0 0 0 0.3 73 153 199 100 209 450 
1529 -0.3431215489818574 -0.10041479667268689 0.869750698412905 0 0 0 0.24 76 17 209 451 224 380 
1530 -0.33909610378497745 -0.07860048100990077 0.9030441210870321 0 0 0 0.33 76 18 111 199 209 452 
1531 -0.30233971711021945 -0.040204676997699584 1.052838850476179 0 0 0 0.19 103 89 162 172 198 44 209 453 
1532 -0.34099517916617583 0.0036261422898424835 1.0488923601140474 0 0 0 0.47 76 19 111 200 148 460 164 395 209 454 
1533 -0.345699635048652 0.009184781069109632 0.7746744262529168 0 0 0 0.17 76 20 199 101 209 455 
1534 -0.339461814339772 -0.02978508601328704 0.9131135150250775 0 0 0 0.21 76 21 111 201 198 45 199 102 209 456 
1535 -0.3484071655911022 -0.030183877262482874 0.7878941687463984 0 0 0 0.38 76 22 198 46 209 457 224 381 
1536 -0.3398736474643974 0.004950041973004609 0.9074672705831998 0 0 0 0.34 76 23 81 68 111 202 209 458 
1537 -0.3371245443845688 0.03834916472974874 0.9075827213794173 0 0 0 0.21 76 24 96 88 209 459 
1538 -0.3397546871486479 -0.13076229385018132 0.8961387669899702 0 0 0 0.35 76 25 111 203 209 460 221 63 96 89 
1539 -0.3449431280848793 -0.10629642333391995 0.7639023111850883 0 0 0 0.33 76 26 111 204 209 461 
1540 -0.34848780955897896 -0.059742199750980204 0.7686205833556923 0 0 0 0.15 76 27 111 205 209 462 
1541 -0.3417970217504662 -0.1732466152936365 0.8845853484436302 0 0 0 0.39 76 28 96 90 198 47 199 103 209 463 224 382 
1542 -0.33698152079183286 -0.05633829646373158 0.903432708413788 0 0 0 0.45 76 29 111 206 209 464 
1543 -0.34093664531416534 0.039879881171383684 0.9281753915746247 0 0 0 0.57 76 30 103 90 209 465 
1544 -0.3434117435105283 0.033590525071022975 0.8230104817898869 0 0 0 0.29 76 31 198 48 209 466 
1545 -0.24862758873853602 -0.15821427086926884 1.058808634941333 0 0 0 0.1 77 320 148 461 209 467 
1546 -0.36650329498501655 -0.12146920247373325 1.0793602843179488 0 0 0 0.4 77 321 110 155 148 462 164 396 209 468 224 383 
1547 -0.29734589787657306 -0.10712353091321435 1.0563198325122403 0 0 0 0.21 77 322 162 173 209 469 
1548 -0.3637723239409252 -0.05885113817046297 1.064155847898772 0 0 0 0.46 77 323 110 156 209 470 
1549 -0.2552465545609667 0.0029876662281884863 1.039362503125116 0 0 0 0.41 77 324 148 463 176 161 209 471 
1550 -0.2932584389703258 0.003561932596944269 1.0468381426669247 0 0 0 0.08 77 325 164 397 209 472 
1551 -0.34569880137151743 -0.10681826806602719 1.0717444627146282 0 0 0 0.39 77 326 111 207 114 72 118 139 126 133 162 174 209 473 
1552 -0.21712623486937324 -0.11628928578718581 1.0561783570126944 0 0 0 0.51 81 69 92 134 111 208 162 175 179 71 209 474 
1553 -0.1782606257280936 -0.11606821554452437 1.0472693983028927 0 0 0 0.29 81 70 92 135 176 162 209 475 219 58 
1554 -0.2513537792319164 -0.03404578867563292 1.0459211347492943 0 0 0 0.28 81 71 96 91 158 76 209 476 227 60 232 102 
1555 -0.253149688472692 0.10142909905132551 1.0195695670233476 0 0 0 0.15 81 72 110 157 209 477 213 193 
1556 -0.260417224220618 -0.10571203997742834 1.0586387004056903 0 0 0 0.66 81 73 111 209 179 72 209 478 
1557 -0.2541627544891055 -0.15695837449008163 1.0577617966184538 0 0 0 0.29 92 136 148 464 209 479 
1558 -0.23428058967844925 -0.11215551051921772 1.0551674195875513 0 0 0 0.55 92 137 110 158 113 192 146 222 176 163 209 480 
1559 -0.2535569949849408 0.09774567233591677 1.021493870448532 0 0 0 0.3 92 138 146 223 148 465 157 141 209 481 
1560 -0.21172983884850244 -0.12451116789670101 1.055726864316013 0 0 0 0.48 96 92 172 126 176 164 204 38 209 482 
1561 -0.17648480402164446 -0.09335544182835888 1.040893484796041 0 0 0 0.26 96 93 209 483 227 61 
1562 -0.2752303237049972 -0.08158635115628987 1.0559585116056869 0 0 0 0.47 96 94 110 159 204 39 209 484 158 77 
1563 -0.3036092103664957 0.05983491016225927 1.0307857900449928 0 0 0 0.16 96 95 162 176 209 485 
1564 -0.3174149505754366 -0.005648698206559589 1.0473443160663651 0 0 0 0.35 96 96 110 160 162 177 209 486 
1565 -0.3420010685185053 -0.0975327372074862 0.8825928580329682 0 0 0 0.28 96 97 209 487 221 64 
1566 -0.347061615898143 -0.1701683378949134 0.7829895633973893 0 0 0 0.43 96 98 199 104 209 488 221 65 
1567 -0.20359457835299857 0.08589039842372688 1.0136819748198445 0 0 0 0.37 96 99 172 127 204 40 209 489 
1568 -0.27333742970344876 0.04364705327075495 1.0308245232214561 0 0 0 0.07 103 91 209 490 232 103 
1569 -0.3106938841563467 -0.10490572792843453 1.0629354615774627 0 0 0 0.14 111 210 114 73 209 491 
1570 -0.30600288564939837 0.032080550195762225 1.03519776421489 0 0 0 0.04 111 211 172 128 209 492 
1571 -0.21726397391601174 0.09635745865417253 1.0113788033115287 0 0 0 0.4 162 178 209 493 217 29 
1572 -0.24766832223687274 -0.1162224088548112 1.0600353319093847 0 0 0 0.22 110 161 157 142 209 494 
1573 -0.3151331190556879 -0.04979600563295364 1.0543536799366235 0 0 0 0.3 110 162 176 165 209 495 213 194 
1574 -0.2447267755452424 -0.12235665331244575 1.0625890809358676 0 0 0 0.7 110 163 113 193 128 104 209 496 114 74 146 224 157 143 172 129 179 73 
1575 -0.1983741274533188 -0.08839496668987715 1.0434883619113362 0 0 0 0.25 110 164 111 212 114 75 157 144 158 78 164 398 204 41 209 497 227 62 
1576 -0.34512873276613176 -0.17039525376794887 0.7900244934396881 0 0 0 0.21 111 213 209 498 221 66 
1577 -0.3459459211080061 -0.16464122729287758 0.7854861089543954 0 0 0 0.27 111 214 209 499 227 63 
1578 -0.3010741951937212 -0.1225386323896738 1.0660073845177411 0 0 0 0.31 111 215 164 399 209 500 
1579 -0.3539479067648396 0.011575163374006278 0.6196748271717404 0 0 0 0.29 111 216 209 501 224 384 
1580 -0.34547494213476954 0.014157485693256472 0.6232197201616562 0 0 0 0.11 111 217 209 502 224 385 
1581 -0.34028596663717914 -0.17691299410024078 0.8589542428184122 0 0 0 0.34 111 218 209 503 221 67 
1582 -0.24170134640050445 -0.1084605636423059 1.057970601967866 0 0 0 0.16 111 219 162 179 209 504 
1583 -0.3420404226823869 0.012708636996352916 1.047555255875967 0 0 0 0.13 111 220 126 134 209 505 
1584 -0.34051023221406856 0.011647013512080175 0.6257805483600336 0 0 0 0.19 111 221 209 506 224 386 
1585 -0.22588270355704476 -0.10663369003175487 1.0517276651568965 0 0 0 0.4 111 222 158 79 179 74 209 507 
1586 -0.18669520114438187 -0.07256878955806842 1.0368751794061222 0 0 0 0.31 111 223 209 508 217 30 
1587 -0.2204566195845992 0.03869000818861653 1.0247988976915794 0 0 0 0.08 111 224 179 75 209 509 
1588 -0.23926475468728425 0.042445734958171374 1.0291062236788409 0 0 0 0.21 111 225 179 76 209 510 227 64 
1589 -0.23120686808297514 -0.14288270744763126 1.075465152991738 0 0 0 0.18 111 226 146 225 209 511 
1590 -0.215436818966049 -0.12650191716685708 1.0545349681610996 0 0 0 0.07 111 227 176 166 209 512 
1591 -0.3549963912349823 0.02455503548445795 0.6151230674965247 0 0 0 0.27 111 228 209 513 224 387 
1592 -0.354907185301413 0.01832701410383208 0.6165717833023052 0 0 0 0.21 111 229 209 514 224 388 
1593 -0.26541075090979654 0.053382159827407 1.0212848196043685 0 0 0 0.4 111 230 209 515 227 65 
1594 -0.3456020026717242 -0.223744467372919 0.6836727502793064 0 0 0 0.16 111 231 198 49 209 516 
1595 -0.29820447422358565 -0.12899131705367117 1.0688335552127881 0 0 0 0.26 113 194 146 226 164 400 209 517 
1596 -0.2387620137748492 -0.11390619545889308 1.0575984593921717 0 0 0 0.25 113 195 118 140 176 167 209 518 213 195 
1597 -0.28609498712513315 0.08699870994315037 1.0256269215117853 0 0 0 0.14 113 196 164 401 209 519 
1598 -0.2952445389890657 -0.13391935444370082 1.0804852650883765 0 0 0 0.44 114 76 176 168 209 520 
1599 -0.23892392618010883 -0.12234754647387426 1.0660501788083345 0 0 0 0.66 118 141 176 169 209 521 213 196 
1600 -0.3356590784651341 -0.10336078119882586 1.0716245923247494 0 0 0 0.48 118 142 128 105 164 402 209 522 
1601 -0.25932325142201273 -0.13520800940298264 1.063115569319385 0 0 0 0.42 126 135 158 80 209 523 
1602 -0.35044980304407103 -0.05603902589006586 0.7570584930297256 0 0 0 0.07 126 136 209 524 224 389 
1603 -0.2808653602581713 0.05992008544443727 1.0291147072290758 0 0 0 0.17 127 108 146 227 158 81 176 170 209 525 213 197 
1604 -0.31250701170568634 -0.048137342644297886 1.055267774100823 0 0 0 0.17 127 109 172 130 179 77 209 526 224 390 
1605 -0.32339442121259776 -0.09525063812935837 1.0717584639512672 0 0 0 0.35 128 106 172 131 179 78 209 527 
1606 -0.20270762088293823 -0.02954436249069998 1.0328112267360672 0 0 0 0.31 128 107 172 132 209 528 
1607 -0.18061952850175395 -0.11948077438020335 1.0480265661825194 0 0 0 0.38 164 403 176 171 209 529 
1608 -0.2781728418994654 -0.016107410557134605 1.0455277788558992 0 0 0 0.25 146 228 162 180 209 530 213 198 
1609 -0.22809138936840645 0.07297228961817707 1.0176120056812126 0 0 0 0.13 146 229 157 145 209 531 213 199 
1610 -0.28639393353816955 0.09397271230019409 1.02728937629126 0 0 0 0.3 209 532 220 95 224 391 232 104 
1611 -0.23971190966857206 0.04971036000368973 1.0269374259098443 0 0 0 0.14 146 230 176 172 209 533 
1612 -0.28040854981884256 -0.028559843018991834 1.0488710411209379 0 0 0 0.38 146 231 204 42 209 534 221 68 232 105 
1613 -0.3466176623044166 -0.20170951172262194 0.872369888469426 0 0 0 0.22 148 466 209 535 221 69 232 106 
1614 -0.2565057985574836 -0.15106675924888066 1.0616461855641646 0 0 0 0.23 148 467 164 404 209 536 
1615 -0.19493836049737703 -0.018274499870783775 1.0318716763347444 0 0 0 0.14 157 146 209 537 213 200 
1616 -0.31233431772174375 -0.07603646636032216 1.0609277907300874 0 0 0 0.22 157 147 176 173 209 538 
1617 -0.21086223023357564 0.08682478831550947 1.01481254419761 0 0 0 0.35 158 82 209 539 227 66 
1618 -0.21065801657737407 -0.025111225263684752 1.035133332843076 0 0 0 0.23 162 181 179 79 209 540 227 67 
1619 -0.3409538819009681 0.04299767091319994 1.0430839701138928 0 0 0 0.29 162 182 196 286 209 541 
1620 -0.3075577402161718 0.08673405206698356 1.0276120244377474 0 0 0 0.31 164 405 172 133 209 542 213 201 
1621 -0.33854157690403947 -0.051702120922832946 0.9198316072052661 0 0 0 0.29 164 406 209 543 220 96 
