# 3D point list with one line of data per point:
#   POINT3D_ID, X, Y, Z, R, G, B, ERROR, TRACK[] as (IMAGE_ID, POINT2D_IDX)
# Number of points: 269, mean track length: 10.87
4737 -0.13015558377609693 -0.007931439849682597 1.2781873318080295 0 0 0 0.31 164 2396 165 1204 184 633 213 2479 221 1147 235 1177 
4738 -0.13886251078229556 0.001489217685107758 1.2622614646894703 0 0 0 0.54 147 879 162 1067 164 2397 165 1205 184 634 190 819 197 623 198 471 208 209 213 2480 217 744 221 1148 222 885 235 1178 14 305 54 436 61 1150 66 23 69 346 71 730 73 471 77 1676 82 157 85 1311 89 398 100 105 105 409 107 435 110 957 118 1310 120 467 128 809 129 223 136 772 141 124 148 1578 170 84 127 835 158 1026 196 1387 227 825 53 997 60 1051 2 1481 4 1807 40 719 63 559 0 542 3 812 9 1100 17 1251 33 1251 43 597 44 1342 50 1381 12 531 56 380 27 1445 11 1786 19 1070 
4739 -0.2381944264738023 0.020697771298790107 1.2102447911330907 0 0 0 0.44 164 2398 184 635 185 925 213 2481 223 794 52 742 77 1677 85 1312 96 953 110 958 146 1393 11 1787 27 1446 33 1252 40 720 50 1382 105 410 109 607 42 274 148 1579 194 349 196 1388 
4740 -0.1412706926816664 0.05752838327803094 1.2574159983151205 0 0 0 0.72 184 636 213 2482 235 1179 
4741 -0.2197031293188925 -0.1821450877025683 1.2380035558674367 0 0 0 0.26 184 637 213 2483 217 745 221 1149 147 880 152 693 185 926 54 437 96 954 120 468 128 810 227 826 127 836 141 125 1 428 2 1482 3 813 4 1808 15 588 16 731 61 1151 71 731 105 411 11 1788 27 1447 0 543 138 108 232 1393 
4742 -0.22080369568483804 -0.1734201848597765 1.2370734264852463 0 0 0 0.31 184 638 220 920 227 827 
4743 -0.032762370029940105 -0.13172570881173334 1.2262183585926343 0 0 0 0.59 184 639 221 1150 234 396 
4744 -0.0424630420927176 -0.044982528546617585 1.2228138655100587 0 0 0 0.41 184 640 221 1151 222 886 232 1394 235 1180 
4745 -0.047988485187477135 -0.037463970653322104 1.2373339627206408 0 0 0 0.43 184 641 221 1152 222 887 232 1395 17 1252 120 469 163 472 
4746 -0.11016886229144648 -0.036699857251099165 1.3053532724236456 0 0 0 0.56 184 642 221 1153 222 888 61 1152 77 1678 82 158 92 1377 103 555 118 1311 147 881 158 1027 182 497 14 306 35 137 53 998 204 1376 232 1396 3 814 4 1809 11 1789 17 1253 43 598 44 1343 50 1383 15 589 120 470 227 828 165 1206 235 1181 12 532 73 472 136 773 152 694 
4747 -0.18656165193424917 -0.02689758818678842 1.2384826777525322 0 0 0 0.62 184 643 221 1154 222 889 73 473 77 1679 93 542 111 820 134 71 92 1378 204 1377 118 1312 
4748 -0.11024295334137639 -0.030146730145345912 1.3038736580217467 0 0 0 0.43 184 644 190 820 221 1155 53 999 12 533 43 599 54 438 63 560 73 474 103 556 105 412 4 1810 164 2399 165 1207 204 1378 235 1182 
4749 -0.23788045967124385 -0.019550660183577564 1.2129783448488087 0 0 0 0.32 184 645 204 1379 213 2484 222 890 232 1397 
4750 -0.029575614982452546 -0.022834181445488235 1.2122420261724942 0 0 0 0.38 184 646 221 1156 232 1398 118 1313 35 138 53 1000 62 257 141 126 197 624 235 1183 
4751 -0.014769394963948237 -0.020562329915228127 1.1987737865149621 0 0 0 0.53 184 647 221 1157 222 891 118 1314 165 1208 197 625 235 1184 53 1001 97 455 
4752 -0.01512896311470405 -0.010421651744506658 1.2007163543416652 0 0 0 0.45 184 648 190 821 221 1158 222 892 118 1315 147 882 165 1209 197 626 234 397 235 1185 53 1002 62 258 97 456 17 1254 29 411 61 1153 111 821 87 84 114 159 152 695 182 498 120 471 163 473 227 829 
4753 -0.13260699061587825 0.007282727797682648 1.2727560684026258 0 0 0 0.52 165 1210 184 649 197 627 217 746 221 1159 222 893 235 1186 
4754 -0.015389446052395856 0.024715777471919192 1.2010740412607017 0 0 0 0.61 184 650 197 628 221 1160 118 1316 165 1211 235 1187 35 139 53 1003 
4755 -0.045378649640735104 0.03463090452985098 1.2323993633203685 0 0 0 0.56 184 651 221 1161 235 1188 77 1680 141 127 
4756 -0.1698218839902864 0.060681414897417595 1.2402748693068055 0 0 0 0.31 184 652 213 2485 235 1189 52 743 85 1313 110 959 4 1811 
4757 -0.01825277925427274 -0.022645838185434874 1.2101766572035713 0 0 0 0.33 184 653 221 1162 222 894 
4758 -0.0449887813319712 -0.020205303447461884 1.2350496382529748 0 0 0 0.26 184 654 190 822 221 1163 222 895 232 1399 
4759 -0.0724677097674176 -0.021110161577310042 1.3481762430916997 0 0 0 0.43 184 655 221 1164 232 1400 35 140 77 1681 103 557 118 1317 128 811 152 696 190 823 53 1004 89 399 182 499 17 1255 50 1384 61 1154 
4760 -0.02104427884015691 -0.01026955282402309 1.2105146366194361 0 0 0 0.42 184 656 221 1165 222 896 
4761 -0.038739471072056546 0.001280078791488433 1.2198620027009672 0 0 0 0.61 184 657 221 1166 235 1190 
4762 -0.24921638058125642 -0.11069338184678607 1.2243221277298015 0 0 0 0.53 184 658 185 927 217 747 
4763 -0.05084732949794926 -0.054230718147006904 1.2370008151109333 0 0 0 0.43 184 659 190 824 221 1167 
4764 -0.021257523406296726 -0.04827950993940684 1.206639746062899 0 0 0 0.26 184 660 221 1168 232 1401 
4765 -0.12218862201811613 -0.12378698704131375 1.3088425690997396 0 0 0 1.18 184 661 197 629 204 1380 217 748 221 1169 222 897 54 439 67 306 71 732 73 475 77 1682 89 400 111 822 118 1318 120 472 129 224 162 1068 147 883 172 1164 227 830 53 1005 2 1483 3 815 4 1812 12 534 15 590 27 1448 29 412 35 141 43 600 44 1344 62 259 87 85 17 1256 114 160 56 381 11 1790 208 210 
4766 -0.10507054553740766 -0.03619997646354577 1.3101819345804966 0 0 0 0.92 147 884 165 1212 184 662 190 825 221 1170 222 898 232 1402 235 1191 54 440 67 307 71 733 77 1683 85 1314 118 1319 120 473 162 1069 100 106 128 812 141 128 196 1389 14 307 53 1006 103 558 134 72 11 1791 50 1385 63 561 56 382 163 474 0 544 69 347 
4767 -0.14361874031812155 0.0004157125359756438 1.2603097010555002 0 0 0 0.45 172 1165 184 663 190 826 196 1390 197 630 198 472 221 1171 222 899 234 398 235 1192 54 441 62 260 65 308 71 734 73 476 77 1684 85 1315 91 598 110 960 128 813 141 129 53 1007 11 1792 12 535 27 1449 32 657 33 1253 40 721 0 545 
4768 -0.03271122467840057 -0.09163025485286148 1.2206879561610269 0 0 0 0.65 184 664 190 827 197 631 221 1172 232 1403 77 1685 107 436 118 1320 141 130 222 900 227 831 35 142 53 1008 65 309 82 159 89 401 97 457 100 107 129 225 134 73 14 308 17 1257 29 413 81 322 111 823 67 308 87 86 114 161 163 475 165 1213 
4769 -0.03302185994183179 -0.08075264707456511 1.2199316201948194 0 0 0 0.67 184 665 190 828 197 632 221 1173 77 1686 165 1214 118 1321 147 885 222 901 227 832 232 1404 235 1193 53 1009 65 310 89 402 97 458 63 562 17 1258 61 1155 111 824 87 87 114 162 152 697 182 500 120 474 
4770 -0.09564968462336454 -0.07891037286273664 1.3177541984858554 0 0 0 0.42 184 666 217 749 221 1174 222 902 
4771 -0.1374038403676595 0.054762574526912355 1.2560614839630684 0 0 0 0.51 184 667 198 473 217 750 
4772 -0.14095573132670608 -0.14507824637382732 1.2713506021440326 0 0 0 1.01 147 886 152 698 158 1028 162 1070 165 1215 172 1166 182 501 184 668 190 829 197 633 198 474 199 335 204 1381 213 2486 217 751 227 833 232 1405 235 1194 14 309 53 1010 54 442 60 1052 67 309 71 735 103 559 111 825 129 226 163 476 181 360 0 546 3 816 11 1793 15 591 17 1259 27 1450 43 601 4 1813 44 1345 73 477 114 163 134 74 56 383 62 261 12 536 
4773 -0.43298646078049263 -0.22571359697661722 1.1419076805855572 0 0 0 0.42 185 928 213 2487 224 773 
4774 -0.29206789111264087 -0.18933364906571012 1.2037198871037609 0 0 0 0.27 185 929 196 1391 197 634 127 837 148 1580 
4775 -0.3641036825818056 -0.17018365436248464 1.1696066190390344 0 0 0 0.87 162 1071 185 930 196 1392 213 2488 
4776 -0.30511363037837086 -0.1469361399924087 1.1900203741724613 0 0 0 0.55 165 1216 185 931 196 1393 197 635 235 1195 28 593 77 1687 85 1316 93 543 110 961 146 1394 148 1581 157 991 159 1373 221 1175 4 1814 36 572 42 275 39 186 
4777 -0.5448725079836814 -0.17970762493778025 1.0984187715570821 0 0 0 0.38 162 1072 185 932 220 921 148 1582 63 563 
4778 -0.3744747591972086 -0.14980080893809566 1.161759564225622 0 0 0 0.24 159 1374 185 933 196 1394 221 1176 11 1794 19 1071 
4779 -0.36705516600819704 -0.1386798053815007 1.162177061108882 0 0 0 0.52 185 934 200 1005 213 2489 9 1101 33 1254 50 1386 13 486 98 367 187 347 
4780 -0.3288058160813184 -0.1155221358125034 1.1795464457063634 0 0 0 0.48 185 935 197 636 204 1382 219 1099 223 795 
4781 -0.4127397195792882 -0.11645188014243825 1.1418100569911473 0 0 0 0.14 185 936 214 980 221 1177 222 903 
4782 -0.5265631618580833 -0.12044984869410126 1.0971401130811227 0 0 0 1.04 185 937 213 2490 214 981 221 1178 92 1379 128 814 204 1383 4 1815 
4783 -0.31014371089553655 -0.08152590744151908 1.1863054475372738 0 0 0 0.48 185 938 213 2491 214 982 223 796 
4784 -0.28782228162257517 -0.07861177489659303 1.202816448977811 0 0 0 0.34 185 939 223 797 235 1196 
4785 -0.45175952462034963 -0.09296348077336693 1.1236019450682702 0 0 0 0.19 164 2400 185 940 214 983 224 774 146 1395 157 992 213 2492 77 1688 148 1583 
4786 -0.34512935844391546 -0.0804571859896282 1.171514717520423 0 0 0 0.44 185 941 196 1395 213 2493 231 446 85 1317 91 599 127 838 60 1053 4 1816 
4787 -0.5441236563781263 -0.08429038834651655 1.0918193087397499 0 0 0 0.21 185 942 214 984 232 1406 11 1795 
4788 -0.5466247818352531 -0.08427704487350186 1.0901443601113392 0 0 0 0.22 176 2006 185 943 214 985 232 1407 77 1689 92 1380 128 815 136 774 148 1584 157 993 85 1318 196 1396 19 1072 43 602 93 544 109 608 2 1484 3 817 4 1817 12 537 16 732 17 1260 158 1029 159 1375 220 922 11 1796 50 1387 
4789 -0.5496380223056742 -0.08420183651381395 1.089399979459048 0 0 0 0.08 159 1376 185 944 204 1384 224 775 232 1408 
4790 -0.5436619233923652 -0.08193334670301715 1.0944061465153074 0 0 0 0.71 185 945 204 1385 232 1409 3 818 
4791 -0.4377836997496102 -0.06349823639301425 1.1242720894207103 0 0 0 0.44 185 946 190 830 221 1179 222 904 
4792 -0.3373473506341316 -0.026191784873547147 1.1677336678333736 0 0 0 0.53 185 947 197 637 223 798 
4793 -0.2858595730123949 -0.018440635641438486 1.1927486072445035 0 0 0 0.47 185 948 194 350 196 1397 85 1319 91 600 92 1381 124 664 33 1255 40 722 44 1346 13 487 
4794 -0.3758888796608548 -0.014517198257841766 1.1469586500928766 0 0 0 0.42 164 2401 176 2007 185 949 194 351 213 2494 214 986 219 1100 223 799 77 1690 85 1320 148 1585 92 1382 107 437 146 1396 2 1485 4 1818 11 1797 16 733 27 1451 28 594 33 1256 38 501 44 1347 110 962 201 230 
4795 -0.4513000453016639 -0.01798619959185659 1.1153966854134416 0 0 0 0.16 176 2008 185 950 213 2495 219 1101 
4796 -0.3539368606464006 -0.00955427600733923 1.1563773245640063 0 0 0 0.17 185 951 194 352 213 2496 
4797 -0.37666652714517956 -0.1754259981231206 1.1631747244523385 0 0 0 0.32 185 952 220 923 221 1180 222 905 
4798 -0.30900744812753084 -0.15086102591733366 1.1843311626194681 0 0 0 0.45 176 2009 185 953 197 638 213 2497 214 987 219 1102 232 1410 235 1197 61 1156 77 1691 103 560 110 963 118 1322 127 839 128 816 85 1321 92 1383 148 1586 222 906 3 819 11 1798 27 1452 29 414 96 955 126 665 142 425 36 573 
4799 -0.47225650693478444 -0.1622326398571601 1.1156826150140964 0 0 0 0.75 185 954 204 1386 219 1103 28 595 52 744 77 1692 85 1322 92 1384 96 956 146 1397 157 994 164 2402 118 1323 162 1073 196 1398 200 1006 222 907 3 820 4 1819 9 1102 17 1261 19 1073 40 723 41 300 63 564 42 276 229 214 159 1377 13 488 
4800 -0.2985494693673965 -0.13403518469327322 1.1945034479847387 0 0 0 0.74 185 955 213 2498 234 399 54 443 77 1693 93 545 96 957 118 1324 136 775 148 1587 222 908 40 724 44 1348 126 666 187 348 
4801 -0.3419922151707713 -0.12410158786772763 1.1794460312953503 0 0 0 0.26 172 1167 185 956 197 639 213 2499 221 1181 232 1411 77 1694 96 958 91 601 
4802 -0.4568377272448087 -0.09859979468819809 1.1239999529826037 0 0 0 0.36 185 957 200 1007 213 2500 
4803 -0.2657576572841511 -0.05897036637118376 1.2089740463538472 0 0 0 0.28 185 958 194 353 223 800 19 1074 
4804 -0.27538050118515145 -0.03509455499106826 1.2003492266139673 0 0 0 0.45 185 959 214 988 223 801 235 1198 
4805 -0.32539693701111694 -0.03115983443734739 1.1685737018511546 0 0 0 0.12 185 960 204 1387 222 909 
4806 -0.3763303392328753 -0.025971868520658324 1.1464911495891141 0 0 0 0.5 185 961 196 1399 220 924 223 802 52 745 77 1695 127 840 148 1588 85 1323 200 1008 25 554 44 1349 109 609 92 1385 135 254 63 565 33 1257 38 502 40 725 4 1820 11 1799 61 1157 146 1398 126 667 175 442 176 2010 213 2501 232 1412 28 596 98 368 187 349 201 231 204 1388 234 400 118 1325 197 640 219 1104 53 1011 
4807 -0.44728432623869546 -0.027998484440441968 1.1210542886453767 0 0 0 0.6 185 962 190 831 222 910 224 776 135 255 157 995 204 1389 3 821 
4808 -0.3713501005845117 -0.02075911619473738 1.1522921608259042 0 0 0 0.53 164 2403 175 443 185 963 194 354 217 752 223 803 231 447 92 1386 93 546 96 959 107 438 111 826 124 665 135 256 136 776 146 1399 148 1589 196 1400 60 1054 53 1012 16 734 43 603 44 1350 63 566 232 1413 13 489 
4809 -0.4888522521965189 -0.017117156775882495 1.0938658724260752 0 0 0 0.3 164 2404 176 2011 185 964 196 1401 200 1009 204 1390 213 2502 214 989 219 1105 222 911 223 804 232 1414 77 1696 85 1324 92 1387 93 547 146 1400 110 964 158 1030 53 1013 2 1486 4 1821 9 1103 11 1800 16 735 17 1262 19 1075 32 658 33 1258 36 574 44 1351 50 1388 61 1158 124 666 
4810 -0.27108736936734207 0.011406644568638697 1.193994669480003 0 0 0 0.68 185 965 220 925 221 1182 
4811 -0.2786120658137453 -0.12651814528681338 1.2051387921027228 0 0 0 0.47 185 966 197 641 214 990 
4812 -0.6545079903578814 -0.17551759004409154 1.061680298928049 0 0 0 0.53 185 967 220 926 224 777 
4813 -0.6456836060382716 -0.17265213589390674 1.0665129085504514 0 0 0 0.57 185 968 221 1183 227 834 118 1326 60 1055 21 238 44 1352 73 478 96 960 103 561 127 841 148 1590 162 1074 164 2405 196 1402 41 301 64 100 114 164 158 1031 198 475 50 1389 71 736 81 323 209 182 217 753 3 822 65 311 1 429 56 384 97 459 160 291 190 832 0 547 2 1487 17 1263 61 1159 152 699 4 1822 9 1104 213 2503 220 927 19 1076 159 1378 200 1010 224 778 
4814 -0.527890740658829 -0.1456289920381382 1.0976976656450053 0 0 0 0.49 185 969 204 1391 219 1106 220 928 26 500 28 597 71 737 85 1325 96 961 110 965 127 842 147 887 148 1591 221 1184 9 1105 17 1264 63 567 0 548 42 277 229 215 
4815 -0.25088725274827794 -0.006224687052342938 1.2094828754301614 0 0 0 0.38 162 1075 185 970 214 991 223 805 
4816 -0.5371682322231658 -0.02072500091714145 1.0852762205206106 0 0 0 0.17 185 971 214 992 227 835 
4817 -0.4995687959730983 0.0060425053995451245 1.0978380863297323 0 0 0 0.37 185 972 214 993 223 806 
4818 -0.2654219379381603 0.019111648899683042 1.1968077934181849 0 0 0 0.55 163 477 165 1217 175 444 185 973 194 355 213 2504 220 929 223 807 235 1199 85 1326 91 602 107 439 110 966 148 1592 60 1056 9 1106 11 1801 19 1077 33 1259 38 503 44 1353 109 610 124 667 146 1401 142 426 200 1011 13 490 98 369 187 350 201 232 
4819 -0.5578985162316946 -0.17096005851577112 1.0895653319969034 0 0 0 0.79 172 1168 185 974 190 833 200 1012 204 1392 213 2505 217 754 220 930 221 1185 
4820 -0.49677388238750514 -0.16162822677190836 1.1079647287042034 0 0 0 0.55 185 975 221 1186 222 912 232 1415 61 1160 77 1697 89 403 103 562 118 1327 128 817 11 1802 50 1390 0 549 16 736 
4821 -0.21171527093840586 -0.08928881168880382 1.2351736404627696 0 0 0 0.43 147 888 152 700 164 2406 165 1218 185 976 204 1393 214 994 52 746 53 1014 62 262 107 440 118 1328 146 1402 2 1488 17 1265 50 1391 69 348 32 659 54 444 42 278 11 1803 15 592 197 642 213 2506 19 1078 162 1076 
4822 -0.31315556648897347 -0.06008214966789395 1.1871820385642828 0 0 0 0.22 185 977 194 356 196 1403 200 1013 
4823 -0.4831403535870881 -0.06600083055161457 1.1057065152416425 0 0 0 0.34 158 1032 185 978 214 995 219 1107 63 568 
4824 -0.4591304669325382 -0.1881148623589669 1.1252096620565093 0 0 0 1.36 147 889 164 2407 185 979 196 1404 198 476 224 779 92 1388 96 962 162 1077 227 836 53 1015 61 1161 89 404 129 227 172 1169 190 834 204 1394 219 1108 2 1489 9 1107 11 1804 27 1453 28 598 36 575 52 747 160 292 152 701 157 996 176 2012 56 385 124 668 200 1014 3 823 13 491 126 668 136 777 214 996 142 427 
4825 -0.5750081644415969 -0.170273271405869 1.0882758758106676 0 0 0 0.53 185 980 190 835 204 1395 219 1109 221 1187 227 837 77 1698 110 967 118 1329 1 430 2 1490 3 824 4 1823 27 1454 33 1260 50 1392 61 1162 65 312 96 963 97 460 0 550 158 1033 
4826 -0.514614335677304 -0.13307230115597277 1.1034485676311188 0 0 0 0.67 147 890 162 1078 176 2013 185 981 198 477 204 1396 213 2507 219 1110 220 931 232 1416 53 1016 71 738 118 1330 19 1079 224 780 
4827 -0.28516566646169084 -0.011853144037164847 1.1872177661338457 0 0 0 0.17 185 982 198 478 199 336 
4828 -0.49817236721056957 0.008659716069802164 1.097055769776799 0 0 0 0.73 185 983 196 1405 198 479 224 781 97 461 136 778 96 964 219 1111 232 1417 4 1824 222 913 53 1017 60 1057 43 604 63 569 
4829 -0.5026239499331564 0.014223623288911786 1.0947980281434235 0 0 0 0.34 162 1079 185 984 204 1397 214 997 232 1418 
4830 -0.3736675424320962 -0.08708028759122069 1.1568095271641565 0 0 0 0.37 185 985 213 2508 219 1112 222 914 
4831 -0.28473036735956214 -0.2007567347329347 1.2062874645339994 0 0 0 0.62 185 986 197 643 204 1398 219 1113 
4832 -0.4842176720163346 -0.02615773918633927 1.0973913995844986 0 0 0 0.83 176 2014 185 987 190 836 204 1399 213 2509 219 1114 221 1188 232 1419 81 324 92 1389 53 1018 
4833 -0.5224498082333492 -0.11256222658027522 1.0987867491134744 0 0 0 0.26 185 988 217 755 224 782 53 1019 60 1058 
4834 -0.3534143756183016 -0.08606219101446828 1.1675522036870796 0 0 0 0.63 147 891 172 1170 176 2015 185 989 190 837 198 480 204 1400 214 998 217 756 219 1115 221 1189 222 915 232 1420 
4835 -0.3172966005903083 -0.2128995843684309 1.1921017109689402 0 0 0 0.53 190 838 198 481 213 2510 217 757 110 968 208 211 
4836 -0.39470453067322897 -0.1667860544150206 1.1523585504933505 0 0 0 0.28 200 1015 213 2511 214 999 136 779 146 1403 157 997 11 1805 16 737 33 1261 50 1393 39 187 187 351 
4837 -0.22281078294466258 -0.15817729792161325 1.235524543679595 0 0 0 0.45 159 1379 200 1016 235 1200 85 1327 105 413 136 780 148 1593 165 1219 185 990 60 1059 184 669 2 1491 4 1825 
4838 -0.42975086255727796 -0.14398706256204444 1.1332046137587295 0 0 0 0.63 159 1380 176 2016 185 991 196 1406 214 1000 224 783 77 1699 85 1328 92 1390 110 969 148 1594 2 1492 11 1806 16 738 38 504 44 1354 52 748 109 611 229 216 13 492 93 548 124 669 98 370 
4839 -0.6046570447611274 -0.14398355805370044 1.0735027420755516 0 0 0 0.35 164 2408 176 2017 200 1017 204 1401 213 2512 28 599 146 1404 110 970 157 998 4 1826 9 1108 11 1807 33 1262 50 1394 93 549 124 670 179 254 209 183 13 493 
4840 -0.4373268987629864 -0.13318162828109903 1.1299626612446916 0 0 0 0.18 176 2018 200 1018 214 1001 
4841 -0.43845809649724854 -0.12766945113509065 1.130046575617241 0 0 0 0.44 213 2513 214 1002 231 448 146 1405 11 1808 16 739 
4842 -0.38475222340083015 -0.1031552024644671 1.1529637633844578 0 0 0 0.31 200 1019 213 2514 214 1003 231 449 
4843 -0.4154786168341267 -0.08603266878670997 1.1387833156446754 0 0 0 0.22 176 2019 200 1020 213 2515 214 1004 157 999 175 445 
4844 -0.4747543620683461 -0.08619408004048831 1.111188120029103 0 0 0 0.75 159 1381 214 1005 219 1116 231 450 92 1391 93 550 110 971 148 1595 157 1000 196 1407 2 1493 9 1109 16 740 50 1395 33 1263 44 1355 60 1060 109 612 229 217 
4845 -0.3607256320447964 -0.08355726582371278 1.1641208081203986 0 0 0 0.24 159 1382 213 2516 214 1006 2 1494 9 1110 16 741 33 1264 38 505 41 302 109 613 124 671 136 781 39 188 
4846 -0.6097802077439108 -0.08690514109599928 1.0683105783063 0 0 0 0.29 159 1383 176 2020 200 1021 213 2517 224 784 92 1392 146 1406 157 1001 60 1061 9 1111 44 1356 50 1396 209 184 
4847 -0.35162767029872277 -0.07079630782943978 1.1653664647938768 0 0 0 0.46 159 1384 175 446 176 2021 197 644 214 1007 223 808 92 1393 16 742 
4848 -0.4029160838234011 -0.034128292520525336 1.1369631629820793 0 0 0 0.21 188 35 200 1022 213 2518 16 743 157 1002 
4849 -0.48540276412923766 -0.035077897492800526 1.094625630479533 0 0 0 0.27 164 2409 176 2022 213 2519 214 1008 
4850 -0.2942530973937691 -0.029157810935520966 1.1855779177475656 0 0 0 0.22 213 2520 214 1009 235 1201 
4851 -0.39993227915633806 -0.022947991336046355 1.1418529103456094 0 0 0 0.23 188 36 194 357 223 809 85 1329 214 1010 38 506 52 749 109 614 
4852 -0.4277815537734458 -0.017120502741649734 1.1237995381471282 0 0 0 0.18 188 37 200 1023 213 2521 92 1394 135 257 146 1407 16 744 11 1809 
4853 -0.4222543642892782 -0.016800934740979514 1.1276496252663448 0 0 0 0.2 188 38 213 2522 214 1011 231 451 
4854 -0.4025166454345294 -0.014782728128758103 1.134917699183696 0 0 0 0.07 188 39 194 358 214 1012 
4855 -0.48779098069123544 -0.01493787546581878 1.0951136630020968 0 0 0 0.3 158 1034 164 2410 176 2023 200 1024 213 2523 214 1013 223 810 224 785 28 600 92 1395 124 672 146 1408 128 818 136 782 148 1596 60 1062 127 843 2 1495 4 1827 9 1112 11 1810 16 745 33 1265 44 1357 50 1397 109 615 13 494 98 371 
4856 -0.3848709713707803 -0.011972371694501053 1.1432732908211718 0 0 0 0.25 188 40 214 1014 231 452 
4857 -0.3932631534034056 -0.012092131696118719 1.1434117431544197 0 0 0 0.42 188 41 214 1015 231 453 118 1331 164 2411 213 2524 219 1117 4 1828 11 1811 16 746 38 507 
4858 -0.3161573366916077 -0.009753226249552277 1.1750706199059697 0 0 0 0.16 197 645 213 2525 214 1016 
4859 -0.30927818400671786 -0.00978990184220768 1.1805458645733398 0 0 0 0.28 164 2412 213 2526 214 1017 223 811 234 401 128 819 146 1409 148 1597 204 1402 28 601 109 616 17 1266 201 233 
4860 -0.5768195123618528 -0.016699384129993854 1.0747647067093349 0 0 0 0.35 159 1385 164 2413 176 2024 213 2527 232 1421 28 602 77 1700 85 1330 92 1396 118 1332 146 1410 148 1598 110 972 53 1020 4 1829 11 1812 17 1267 113 200 
4861 -0.26545593345317375 -0.005381681326652713 1.1986643045240724 0 0 0 0.57 163 478 194 359 213 2528 220 932 221 1190 223 812 232 1422 234 402 53 1021 92 1397 190 839 2 1496 9 1113 17 1268 19 1080 33 1266 36 576 41 303 44 1358 50 1398 77 1701 111 827 124 673 146 1411 13 495 175 447 
4862 -0.19183864700964684 -0.002971027947780178 1.2337981434865986 0 0 0 0.46 164 2414 200 1025 213 2529 223 813 234 403 62 263 85 1331 92 1398 105 414 110 973 148 1599 2 1497 4 1830 11 1813 33 1267 50 1399 124 674 17 1269 27 1455 127 844 159 1386 235 1202 
4863 -0.6220327951072346 -0.008638024609613517 1.0555027565009043 0 0 0 0.28 176 2025 200 1026 213 2530 92 1399 157 1003 2 1498 11 1814 33 1268 44 1359 50 1400 93 551 209 185 
4864 -0.5172793815145655 -0.0016617504814645633 1.0879613502399719 0 0 0 0.48 176 2026 200 1027 213 2531 157 1004 4 1831 11 1815 16 747 214 1018 
4865 -0.355092342411828 0.008220414223349596 1.1556508949847188 0 0 0 0.47 147 892 164 2415 172 1171 194 360 204 1403 213 2532 214 1019 222 916 223 814 28 603 52 750 77 1702 92 1400 93 552 110 974 118 1333 146 1412 148 1600 227 838 234 404 53 1022 4 1832 11 1816 16 748 17 1270 27 1456 38 508 109 617 187 352 
4866 -0.18395261785697092 0.013262834682169232 1.2365827858642826 0 0 0 0.52 165 1220 200 1028 213 2533 223 815 235 1203 2 1499 36 577 77 1703 91 603 
4867 -0.23682163544745097 0.011957982444720934 1.212766207428476 0 0 0 0.13 194 361 213 2534 235 1204 
4868 -0.322139600497207 0.011557509813247002 1.1696210878256939 0 0 0 0.36 194 362 214 1020 223 816 
4869 -0.21987635593236593 0.015175050520132826 1.2193460461839771 0 0 0 0.35 194 363 213 2535 214 1021 223 817 77 1704 85 1332 11 1817 136 783 42 279 
4870 -0.37779837900451924 0.010725466711245094 1.1449988052368298 0 0 0 0.55 164 2416 175 448 194 364 196 1408 213 2536 214 1022 223 818 227 839 231 454 232 1423 28 604 52 751 77 1705 85 1333 92 1401 110 975 136 784 146 1413 148 1601 200 1029 234 405 14 310 60 1063 61 1163 162 1080 2 1500 3 825 4 1833 11 1818 15 593 16 749 17 1271 33 1269 38 509 44 1360 69 349 124 675 42 280 120 475 13 496 98 372 187 353 201 234 
4871 -0.5327471872115339 0.006885367920982308 1.0851314212254803 0 0 0 0.24 200 1030 213 2537 214 1023 110 976 146 1414 11 1819 16 750 28 605 33 1270 
4872 -0.29193420639021833 0.014875991400045988 1.1840371980746442 0 0 0 0.21 200 1031 213 2538 214 1024 
4873 -0.2547086205780481 0.01655111014953014 1.2074590962573475 0 0 0 0.29 200 1032 213 2539 223 819 135 258 
4874 -0.16393651510197396 0.021262804520118573 1.2452852214100207 0 0 0 0.39 164 2417 165 1221 184 670 197 646 213 2540 223 820 235 1205 77 1706 85 1334 91 604 110 977 118 1334 136 785 148 1602 2 1501 4 1834 11 1820 19 1081 27 1457 33 1271 40 726 44 1361 50 1401 105 415 107 441 36 578 73 479 
4875 -0.2639977515952234 0.01927969008503745 1.1980023675067637 0 0 0 0.74 163 479 200 1033 213 2541 
4876 -0.2985929097872167 0.019574274775446463 1.1804812427259566 0 0 0 0.44 194 365 214 1025 223 821 235 1206 
4877 -0.32210946623283854 0.01926387511898792 1.1685836884533067 0 0 0 0.28 194 366 213 2542 214 1026 223 822 
4878 -0.32188439123806595 0.021628085393516832 1.1684938996522949 0 0 0 0.1 194 367 213 2543 214 1027 
4879 -0.29869347929267726 0.023390441353376853 1.1807734146573017 0 0 0 0.25 194 368 213 2544 214 1028 4 1835 
4880 -0.32533794930182786 0.028276941328606895 1.166458109608173 0 0 0 0.53 194 369 213 2545 223 823 92 1402 146 1415 4 1836 11 1821 27 1458 28 606 109 618 110 978 187 354 234 406 
4881 -0.2969964749145024 0.02923896801296268 1.180705094257054 0 0 0 0.35 164 2418 194 370 214 1029 223 824 213 2546 52 752 77 1707 85 1335 91 605 110 979 148 1603 165 1222 146 1416 235 1207 4 1837 11 1822 38 510 109 619 42 281 118 1335 
4882 -0.32179378486667204 0.029385760180716605 1.1677746458254243 0 0 0 0.39 164 2419 194 371 196 1409 213 2547 214 1030 223 825 
4883 -0.46034271703872237 0.03241431723886589 1.1057926741746884 0 0 0 0.34 176 2027 213 2548 214 1031 28 607 52 753 92 1403 110 980 146 1417 11 1823 16 751 33 1272 36 579 41 304 93 553 13 497 38 511 
4884 -0.46218552768448673 0.03925453150130413 1.1048881317474586 0 0 0 0.35 164 2420 200 1034 213 2549 214 1032 52 754 77 1708 85 1336 92 1404 146 1418 110 981 124 676 223 826 2 1502 4 1838 11 1824 16 752 27 1459 33 1273 41 305 44 1362 50 1402 60 1064 229 218 13 498 98 373 
4885 -0.16808247256326062 0.053519934839035485 1.2402824534087287 0 0 0 0.23 213 2550 223 827 235 1208 
4886 -0.7331276553910423 -0.18754195022065695 1.0394783453478225 0 0 0 0.55 164 2421 196 1410 221 1191 224 786 232 1424 25 555 71 739 77 1709 85 1337 92 1405 96 965 118 1336 159 1387 110 982 127 845 148 1604 60 1065 67 310 103 563 2 1503 3 826 4 1839 9 1114 17 1272 19 1082 27 1460 40 727 44 1363 50 1403 65 313 109 620 128 820 114 165 209 186 
4887 -0.38038079080708886 -0.17149270662987542 1.1594617809877177 0 0 0 0.81 176 2028 213 2551 221 1192 223 828 232 1425 
4888 -0.2622186648457891 -0.14597867115165922 1.2105991077100107 0 0 0 0.71 197 647 213 2552 234 407 235 1209 
4889 -0.1973966151282011 -0.1440267054364405 1.2407010909702336 0 0 0 0.47 159 1388 176 2029 213 2553 235 1210 62 264 77 1710 85 1338 4 1840 11 1825 27 1461 36 580 110 983 146 1419 91 606 187 355 
4890 -0.3532758866750217 -0.14225612556835482 1.1685657760463715 0 0 0 0.27 200 1035 213 2554 223 829 
4891 -0.41053022222823665 -0.1420701722941825 1.143641579695516 0 0 0 0.15 196 1411 204 1404 213 2555 214 1033 
4892 -0.6032262640198249 -0.14168189655753585 1.0736520518250645 0 0 0 0.32 158 1035 164 2422 176 2030 200 1036 213 2556 224 787 28 608 52 755 61 1164 92 1406 107 442 118 1337 124 677 127 846 128 821 146 1420 157 1005 110 984 148 1605 60 1066 2 1504 4 1841 11 1826 27 1462 32 660 33 1274 36 581 40 728 41 306 44 1364 50 1404 103 564 109 621 21 239 209 187 39 189 
4893 -0.36211046564541544 -0.11240305607727676 1.1692032600317648 0 0 0 0.36 172 1172 176 2031 197 648 200 1037 204 1405 213 2557 222 917 232 1426 4 1842 16 753 
4894 -0.15681250695147889 -0.08423497576070924 1.2592102896895765 0 0 0 0.28 164 2423 197 649 235 1211 
4895 -0.1784976303535348 -0.07458284440845088 1.2507733492217905 0 0 0 0.23 164 2424 165 1223 200 1038 213 2558 77 1711 2 1505 44 1365 91 607 92 1407 4 1843 9 1115 
4896 -0.3332324536980199 -0.0764409278441676 1.1758997463226382 0 0 0 0.38 159 1389 163 480 164 2425 176 2032 194 372 196 1412 213 2559 221 1193 223 830 232 1427 61 1165 77 1712 85 1339 91 608 93 554 107 443 110 985 118 1338 127 847 136 786 146 1421 148 1606 157 1006 92 1408 0 551 14 311 40 729 42 282 142 428 9 1116 19 1083 
4897 -0.5879063719512351 -0.08234396160698669 1.0747195907138114 0 0 0 0.19 213 2560 214 1034 232 1428 
4898 -0.3713094776241873 -0.07222551877173533 1.161043179926707 0 0 0 0.46 197 650 213 2561 223 831 159 1390 222 918 77 1713 92 1409 135 259 93 555 162 1081 127 848 118 1339 146 1422 176 2033 231 455 232 1429 53 1023 96 966 11 1827 17 1273 32 661 36 582 89 405 16 754 27 1463 109 622 148 1607 2 1506 19 1084 33 1275 44 1366 221 1194 204 1406 13 499 
4899 -0.3667696925974738 -0.07190930955551238 1.1631563770753242 0 0 0 0.19 213 2562 214 1035 221 1195 
4900 -0.3607558628571314 -0.06615329100961406 1.1634814070543464 0 0 0 0.37 152 702 158 1036 200 1039 204 1407 213 2563 146 1423 176 2034 219 1118 4 1844 11 1828 16 755 17 1274 120 476 197 651 201 235 
4901 -0.34072755616433437 -0.03384415921532012 1.172079638638259 0 0 0 0.26 164 2426 197 652 213 2564 221 1196 77 1714 4 1845 103 565 11 1829 16 756 146 1424 50 1405 118 1340 
4902 -0.3685571909304678 -0.03148167585916555 1.15902889012959 0 0 0 0.26 164 2427 172 1173 197 653 213 2565 221 1197 232 1430 118 1341 77 1715 146 1425 2 1507 4 1846 9 1117 16 757 17 1275 29 415 33 1276 38 512 50 1406 60 1067 61 1166 110 986 44 1367 136 787 
4903 -0.47125399515032895 -0.03172188057640738 1.1088143634487575 0 0 0 0.2 158 1037 176 2035 200 1040 204 1408 213 2566 219 1119 232 1431 118 1342 2 1508 4 1847 9 1118 16 758 17 1276 27 1464 32 662 38 513 41 307 44 1368 50 1407 61 1167 92 1410 103 566 109 623 124 678 136 788 146 1426 148 1608 222 919 11 1830 128 822 157 1007 
4904 -0.41979702375796013 -0.030169036448931496 1.133396078312523 0 0 0 0.1 188 42 200 1041 213 2567 
4905 -0.34140353598615114 -0.01104880421977469 1.165972221734633 0 0 0 0.42 197 654 214 1036 223 832 
4906 -0.31655125272413137 -0.006975205758113953 1.174004385217257 0 0 0 0.92 214 1037 220 933 221 1198 223 833 232 1432 146 1427 148 1609 152 703 4 1848 9 1119 12 538 17 1277 29 416 38 514 92 1411 103 567 52 756 142 429 19 1085 196 1413 13 500 69 350 135 260 
4907 -0.3545335108490555 0.0029995782762500004 1.15604783312241 0 0 0 0.69 164 2428 172 1174 223 834 232 1433 28 609 52 757 77 1716 85 1340 92 1412 110 987 176 2036 194 373 213 2568 234 408 4 1849 11 1831 16 759 17 1278 27 1465 36 583 93 556 109 624 187 356 201 236 13 501 124 679 
4908 -0.6907055521628073 -0.005051139611753467 1.0342187064567874 0 0 0 0.29 164 2429 172 1175 176 2037 213 2569 219 1120 232 1434 61 1168 92 1413 113 201 118 1343 148 1610 60 1068 4 1850 9 1120 11 1832 17 1279 36 584 50 1408 44 1369 
4909 -0.5875913164716229 -7.625658224572193e-05 1.0659971027929607 0 0 0 0.32 162 1082 164 2430 176 2038 204 1409 213 2570 219 1121 224 788 227 840 232 1435 61 1169 157 1008 158 1038 28 610 52 758 77 1717 85 1341 92 1414 107 444 113 202 118 1344 146 1428 148 1611 110 988 53 1024 60 1069 2 1509 33 1277 44 1370 50 1409 93 557 124 680 135 261 4 1851 9 1121 11 1833 17 1280 27 1466 21 240 200 1042 
4910 -0.40222358687812065 0.007847025447211534 1.1341899425086486 0 0 0 0.27 188 43 213 2571 231 456 85 1342 148 1612 194 374 214 1038 4 1852 11 1834 38 515 146 1429 
4911 -0.34929142977389865 0.011866157799714267 1.1575224412786906 0 0 0 0.43 213 2572 214 1039 221 1199 234 409 146 1430 4 1853 11 1835 16 760 17 1281 28 611 38 516 92 1415 118 1345 223 835 187 357 164 2431 231 457 232 1436 13 502 44 1371 50 1410 175 449 200 1043 2 1510 33 1278 196 1414 
4912 -0.16605010870912923 0.016474379690445 1.2448257530307998 0 0 0 0.79 197 655 213 2573 235 1212 110 989 
4913 -0.29532311567240777 0.013181662522284648 1.1831153216718577 0 0 0 0.42 213 2574 214 1040 223 836 
4914 -0.37018587325406865 0.011705035230317865 1.1523091931318765 0 0 0 0.38 194 375 213 2575 214 1041 223 837 85 1343 146 1431 
4915 -0.2946114234898211 0.015827236081725336 1.1821040175808157 0 0 0 0.52 213 2576 214 1042 223 838 85 1344 194 376 
4916 -0.29469619511765116 0.019086999827003077 1.1824433772711018 0 0 0 0.44 213 2577 214 1043 223 839 234 410 4 1854 187 358 
4917 -0.35679119226902695 0.019852051646043922 1.1536472477478765 0 0 0 0.36 200 1044 204 1410 213 2578 223 840 
4918 -0.3870669907154711 0.020912847762436154 1.1406953145187924 0 0 0 0.64 213 2579 214 1044 221 1200 223 841 232 1437 
4919 -0.2304180746048481 0.02605319626931953 1.212251586560531 0 0 0 0.46 164 2432 165 1224 184 671 197 656 223 842 234 411 235 1213 77 1718 85 1345 91 609 105 416 110 990 127 849 136 789 148 1613 135 262 194 377 196 1415 42 283 2 1511 4 1855 11 1836 19 1086 
4920 -0.43154605239956223 0.022578512920416016 1.1221767435356538 0 0 0 0.35 164 2433 213 2580 214 1045 222 920 
4921 -0.3889621944259631 0.02843000443338224 1.1340723999882611 0 0 0 0.43 164 2434 213 2581 214 1046 110 991 146 1432 223 843 4 1856 11 1837 16 761 27 1467 
4922 -0.3933177285876938 0.03182596970150144 1.1314763177899012 0 0 0 0.38 164 2435 213 2582 214 1047 
4923 -0.3797526742839574 0.0373865403190316 1.1419669511295318 0 0 0 0.3 194 378 213 2583 214 1048 223 844 232 1438 
4924 -0.6405577457257688 -0.20233791937518997 1.0686223171297509 0 0 0 0.39 196 1416 213 2584 219 1122 77 1719 110 992 204 1411 53 1025 146 1433 
4925 -0.6288828180444744 -0.18826074697226133 1.0707700095611754 0 0 0 0.42 172 1176 190 840 213 2585 219 1123 227 841 232 1439 61 1170 77 1720 92 1416 96 967 97 462 118 1346 128 823 146 1434 157 1009 53 1026 2 1512 3 827 4 1857 9 1122 32 663 36 585 43 605 44 1372 50 1411 
4926 -0.6357548279996844 -0.17750095651545708 1.0704220996719964 0 0 0 0.2 152 704 204 1412 213 2586 
4927 -0.5550941183488293 -0.1533943587187036 1.0861153604768101 0 0 0 0.18 200 1045 204 1413 227 842 
4928 -0.3445658347234806 -0.1448081339650768 1.1744875351001216 0 0 0 0.33 147 893 152 705 190 841 217 758 219 1124 220 934 221 1201 222 921 223 845 232 1440 25 556 26 501 69 351 77 1721 118 1347 120 477 128 824 148 1614 234 412 4 1858 11 1838 15 594 17 1282 33 1279 38 517 50 1412 109 625 63 570 204 1414 160 293 
4929 -0.36946290676898463 -0.12184985656312215 1.1653353374493278 0 0 0 0.25 213 2587 221 1202 232 1441 11 1839 16 762 17 1283 118 1348 4 1859 
4930 -0.57673174755317 -0.09004142277550488 1.080091583349768 0 0 0 0.32 176 2039 196 1417 204 1415 221 1203 224 789 232 1442 28 612 61 1171 71 740 77 1722 85 1346 92 1417 93 558 96 968 103 568 107 445 111 828 118 1349 124 681 128 825 146 1435 148 1615 157 1010 158 1039 159 1391 162 1083 164 2436 110 993 127 850 172 1177 190 842 200 1046 227 843 53 1027 60 1070 2 1513 17 1284 50 1413 3 828 4 1860 9 1123 11 1840 12 539 19 1087 27 1468 32 664 33 1280 36 586 41 308 43 606 44 1373 109 626 113 203 179 255 114 166 13 503 
4931 -0.29189415545069514 -0.05940408700112731 1.1954969678306424 0 0 0 0.38 152 706 172 1178 175 450 176 2040 190 843 197 657 198 482 199 337 204 1416 213 2588 217 759 227 844 232 1443 234 413 
4932 -0.3289861528639046 -0.03575744452101918 1.1711703077874829 0 0 0 0.3 147 894 190 844 197 658 213 2589 222 922 4 1861 15 595 16 763 232 1444 
4933 -0.3455876500544892 -0.012920564246410098 1.1627143666356965 0 0 0 0.42 176 2041 197 659 219 1125 221 1204 
4934 -0.33098301776856 -0.008117095259841183 1.166955539271417 0 0 0 0.38 197 660 214 1049 221 1205 222 923 232 1445 77 1723 118 1350 194 379 53 1028 2 1514 32 665 36 587 43 607 89 406 103 569 4 1862 12 540 27 1469 38 518 
4935 -0.5144765268433804 -0.013796049248577169 1.0928666850850806 0 0 0 0.23 204 1417 221 1206 232 1446 
4936 -0.6299320381696116 0.005949210774723189 1.0527798799250971 0 0 0 0.5 220 935 224 790 232 1447 
4937 -0.25829801556168935 0.04153866682526827 1.191948947159693 0 0 0 0.93 164 2437 165 1225 223 846 235 1214 77 1724 91 610 182 502 135 263 190 845 11 1841 27 1470 32 666 33 1281 53 1029 54 445 60 1071 69 352 71 741 97 463 127 851 
4938 -0.6585295235140545 -0.17389982354961922 1.061273059621447 0 0 0 0.4 164 2438 185 992 200 1047 220 936 221 1207 224 791 71 742 77 1725 111 829 127 852 148 1616 162 1084 2 1515 3 829 19 1088 27 1471 32 667 33 1282 43 608 60 1072 146 1436 21 241 0 552 44 1374 179 256 
4939 -0.11986617425119339 -0.13129389101356642 1.3106235174550436 0 0 0 0.93 184 672 197 661 221 1208 4 1863 12 541 36 588 54 446 61 1172 
4940 -0.3571904310972681 -0.08722435479352499 1.1643828913021426 0 0 0 0.48 159 1392 164 2439 185 993 217 760 223 847 1 431 26 502 64 101 73 480 85 1347 93 559 103 570 128 826 136 790 146 1437 148 1617 92 1418 127 853 162 1085 172 1179 194 380 196 1418 60 1073 91 611 3 830 4 1864 9 1124 15 596 29 417 33 1283 38 519 40 730 41 309 43 609 44 1375 109 627 63 571 56 386 
4941 -0.4386708638386003 -0.049110710788375776 1.1274623689076722 0 0 0 0.7 147 895 176 2042 190 846 213 2590 219 1126 222 924 232 1448 1 432 4 1865 17 1285 0 553 3 831 
4942 -0.13628477595300126 -0.015259221377497294 1.270095282324275 0 0 0 0.53 147 896 165 1226 184 673 197 662 213 2591 221 1209 222 925 235 1215 35 143 53 1030 54 447 71 743 77 1726 92 1419 110 994 118 1351 128 827 4 1866 11 1842 15 597 17 1286 27 1472 43 610 63 572 91 612 148 1618 3 832 198 483 199 338 208 212 
4943 -0.3924275947070917 -0.017514304793392433 1.1457510542150529 0 0 0 0.46 188 44 204 1418 217 761 219 1127 
4944 -0.28541206475036995 -0.007414539337816494 1.1944387226660245 0 0 0 0.42 147 897 164 2440 165 1227 222 926 223 848 235 1216 
4945 -0.6925895762548847 -0.01800836610212814 1.0356392389929785 0 0 0 0.37 159 1393 164 2441 217 762 219 1128 220 937 224 792 232 1449 92 1420 
4946 -0.6812759874841274 0.009512507122456179 1.0355886002020562 0 0 0 0.38 196 1419 220 938 224 793 2 1516 17 1287 44 1376 21 242 
4947 -0.42094650945966955 0.024540194387995744 1.1323504359231042 0 0 0 0.41 190 847 213 2592 232 1450 
4948 -0.7232633907451456 -0.1780387498766434 1.0373254396510492 0 0 0 0.39 217 763 221 1210 232 1451 
4949 -0.35523226458077983 -0.14962098890158687 1.1689420757183333 0 0 0 0.35 196 1420 213 2593 221 1211 217 764 
4950 -0.49275704508694296 -0.14818600290203476 1.1075177082620746 0 0 0 0.53 147 898 196 1421 200 1048 214 1050 217 765 220 939 25 557 28 613 61 1173 92 1421 93 560 96 969 107 446 112 41 53 1031 2 1517 3 833 9 1125 16 764 40 731 43 611 44 1377 50 1414 109 628 63 573 142 430 98 374 13 504 
4951 -0.690180663588168 -0.1086951436371641 1.0443152040492638 0 0 0 0.53 164 2442 172 1180 176 2043 190 848 196 1422 213 2594 219 1129 220 940 221 1212 224 794 227 845 26 503 61 1174 65 314 67 311 77 1727 81 325 85 1348 93 561 96 970 118 1352 127 854 128 828 148 1619 157 1011 204 1419 53 1032 2 1518 3 834 4 1867 11 1843 17 1288 19 1089 27 1473 40 732 44 1378 50 1415 64 102 113 204 0 554 114 167 29 418 142 431 
4952 -0.7259429114109037 -0.07063703644616803 1.0263749113359784 0 0 0 0.14 196 1423 220 941 224 795 
4953 -0.38330662798744325 -0.04894501866386907 1.1471431428298742 0 0 0 0.3 197 663 213 2595 221 1213 232 1452 
4954 -0.38504035740819464 -0.030789667242238455 1.148046620896816 0 0 0 0.39 213 2596 221 1214 232 1453 
4955 -0.27832832983992273 0.005016425923459451 1.1950542578271677 0 0 0 0.39 221 1215 222 927 232 1454 
4956 -0.5429673953225268 -0.0011143198653541051 1.0863249181439936 0 0 0 0.87 190 849 221 1216 232 1455 77 1728 92 1422 199 339 53 1033 3 835 17 1289 172 1181 
4957 -0.5628578636468318 0.006378932976525445 1.0728364315238983 0 0 0 0.06 190 850 204 1420 219 1130 
4958 -0.2973745966044502 -0.1194231531993877 1.1954825341229278 0 0 0 0.62 204 1421 217 766 221 1217 126 669 176 2044 
4959 -0.609604521732427 -0.08850683930435237 1.0708203523039181 0 0 0 0.21 190 851 199 340 217 767 220 942 232 1456 
4960 -0.6081060055827382 -0.019971581215565585 1.0628519974341855 0 0 0 0.58 164 2443 176 2045 190 852 199 341 204 1422 213 2597 219 1131 221 1218 232 1457 1 433 25 558 26 504 61 1175 71 744 77 1729 81 326 92 1423 96 971 97 464 118 1353 148 1620 162 1086 2 1519 4 1868 11 1844 17 1290 27 1474 44 1379 88 174 9 1126 126 670 56 387 217 768 53 1034 113 205 
4961 -0.27881322390956464 -0.005932762400601956 1.196002286917836 0 0 0 0.35 198 484 200 1049 213 2598 214 1051 77 1730 92 1424 96 972 110 995 118 1354 135 264 208 213 54 448 63 574 71 745 127 855 25 559 56 388 73 481 129 228 
4962 -0.27344825375257187 -0.0019222107081742282 1.1955777080866463 0 0 0 0.68 158 1040 190 853 196 1424 221 1219 222 928 232 1458 234 414 127 856 25 560 53 1035 71 746 73 482 89 407 4 1869 12 542 27 1475 36 589 65 315 110 996 13 505 200 1050 
4963 -0.38325703284195395 0.02885926833267955 1.1398844500883254 0 0 0 0.49 147 899 194 381 196 1425 198 485 213 2599 217 769 220 943 221 1220 222 929 223 849 232 1459 
4964 -0.713132146237133 -0.1687018387752008 1.047320362462953 0 0 0 0.37 172 1182 176 2046 190 854 217 770 219 1132 221 1221 227 846 232 1460 
4965 -0.6776509193101515 -0.03754697000305762 1.042179423946143 0 0 0 0.52 162 1087 164 2444 172 1183 199 342 220 944 25 561 67 312 92 1425 96 973 146 1438 148 1621 196 1426 53 1036 81 327 1 434 2 1520 4 1870 11 1845 17 1291 19 1090 33 1284 50 1416 65 316 73 483 77 1731 118 1355 128 829 21 243 227 847 232 1461 0 555 61 1176 129 229 213 2600 217 771 56 389 27 1476 224 796 3 836 43 612 44 1380 221 1222 
4966 -0.4471309126228423 -0.016893895342170114 1.1162913228427493 0 0 0 0.5 147 900 190 855 194 382 196 1427 198 486 204 1423 217 772 220 945 221 1223 224 797 232 1462 
4967 -0.7105946457477212 -0.0005961796171741206 1.0284804762464417 0 0 0 0.76 199 343 220 946 224 798 77 1732 148 1622 21 244 27 1477 
4968 -0.4065634962027488 -0.04176241489859195 1.1320033076651574 0 0 0 0.66 188 45 213 2601 221 1224 232 1463 
4969 -0.37921490022365323 0.028905519139722828 1.1418902988825466 0 0 0 0.71 147 901 158 1041 164 2445 194 383 196 1428 198 487 213 2602 217 773 220 947 221 1225 223 850 227 848 232 1464 1 435 25 562 52 759 61 1177 65 317 77 1733 85 1349 88 175 89 408 96 974 103 571 110 997 111 830 118 1356 148 1623 146 1439 214 1052 222 930 26 505 53 1037 4 1871 33 1285 126 671 2 1521 11 1846 16 765 17 1292 19 1091 27 1478 120 478 162 1088 50 1417 187 359 234 415 12 543 13 506 124 682 200 1051 
4970 -0.5897531958621153 -0.11356720262962951 1.0771837526689585 0 0 0 0.58 162 1089 172 1184 200 1052 213 2603 61 1178 96 975 97 465 111 831 157 1012 1 436 65 318 67 313 71 747 77 1734 88 176 118 1357 127 857 128 830 158 1042 176 2047 181 361 219 1133 232 1465 138 109 190 856 204 1424 53 1038 2 1522 3 837 4 1872 11 1847 17 1293 33 1286 41 310 44 1381 50 1418 64 103 81 328 113 206 146 1440 26 506 103 572 110 998 148 1624 0 556 179 257 114 168 56 390 164 2446 221 1226 224 799 
4971 -0.42234231453009763 -0.029906404042431594 1.1324690403668738 0 0 0 0.79 188 46 213 2604 214 1053 221 1227 232 1466 
4972 -0.337955329209457 -0.0021150293048135646 1.1642354018449812 0 0 0 0.69 147 902 190 857 196 1429 198 488 213 2605 217 774 221 1228 223 851 232 1467 1 437 25 563 26 507 65 319 77 1735 118 1358 120 479 146 1441 158 1043 172 1185 4 1873 11 1848 15 598 17 1294 27 1479 38 520 152 707 16 766 187 360 
4973 -0.3374608014546515 0.027644398963900807 1.161064894839571 0 0 0 0.89 194 384 196 1430 220 948 85 1350 118 1359 234 416 2 1523 4 1874 11 1849 16 767 17 1295 25 564 27 1480 32 668 33 1287 50 1419 53 1039 61 1179 69 353 81 329 89 409 124 683 146 1442 13 507 158 1044 187 361 
4974 -0.6357284308909031 -0.08159376497529736 1.0601181843681886 0 0 0 0.74 162 1090 198 489 204 1425 220 949 1 438 26 508 53 1040 60 1074 77 1736 146 1443 148 1625 190 858 232 1468 219 1134 224 800 16 768 29 419 38 521 81 330 27 1481 88 177 126 672 0 557 11 1850 17 1296 50 1420 118 1360 128 831 157 1013 71 748 96 976 213 2606 4 1875 43 613 114 169 61 1180 67 314 111 832 56 391 164 2447 217 775 9 1127 2 1524 19 1092 176 2048 221 1229 
4975 -0.5034486008392804 -0.005949694148380707 1.0927772438320613 0 0 0 0.82 213 2607 220 950 221 1230 224 801 232 1469 147 903 176 2049 190 859 148 1626 198 490 
4976 -0.32273103104059847 0.015255862612082529 1.1683308168793787 0 0 0 0.98 164 2448 190 860 194 385 196 1431 198 491 214 1054 217 776 220 951 223 852 
4977 -0.5551095495719242 0.008022862088657035 1.0786551246344651 0 0 0 0.2 213 2608 214 1055 221 1231 
4978 -0.47325178430451853 -0.22191109066297782 1.1649306899383562 0 0 0 0.5 190 861 213 2609 232 1470 
4979 -0.3482056859251742 -0.22238910086515004 1.2198382910143104 0 0 0 0.36 190 862 204 1426 222 931 
4980 -0.2741054708526048 -0.18053164014092016 1.2142107379887805 0 0 0 0.24 190 863 213 2610 232 1471 
4981 -0.17006287017630686 -0.18715008500599495 1.2926704881129205 0 0 0 0.63 147 904 184 674 190 864 204 1427 213 2611 222 932 227 849 3 838 4 1876 12 544 65 320 81 331 217 777 15 599 120 480 
4982 -0.6825158956660989 -0.16269610054622455 1.046275941000949 0 0 0 0.21 190 865 213 2612 232 1472 53 1041 204 1428 11 1851 12 545 61 1181 97 466 152 708 160 294 4 1877 32 669 36 590 
4983 -0.5549483552565754 -0.1623156919273308 1.08441561063799 0 0 0 0.25 190 866 204 1429 219 1135 
4984 -0.6824213058131796 -0.16007301512626904 1.0484145737269335 0 0 0 0.42 190 867 213 2613 232 1473 96 977 118 1361 11 1852 17 1297 
4985 -0.5849842169791407 -0.16048305214817377 1.074726943757069 0 0 0 0.34 190 868 204 1430 219 1136 221 1232 
4986 -0.4896929255971194 -0.15715601933842088 1.1028138626927038 0 0 0 0.34 190 869 213 2614 222 933 232 1474 128 832 1 439 2 1525 17 1298 89 410 220 952 
4987 -0.3506514441160705 -0.14949679607013217 1.1724148225110196 0 0 0 0.32 190 870 219 1137 223 853 232 1475 
4988 -0.6257958560806621 -0.13552905727880168 1.0655682080172948 0 0 0 0.19 190 871 213 2615 217 778 96 978 227 850 
4989 -0.6229376394547225 -0.1272356458611215 1.0620754575868836 0 0 0 0.38 190 872 213 2616 219 1138 221 1233 118 1362 
4990 -0.23991774938618188 -0.11743701846778347 1.2222343574659846 0 0 0 0.28 190 873 204 1431 222 934 0 558 15 600 127 858 159 1394 
4991 -0.638753390150669 -0.10035180599648362 1.0640026762126595 0 0 0 0.29 190 874 204 1432 213 2617 232 1476 96 979 118 1363 128 833 53 1042 61 1182 11 1853 32 670 
4992 -0.22310275431632665 -0.09615338295428723 1.232026638191799 0 0 0 0.2 190 875 213 2618 234 417 118 1364 4 1878 11 1854 17 1299 0 559 120 481 
4993 -0.19617194234063035 -0.0810264743454422 1.2424752857406893 0 0 0 0.25 190 876 196 1432 213 2619 235 1217 2 1526 4 1879 
4994 -0.4120360237575284 -0.04223971829618279 1.1349142889506654 0 0 0 0.39 147 905 188 47 190 877 204 1433 213 2620 219 1139 222 935 232 1477 77 1737 118 1365 1 440 2 1527 4 1880 17 1300 27 1482 29 420 32 671 33 1288 38 522 44 1382 89 411 92 1426 103 573 111 833 
4995 -0.0390480792074462 -0.028793462175252957 1.2258646720898347 0 0 0 0.39 190 878 197 664 221 1234 53 1043 54 449 97 467 118 1366 
4996 -0.5573375713262255 -0.018865659968232404 1.0764300482156675 0 0 0 0.34 190 879 204 1434 213 2621 219 1140 
4997 -0.4459507925516546 -0.013832814746855392 1.1180412490412657 0 0 0 0.13 190 880 204 1435 219 1141 
4998 -0.26288654399650646 -0.005515080932079547 1.2009360254884638 0 0 0 0.6 172 1186 190 881 213 2622 221 1235 222 936 232 1478 52 760 54 450 71 749 77 1738 92 1427 97 468 110 999 120 482 165 1228 234 418 235 1218 4 1881 
4999 -0.3663607232949506 0.01898903221282981 1.1537446452417996 0 0 0 0.12 190 882 213 2623 214 1056 
5000 -0.42580275870177087 0.02024306173142212 1.1199381001243798 0 0 0 0.16 190 883 204 1436 213 2624 232 1479 
5001 -0.5299139077534603 -0.17226249067543786 1.100850283292757 0 0 0 0.24 190 884 204 1437 232 1480 128 834 
5002 -0.646817677263039 -0.1357972623388795 1.058876695739245 0 0 0 0.32 172 1187 176 2050 190 885 204 1438 213 2625 219 1142 232 1481 118 1367 157 1014 2 1528 11 1855 50 1421 111 834 0 560 17 1301 4 1882 27 1483 71 750 19 1093 164 2449 200 1053 220 953 148 1627 33 1289 44 1383 21 245 77 1739 
5003 -0.628641429558943 -0.13450081768489167 1.0622124481385011 0 0 0 0.28 190 886 213 2626 217 779 221 1236 204 1439 219 1143 227 851 232 1482 
5004 -0.652172951504184 -0.132563965652853 1.0578840146101582 0 0 0 0.51 190 887 213 2627 221 1237 26 509 60 1075 81 332 1 441 3 839 160 295 56 392 97 469 176 2051 227 852 
5005 -0.5873736881642933 -0.12028933947386916 1.0818271869677332 0 0 0 0.28 176 2052 190 888 219 1144 232 1483 
