# 3D point list with one line of data per point:
#   POINT3D_ID, X, Y, Z, R, G, B, ERROR, TRACK[] as (IMAGE_ID, POINT2D_IDX)
# Number of points: 389, mean track length: 8.38
4540 -0.3903377520179531 -0.03015423502999721 1.233526833719087 0 0 0 0.78 19 513 60 470 85 738 142 458 126 354 148 1061 164 1034 
4541 0.03582931856547447 0.022755763705806748 1.0069551889437225 0 0 0 0.11 25 196 40 380 142 459 
4542 0.1822405973596806 0.0339514993546259 0.9412779545493543 0 0 0 0.17 25 197 52 734 142 460 
4543 -0.5444142872932423 0.12767097307272418 1.285421638092969 0 0 0 0.33 25 198 40 381 60 471 142 461 196 868 224 389 229 324 
4544 0.1099554179783152 0.08931345527947764 0.9557477757542543 0 0 0 0.46 25 199 33 762 40 382 142 462 
4545 0.1302461763104179 0.11586342592682185 0.9291451822883506 0 0 0 0.24 25 200 26 172 29 205 110 435 142 463 148 1062 194 724 232 452 
4546 -0.3220923278947541 0.21362603864257415 1.1294381298472593 0 0 0 0.21 25 201 26 173 142 464 
4547 -0.22462969799199303 0.20637216818537765 1.0709969654218974 0 0 0 0.41 25 202 52 735 142 465 229 325 
4548 -0.7823088471264558 -0.12177053551362468 0.7475405376458502 0 0 0 0.53 25 203 26 174 142 466 63 192 73 141 199 97 229 326 21 130 
4549 -0.1432288537747949 0.11383337419145732 1.0489052591980603 0 0 0 0.4 25 204 26 175 63 193 71 247 142 467 229 327 126 355 196 869 198 132 
4550 0.1265020064097908 0.1749426102783276 0.9136206761798026 0 0 0 0.55 25 205 26 176 110 436 142 468 126 356 198 133 217 157 223 192 
4551 -0.779009361386368 -0.13012177611029604 0.7488839450277679 0 0 0 0.28 25 206 26 177 73 142 142 469 198 134 199 98 
4552 -0.07060764042781607 0.1776922754406416 1.0009482138137402 0 0 0 0.48 25 207 33 763 52 736 142 470 126 357 148 1063 164 1035 194 725 198 135 
4553 -0.7630089493753633 -0.29478382629702743 0.8445364568747266 0 0 0 0.85 25 208 26 178 73 143 111 289 142 471 229 328 126 358 198 136 199 99 224 390 
4554 0.07223463036531974 -0.05899771927715365 1.0100912075598458 0 0 0 0.7 25 209 85 739 142 472 118 494 127 270 136 567 198 137 
4555 0.09352950365532761 -0.1505043330714129 1.0347656826551073 0 0 0 0.61 25 210 26 179 88 56 142 473 148 1064 181 21 198 138 
4556 -0.7554629571248643 -0.24952367809832568 0.8299844013526082 0 0 0 0.41 26 180 63 194 142 474 
4557 0.2193687713559984 -0.12165284766333315 0.9611055582204611 0 0 0 0.21 26 181 54 120 142 475 126 359 220 364 222 270 
4558 0.144508058299414 -0.11393810190783446 1.0019356006808111 0 0 0 0.28 26 182 54 121 142 476 
4559 -0.5704109103108795 -0.008521958162169429 1.3475857550312416 0 0 0 0.39 26 183 85 740 109 1247 142 477 159 644 181 22 196 870 224 391 
4560 -0.5064831226176842 -0.007197185259523549 1.3130448026731034 0 0 0 0.16 26 184 71 248 142 478 
4561 -0.10396247613886331 0.02528645012802446 1.0641326271570388 0 0 0 0.43 26 185 42 943 142 479 229 329 
4562 -0.6087424285275056 0.011217485002792658 1.1178325502520927 0 0 0 0.51 26 186 77 720 142 480 42 944 52 737 159 645 229 330 21 131 196 871 148 1065 164 1036 209 102 220 365 
4563 -0.14373799428586467 0.038886692729013954 1.0800665170825148 0 0 0 0.18 26 187 44 793 77 721 142 481 
4564 -0.6841253753055132 0.010348715703753949 0.9443933713374303 0 0 0 0.41 26 188 73 144 142 482 42 945 126 360 229 331 
4565 0.18869219396033332 0.09718634039643344 0.9081745766664234 0 0 0 0.26 40 383 42 946 52 738 142 483 136 568 148 1066 196 872 
4566 -0.5769155084588375 0.13919084470238868 1.3012117277942545 0 0 0 0.56 26 189 40 384 73 145 92 720 142 484 21 132 44 794 148 1067 164 1037 196 873 224 392 159 646 
4567 -0.06608863470899333 0.16470008883290305 1.0049081235121935 0 0 0 0.33 26 190 52 739 142 485 
4568 -0.7566268381691582 0.05409578636218794 0.7025324683249177 0 0 0 0.3 26 191 63 195 142 486 229 332 
4569 -0.18226966144581838 0.22809374779729222 1.0319485120435719 0 0 0 0.39 26 192 52 740 142 487 194 726 229 333 220 366 
4570 -0.5514984547565189 0.26937077835219675 1.244624383476643 0 0 0 0.53 26 193 109 1248 142 488 159 647 229 334 
4571 -0.7529947535630438 -0.2541457629551959 0.8421518810429264 0 0 0 0.71 26 194 63 196 142 489 229 335 
4572 -0.2760731202600759 -0.12798995027454707 1.2119202791096015 0 0 0 0.62 26 195 33 764 103 112 142 490 
4573 -0.7121883010909161 -0.1536030627587706 0.9196460917543355 0 0 0 0.55 26 196 63 197 142 491 
4574 -0.7050449159579052 -0.07053008306289275 0.915747630747454 0 0 0 0.13 26 197 73 146 142 492 
4575 0.014685351877299978 0.026062331087116117 1.0192660919694707 0 0 0 0.18 26 198 40 385 88 57 142 493 
4576 0.13404322419063536 0.038172600620114426 0.9592888701594037 0 0 0 0.26 26 199 33 765 40 386 142 494 
4577 -0.7854416864228065 -0.04929935953802416 0.7251328547043804 0 0 0 0.52 26 200 63 198 142 495 229 336 
4578 -0.5125382116494419 0.09902030806320289 1.280402674239507 0 0 0 0.2 26 201 88 58 142 496 
4579 0.1551687381194217 0.10725260507718899 0.9245007102645322 0 0 0 0.4 26 202 40 387 54 122 142 497 127 271 217 158 
4580 -0.7200325061696947 0.03886106204070116 0.8582104711479482 0 0 0 0.06 26 203 63 199 142 498 
4581 -0.2338862866524957 0.12494919304511508 1.0978391471673523 0 0 0 0.68 26 204 63 200 77 722 93 1356 142 499 126 361 136 569 185 442 214 1074 
4582 -0.3148720991651814 0.047259443461411504 1.1783450309276076 0 0 0 0.59 26 205 29 206 38 541 71 249 85 741 92 721 113 347 142 500 126 362 229 337 127 272 148 1068 159 648 164 1038 198 139 28 1599 98 795 
4583 0.17177463519830793 0.11183867570256166 0.9154972767988852 0 0 0 0.67 26 206 38 542 52 741 54 123 63 201 71 250 91 225 142 501 164 1039 194 727 196 874 198 140 
4584 -0.528333554544949 0.2586549698290876 1.2374244917822514 0 0 0 0.41 26 207 44 795 113 348 142 502 21 133 50 804 60 472 88 59 92 722 118 495 164 1040 224 393 148 1069 159 649 
4585 -0.24649790050288709 -0.11046908941303071 1.183381806853137 0 0 0 0.3 26 208 42 947 52 742 63 202 142 503 229 338 126 363 136 570 159 650 196 875 220 367 
4586 -0.5362641766827719 0.1046230885478945 1.2931531146231385 0 0 0 0.68 26 209 40 388 71 251 142 504 29 207 88 60 148 1070 159 651 196 876 220 368 224 394 229 339 21 134 36 236 103 113 126 364 113 349 199 100 96 307 114 19 176 960 198 141 209 103 164 1041 
4587 -0.21698777212989317 -0.07384240153090157 1.143939606894925 0 0 0 0.48 26 210 63 203 71 252 85 742 113 350 142 505 
4588 -0.6958771024142476 -0.07472234294646381 0.9500263787560647 0 0 0 0.45 26 211 73 147 142 506 21 135 199 101 229 340 
4589 -0.7485695137762278 -0.27761994399719947 0.8418916499589536 0 0 0 0.9 26 212 63 204 111 290 142 507 198 142 126 365 199 102 
4590 -0.282329863226714 -0.08757271356474118 1.1998390629526916 0 0 0 0.27 26 213 29 208 142 508 
4591 -0.5182531545070428 0.08989196578510467 1.288310816049086 0 0 0 0.44 26 214 29 209 71 253 92 723 110 437 113 351 142 509 21 136 148 1071 199 103 221 254 
4592 -0.7597157698399125 -0.16335834358041434 0.7876218252765218 0 0 0 0.21 26 215 63 205 142 510 198 143 199 104 21 137 
4593 -0.6506707171855672 -0.1778435173673767 1.0808705210333045 0 0 0 0.59 26 216 88 61 142 511 199 105 224 395 
4594 -0.17022974803768873 -0.13004969063669533 1.1446559781000931 0 0 0 0.71 26 217 33 766 53 347 71 254 88 62 96 308 142 512 159 652 162 362 181 23 185 443 196 877 198 144 219 263 220 369 224 396 
4595 -0.21204400358559336 -0.1460505587175187 1.1744414864846027 0 0 0 0.51 26 218 53 348 142 513 198 145 
4596 -0.1847072878296755 0.15297069901416527 1.0537018333049821 0 0 0 0.25 27 211 29 210 142 514 164 1042 185 444 190 183 222 271 
4597 -0.045036807876767476 0.18007617250238847 0.988146127170192 0 0 0 0.13 27 212 52 743 142 515 
4598 -0.5484262585493838 -0.0902860419029397 1.3679492350172204 0 0 0 0.29 43 246 111 291 142 516 19 514 113 352 118 496 126 366 148 1072 229 341 232 453 29 211 
4599 0.16233982459730997 -0.03267046362239176 0.9742448267002535 0 0 0 0.22 40 389 73 148 142 517 126 367 136 571 159 653 163 144 185 445 
4600 -0.6179553794220477 0.07989385918094372 1.0715016956182137 0 0 0 0.39 73 149 77 723 142 518 126 368 159 654 
4601 -0.676456026090707 -0.0714026061267194 0.9764927490381298 0 0 0 0.59 42 948 73 150 142 519 126 369 229 342 21 138 181 24 26 219 
4602 -0.14762755347140305 -0.10342215601479246 1.1215430226753926 0 0 0 0.6 29 212 63 206 77 724 92 724 96 309 111 292 113 353 142 520 33 767 98 796 157 844 176 961 
4603 0.24983027422062146 -0.09910898880085242 0.9509225789643182 0 0 0 0.24 29 213 43 247 52 744 63 207 142 521 
4604 0.16926150557445552 0.10202838165846337 0.9233853724013853 0 0 0 0.29 29 214 38 543 42 949 54 124 142 522 
4605 0.2074960208500057 -0.09628056838796817 0.9701153877154104 0 0 0 0.4 29 215 60 473 71 255 142 523 126 370 136 572 147 225 172 376 
4606 -0.2262717911253989 0.028811147614548994 1.1343073428452328 0 0 0 0.25 29 216 52 745 142 524 
4607 0.229840379601407 -0.08124441598005602 0.9530781348371017 0 0 0 0.4 29 217 63 208 71 256 73 151 142 525 126 371 136 573 162 363 
4608 -0.08961393386700989 0.15953712350753313 1.0150574451429737 0 0 0 0.2 33 768 53 349 142 526 126 372 196 878 
4609 -0.4258340837723399 -0.010658898225858025 1.2611598454060435 0 0 0 0.24 33 769 44 796 52 746 85 743 142 527 
4610 0.12572229214534456 -0.11674175020814184 1.0095658909129233 0 0 0 0.18 33 770 63 209 142 528 
4611 0.230896056301219 -0.015143732627275043 0.9370268304916701 0 0 0 0.19 33 771 40 390 142 529 148 1073 220 370 
4612 0.17178119860935157 0.036360654563902715 0.9493116438703172 0 0 0 0.2 33 772 63 210 77 725 85 744 142 530 126 373 148 1074 162 364 185 446 194 728 196 879 220 371 
4613 0.1490388448113545 0.08607216741139499 0.9321413256309017 0 0 0 0.33 33 773 40 391 42 950 142 531 126 374 136 574 148 1075 159 655 196 880 
4614 -0.1734985191975333 0.13417903309523088 1.0619018528930952 0 0 0 0.34 33 774 52 747 142 532 136 575 159 656 
4615 -0.19257220813063072 0.13568488005758833 1.0601759455812922 0 0 0 0.3 33 775 44 797 142 533 126 375 164 1043 181 25 
4616 0.17992296912968175 -0.0824328452402785 0.9719516594949417 0 0 0 0.61 38 544 63 211 96 310 142 534 118 497 126 376 
4617 0.23775251704731884 0.15170258470612283 0.8735032523764448 0 0 0 0.25 53 350 110 438 142 535 
4618 -0.19087671757066269 -0.10449898571685616 1.1452527345712198 0 0 0 0.58 38 545 40 392 44 798 85 745 142 536 118 498 196 881 221 255 
4619 -0.5070796119052351 0.10759672074648385 1.264827530716173 0 0 0 0.3 43 248 73 152 142 537 
4620 0.16412564611445996 -0.07482437216675931 0.9793576123283387 0 0 0 0.51 38 546 63 212 142 538 
4621 0.1607182362932338 -0.04417707232642496 0.9749072239440312 0 0 0 0.55 38 547 54 125 63 213 85 746 142 539 126 377 172 377 185 447 199 106 213 1318 217 159 221 256 232 454 
4622 -0.4805888016861836 0.08811318265239633 1.2640337925369034 0 0 0 0.35 44 799 73 153 77 726 85 747 109 1249 142 540 21 139 33 776 38 548 50 805 60 474 71 257 114 20 126 378 146 1463 148 1076 159 657 162 365 164 1044 199 107 65 48 81 43 128 302 176 962 204 399 209 104 217 160 219 264 
4623 0.22539329462773133 0.11695473004301139 0.8944921782608393 0 0 0 0.49 38 549 52 748 54 126 142 541 
4624 -0.16054565730288767 0.043051495858203226 1.0860026036745538 0 0 0 0.24 38 550 65 49 142 542 126 379 229 343 196 882 
4625 -0.19856213816211984 -0.0710682016337598 1.1382483451775334 0 0 0 0.15 40 393 85 748 142 543 126 380 200 1018 
4626 0.0992769669317754 -0.056200013665939144 1.0018750578624946 0 0 0 0.3 40 394 91 226 142 544 
4627 0.2226642370320711 -0.051714337468723864 0.9543933591581597 0 0 0 0.08 40 395 52 749 142 545 
4628 -0.17519963520079984 -0.045718595856863144 1.1164673029561938 0 0 0 0.23 40 396 71 258 142 546 126 381 164 1045 196 883 
4629 -0.6097822612448087 0.02674453950657619 1.3666866954773584 0 0 0 0.39 40 397 42 951 52 750 85 749 142 547 19 515 126 382 148 1077 159 658 224 397 229 344 196 884 
4630 0.0215390226714805 0.02302623023724593 1.0122487778957852 0 0 0 0.31 40 398 42 952 142 548 
4631 0.14920395756572372 0.09703368764640667 0.925596708503537 0 0 0 0.17 40 399 42 953 142 549 
4632 -0.47649898081494313 -0.06280458859376314 1.320824790440722 0 0 0 0.48 40 400 85 750 142 550 159 659 196 885 19 516 229 345 
4633 0.12347939369193653 1.2308226031899311e-05 0.9749658061139308 0 0 0 0.17 96 311 111 293 142 551 
4634 0.18348053790779498 0.008636239177893579 0.9483263463413191 0 0 0 0.43 40 401 42 954 52 751 54 127 85 751 142 552 126 383 148 1078 194 729 196 886 
4635 -0.6297151619866622 0.07450379586634183 1.3561375602268007 0 0 0 0.47 40 402 109 1250 142 553 159 660 229 346 
4636 0.1385595992777427 0.09491780292433061 0.925359839541162 0 0 0 0.34 40 403 42 955 52 752 63 214 142 554 
4637 -0.6122126852304285 0.2151098023183242 1.2997677440186235 0 0 0 0.31 40 404 52 753 142 555 159 661 196 887 224 398 229 347 
4638 -0.6500034556326948 -0.04011534171742269 1.399349866672679 0 0 0 0.6 40 405 52 754 85 752 142 556 229 348 159 662 224 399 
4639 -0.5551953263088674 -0.011670957369383018 1.3429900727737762 0 0 0 0.56 40 406 92 725 142 557 52 755 85 753 109 1251 196 888 224 400 229 349 
4640 -0.6254746357576345 -0.020490118180239665 1.0910145762799286 0 0 0 0.49 40 407 77 727 142 558 229 350 21 140 148 1079 
4641 -0.5661886017348763 -0.0020955408014207443 1.3451867942798155 0 0 0 0.37 40 408 85 754 142 559 229 351 126 384 148 1080 159 663 196 889 
4642 -0.10452757775752824 0.017862722996623923 1.0709218600190524 0 0 0 0.13 40 409 52 756 85 755 142 560 
4643 -0.47245127600930903 0.0836618918941016 1.2634947743206695 0 0 0 0.19 40 410 52 757 85 756 142 561 229 352 
4644 0.09038677560598969 0.09393070646390615 0.9464819165111258 0 0 0 0.32 40 411 42 956 52 758 142 562 
4645 -0.6107981172044151 0.15260030347151093 1.0756334370759721 0 0 0 0.5 40 412 77 728 142 563 159 664 229 353 126 385 196 890 
4646 0.16209052226370252 -0.1558234995367921 1.0050457966504527 0 0 0 0.49 40 413 73 154 142 564 147 226 220 372 222 272 162 366 163 145 217 161 
4647 -0.2145337016698017 -0.08641581968648833 1.1568344372682453 0 0 0 0.45 40 414 63 215 142 565 126 386 159 665 181 26 
4648 0.22323288987590295 -0.05868315687607928 0.9594203646605954 0 0 0 0.19 40 415 91 227 142 566 
4649 -0.6346137762712494 -0.023258887511424704 1.4121119996182747 0 0 0 0.23 40 416 85 757 109 1252 142 567 196 891 159 666 
4650 0.17047495612037017 0.06234172825768611 0.9378732282958423 0 0 0 0.14 40 417 52 759 142 568 
4651 -0.6443296007857089 0.15144920536319548 1.3501701654144362 0 0 0 0.66 40 418 109 1253 142 569 
4652 -0.6597224185914529 0.1721377801824848 1.3517407877125551 0 0 0 0.28 40 419 52 760 142 570 
4653 -0.6070134181719593 0.04218787983561143 1.3586308175873807 0 0 0 0.17 40 420 52 761 142 571 229 354 
4654 -0.2854002114803826 0.13420578854186252 1.1268933386561104 0 0 0 0.38 40 421 44 800 60 475 88 63 142 572 
4655 0.25659967220444363 0.14112122445831668 0.8713723916196168 0 0 0 0.42 40 422 43 249 142 573 162 367 220 373 
4656 -0.47335403196300674 -0.07983816435102152 1.3316845136380577 0 0 0 0.75 40 423 92 726 142 574 196 892 229 355 21 141 36 237 126 387 
4657 -0.6473282661191508 -0.04733148349957323 1.4126437968357628 0 0 0 0.47 40 424 42 957 109 1254 142 575 229 356 
4658 -0.5374873974865183 0.006930077780243978 1.3251272509483267 0 0 0 0.7 40 425 52 762 142 576 42 958 85 758 196 893 229 357 224 401 21 142 
4659 -0.6422962319313285 0.1668538526762825 1.347085362312717 0 0 0 0.56 40 426 52 763 85 759 142 577 229 358 
4660 -0.6386362245188175 0.18956540063583743 1.3299391494287183 0 0 0 0.34 40 427 52 764 85 760 142 578 229 359 
4661 -0.6433036603634211 0.23109553228848573 1.3240764401776082 0 0 0 0.26 40 428 85 761 109 1255 142 579 
4662 -0.4154332715341872 -0.12853837687543707 1.294627881280188 0 0 0 0.6 40 429 44 801 142 580 52 765 85 762 109 1256 196 894 229 360 159 667 
4663 0.11731982722167227 0.006337150719304191 0.9742433921698015 0 0 0 0.21 42 959 52 766 142 581 159 668 221 257 
4664 0.1768406879147819 0.03500246419138943 0.9453786065490144 0 0 0 0.26 42 960 52 767 142 582 136 576 159 669 163 146 
4665 -0.11732200189838173 0.115709242437883 1.0420511903352438 0 0 0 0.33 42 961 85 763 142 583 159 670 194 730 
4666 0.022756444983884013 0.13029596726906967 0.9757172228776954 0 0 0 0.25 42 962 52 768 142 584 
4667 -0.6206188627684701 0.03731153352826026 1.0788358942740421 0 0 0 0.63 42 963 73 155 77 729 142 585 148 1081 159 671 229 361 21 143 110 439 196 895 224 402 126 388 164 1046 
4668 0.1974915127265175 0.09350297279739124 0.9081921105085136 0 0 0 0.27 42 964 85 764 142 586 
4669 -0.002728810085471959 0.09773536900051637 0.9887235963371724 0 0 0 0.35 42 965 52 769 142 587 
4670 -0.6098382430432409 0.026419089084739358 1.1005805071362185 0 0 0 0.57 42 966 77 730 142 588 229 362 126 389 159 672 164 1047 196 896 21 144 26 220 181 27 
4671 -0.673809890697592 -0.03395074045754436 1.4250716806569395 0 0 0 0.54 42 967 85 765 142 589 52 770 229 363 
4672 -0.02887015703221817 0.14915323347216627 0.9932137648902194 0 0 0 0.46 42 968 52 771 142 590 
4673 0.17075332624167655 -0.08579353007684433 0.9782943073418672 0 0 0 0.29 44 802 63 216 85 766 142 591 126 390 136 577 148 1082 159 673 2 667 19 517 40 430 50 806 81 44 111 294 124 1015 
4674 -0.0011941340054890095 -0.1662730546301446 1.0814564744466515 0 0 0 0.94 52 772 54 128 85 767 142 592 
4675 -0.1039664770908594 0.034478087426436356 1.0634407926931808 0 0 0 0.27 52 773 85 768 142 593 33 777 148 1083 196 897 229 364 126 391 
4676 -0.16187498758765162 -0.090478402094444 1.1163311785849022 0 0 0 0.18 52 774 85 769 142 594 
4677 -0.5525975332456083 -0.04084486681446546 1.3483892422893407 0 0 0 0.47 52 775 85 770 142 595 229 365 21 145 27 213 43 250 44 803 67 14 71 259 73 156 77 731 81 45 88 64 92 727 110 440 199 108 25 211 26 221 60 476 111 295 114 21 148 1084 164 1048 181 28 196 898 224 403 76 8 198 146 209 105 220 374 126 392 
4678 -0.11292526520442077 0.03593540170817578 1.0691237775282592 0 0 0 0.25 52 776 85 771 142 596 126 393 194 731 
4679 -0.22531717175467605 0.14842357643227788 1.0874112761819195 0 0 0 0.22 52 777 96 312 142 597 
4680 0.2039142728963778 0.16537814396342532 0.8818474043558954 0 0 0 0.23 52 778 111 296 142 598 
4681 -0.606805308998848 0.023625377248983052 1.1124602681168354 0 0 0 0.64 52 779 77 732 142 599 229 366 21 146 159 674 196 899 
4682 -0.4902352029515843 0.07151696265743929 1.2753332032598859 0 0 0 0.41 52 780 71 260 103 114 142 600 
4683 0.10531116272613822 0.12660372757119068 0.9389049533525958 0 0 0 0.19 52 781 103 115 142 601 
4684 -0.15728157623328987 0.1728938764624308 1.0382349188577424 0 0 0 0.33 52 782 85 772 142 602 126 394 229 367 172 378 
4685 -0.34033592079475355 0.19834785797206086 1.1391964442107276 0 0 0 0.55 52 783 77 733 142 603 85 773 148 1085 164 1049 229 368 
4686 -0.6218508922507799 0.023087826097627592 1.3779602639955872 0 0 0 0.43 52 784 85 774 142 604 40 431 229 369 
4687 -0.5999778288813112 0.04994559243978093 1.1261490073868037 0 0 0 0.71 52 785 109 1257 142 605 42 969 159 675 229 370 21 147 196 900 126 395 164 1050 
4688 -0.4828245099771229 0.17290197270624658 1.2362776612450834 0 0 0 0.65 52 786 109 1258 142 606 159 676 196 901 
4689 -0.05001231788358209 -0.06927985307145705 1.0659041623882959 0 0 0 0.42 52 787 85 775 97 118 113 354 142 607 126 396 159 677 39 325 
4690 -0.5954537423942029 0.10319125482439806 1.337656689368035 0 0 0 1.2 52 788 109 1259 142 608 224 404 229 371 
4691 -0.5929555852055908 0.06398404158352772 1.3401893880668758 0 0 0 0.8 52 789 85 776 142 609 229 372 148 1086 196 902 224 405 
4692 -0.21632040809737438 0.16818324303759988 1.0705364603228404 0 0 0 0.98 52 790 65 50 85 777 142 610 
4693 -0.05124226866278126 0.19865894284845617 0.9820368382887228 0 0 0 0.42 53 351 85 778 142 611 
4694 -0.46754879325807 0.2505128171812879 1.2007827254865786 0 0 0 0.71 53 352 85 779 142 612 
4695 0.1853727575571586 -0.1865730132284709 1.0038697696105652 0 0 0 0.31 54 129 71 261 142 613 221 258 232 455 
4696 0.1800052317850107 -0.1235331426235395 0.9883167923704037 0 0 0 0.6 54 130 60 477 63 217 71 262 142 614 39 326 124 1016 135 458 
4697 -0.04918936778324877 -0.06366588825388625 1.0690914616220624 0 0 0 0.32 54 131 71 263 142 615 
4698 0.17679897933532246 -0.00691245153118635 0.957888699522856 0 0 0 0.19 54 132 71 264 142 616 176 963 232 456 
4699 0.24844991734120242 -0.16584873030636782 0.9756997111440123 0 0 0 0.22 60 478 103 116 142 617 204 400 232 457 
4700 0.26832191837276465 -0.023244465274037913 0.928208633903939 0 0 0 0.22 60 479 91 228 142 618 
4701 -0.7448231848603559 0.006850101871633299 0.813059970056105 0 0 0 0.16 63 218 73 157 142 619 
4702 -0.7224231268887781 0.015248926427848936 0.8585618579522942 0 0 0 0.3 63 219 73 158 142 620 
4703 -0.7877974343737966 -0.057994444416755324 0.716937398454552 0 0 0 0.43 63 220 73 159 142 621 229 373 
4704 -0.7164370676646882 0.07289688287680005 0.8467176399632169 0 0 0 0.33 63 221 71 265 142 622 126 397 229 374 
4705 -0.7160086239198031 0.09121632372655525 0.8384664490580666 0 0 0 0.16 63 222 73 160 142 623 229 375 
4706 -0.7409180205880216 0.11881399762747823 0.7770980207236245 0 0 0 0.15 63 223 73 161 142 624 
4707 -0.3281787595619123 -0.09638571897757173 1.2354773698237305 0 0 0 0.22 63 224 103 117 142 625 
4708 -0.7789627939682822 -0.04994526172860945 0.7337142538640994 0 0 0 0.41 63 225 73 162 142 626 199 109 229 376 
4709 0.13968966984078623 0.15633272050136524 0.9113220630424681 0 0 0 0.54 65 51 103 118 142 627 
4710 -0.24418024164401717 -0.03667479401704677 1.1569058497157207 0 0 0 0.39 71 266 77 734 142 628 126 398 148 1087 9 533 85 780 124 1017 146 1464 172 379 200 1019 214 1075 98 797 36 238 39 327 92 728 176 964 
4711 -0.5109116760024288 0.08006412203269309 1.2847822111859206 0 0 0 0.4 71 267 85 781 142 629 
4712 0.13007052798939311 -0.03330328127161306 0.9896914738224166 0 0 0 0.19 77 735 113 355 142 630 
4713 0.15041889311900233 0.15558531310311083 0.9111820330009472 0 0 0 0.42 85 782 109 1260 142 631 
4714 -0.08216982422514445 0.1843679929898309 1.0116336044943457 0 0 0 0.35 85 783 110 441 142 632 126 399 148 1088 
4715 -0.24845039744581862 0.02329626448897335 1.145390005380714 0 0 0 0.44 85 784 113 356 142 633 
4716 -0.30507480589937885 0.08539322782079932 1.1636563043439987 0 0 0 0.04 85 785 109 1261 142 634 
4717 -0.5210033632741624 0.2484613928229364 1.232197003701151 0 0 0 0.21 85 786 109 1262 142 635 229 377 
4718 -0.5233974545062278 -0.06365289783139753 1.3408427122101767 0 0 0 0.38 85 787 109 1263 142 636 
4719 -0.3116343573132293 0.10986509772164507 1.145311142902135 0 0 0 0.39 85 788 109 1264 142 637 
4720 -0.25680535624904205 0.10259710320812677 1.1031843449537233 0 0 0 0.34 85 789 109 1265 142 638 
4721 0.25809969394460786 -0.04016643708807239 0.9370509155642266 0 0 0 0.21 91 229 109 1266 142 639 
4722 0.2502726379422921 0.11467037034948034 0.8802625394222435 0 0 0 0.31 103 119 110 442 142 640 
4723 -0.20400510053443432 0.025015570483098493 1.1177967880480966 0 0 0 0.21 109 1267 113 357 142 641 126 400 127 273 220 375 
4724 -0.33647214051233587 -0.09613126071540927 1.2354946476754314 0 0 0 0.17 110 443 111 297 142 642 126 401 127 274 148 1089 
4725 -0.28888793973790855 -0.1254792105570436 1.2155814483587806 0 0 0 0.28 2 668 164 1051 224 406 229 378 
4726 -0.33575199712157044 -0.10436841010997393 1.240795477028333 0 0 0 0.25 2 669 11 745 19 518 85 790 126 402 127 275 224 407 229 379 
4727 -0.23382166622109668 -0.05213485038868266 1.157351524217389 0 0 0 0.36 2 670 4 914 38 551 110 444 113 358 148 1090 194 732 224 408 229 380 9 534 60 480 61 583 124 1018 107 344 185 448 146 1465 164 1052 213 1319 39 328 92 729 
4728 -0.16223387544778933 0.03015884966282247 1.089270674847241 0 0 0 0.21 2 671 16 775 33 778 44 804 50 807 109 1268 148 1091 196 903 229 381 
4729 -0.478885988375646 0.12515343448121977 1.2528913221991815 0 0 0 0.26 2 672 148 1092 196 904 229 382 21 148 33 779 44 805 
4730 -0.08157752108856335 0.17756986575367079 1.0127062643839098 0 0 0 0.36 2 673 4 915 33 780 44 806 85 791 92 730 110 445 148 1093 194 733 214 1076 229 383 
4731 -0.42018097376151836 -0.037246357619171555 1.250073225059365 0 0 0 1.1 33 781 40 432 50 808 229 384 
4732 -0.3259967098389687 -0.013812640367473147 1.207589947923493 0 0 0 0.27 2 674 52 791 229 385 
4733 -0.4357789657877341 0.17017665921874411 1.2017390878228231 0 0 0 0.38 2 675 4 916 33 782 118 499 148 1094 157 845 196 905 229 386 232 458 93 1357 107 345 162 368 224 409 
4734 -0.4769305888814428 0.18383109070961612 1.2273530989152746 0 0 0 0.4 2 676 33 783 44 807 146 1466 164 1053 176 965 196 906 213 1320 229 387 21 149 52 792 61 584 77 736 148 1095 162 369 107 346 
4735 -0.6371084018425024 0.20191513238570385 1.0096718508943618 0 0 0 0.58 2 677 148 1096 220 376 229 388 
4736 -0.5428849149641166 -0.09454911535027699 1.3688152439943744 0 0 0 0.74 2 678 40 433 42 970 77 737 85 792 157 846 162 370 196 907 229 389 111 298 209 106 
4737 -0.4345796524319004 0.15976734207552332 1.2073561606406582 0 0 0 0.28 2 679 29 218 44 808 146 1467 148 1097 164 1054 176 966 220 377 229 390 
4738 -0.172902429374042 -0.12595795563167902 1.1404330135341212 0 0 0 0.72 2 680 50 809 77 738 135 459 214 1077 229 391 
4739 -0.08651417099391506 -0.19487078167959057 1.1282876300881928 0 0 0 0.28 4 917 33 784 164 1055 229 392 
4740 -0.17584578328417488 -0.07223939793616645 1.1256041986598004 0 0 0 0.47 4 918 17 437 33 785 77 739 135 460 229 393 50 810 61 585 98 798 158 520 159 678 
4741 -0.27626880877473164 -0.04971140154587097 1.176189978804108 0 0 0 0.42 4 919 38 552 229 394 
4742 -0.1228314821003764 0.14043427510297135 1.0368717457996015 0 0 0 0.41 4 920 11 746 194 734 229 395 
4743 -0.0645170647626899 0.1458582558995912 1.0051381199820864 0 0 0 0.34 4 921 148 1098 229 396 
4744 -0.5534788586091361 -0.09491712737876831 1.3705425913336111 0 0 0 0.52 4 922 19 519 40 434 85 793 113 359 148 1099 224 410 229 397 
4745 -0.18417910712718158 0.05112409071686081 1.0897662723546522 0 0 0 0.3 4 923 27 214 118 500 148 1100 229 398 232 459 38 553 77 740 
4746 -0.4319980446669094 0.1809915215272311 1.2001768854575166 0 0 0 0.28 4 924 11 747 29 219 77 741 118 501 148 1101 164 1056 196 908 213 1321 229 399 232 460 2 681 93 1358 107 347 162 371 224 411 
4747 -0.4878213984671368 0.18725506897224553 1.2276984385198761 0 0 0 0.39 4 925 11 748 17 438 33 786 50 811 77 742 118 502 146 1468 148 1102 157 847 159 679 196 909 213 1322 229 400 21 150 52 793 60 481 172 380 224 412 209 107 
4748 -0.480486292974234 0.18854185025213627 1.2280286248642747 0 0 0 0.31 4 926 11 749 33 787 44 809 77 743 146 1469 148 1103 157 848 164 1057 176 967 229 401 
4749 -0.35619172383526176 0.1891217404554873 1.1494663075867135 0 0 0 0.26 4 927 9 535 11 750 17 439 27 215 77 744 128 303 148 1104 196 910 229 402 
4750 -0.4253284996554437 0.07728669838747351 1.23745533142255 0 0 0 0.28 4 928 17 440 19 520 33 788 44 810 71 268 118 503 146 1470 148 1105 162 372 164 1058 196 911 213 1323 220 378 229 403 232 461 21 151 103 120 111 299 1 47 50 812 73 163 81 46 128 304 158 521 172 381 209 108 217 162 
4751 -0.4453822483645295 0.07932922802441604 1.2429004041394291 0 0 0 0.43 4 929 11 751 17 441 50 813 118 504 229 404 60 482 96 313 113 360 164 1059 172 382 179 32 209 109 227 223 
4752 -0.5007802897901693 0.1427089681544872 1.2575265505505733 0 0 0 0.33 4 930 17 442 19 521 25 212 44 811 52 794 73 164 77 745 146 1471 148 1106 164 1060 220 379 224 413 229 405 21 152 111 300 114 22 172 383 176 968 
4753 -0.5120973537854638 0.05095341712343799 1.2952193895696353 0 0 0 0.37 4 931 17 443 26 222 71 269 198 147 199 110 229 406 
4754 -0.04318964077052524 -0.06882219497810708 1.064890598771454 0 0 0 0.2 9 536 213 1324 229 407 
4755 -0.09234609585329863 0.15408996618323076 1.0157870410104555 0 0 0 0.38 9 537 38 554 52 795 148 1107 194 735 213 1325 229 408 
4756 -0.06781737412318316 -0.06289396336284889 1.0739135454857456 0 0 0 0.34 9 538 33 789 196 912 229 409 2 682 50 814 98 799 135 461 213 1326 
4757 -0.6271758748351299 0.07963559470187638 1.3595631836878468 0 0 0 0.32 19 522 85 794 229 410 
4758 -0.17091904474728153 -0.1835288594027655 1.1680117448163811 0 0 0 0.25 9 539 19 523 40 435 77 746 196 913 224 414 229 411 
4759 -0.15537139723400845 -0.06209161921400729 1.113017179086583 0 0 0 0.32 11 752 16 776 28 1600 176 969 213 1327 229 412 98 800 
4760 -0.04925772898072919 -0.004166666328447325 1.0507293967335938 0 0 0 0.07 11 753 52 796 229 413 
4761 -0.07551404833966836 0.02350278625355913 1.0545765438723314 0 0 0 0.23 11 754 52 797 127 276 229 414 
4762 -0.4297648057357795 0.081227144296146 1.236792527674066 0 0 0 0.43 11 755 33 790 50 815 52 798 164 1061 224 415 229 415 21 153 209 110 
4763 -0.05648105706071938 0.14650026239649377 1.0023727985518598 0 0 0 0.19 11 756 38 555 85 795 213 1328 229 416 
4764 -0.1052023544202073 0.17776489965246983 1.0133109985473832 0 0 0 0.46 11 757 52 799 148 1108 229 417 187 899 213 1329 
4765 -0.17812692916609293 0.18987464047662303 1.0410032833621534 0 0 0 0.57 11 758 52 800 229 418 
4766 -0.05809384433520236 0.18905646396156997 0.9906276774494439 0 0 0 0.29 11 759 146 1472 213 1330 229 419 
4767 -0.17110239976886238 -0.13867507165151916 1.1476984560378118 0 0 0 0.33 11 760 16 777 33 791 44 812 50 816 148 1109 196 914 229 420 
4768 -0.46094344089913863 -0.01996139916226281 1.2836846800556279 0 0 0 0.35 11 761 110 446 148 1110 224 416 229 421 21 154 52 801 92 731 103 121 127 277 172 384 
4769 -0.09313676779744827 0.050679134347625304 1.0515792065509337 0 0 0 0.28 11 762 33 792 118 505 148 1111 229 422 
4770 -0.10544633357348296 0.1722329710811533 1.0154394984108255 0 0 0 0.3 11 763 33 793 229 423 
4771 -0.4691637437399141 -0.029713403422221125 1.2869560509310047 0 0 0 0.36 11 764 77 747 148 1112 229 424 
4772 -0.22778628705579698 0.0393814504183904 1.1274539554820884 0 0 0 0.29 11 765 26 223 146 1473 159 680 229 425 
4773 -0.3006948547966772 0.2377286015366035 1.1010332010463906 0 0 0 0.11 11 766 17 444 229 426 
4774 -0.2805205399917481 0.2034780812360679 1.1071029409238737 0 0 0 0.42 11 767 77 748 118 506 148 1113 164 1062 229 427 
4775 -0.11546191175774635 -0.07184440471433877 1.0989743131981153 0 0 0 0.26 16 778 33 794 157 849 229 428 
4776 -0.3225632789131809 0.16635482847877314 1.1447361026927991 0 0 0 0.59 16 779 77 749 85 796 148 1114 159 681 213 1331 229 429 
4777 -0.33205483912265865 0.031133874080831937 1.195397487424878 0 0 0 0.19 17 445 52 802 148 1115 229 430 
4778 -0.5557511152689555 -0.0785221612544233 1.3638911283751634 0 0 0 0.47 19 524 85 797 148 1116 229 431 21 155 27 216 50 817 52 803 77 750 113 361 127 278 128 305 164 1063 224 417 60 483 103 122 111 301 118 507 176 970 196 915 209 111 
4779 -0.22709846641298323 -0.05333046278352163 1.1534301896422385 0 0 0 0.34 19 525 40 436 110 447 113 362 157 850 159 682 162 373 164 1064 176 971 229 432 
4780 -0.25143097326656133 -0.0457242852394773 1.1640684847047553 0 0 0 0.35 19 526 40 437 77 751 85 798 159 683 164 1065 185 449 229 433 
4781 -0.3783913975518957 0.001882811673366056 1.234158321714072 0 0 0 0.5 19 527 42 971 200 1020 229 434 98 801 146 1474 164 1066 
4782 -0.48532222144359544 0.25960242362405733 1.2058324057929766 0 0 0 0.26 19 528 196 916 229 435 
4783 -0.28487592076061596 -0.12998461778485632 1.2170532303855754 0 0 0 0.31 19 529 148 1117 196 917 229 436 
4784 -0.5745704655638068 0.0032835026218932697 1.3528336417903855 0 0 0 0.4 19 530 40 438 159 684 224 418 229 437 52 804 85 799 109 1269 60 484 77 752 107 348 
4785 -0.41061461213389716 -0.09020329242056224 1.2729704167040439 0 0 0 0.32 19 531 142 643 229 438 40 439 107 349 
4786 -0.6191795765058966 0.2481700515567224 1.296196839975163 0 0 0 0.18 19 532 224 419 229 439 
4787 -0.6578319277311221 -0.18937392060059752 1.073581540675866 0 0 0 0.3 19 533 142 644 229 440 
4788 -0.6235693026821245 -0.053486539474489135 1.1161569459564467 0 0 0 0.49 19 534 159 685 229 441 
4789 -0.6345807501097096 0.05330188696164038 1.0562465766208553 0 0 0 0.34 19 535 142 645 159 686 229 442 126 403 
4790 -0.2958160446428395 -0.1023818544048408 1.212762245249407 0 0 0 0.17 19 536 148 1118 229 443 
4791 -0.2764467498021023 -0.07912056716354834 1.1964427171733185 0 0 0 0.32 19 537 27 217 142 646 196 918 220 380 224 420 229 444 63 226 
4792 -0.6249364729638197 -0.06713332508783972 1.123469250899913 0 0 0 0.25 19 538 159 687 229 445 
4793 -0.6430575726623394 -0.18745680272935367 1.0803549639336374 0 0 0 0.69 19 539 142 647 224 421 229 446 76 9 81 47 96 314 111 302 209 112 
4794 -0.26459606022996685 -0.1333013127202094 1.2048346491240312 0 0 0 0.41 19 540 142 648 229 447 
4795 -0.6310358491415272 -0.1070169282876544 1.1061036445118397 0 0 0 0.41 19 541 26 224 229 448 148 1119 159 688 
4796 -0.6516569713128467 -0.07384920936588403 1.0460747223063769 0 0 0 0.77 19 542 142 649 229 449 21 156 73 165 126 404 148 1120 159 689 199 111 196 919 
4797 -0.5071552820676399 0.12727966191828624 1.264644555278303 0 0 0 0.37 25 213 118 508 126 405 159 690 220 381 229 450 
4798 -0.8529043133689911 0.034818403527750966 0.5321751881341994 0 0 0 0.68 25 214 26 225 73 166 229 451 
4799 -0.24581649075999235 0.22740447262279836 1.0710846981929107 0 0 0 0.36 25 215 126 406 148 1121 229 452 
4800 -0.8424063918001921 -0.11052445425211234 0.596338503676096 0 0 0 0.6 25 216 73 167 229 453 
4801 -0.44553554238266735 0.2531255374725873 1.182850668648264 0 0 0 0.37 25 217 26 226 52 805 71 270 126 407 148 1122 196 920 220 382 224 422 229 454 21 157 33 795 44 813 77 753 111 303 164 1067 1 48 60 485 176 972 209 113 217 163 227 224 107 350 
4802 -0.5012345327454544 0.1116349264560772 1.2652649425208384 0 0 0 0.29 25 218 40 440 127 279 148 1123 164 1068 198 148 199 112 220 383 224 423 229 455 
4803 -0.4887465843954918 0.23049065533066052 1.2182430743002635 0 0 0 0.75 25 219 199 113 220 384 224 424 229 456 21 158 26 227 27 218 36 239 43 251 44 814 50 818 60 486 81 48 88 65 92 732 103 123 111 304 118 509 148 1124 164 1069 181 29 196 921 221 259 232 462 65 52 209 114 
4804 -0.8271606687581985 -0.2734461633195477 0.6891989945022428 0 0 0 0.63 26 228 63 227 224 425 229 457 
4805 -0.8384049136937358 -0.26710327605829237 0.6452144870079886 0 0 0 0.6 26 229 224 426 21 159 25 220 71 271 73 168 88 66 81 49 209 115 
4806 -0.7148120699495832 -0.14079484317691893 0.919041743733427 0 0 0 0.61 26 230 142 650 229 458 
4807 -0.4240853620873474 0.05869854482738406 1.2421143144646387 0 0 0 0.31 26 231 40 441 220 385 224 427 229 459 
4808 -0.3010394369629525 0.16101175867367662 1.1238426039650071 0 0 0 0.37 26 232 109 1270 229 460 
4809 -0.4530399916969084 0.20713421835781767 1.2011939553444646 0 0 0 0.37 26 233 33 796 92 733 229 461 19 543 40 442 107 351 
4810 -0.8182452911002703 -0.1657461134992701 0.6587859807885387 0 0 0 0.43 26 234 73 169 229 462 21 160 
4811 -0.8531487858857434 -0.07383268854206895 0.5675495669226381 0 0 0 0.43 26 235 73 170 198 149 229 463 
4812 -0.8560125887333788 0.041452910078703255 0.5307481482143285 0 0 0 0.32 26 236 199 114 229 464 
4813 -0.8745403587679059 -0.21386334224985704 0.5500254241419601 0 0 0 0.93 26 237 224 428 229 465 76 10 209 116 
4814 -0.6261275819297286 -0.11668932112956318 1.1071121828238224 0 0 0 0.5 26 238 142 651 159 691 198 150 199 115 224 429 229 466 126 408 164 1070 181 30 
4815 -0.12244540922805451 -0.04995974614429107 1.0945461594142543 0 0 0 0.5 26 239 63 228 71 272 113 363 162 374 176 973 198 151 229 467 
4816 -0.07650124714400955 0.13560219388245234 1.0186168668859044 0 0 0 0.34 26 240 126 409 127 280 142 652 148 1125 229 468 196 922 220 386 
4817 -0.27274627625568226 -0.02900420120458337 1.1768148238293439 0 0 0 0.36 26 241 33 797 127 281 142 653 229 469 181 31 
4818 -0.8825457184034858 -0.11876795807647543 0.5129590497992497 0 0 0 0.31 26 242 199 116 229 470 
4819 -0.055749044212354486 -0.10371432970629056 1.0804096819359115 0 0 0 0.2 27 219 33 798 148 1126 229 471 
4820 -0.13886011881051277 -0.10982906310783407 1.1186470519362677 0 0 0 0.73 27 220 38 556 128 306 148 1127 185 450 200 1021 229 472 
4821 -0.6967606298402963 0.05162534797378652 0.9074187551436623 0 0 0 0.51 126 410 142 654 229 473 181 32 199 117 25 221 73 171 198 152 209 117 224 430 76 11 
4822 -0.6912977778993689 0.04224436795310104 0.9304270080862806 0 0 0 0.92 73 172 126 411 142 655 229 474 21 161 199 118 224 431 
4823 -0.6262747031519491 -0.10060806270771465 1.1057789020259217 0 0 0 0.51 29 220 148 1128 224 432 229 475 164 1071 209 118 
4824 -0.6256086312261656 0.13916108586106998 1.0510442871728678 0 0 0 0.26 29 221 142 656 164 1072 229 476 
4825 -0.05188674610516264 -0.09464765093311257 1.077650087711411 0 0 0 0.22 33 799 85 800 229 477 
4826 -0.08079980350174663 -0.07870585604232953 1.0844331825165532 0 0 0 0.45 33 800 113 364 146 1475 157 851 213 1332 214 1078 229 478 
4827 -0.329771902315857 -0.01663123763781357 1.2081562438074396 0 0 0 0.17 33 801 85 801 196 923 229 479 
4828 -0.08831089137836008 0.0421141264062665 1.052151021462611 0 0 0 0.21 33 802 38 557 52 806 229 480 
4829 -0.38277211057437716 0.12777973840757054 1.1932377124425295 0 0 0 0.35 33 803 224 433 229 481 
4830 -0.04754001837496734 0.11238804767927943 1.0077137276183423 0 0 0 0.13 33 804 148 1129 159 692 229 482 
4831 -0.4886951979582465 0.16836637172221589 1.2351292875983177 0 0 0 0.22 33 805 52 807 229 483 
4832 -0.0900019921372232 0.17845417452274592 1.0095724710651446 0 0 0 0.18 33 806 196 924 229 484 
4833 -0.22662494139165232 0.017723043365038587 1.134998426691549 0 0 0 0.31 33 807 77 754 196 925 229 485 
4834 -0.35829617123242685 0.05166585399615887 1.2017163276015455 0 0 0 0.4 33 808 85 802 109 1271 148 1130 229 486 
4835 -0.10004327088512323 0.03556862563468662 1.0598054344667558 0 0 0 0.4 33 809 40 443 109 1272 224 434 229 487 
4836 -0.09441802482650248 -0.13773718017436956 1.1041261673256064 0 0 0 0.38 38 558 85 803 92 734 135 462 159 693 229 488 
4837 -0.22901467370543718 0.08127739951203242 1.1148066757525428 0 0 0 0.14 38 559 52 808 148 1131 229 489 
4838 -0.26675067488277465 -0.0659179596647588 1.1718042460483007 0 0 0 0.12 38 560 213 1333 229 490 
4839 -0.17213483646354033 0.0207466655813058 1.098342326195138 0 0 0 0.11 38 561 52 809 229 491 
4840 -0.4398661816321426 0.16081159238370132 1.2073301917145052 0 0 0 0.34 146 1476 213 1334 229 492 109 1273 
4841 -0.08068181436150317 0.13414716357918718 1.0197962578388606 0 0 0 0.23 38 562 77 755 135 463 229 493 
4842 -0.14760112153099697 -0.025761773078622326 1.102227477120125 0 0 0 0.3 38 563 85 804 229 494 
4843 -0.41858688072180955 -0.08668274878180758 1.2782727695414797 0 0 0 0.5 40 444 52 810 77 756 109 1274 196 926 229 495 
4844 -0.33568206400327727 -0.06310826062518429 1.211922096904814 0 0 0 0.28 40 445 85 805 229 496 
4845 -0.6536290457068499 -0.029248443400516293 1.4077734273472333 0 0 0 0.31 40 446 52 811 159 694 229 497 
4846 -0.6643640689103966 -0.02402387788119414 1.4175359664034624 0 0 0 0.26 40 447 52 812 85 806 229 498 
4847 -0.286564983576393 -0.0039022353851015323 1.1718363976631039 0 0 0 0.26 40 448 224 435 229 499 
4848 -0.05447800581557637 0.004449469389690477 1.0505098881849182 0 0 0 0.2 40 449 52 813 229 500 
4849 -0.47610859989011217 0.020149368731870287 1.2846979643859664 0 0 0 0.32 40 450 44 815 162 375 229 501 21 162 52 814 164 1073 
4850 -0.61580209195193 0.00798835504652146 1.098606736651414 0 0 0 0.39 40 451 126 412 142 657 229 502 196 927 
4851 -0.6129534806525156 0.03478933575773338 1.3566864154577896 0 0 0 0.23 40 452 52 815 229 503 
4852 -0.3320236577025151 0.03768611516571382 1.192099251187567 0 0 0 0.22 40 453 42 972 229 504 21 163 33 810 77 757 164 1074 107 352 
4853 -0.5766338814806581 0.04932549211415631 1.3368692040359844 0 0 0 0.36 40 454 52 816 229 505 
4854 -0.1494384441999186 0.038853359822254324 1.0820715737851108 0 0 0 0.3 40 455 85 807 109 1275 148 1132 194 736 196 928 229 506 
4855 -0.5399649876167464 0.10762052688792936 1.2878657521697283 0 0 0 0.38 40 456 224 436 229 507 
4856 -0.59745469838438 0.11835817690899582 1.326964477995849 0 0 0 0.12 40 457 224 437 229 508 
4857 -0.4943561621655165 0.11420763582814537 1.2615757697806893 0 0 0 0.33 40 458 224 438 229 509 
4858 -0.5055137017410188 0.1195143702937899 1.265833595134294 0 0 0 0.13 40 459 196 929 229 510 
4859 -0.26241262507618535 0.13550100503189264 1.114501408735182 0 0 0 0.24 40 460 196 930 229 511 
4860 -0.4249086219694086 0.1539528191447705 1.208667388511301 0 0 0 0.14 40 461 109 1276 196 931 229 512 
4861 -0.4212932736566159 -0.11878973603865732 1.2936819798819725 0 0 0 0.46 40 462 126 413 159 695 196 932 229 513 
4862 -0.5985429406011978 0.03133811245822738 1.356576616444113 0 0 0 0.34 40 463 44 816 77 758 148 1133 229 514 
4863 -0.20490456918765038 0.03205659839338648 1.1148269416398657 0 0 0 0.28 40 464 196 933 229 515 
4864 -0.1252330244419668 0.03793618133433923 1.0749615045234042 0 0 0 0.1 40 465 196 934 229 516 
4865 -0.402339758721093 0.07319951480411542 1.2202410393793943 0 0 0 0.43 40 466 44 817 85 808 148 1134 196 935 224 439 229 517 21 164 103 124 111 305 113 365 162 376 50 819 77 759 114 23 126 414 146 1477 164 1075 172 385 176 974 179 33 209 119 213 1335 220 387 232 463 107 353 109 1277 
4866 -0.37695362661979825 0.09578176237611875 1.2035541217364056 0 0 0 0.09 40 467 196 936 229 518 
4867 -0.563226446392524 0.10899141840182408 1.31268748079947 0 0 0 0.45 40 468 196 937 229 519 
4868 -0.5011700914201783 0.13067384184873235 1.261759528890767 0 0 0 0.22 40 469 126 415 196 938 220 388 224 440 229 520 
4869 -0.5957122126927946 0.13805598786648526 1.3197466498040729 0 0 0 0.12 40 470 142 658 229 521 
4870 -0.6286703205296665 0.21697888762363152 1.3108902685565698 0 0 0 0.32 40 471 52 817 229 522 
4871 -0.42632053101213646 -0.12666767377365282 1.2926107865245804 0 0 0 0.38 40 472 42 973 126 416 229 523 
4872 -0.12991152546893964 -0.10918611289207077 1.1143258563305947 0 0 0 0.17 40 473 127 282 229 524 
4873 -0.6492429735998484 -0.06621611235271833 1.0521727107504464 0 0 0 0.6 142 659 159 696 229 525 21 165 25 222 73 173 126 417 
4874 -0.6708288668837691 -0.03573683476277679 1.4195926099180471 0 0 0 0.3 40 474 42 974 52 818 142 660 229 526 
4875 -0.6221449530799292 -0.01705849015619508 1.1000145331495697 0 0 0 0.25 126 418 142 661 229 527 148 1135 224 441 
4876 -0.6543392018993446 0.21875541600689036 1.3228473904910931 0 0 0 0.55 40 475 52 819 85 809 229 528 
4877 -0.5880796719383988 0.0173049225992224 1.355439210664104 0 0 0 0.31 40 476 42 975 85 810 142 662 229 529 148 1136 196 939 224 442 
4878 -0.5376541353433767 0.11641525767783327 1.2882968288437004 0 0 0 0.29 40 477 196 940 224 443 229 530 111 306 198 153 209 120 
4879 -0.45461325126988494 -0.06751959724701685 1.3043468790191621 0 0 0 0.93 40 478 85 811 109 1278 229 531 
4880 -0.556358008926426 0.06184211224164373 1.3230873388453899 0 0 0 0.14 40 479 142 663 229 532 
4881 -0.556790633132044 0.14726250569280205 1.2837513410794332 0 0 0 0.34 40 480 42 976 229 533 
4882 -0.21835328301812335 -0.052587713147309006 1.1427204650439566 0 0 0 0.49 40 481 42 977 85 812 109 1279 142 664 196 941 224 444 229 534 
4883 -0.629703564557663 -0.020389936973663446 1.0856865942922234 0 0 0 0.45 126 419 142 665 229 535 148 1137 
4884 -0.6478293331029871 0.045624806101871085 1.029659073181801 0 0 0 0.66 148 1138 159 697 229 536 
4885 -0.41486736078615816 0.12563718795461457 1.21426876988729 0 0 0 0.57 40 482 52 820 142 666 229 537 85 813 107 354 
4886 -0.3662692408237597 0.07153204925133183 1.2014943443293422 0 0 0 0.3 40 483 200 1022 229 538 
4887 -0.6334840744838351 -0.052780798173833646 1.064011356090151 0 0 0 0.94 42 978 110 448 229 539 159 698 21 166 164 1076 196 942 
4888 -0.6165281914561893 -0.037007504921117144 1.1322315413868445 0 0 0 0.39 42 979 159 699 229 540 
4889 -0.6314178827882727 -0.03364826779500487 1.0707584666860737 0 0 0 0.64 42 980 159 700 164 1077 229 541 
4890 -0.3786602168440365 0.01043921220244735 1.2306769624163911 0 0 0 0.42 42 981 148 1139 196 943 229 542 21 167 44 818 146 1478 60 487 164 1078 209 121 124 1019 176 975 50 820 98 802 158 522 200 1023 
4891 -0.17212998305874905 0.053349386192435906 1.0903322480015056 0 0 0 0.25 42 982 196 944 229 543 
4892 -0.6533794208661072 0.028574562533890967 1.016257909343859 0 0 0 0.43 42 983 126 420 159 701 229 544 21 168 196 945 224 445 
4893 -0.12765444634244716 0.1203964088193601 1.0447160816046108 0 0 0 0.14 42 984 196 946 229 545 
4894 -0.1258356715090193 0.145402028849703 1.0386723545196268 0 0 0 0.35 42 985 85 814 229 546 
4895 -0.18476973734884258 0.1909653491701519 1.038153723954312 0 0 0 0.53 42 986 52 821 229 547 
4896 -0.6980715932315745 -0.20237577517041622 0.9734769341596349 0 0 0 0.52 42 987 126 421 142 667 229 548 
4897 -0.695232839306932 -0.06686043319274451 0.9545128227452765 0 0 0 0.59 42 988 142 668 229 549 
4898 -0.4914112922633776 0.004796631990882186 1.2944621938778071 0 0 0 0.38 42 989 196 947 229 550 
4899 -0.6130787174834736 0.02017576796585873 1.1051341199536109 0 0 0 0.5 42 990 142 669 159 702 229 551 196 948 
4900 -0.6537713206489689 0.0198262348344942 1.0143052326368183 0 0 0 0.43 42 991 148 1140 229 552 
4901 -0.17159325878524845 0.11685151992951248 1.0686631809795857 0 0 0 0.21 42 992 142 670 229 553 
4902 -0.1820961625714909 0.21896253802748306 1.0337287347875885 0 0 0 0.62 42 993 52 822 148 1141 229 554 
4903 -0.7023909920821398 -0.21180655943285157 0.9754258616700578 0 0 0 0.52 42 994 126 422 229 555 
4904 -0.22760462151895774 -0.11619547075705675 1.1755663055001755 0 0 0 0.07 42 995 142 671 229 556 
4905 -0.6858801004150255 -0.07411860996241176 0.9635088313317132 0 0 0 0.46 42 996 142 672 229 557 21 169 126 423 
4906 -0.22658478221961983 0.1301388164092198 1.0954344850222153 0 0 0 0.17 42 997 63 229 229 558 
4907 -0.6919126638453568 -0.07651556525720421 0.954980467020565 0 0 0 0.37 42 998 142 673 229 559 
4908 -0.6682993864454125 0.02266806239351852 0.9787685525857145 0 0 0 0.43 42 999 126 424 142 674 159 703 229 560 
4909 -0.6073528359025512 0.0439795394159714 1.1083648466748388 0 0 0 0.51 42 1000 77 760 142 675 229 561 126 425 164 1079 196 949 224 446 
4910 -0.6154649015788914 0.054710950684604485 1.092603406143198 0 0 0 0.72 42 1001 159 704 229 562 
4911 -0.16010853611122944 0.22026845267396317 1.0261022339615908 0 0 0 0.36 42 1002 142 676 194 737 229 563 
4912 -0.3883226141929714 -0.07178767418473518 1.2546717020232026 0 0 0 0.49 42 1003 85 815 109 1280 229 564 
4913 -0.6141724189727146 0.040256773382894934 1.0959071480651452 0 0 0 0.51 42 1004 77 761 142 677 159 705 229 565 21 170 164 1080 196 950 126 426 148 1142 209 122 
4914 -0.6558550741436184 -0.12381068270745785 1.054291856702572 0 0 0 0.79 42 1005 148 1143 229 566 
4915 -0.12145537785063716 -0.06024035595557452 1.1011901468050302 0 0 0 0.49 42 1006 52 823 127 283 229 567 
4916 -0.3645913054301343 -0.015276416905288283 1.2228932066166511 0 0 0 0.55 42 1007 85 816 109 1281 229 568 107 355 
4917 -0.46628934294923263 -0.0016518463976785839 1.2857912243406864 0 0 0 0.49 42 1008 142 678 196 951 229 569 
4918 -0.51820775189745 0.13846471277287467 1.2681464745157025 0 0 0 0.49 42 1009 109 1282 229 570 
4919 -0.6609048002606597 -0.04220334480910169 1.0169637813892203 0 0 0 0.43 42 1010 142 679 229 571 21 171 126 427 196 952 224 447 199 119 
4920 -0.49229106852109566 -0.011475282160079816 1.3003645381565785 0 0 0 0.31 44 819 127 284 148 1144 164 1081 229 572 50 821 118 510 128 307 146 1479 157 852 209 123 213 1336 110 449 113 366 219 265 
4921 -0.22522392854242254 -0.02154031291690116 1.1475361952677037 0 0 0 0.21 44 820 224 448 229 573 
4922 -0.4815253174239301 0.14807096848178794 1.2426099884358632 0 0 0 0.15 44 821 148 1145 196 953 229 574 
4923 -0.4784810630385515 0.08540159029603939 1.2644992028366149 0 0 0 0.23 44 822 77 762 220 389 224 449 229 575 128 308 209 124 
4924 -0.47926476769697046 0.13248022204758905 1.2501218071218465 0 0 0 0.2 44 823 113 367 146 1480 196 954 229 576 
4925 -0.5509291898027957 -0.1213361571433678 1.37622271044261 0 0 0 0.27 50 822 77 763 229 577 
4926 -0.2552935874500163 -0.1691965473475714 1.2124099247624098 0 0 0 0.34 50 823 185 451 229 578 
4927 -0.1829092579535658 -0.01988394387848383 1.110490706261355 0 0 0 0.2 52 824 93 1359 229 579 
4928 -0.1891767922021777 -0.01723422945818422 1.1133238721136516 0 0 0 0.08 52 825 148 1146 229 580 
