# 3D point list with one line of data per point:
#   POINT3D_ID, X, Y, Z, R, G, B, ERROR, TRACK[] as (IMAGE_ID, POINT2D_IDX)
# Number of points: 276, mean track length: 7.2
0 0.06654329849772671 0.07942859432313891 1.0339438217726544 0 0 0 0.35 128 0 146 0 148 0 157 0 159 0 164 0 172 0 176 0 185 0 196 0 200 0 204 0 213 0 214 0 222 0 
1 0.12014802429059986 0.12414677453050467 1.0270454978543886 0 0 0 0.59 128 1 158 0 179 0 204 1 
2 -0.2585824095120071 0.059204556797702056 1.0196108920945104 0 0 0 0.34 128 2 176 1 204 2 
3 -0.06785226615437473 0.061311822078401246 1.0193686531119979 0 0 0 0.24 128 3 176 2 196 1 217 0 222 1 224 0 
4 0.07528264363717092 0.07154428732254194 1.031437926991293 0 0 0 0.26 128 4 147 0 148 1 152 0 157 1 164 1 172 1 185 1 204 3 213 1 217 1 221 0 222 2 232 0 
5 -0.003070880686162578 0.08388502405199345 1.0204180561590275 0 0 0 0.17 128 5 147 1 159 1 190 0 
6 0.032919048733418235 0.08501311644536841 1.0266268595746288 0 0 0 0.18 128 6 152 1 158 1 159 2 176 3 190 1 204 4 221 1 
7 0.08506571174373637 0.09555153115725641 1.0328828624361097 0 0 0 0.12 128 7 152 2 158 2 176 4 190 2 204 5 217 2 219 0 232 1 
8 0.08505376795978821 0.09555002000408673 1.032552088220092 0 0 0 0.1 128 8 176 5 190 3 217 3 219 1 
9 -0.030025399944123333 0.1034199571710869 1.0084582923439238 0 0 0 0.2 128 9 147 2 158 3 159 3 217 4 219 2 232 2 
10 0.2415906261557068 0.1284534139833011 1.0500598950453657 0 0 0 0.17 128 10 159 4 172 2 204 6 222 3 
11 0.09314812461040944 0.2464460751740411 0.9720316401126632 0 0 0 0.2 128 11 146 1 152 3 158 4 175 0 176 6 179 1 200 1 204 7 213 2 217 5 219 3 
12 -0.2604361679992676 0.08750581468133128 1.0067627478811987 0 0 0 0.62 128 12 146 2 157 2 219 4 
13 0.12257481080646988 0.09617774329294354 1.0287639145223217 0 0 0 0.46 128 13 152 4 158 5 172 3 176 7 200 2 
14 0.022187997343344704 0.11295524350966576 1.01345076878352 0 0 0 0.43 128 14 146 3 147 3 152 5 157 3 159 5 162 0 164 2 176 8 185 2 190 4 196 2 200 3 213 3 214 1 217 6 219 5 220 0 221 2 222 4 224 1 232 3 
15 0.1089900883058249 0.11639093773236184 1.0281131129008656 0 0 0 0.24 128 15 147 4 152 6 190 5 217 7 220 1 221 3 
16 0.1189465015177293 0.14072571835718983 1.033446455830869 0 0 0 0.23 128 16 152 7 157 4 176 9 
17 0.36187484980872836 0.189767406272583 1.0508179830720994 0 0 0 0.34 128 17 147 5 182 0 190 6 232 4 
18 0.2664778222851834 0.29432948835411865 0.9845153181590847 0 0 0 0.4 128 18 146 4 147 6 158 6 172 4 181 0 182 1 190 7 197 0 200 4 213 4 221 4 
19 -0.14305222220071387 0.07223888179643072 1.0160919164855475 0 0 0 0.4 128 19 152 8 157 5 162 1 164 3 176 10 179 2 213 5 224 2 
20 -0.13616079660484262 0.07173830723042898 1.0128606469974248 0 0 0 0.35 128 20 146 5 148 2 152 9 157 6 162 2 176 11 179 3 181 1 213 6 217 8 220 2 221 5 232 5 
21 0.03152582674387748 0.07565185428756906 1.0285831690646496 0 0 0 0.5 128 21 152 10 176 12 185 3 204 8 219 6 
22 -0.0014011269464774673 0.07849229601922872 1.0213564580523422 0 0 0 0.44 128 22 129 0 146 6 147 7 148 3 152 11 157 7 158 7 159 6 164 4 172 5 176 13 185 4 190 8 196 3 198 0 199 0 204 9 213 7 214 2 217 9 219 7 220 3 221 6 
23 -0.23789901914367922 0.07924000073484351 1.0106754076485815 0 0 0 0.28 128 23 152 12 157 8 
24 -0.23375672812107667 0.083548039645351 1.0130355721442446 0 0 0 0.37 128 24 152 13 190 9 198 1 213 8 220 4 224 3 232 6 
25 -0.1991221718355153 0.09263367254085839 1.0038585071957973 0 0 0 0.29 128 25 152 14 164 5 181 2 185 5 213 9 219 8 220 5 221 7 232 7 
26 -0.19909050511171555 0.09270338477733699 1.0037574492642618 0 0 0 0.35 128 26 152 15 176 14 181 3 204 10 213 10 220 6 221 8 224 4 232 8 
27 0.043368179861180085 0.09461632660998796 1.0249560797538424 0 0 0 0.35 128 27 147 8 152 16 157 9 164 6 198 2 213 11 214 3 217 10 222 5 232 9 
28 -0.05233941709383028 0.09955640716443592 1.0073468548484612 0 0 0 0.55 128 28 129 1 147 9 152 17 158 8 172 6 222 6 232 10 
29 0.12239583802875387 0.13472710778376198 1.025057455359554 0 0 0 0.35 128 29 152 18 157 10 176 15 198 3 213 12 
30 0.19518586839714255 0.19640846214892094 1.018484390122568 0 0 0 0.25 128 30 152 19 157 11 172 7 176 16 182 2 197 1 204 11 213 13 219 9 
31 0.2073081124280136 0.24414448982449358 0.9915713646939865 0 0 0 0.39 128 31 146 7 147 10 152 20 157 12 164 7 181 4 182 3 190 10 213 14 217 11 220 7 222 7 232 11 
32 0.08198161859273546 0.2485897102362708 0.9705700883481262 0 0 0 0.28 128 32 146 8 152 21 158 9 164 8 172 8 176 17 181 5 190 11 204 12 213 15 214 4 217 12 219 10 221 9 232 12 
33 -0.19288165841889424 0.09209700443555763 1.0076577011420433 0 0 0 0.45 128 33 146 9 152 22 159 7 172 9 176 18 204 13 219 11 224 5 
34 -0.2320102799737345 0.09296490339090731 1.0054987079506126 0 0 0 0.32 128 34 148 4 152 23 162 3 179 4 204 14 213 16 219 12 224 6 
35 -0.20495952633759326 0.09224794856291632 1.0018355599687419 0 0 0 0.56 128 35 146 10 152 24 159 8 172 10 176 19 179 5 181 6 204 15 219 13 220 8 224 7 
36 0.23584569992768123 0.10030827485399905 1.0604159261632495 0 0 0 0.3 128 36 129 2 147 11 176 20 182 4 190 12 204 16 213 17 221 10 232 13 
37 -0.16831589400609898 0.09860205313209257 1.0030003704725727 0 0 0 0.99 128 37 146 11 152 25 176 21 190 13 204 17 217 13 219 14 232 14 
38 -0.18169468254081766 0.12429252434344458 0.9900830117616974 0 0 0 0.37 128 38 152 26 157 13 158 10 162 4 179 6 181 7 196 4 200 5 213 18 217 14 219 15 224 8 232 15 
39 0.05156817552023448 0.13249224369111287 1.0115062494545601 0 0 0 0.16 128 39 152 27 157 14 158 11 221 11 
40 0.09814092387466658 0.13540097785697716 1.0139318657616327 0 0 0 0.44 128 40 129 3 152 28 213 19 
41 -0.32786072429807867 0.14380399549177042 0.9798454444499703 0 0 0 0.3 128 41 157 15 181 8 221 12 232 16 
42 -0.3275173254798034 0.14365180622782456 0.9789593517701076 0 0 0 0.25 128 42 157 16 179 7 181 9 199 1 204 18 219 16 221 13 232 17 
43 0.3614557861698587 0.17276041888314053 1.0617161721008768 0 0 0 0.28 128 43 158 12 172 11 182 5 
44 0.21810345932146463 0.24246097607597336 0.9966220433692384 0 0 0 0.27 128 44 172 12 182 6 213 20 
45 0.17258532696154835 0.24794827367498867 0.9833878200860756 0 0 0 0.4 128 45 129 4 158 13 172 13 181 10 198 4 199 2 219 17 222 8 
46 0.15812744906925408 0.08591290947474581 1.0533396929743886 0 0 0 0.64 128 46 129 5 148 5 162 5 176 22 181 11 190 14 204 19 
47 -0.041179135016800726 0.09404432199715942 1.0100499360665536 0 0 0 0.42 128 47 129 6 147 12 190 15 199 3 221 14 
48 0.15942924460888996 0.0981917900285103 1.0517797542241532 0 0 0 0.08 128 48 204 20 232 18 
49 0.11216184765570833 0.1337368308757593 1.0165281270422664 0 0 0 0.62 128 49 147 13 152 29 172 14 176 23 190 16 196 5 204 21 213 21 219 18 232 19 
50 -0.320056180502448 0.14990832446045205 0.9722074416312106 0 0 0 0.36 128 50 146 12 148 6 157 17 159 9 162 6 164 9 172 15 176 24 179 8 181 12 190 17 198 5 199 4 204 22 213 22 219 19 221 15 224 9 232 20 
51 0.17339432102818594 0.2530951075972528 0.9765009763230432 0 0 0 0.19 129 7 152 30 190 18 
52 -0.2408564627885806 0.09302698974816782 1.001890845046734 0 0 0 0.34 128 51 146 13 152 31 157 18 176 25 181 13 190 19 204 23 213 23 219 20 232 21 
53 0.30191390796648737 0.10553861263987492 1.0821468106392391 0 0 0 0.28 128 52 129 8 176 26 204 24 
54 -0.23751367714991076 0.1074185982917937 0.9946305170431807 0 0 0 0.78 128 53 146 14 148 7 157 19 164 10 176 27 181 14 219 21 220 9 221 16 224 10 
55 0.16597262362651585 0.11502423068049031 1.0421143543200333 0 0 0 0.63 128 54 147 14 157 20 181 15 190 20 196 6 204 25 217 15 220 10 221 17 232 22 
56 0.1383619254178967 0.11527353773752849 1.031391418183311 0 0 0 0.48 128 55 129 9 146 15 147 15 148 8 152 32 157 21 164 11 181 16 185 6 198 6 199 5 204 26 213 24 217 16 219 22 220 11 221 18 222 9 232 23 
57 0.2749198554580655 0.2790402132339011 0.9925995413050718 0 0 0 0.31 128 56 129 10 146 16 147 16 158 14 182 7 200 6 
58 0.11744653537677414 0.09876453283462355 1.0338651353625457 0 0 0 0.52 128 57 148 9 152 33 162 7 176 28 196 7 217 17 220 12 221 19 
59 0.23849502535423164 0.13194163418253466 1.0456508586849358 0 0 0 0.37 128 58 147 17 164 12 222 10 
60 0.11578200529837614 0.16460213315780506 1.0094015978059312 0 0 0 0.51 128 59 129 11 147 18 152 34 200 7 204 27 217 18 220 13 221 20 232 24 
61 0.11571901026002773 0.16495847827348273 1.01049109357622 0 0 0 0.51 128 60 129 12 147 19 152 35 204 28 217 19 220 14 221 21 232 25 
62 0.11775597098987481 0.19343013527178968 1.0035877180654376 0 0 0 0.49 128 61 146 17 152 36 157 22 172 16 197 2 204 29 213 25 221 22 232 26 
63 0.11775904128839698 0.1932139222238821 1.0031874463814343 0 0 0 0.49 128 62 147 20 152 37 157 23 172 17 197 3 204 30 213 26 232 27 
64 0.2583418267323448 0.27595857260994305 0.989610349385945 0 0 0 0.31 128 63 146 18 182 8 190 21 
65 0.1208019458050396 0.09019668540970507 1.037741410983812 0 0 0 0.54 129 13 147 21 152 38 157 24 164 13 176 29 190 22 204 31 213 27 
66 0.2358144956395543 0.10032395256048326 1.0604123420246947 0 0 0 0.22 129 14 147 22 176 30 182 9 190 23 197 4 204 32 213 28 232 28 
67 0.04956480987105509 0.1255254149404712 1.0064943272660767 0 0 0 0.79 129 15 157 25 164 14 204 33 217 20 
68 0.07372855641042268 0.19151599518818083 0.995595158646296 0 0 0 0.33 129 16 152 39 179 9 199 6 
69 0.08914088236091537 0.19270836417474246 0.9996151397330137 0 0 0 0.15 129 17 179 10 221 23 
70 0.015607884196270294 0.08649818780357217 1.0233248702089732 0 0 0 0.18 129 18 147 23 152 40 157 26 176 31 213 29 214 5 221 24 
71 0.14116631241208194 0.09725365670091178 1.0427612923552199 0 0 0 0.48 129 19 147 24 148 10 152 41 158 15 159 10 162 8 164 15 176 32 179 11 181 17 185 7 196 8 198 7 204 34 213 30 219 23 220 15 222 11 
72 0.26154313026174675 0.10117123871036961 1.0678343459517554 0 0 0 0.36 129 20 146 19 176 33 182 10 204 35 222 12 
73 0.11721556682790453 0.12814861704629846 1.0238265552546573 0 0 0 0.33 129 21 146 20 152 42 157 27 158 16 159 11 162 9 176 34 179 12 196 9 197 5 198 8 200 8 204 36 214 6 217 21 219 24 220 16 
74 0.18474641809774967 0.13058574387792568 1.0358619490891563 0 0 0 0.54 129 22 181 18 182 11 199 7 200 9 204 37 217 22 219 25 220 17 
75 0.29215822407294745 0.3007954327368622 0.9825697207303155 0 0 0 0.37 129 23 182 12 200 10 
76 0.14116657402945895 0.08389440945504155 1.047291930083687 0 0 0 0.58 129 24 158 17 164 16 181 19 204 38 213 31 219 26 
77 0.21831823267395312 0.1156413884569602 1.046085574815975 0 0 0 0.39 129 25 147 25 148 11 159 12 164 17 182 13 190 24 196 10 197 6 199 8 204 39 213 32 214 7 217 23 220 18 232 29 
78 0.1512477454941684 0.12922152343024074 1.0282462725413295 0 0 0 0.48 129 26 147 26 148 12 159 13 162 10 172 18 179 13 199 9 204 40 217 24 219 27 220 19 232 30 
79 0.15698831187316137 0.1380599721910043 1.030025636249867 0 0 0 0.28 129 27 152 43 199 10 219 28 232 31 
80 -0.019420328831964002 0.0739736353886521 1.0173622693593147 0 0 0 0.24 129 28 152 44 221 25 
81 0.16917482194760095 0.09721886262606365 1.0487040909631584 0 0 0 0.29 129 29 152 45 179 14 181 20 190 25 204 41 213 33 217 25 219 29 232 32 
82 0.27053585703156213 0.10165698181515388 1.0666339533980143 0 0 0 0.21 129 30 147 27 182 14 196 11 213 34 
83 0.13767821187988022 0.11589734889761133 1.0327012357565628 0 0 0 0.41 129 31 152 46 158 18 198 9 199 11 204 42 
84 0.13077483783288757 0.1274681443273562 1.0309002222312633 0 0 0 0.71 129 32 146 21 152 47 157 28 179 15 190 26 198 10 213 35 
85 0.1305073477146037 0.12696211017404196 1.0289506401905735 0 0 0 0.69 129 33 146 22 152 48 157 29 190 27 198 11 213 36 214 8 
86 0.18388878488067212 0.09577043658696188 1.0508747401878766 0 0 0 0.47 129 34 148 13 159 14 176 35 181 21 190 28 197 7 204 43 213 37 217 26 219 30 220 20 221 26 232 33 
87 0.16663172479793303 0.11504941149328961 1.0414756997845271 0 0 0 0.63 129 35 152 49 162 11 196 12 199 12 204 44 217 27 220 21 
88 0.1990131611124843 0.11519744793168323 1.0478643545585509 0 0 0 0.5 129 36 182 15 197 8 220 22 
89 0.24026488203622215 0.11600474848476813 1.0516630590679452 0 0 0 0.48 129 37 146 23 147 28 148 14 164 18 176 36 181 22 182 16 190 29 196 13 204 45 213 38 214 9 217 28 220 23 232 34 
90 0.2553523471567915 0.12876651051834417 1.0490482557709278 0 0 0 0.34 129 38 159 15 164 19 175 1 176 37 182 17 198 12 199 13 200 11 222 13 232 35 
91 0.2552798734745849 0.12854513983378146 1.048112009980212 0 0 0 0.21 129 39 159 16 176 38 182 18 198 13 199 14 
92 0.16855427487009583 0.13077909241851907 1.0336660056496132 0 0 0 0.5 129 40 147 29 152 50 162 12 198 14 220 24 232 36 
93 0.17340818530451088 0.2732804745004298 0.9745718599040412 0 0 0 0.31 129 41 146 24 147 30 158 19 199 15 200 12 217 29 221 27 
94 0.27488305388846057 0.2789260437526244 0.9931652203888277 0 0 0 0.17 129 42 146 25 147 31 182 19 190 30 
95 0.20297791248330088 0.13078364162500422 1.0367018593946171 0 0 0 0.57 129 43 147 32 152 51 181 23 196 14 222 14 
96 0.20342208440412862 0.13054767931101846 1.035736589478186 0 0 0 0.35 129 44 147 33 148 15 162 13 196 15 198 15 222 15 
97 0.06326053136653993 0.1556391625208452 1.0009269078840521 0 0 0 0.67 129 45 152 52 176 39 200 13 
98 0.13336137232366083 0.1589299211677447 1.016023373090073 0 0 0 0.21 129 46 152 53 162 14 217 30 220 25 
99 0.15112814048743092 0.16836189878353205 1.0126207192225647 0 0 0 0.11 129 47 147 34 220 26 
100 0.20505507910990373 0.18589054766231605 1.0216894463681931 0 0 0 0.28 129 48 146 26 152 54 172 19 182 20 213 39 217 31 221 28 222 16 232 37 
101 0.061649719752648484 0.09135009606753725 1.031951796842595 0 0 0 1.85 129 49 147 35 148 16 152 55 162 15 164 20 190 31 196 16 198 16 220 27 
102 0.30843177744362493 0.12768221272218408 1.063239721980026 0 0 0 0.26 146 27 147 36 158 20 182 21 196 17 
103 0.007826361564566625 0.09506686629279956 1.017978442390482 0 0 0 0.39 147 37 148 17 152 56 157 30 164 21 196 18 213 40 214 10 217 32 224 11 232 38 
104 -0.020724420278471423 0.10826824894965045 1.0086375090428135 0 0 0 0.19 152 57 200 14 217 33 
105 -0.2811393049586926 0.11879643461984363 0.9889617965396249 0 0 0 0.29 146 28 152 58 157 31 158 21 164 22 190 32 200 15 204 46 213 41 224 12 232 39 
106 -0.28728488062392254 0.11888338709444829 0.98809996376737 0 0 0 0.33 157 32 159 17 164 23 176 40 190 33 196 19 204 47 213 42 224 13 
107 0.10220627946630714 0.24877347891488255 0.9653395381808559 0 0 0 0.32 146 29 152 59 175 2 176 41 200 16 213 43 219 31 221 29 
108 0.00881684361965896 0.07644263303110327 1.0255195300041386 0 0 0 0.36 147 38 148 18 158 22 164 24 214 11 219 32 221 30 232 40 
109 0.04130733483984571 0.08409722509387443 1.031981535606383 0 0 0 0.14 158 23 190 34 222 17 
110 -0.2565981630562916 0.08366986394962862 1.0064710918499575 0 0 0 0.23 152 60 157 33 158 24 162 16 204 48 213 44 219 33 232 41 
111 0.1948013937482925 0.18400219333903842 1.021595668956639 0 0 0 0.26 196 20 220 28 221 31 232 42 
112 0.17250614432165445 0.24139423218219253 0.9859200487903584 0 0 0 0.41 147 39 148 19 152 61 159 18 204 49 213 45 217 34 219 34 232 43 
113 0.13746052099878928 0.2422107856924437 0.9745533988180197 0 0 0 0.25 146 30 152 62 175 3 176 42 190 35 204 50 222 18 232 44 
114 -0.2505243520097768 0.07109103811916496 1.0107673911649384 0 0 0 0.29 158 25 162 17 179 16 181 24 190 36 198 17 204 51 213 46 219 35 232 45 
115 0.09146420267413899 0.09469504853295324 1.0336717196432577 0 0 0 0.44 146 31 147 40 148 20 152 63 157 34 158 26 159 19 164 25 172 20 176 43 185 8 196 21 199 16 204 52 214 12 219 36 220 29 221 32 222 19 
116 0.3362974098098539 0.10323707548594707 1.0797632516996205 0 0 0 0.2 182 22 190 37 197 9 213 47 232 46 
117 -0.04511461205970614 0.10257099267833383 1.0067734673165272 0 0 0 0.42 146 32 148 21 152 64 162 18 164 26 172 21 196 22 200 17 217 35 224 14 232 47 
118 0.040954739418771695 0.12624520697326796 1.0104427700190115 0 0 0 0.46 146 33 147 41 152 65 164 27 200 18 213 48 214 13 217 36 
119 -0.2574123747339427 0.1266149691008835 0.9849961818253644 0 0 0 0.42 158 27 159 20 176 44 196 23 204 53 219 37 
120 0.28208970425043745 0.3097622430182976 0.9842570889973046 0 0 0 0.37 172 22 182 23 197 10 214 14 222 20 
121 0.12363812870525823 0.11693110746215649 1.0304351032312151 0 0 0 0.37 146 34 147 42 148 22 152 66 157 35 158 28 159 21 164 28 172 23 176 45 179 17 181 25 185 9 199 17 200 19 204 54 214 15 217 37 219 38 220 30 221 33 222 21 232 48 
122 0.15298997390459906 0.19978860678321825 1.005505753139958 0 0 0 0.51 146 35 152 67 158 29 159 22 190 38 199 18 200 20 213 49 214 16 219 39 232 49 
123 0.15305689385606822 0.1992810002480418 1.0032830729007909 0 0 0 0.65 146 36 152 68 157 36 158 30 159 23 162 19 164 29 176 46 185 10 190 39 196 24 197 11 199 19 200 21 213 50 214 17 219 40 220 31 221 34 222 22 232 50 
124 0.18464226269179745 0.24261421241843928 0.9947643963565749 0 0 0 0.46 157 37 172 24 182 24 
125 0.1025550574539647 0.11896472321126557 1.0221914441101116 0 0 0 1.08 146 37 158 31 176 47 199 20 200 22 217 38 219 41 
126 0.18537744420225372 0.14443017897550448 1.0326790371125218 0 0 0 0.5 147 43 152 69 162 20 204 55 217 39 220 32 221 35 
127 0.2859549515714787 0.08246678755995566 1.0785272020316368 0 0 0 0.21 146 38 182 25 204 56 
128 -0.2505383759419517 0.08560953006635047 1.0059040103407781 0 0 0 0.22 146 39 179 18 219 42 
129 0.23419175873615458 0.11115629683170788 1.0475566452979854 0 0 0 0.26 146 40 182 26 190 40 204 57 
130 0.13977823870161604 0.12147801949340244 1.0325796560149028 0 0 0 0.16 146 41 176 48 204 58 213 51 214 18 217 40 219 43 
131 0.36222156372007863 0.2010264770924948 1.045695087313414 0 0 0 0.32 146 42 147 44 182 27 190 41 199 21 213 52 
132 0.03287786291755824 0.08149105270788347 1.027975785851199 0 0 0 0.36 146 43 147 45 157 38 164 30 176 49 190 42 213 53 214 19 217 41 220 33 221 36 
133 0.2325688013009471 0.09243438609624198 1.0637174731133285 0 0 0 0.2 146 44 158 32 182 28 190 43 213 54 220 34 
134 0.12228727871940458 0.10911185204411257 1.032389355822437 0 0 0 0.54 146 45 157 39 200 23 214 20 232 51 
135 0.3419451449722166 0.1254888535850093 1.0713429822084404 0 0 0 0.48 146 46 158 33 164 31 176 50 182 29 196 25 204 59 213 55 222 23 232 52 
136 -0.21075312568742724 0.1176507525897751 0.9917826913115249 0 0 0 0.29 146 47 152 70 157 40 158 34 159 24 164 32 176 51 213 56 217 42 219 44 220 35 224 15 
137 0.27938970109016303 0.12658164850570913 1.0583075131288886 0 0 0 0.31 146 48 158 35 164 33 176 52 196 26 197 12 200 24 213 57 214 21 
138 0.3392931690236797 0.1288807950134619 1.0692154249204568 0 0 0 0.13 146 49 182 30 190 44 196 27 
139 0.34712372600551017 0.1296499259407078 1.0726254107461017 0 0 0 0.35 146 50 204 60 213 58 214 22 222 24 232 53 
140 -0.23825363771890362 0.1264989304087213 0.9861331033718428 0 0 0 0.26 146 51 157 41 162 21 164 34 204 61 219 45 220 36 
141 0.11664196124969156 0.1815244096376807 1.0033970443590596 0 0 0 0.12 146 52 152 71 157 42 213 59 
142 0.08631746412446631 0.0913848329582091 1.03440741105656 0 0 0 0.7 146 53 147 46 148 23 152 72 157 43 159 25 164 35 185 11 198 18 204 62 213 60 217 43 220 37 221 37 222 25 232 54 
143 0.0462498929155124 0.10572132674361798 1.019646545402951 0 0 0 0.32 146 54 147 47 152 73 157 44 164 36 190 45 213 61 214 23 219 46 220 38 222 26 232 55 
144 -0.025372556128544475 0.10635095117262981 1.0071627840629067 0 0 0 0.42 146 55 147 48 152 74 157 45 158 36 164 37 176 53 190 46 204 63 213 62 214 24 217 44 219 47 222 27 232 56 
145 0.0733926561506575 0.13285557724394612 1.0162674215275913 0 0 0 0.26 146 56 152 75 157 46 176 54 
146 0.08746198608470224 0.24744444120455286 0.9681437141736562 0 0 0 0.38 146 57 147 49 152 76 158 37 175 4 176 55 200 25 204 64 213 63 217 45 221 38 
147 0.04787932880989726 0.08731695775261493 1.0282368757046763 0 0 0 0.48 146 58 152 77 157 47 164 38 198 19 199 22 213 64 221 39 
148 0.04992695392365145 0.10141856065382214 1.0246549395276134 0 0 0 0.62 146 59 148 24 152 78 157 48 164 39 196 28 198 20 213 65 214 25 220 39 221 40 232 57 
149 -0.2673708403759869 0.09932201472413296 0.9966223369663717 0 0 0 0.44 146 60 152 79 158 38 190 47 204 65 217 46 220 40 232 58 
150 -0.21224797923384825 0.12459210485503502 0.9867591062268409 0 0 0 0.46 146 61 157 49 164 40 176 56 190 48 204 66 213 66 219 48 221 41 
151 0.10499477851772555 0.18648234260155816 0.9986523055986188 0 0 0 0.27 146 62 147 50 148 25 152 80 157 50 158 39 164 41 172 25 175 5 190 49 197 13 200 26 204 67 213 67 219 49 220 41 222 28 232 59 
152 0.23727468812732766 0.24660012298236095 1.0056234510741062 0 0 0 0.62 146 63 172 26 175 6 
153 -0.2944694351882406 0.12606033861442187 0.9836445015945275 0 0 0 0.39 146 64 172 27 179 19 190 50 199 23 204 68 219 50 220 42 221 42 232 60 
154 0.14599046400757573 0.19291787421916773 1.005279193533155 0 0 0 0.25 146 65 172 28 204 69 213 68 217 47 219 51 
155 0.2718228330024052 0.3026179809971465 0.9776480603513967 0 0 0 1.41 146 66 158 40 172 29 181 26 213 69 
156 0.2663858226031704 0.11636483959342968 1.0620908213033515 0 0 0 0.61 146 67 164 42 176 57 182 31 196 29 197 14 204 70 213 70 221 43 222 29 
157 0.15313064693491332 0.21537124830584903 1.0015286708148112 0 0 0 0.92 146 68 147 51 152 81 157 51 172 30 204 71 232 61 
158 0.1559101731013645 0.2737784509521847 0.9704739273838225 0 0 0 0.28 146 69 190 51 213 71 217 48 
159 -0.022377592696062012 0.06912627460482947 1.0145450204882642 0 0 0 0.31 147 52 152 82 158 41 159 26 162 22 164 43 172 31 176 58 185 12 190 52 196 30 204 72 213 72 217 49 219 52 220 43 221 44 222 30 232 62 
160 -0.040745237180258013 0.07625999847538477 1.0100686198737847 0 0 0 0.35 147 53 157 52 158 42 176 59 217 50 219 53 
161 -0.045791388575070896 0.07883791030729737 1.0085566718418084 0 0 0 0.45 147 54 152 83 162 23 172 32 190 53 204 73 213 73 219 54 220 44 
162 0.08052599221972492 0.07335706364213071 1.0323407098840847 0 0 0 0.28 147 55 152 84 157 53 158 43 172 33 220 45 222 31 232 63 
163 0.0894730785874155 0.07691080873914379 1.0328085147211101 0 0 0 0.3 147 56 148 26 159 27 172 34 185 13 196 31 220 46 
164 0.07271551948361309 0.09629738441731084 1.030668361039122 0 0 0 0.14 147 57 152 85 176 60 232 64 
165 -0.03094587424435806 0.10440192599646568 1.0130744189642902 0 0 0 0.18 147 58 217 51 222 32 
166 0.1697151625407024 0.10455060268416466 1.0465154036409678 0 0 0 0.3 147 59 164 44 172 35 204 74 213 74 219 55 
167 0.013960587568179148 0.11270416519181044 1.012077868158754 0 0 0 0.36 147 60 159 28 176 61 217 52 
168 0.1337505513635863 0.11747345804086201 1.0293732934290643 0 0 0 0.34 147 61 148 27 152 86 157 54 158 44 159 29 164 45 204 75 213 75 217 53 222 33 
169 0.15011441983703275 0.1212150303931621 1.0294676679188146 0 0 0 0.35 147 62 164 46 220 47 232 65 
170 0.3554354319781434 0.13090239754857808 1.0751183985014727 0 0 0 0.45 147 63 148 28 176 62 182 32 197 15 204 76 222 34 232 66 
171 0.2635717409251123 0.19821843524217816 1.0314596645083793 0 0 0 0.22 147 64 157 55 172 36 175 7 182 33 190 54 204 77 
172 0.1390272744900861 0.13395658047895348 1.023359901687132 0 0 0 0.16 147 65 172 37 213 76 232 67 
173 0.26226856675106713 0.18648625786610568 1.032378451298283 0 0 0 0.21 147 66 157 56 172 38 176 63 213 77 222 35 232 68 
174 0.159679581861866 0.07053255548434587 1.05935321588294 0 0 0 0.48 147 67 148 29 190 55 221 45 
175 0.06984695597144991 0.08485568585734522 1.0323515963008585 0 0 0 0.5 147 68 148 30 159 30 164 47 176 64 185 14 232 69 
176 0.2331073920764781 0.08146209434342859 1.0990772997033063 0 0 0 0.32 147 69 182 34 190 56 
177 0.3031209696799582 0.08869955785643518 1.0814840035572282 0 0 0 0.08 147 70 222 36 232 70 
178 0.027408366003806063 0.13498611757143308 1.0073338971451378 0 0 0 0.14 147 71 152 87 158 45 190 57 213 78 
179 -0.07709758373522133 0.046585894767957554 1.0247615741384128 0 0 0 0.49 147 72 152 88 198 21 213 79 217 54 222 37 232 71 
180 -0.038873216988077296 0.06901022211692152 1.0203797724750996 0 0 0 0.92 147 73 152 89 157 57 176 65 190 58 204 78 219 56 
181 0.31921075298423035 0.1301955142989009 1.0611713692077116 0 0 0 1.02 147 74 158 46 196 32 213 80 222 38 
182 0.1829995612220512 0.07202492479881747 1.0629700366691612 0 0 0 0.24 147 75 181 27 198 22 204 79 219 57 222 39 
183 0.22200879512590957 0.19780883313139863 1.02174893085379 0 0 0 0.45 147 76 172 39 176 66 198 23 232 72 
184 0.16894188562451307 0.13066562528365355 1.0339062214167838 0 0 0 0.45 147 77 152 90 157 58 162 24 172 40 190 59 198 24 204 80 219 58 221 46 232 73 
185 0.15175090601016222 0.17185167496771395 1.0308665079173374 0 0 0 0.53 147 78 214 26 232 74 
186 0.014481090313850555 0.08510634329916555 1.022417664410145 0 0 0 0.37 147 79 152 91 176 67 213 81 214 27 221 47 
187 0.1505255741440503 0.14349386583729093 1.0255748835723033 0 0 0 0.51 147 80 172 41 204 81 220 48 
188 -0.19645152913914218 0.08479624408628952 1.0074271326692334 0 0 0 0.34 148 31 152 92 190 60 213 82 232 75 
189 -0.18753542032986725 0.11332994814577069 0.9936188728263581 0 0 0 0.53 148 32 190 61 217 55 219 59 
190 -0.2516561430631252 0.11853574775884339 0.9909406423563172 0 0 0 0.47 148 33 164 48 176 68 200 27 204 82 213 83 217 56 219 60 220 49 232 76 
191 0.28104468896336987 0.10985792545638974 1.06440133777367 0 0 0 0.19 148 34 181 28 190 62 204 83 222 40 232 77 
192 0.21980923480575554 0.12469281480525085 1.046979981750081 0 0 0 0.11 196 33 213 84 220 50 
193 0.09249615199592615 0.250832921982385 0.9683863932606477 0 0 0 0.32 148 35 152 93 158 47 175 8 176 69 181 29 185 15 204 84 219 61 222 41 
194 0.19815028006409696 0.25840898257780764 0.9869841057306723 0 0 0 0.6 148 36 158 48 164 49 213 85 217 57 
195 0.136454597463 0.1432820132798617 1.0222285320091729 0 0 0 0.31 148 37 152 94 157 59 159 31 164 50 172 42 198 25 213 86 217 58 220 51 221 48 232 78 
196 0.2148832127836038 0.1959794704426684 1.0187567954061048 0 0 0 0.16 148 38 157 60 182 35 204 85 232 79 
197 -0.29333794267711594 0.12218303150693616 0.9828311362186426 0 0 0 0.36 148 39 158 49 164 51 176 70 181 30 190 63 198 26 199 24 204 86 219 62 221 49 232 80 
198 -0.23583415964323792 0.1218873053744734 0.9848139861602421 0 0 0 0.45 148 40 198 27 217 59 220 52 
199 0.09320856978908765 0.11462849180416892 1.0183022894635034 0 0 0 1.38 148 41 152 95 199 25 217 60 219 63 220 53 221 50 232 81 
200 -0.2625820370633012 0.09768013268764345 0.9964188279467677 0 0 0 0.11 152 96 158 50 217 61 
201 0.021831149238992167 0.08850753708300081 1.0231554958356621 0 0 0 0.11 152 97 220 54 232 82 
202 0.2356137055858918 0.08950489522360548 1.0648828544458626 0 0 0 0.35 159 32 197 16 204 87 219 64 
203 -0.19393810008283494 0.10003494788174956 0.9923649613541706 0 0 0 0.19 213 87 217 62 219 65 
204 -0.03564994278976188 0.09880898330124438 1.0087544033919766 0 0 0 0.25 152 98 157 61 158 51 159 33 190 64 217 63 232 83 
205 0.06678208163642474 0.1226011316236059 1.0181810880527455 0 0 0 0.25 152 99 157 62 159 34 190 65 196 34 214 28 217 64 220 55 
206 0.31004971470968345 0.14025948402230654 1.0565632771440578 0 0 0 0.29 164 52 196 35 204 88 213 88 232 84 
207 0.21324031066488683 0.18655948100734376 1.0242297005459904 0 0 0 0.23 172 43 182 36 190 66 219 66 
208 0.36314749430451965 0.19622548116242064 1.0543120306065494 0 0 0 0.34 182 37 204 89 222 42 232 85 
209 -0.2580041783132075 0.0714797851797263 1.0069752956437688 0 0 0 0.28 152 100 162 25 204 90 219 67 220 56 232 86 
210 -0.2565147871410654 0.0920517220103334 0.9995884639187388 0 0 0 0.09 213 89 217 65 232 87 
211 -0.23964865880305433 0.09961430779967649 0.9953080816521382 0 0 0 0.1 152 101 176 71 204 91 213 90 
212 0.11484503812731353 0.10412095238319867 1.033687225846903 0 0 0 0.33 152 102 157 63 158 52 196 36 200 28 217 66 221 51 222 43 
213 0.2359484220377512 0.1252566529451966 1.049630814280898 0 0 0 0.4 157 64 158 53 162 26 182 38 204 92 220 57 
214 0.2684135791833371 0.12628815257835904 1.056865261205337 0 0 0 0.25 158 54 162 27 164 53 182 39 196 37 214 29 
215 0.021469323157964404 0.12995740199553799 1.0058538792894136 0 0 0 0.19 152 103 181 31 213 91 217 67 232 88 
216 0.10843291235832467 0.1336106204162877 1.0197723494024862 0 0 0 0.17 152 104 157 65 190 67 213 92 232 89 
217 0.30886735579637803 0.2501734757839003 1.0144659047951512 0 0 0 0.38 164 54 175 9 182 40 204 93 214 30 
218 -0.07689893707729026 0.04085638719081178 1.0265644553338826 0 0 0 0.23 152 105 219 68 232 90 
219 -0.14296987608868092 0.07217067422150374 1.0154980965761247 0 0 0 0.35 152 106 157 66 162 28 164 55 176 72 179 20 190 68 204 94 213 93 219 69 
220 -0.13626698577781252 0.0717440527281167 1.0132781040358605 0 0 0 0.35 152 107 162 29 164 56 172 44 176 73 179 21 199 26 204 95 213 94 217 68 219 70 220 58 221 52 232 91 
221 -0.16100687060331745 0.0764705511305889 1.010400282907074 0 0 0 0.13 152 108 179 22 213 95 217 69 
222 0.29627099253497363 0.0764134556581366 1.0845762316031053 0 0 0 0.15 197 17 204 96 222 44 
223 0.22431202525766242 0.08160537279664637 1.0892788101057844 0 0 0 0.14 190 69 204 97 232 92 
224 0.20426303046843153 0.0904614954279012 1.0616283284519432 0 0 0 0.07 164 57 182 41 232 93 
225 0.20446301622119373 0.14503027252007533 1.0365561433012678 0 0 0 0.36 157 67 158 55 162 30 164 58 182 42 190 70 213 96 
226 0.09690733710796634 0.23966507789174377 0.9745061511842361 0 0 0 0.34 152 109 175 10 179 23 
227 -0.15366166574753515 0.06582861871609434 1.0171050095994547 0 0 0 0.28 152 110 190 71 198 28 204 98 219 71 220 59 
228 -0.017842955699704944 0.0831455636140663 1.018634435135034 0 0 0 0.47 152 111 157 68 159 35 176 74 185 16 190 72 204 99 214 31 219 72 220 60 221 53 222 45 
229 -0.2458692431081574 0.09901475022623667 0.9946266437075085 0 0 0 0.45 152 112 157 69 176 75 198 29 204 100 213 97 219 73 220 61 232 94 
230 0.04938440126849336 0.10134110160819042 1.0252559388715385 0 0 0 0.44 152 113 196 38 198 30 213 98 217 70 220 62 221 54 232 95 
231 0.2435312664151239 0.25673912802569576 0.9914373170187504 0 0 0 0.29 152 114 164 59 190 73 213 99 221 55 
232 -0.2863782495834297 0.10100498180416902 0.9955634446735642 0 0 0 0.38 181 32 185 17 198 31 199 27 204 101 217 71 219 74 232 96 
233 0.28461655192458857 0.07517599591107527 1.0822897273529382 0 0 0 0.47 181 33 182 43 190 74 197 18 204 102 221 56 232 97 
234 -0.2557607551650938 0.0647699013313412 1.0052018070650477 0 0 0 0.51 190 75 204 103 213 100 219 75 221 57 
235 0.0024868955488088606 0.05802381270632358 1.0676383004125776 0 0 0 0.86 152 115 213 101 219 76 222 46 
236 0.10322190604004154 0.2718973036962172 0.9645502584238332 0 0 0 0.38 152 116 158 56 175 11 196 39 198 32 
237 -0.25724198387730246 0.0905789837566432 1.0017514847848001 0 0 0 0.01 152 117 213 102 232 98 
238 -0.25642559859550956 0.09026324434726361 0.9989798150593537 0 0 0 0.56 152 118 204 104 213 103 219 77 220 63 221 58 232 99 
239 -0.19871841752822217 0.07561231071756604 1.006577307951015 0 0 0 0.22 157 70 204 105 219 78 
240 -0.256810761811034 0.07924889469898456 1.003778480128945 0 0 0 0.24 157 71 158 57 162 31 204 106 219 79 
241 -0.05564153879691597 0.08423298953515237 1.004190071408139 0 0 0 0.18 157 72 172 45 176 76 204 107 213 104 219 80 222 47 232 100 
242 -0.30328866731085435 0.11497553764007036 0.986387308808931 0 0 0 0.16 157 73 200 29 219 81 
243 0.20703493214946092 0.2698145574870425 0.9829517489807873 0 0 0 0.26 157 74 158 58 181 34 
244 -0.2554898893340108 0.098970863384236 0.9976948767697636 0 0 0 0.36 157 75 158 59 172 46 204 108 232 101 
245 -0.30144363966379945 0.13266821914501908 0.9812317836624234 0 0 0 0.26 157 76 190 76 217 72 221 59 
246 0.3182075699855173 0.12796902733198548 1.0615240995280029 0 0 0 0.11 158 60 164 60 182 44 
247 0.04314941550659595 0.09478340796554914 1.0259386472447913 0 0 0 0.15 158 61 164 61 172 47 222 48 232 102 
248 0.30034394877019216 0.10112632035802997 1.0677432940982723 0 0 0 0.63 158 62 162 32 164 62 
249 -0.31058929284292885 0.12782657777711445 0.9795690826536897 0 0 0 0.44 158 63 162 33 213 105 232 103 
250 0.16776083627444827 0.2525338087496111 0.9835466689038447 0 0 0 0.15 158 64 175 12 217 73 
251 0.3189725919190888 0.13022179928158764 1.0617501690882425 0 0 0 0.86 158 65 196 40 197 19 
252 0.1388924225466742 0.2734403499504438 0.9668270369409266 0 0 0 0.24 158 66 199 28 217 74 
253 -0.299797127797917 0.12231525590829961 0.9846189231312424 0 0 0 0.25 159 36 162 34 164 63 179 24 219 82 
254 0.008202734919916433 0.10509467700536056 1.014524888106711 0 0 0 0.09 159 37 172 48 217 75 222 49 
255 0.009037714669150121 0.12478528201717806 1.0048105325033099 0 0 0 0.33 159 38 172 49 176 77 200 30 204 109 217 76 219 83 220 64 
256 -0.014462102118100478 0.07728406730115425 1.021151356145277 0 0 0 0.31 172 50 204 110 214 32 219 84 
257 0.09911574579348817 0.09309348577290369 1.0365046532082407 0 0 0 0.85 176 78 219 85 232 104 
258 -0.03965316126257274 0.09811941891614205 1.008730760989356 0 0 0 0.21 176 79 220 65 222 50 
259 0.16501538793872353 0.10617857314479032 1.0435048563558327 0 0 0 0.19 172 51 204 111 219 86 222 51 232 105 
260 -0.29941116724703803 0.12240494672047679 0.9834825916508958 0 0 0 0.3 162 35 179 25 200 31 224 16 
261 -0.19982013981685823 0.12287567343832562 0.9878045990054134 0 0 0 0.1 162 36 179 26 220 66 
262 -0.19201968740942157 0.12294586400077563 0.9896933504865522 0 0 0 0.13 162 37 179 27 190 77 
263 -0.2651895043459882 0.12288687406259914 0.9820285990067678 0 0 0 0.16 204 112 213 106 219 87 
264 -0.2669729237222677 0.12385996458482927 0.9882150715049477 0 0 0 0.17 200 32 219 88 232 106 
265 0.138584387967954 0.12995319327084998 1.0277598071266958 0 0 0 0.18 164 64 179 28 190 78 213 107 217 77 232 107 
266 -0.1318717035800992 0.0682427654633816 1.01916990443677 0 0 0 0.47 164 65 204 113 213 108 217 78 221 60 232 108 
267 0.17945463029952427 0.08055121602548074 1.0508749580957744 0 0 0 0.05 190 79 219 89 232 109 
268 0.10185925296820406 0.09891446139863883 1.0344352988521295 0 0 0 0.32 190 80 219 90 220 67 221 61 222 52 
269 0.1323678137717397 0.12656850086307492 1.0278035293202454 0 0 0 0.04 164 66 172 52 176 80 
270 0.08031756774351158 0.06802779224069953 1.0287261912081207 0 0 0 0.64 181 35 198 33 204 114 
271 -0.2253848632186831 0.16150896990420036 0.980752121623871 0 0 0 0.49 172 53 198 34 213 109 219 91 
272 -0.29927302665904004 0.101329691576035 0.9933987249770373 0 0 0 0.19 204 115 213 110 219 92 220 68 
273 -0.2844482935810575 0.10819499771727337 0.9810995638635999 0 0 0 0.23 198 35 204 116 213 111 219 93 221 62 232 110 
274 -0.3266099799626201 0.13450731419245432 0.9800919884844398 0 0 0 0.35 164 67 181 36 198 36 217 79 220 69 224 17 
275 -0.21298914915691627 0.10774632225019697 0.9918757993661983 0 0 0 0.09 204 117 217 80 220 70 
