# 3D point list with one line of data per point:
#   POINT3D_ID, X, Y, Z, R, G, B, ERROR, TRACK[] as (IMAGE_ID, POINT2D_IDX)
# Number of points: 407, mean track length: 5.05
1264 -0.35624979298400283 0.25168412416012786 0.8751742438388663 0 0 0 0.2 62 175 70 435 84 227 89 144 101 880 120 223 147 199 
1265 -0.38597862320851806 0.25284006184806623 0.8870657363293094 0 0 0 0.27 62 176 66 264 101 881 147 200 163 58 222 128 
1266 -0.4254849272690092 0.25682630776880994 0.9128592361381797 0 0 0 0.34 62 177 83 451 87 106 89 145 101 882 120 224 138 52 147 201 169 248 222 129 
1267 -0.4181864432774412 0.25778537623854464 0.9082643325528981 0 0 0 0.6 62 178 66 265 70 436 87 107 89 146 138 53 169 249 197 84 
1268 -0.45729551499116894 0.253544858617349 0.9101167407801185 0 0 0 0.32 62 179 69 95 70 437 74 54 81 68 84 228 100 107 101 883 120 225 147 202 163 59 169 250 182 126 197 85 222 130 
1269 -0.402810021192332 0.2696846263054058 0.8963438817952126 0 0 0 0.16 62 180 66 266 89 147 101 884 120 226 147 203 
1270 -0.43485358633064475 0.27358574169004635 0.9056331636905822 0 0 0 0.04 62 181 66 267 101 885 
1271 -0.4533435296799493 0.27209599336220913 0.9040715157117246 0 0 0 0.48 62 182 74 55 89 148 101 886 
1272 -0.3455620373576809 0.2739604862478561 0.8617275642416227 0 0 0 0.64 62 183 66 268 83 452 101 887 120 227 147 204 163 60 222 131 
1273 -0.42824373182666337 0.2779322777288634 0.9086786871341194 0 0 0 0.44 62 184 87 108 101 888 120 228 129 83 141 39 182 127 222 132 
1274 -0.3770450040845969 0.2728974612031054 0.866410401252198 0 0 0 0.26 62 185 66 269 83 453 101 889 120 229 147 205 222 133 
1275 -0.4227456995579068 0.27988915849057505 0.9067246523170613 0 0 0 0.4 62 186 66 270 81 69 87 109 101 890 120 230 129 84 163 61 
1276 -0.41951019734169426 0.2858485305052584 0.9054406026405033 0 0 0 0.12 62 187 66 271 101 891 120 231 222 134 
1277 -0.41951019734169426 0.2858485305052584 0.9054406026405033 0 0 0 0.12 62 188 66 272 101 892 120 232 222 135 
1278 -1.1219180979656824 0.29349469416771923 1.1522367415784864 0 0 0 0.41 62 189 66 273 67 47 69 96 74 56 89 149 100 108 101 893 120 233 141 40 147 206 152 56 182 128 190 50 222 136 
1279 -1.1219330090431856 0.29345605990969725 1.15224727465034 0 0 0 0.43 62 190 69 97 74 57 89 150 101 894 120 234 141 41 147 207 182 129 190 51 
1280 -0.3054666677800602 0.28359825083491425 0.8087455836486491 0 0 0 0.34 62 191 75 477 101 895 147 208 
1281 -0.3116832163299019 0.28485622865554844 0.8000002521837959 0 0 0 0.2 62 192 66 274 75 478 101 896 
1282 -1.1582432926371908 0.2608133037209492 0.9271721470190012 0 0 0 0.45 62 193 67 48 101 897 120 235 147 209 184 47 190 52 232 49 
1283 -0.3260239669229645 0.29448336463205094 0.7864252591543139 0 0 0 0.14 62 194 101 898 147 210 
1284 -0.3421741544419149 0.30199006214274154 0.806046214188062 0 0 0 0.74 62 195 87 110 89 151 101 899 
1285 -0.3832900993443127 0.3074403933582086 0.8294966313566613 0 0 0 0.52 62 196 87 111 89 152 101 900 120 236 
1286 -0.38268092184982466 0.3067250315198077 0.8280872538137123 0 0 0 0.25 62 197 89 153 101 901 120 237 129 85 147 211 
1287 -0.3801951449179114 0.3099507796770915 0.8255417598379985 0 0 0 0.44 62 198 66 275 87 112 89 154 101 902 120 238 
1288 -0.30133891404176105 0.29202973206238797 0.7613155233754207 0 0 0 0.16 62 199 101 903 222 137 
1289 -0.3858110206865637 0.3140597413945748 0.8290251966398109 0 0 0 0.76 62 200 87 113 101 904 120 239 
1290 -0.39391607611498153 0.3181114378773997 0.8258148163356933 0 0 0 0.32 62 201 66 276 101 905 120 240 147 212 
1291 -0.3136144674116709 0.13588247476409837 0.9106594797641707 0 0 0 0.09 62 202 66 277 101 906 
1292 -0.31128745260353696 0.13870171837387807 0.9003028600947676 0 0 0 0.35 62 203 89 155 101 907 147 213 169 251 
1293 -0.3502694261598248 0.1367248300444941 0.9313171539926339 0 0 0 0.14 62 204 66 278 100 109 169 252 
1294 -0.3470486203038065 0.1443771377939203 0.9249297154213374 0 0 0 0.41 62 205 66 279 70 438 75 479 84 229 87 114 89 156 100 110 101 908 129 86 147 214 163 62 169 253 
1295 -0.343965735400659 0.146794312875953 0.9232537476395564 0 0 0 0.31 62 206 66 280 70 439 75 480 84 230 89 157 101 909 147 215 163 63 169 254 
1296 -0.4738587147167751 0.12744437166529884 0.9775755575728201 0 0 0 0.17 62 207 89 158 169 255 
1297 -0.47459756801672365 0.12758644877507855 0.9791116071479445 0 0 0 0.19 62 208 138 54 169 256 197 86 
1298 -0.43684762257235876 0.14098005016407586 0.9633067400955295 0 0 0 0.57 62 209 66 281 70 440 81 70 83 454 84 231 87 115 89 159 100 111 101 910 129 87 134 43 138 55 147 216 163 64 169 257 182 130 197 87 
1299 -0.43407335410179415 0.14492073613927905 0.9648301154845808 0 0 0 0.41 62 210 66 282 129 88 138 56 169 258 197 88 
1300 -0.4406710254280568 0.14424985149240316 0.9617658892853067 0 0 0 0.3 62 211 66 283 74 58 83 455 89 160 101 911 120 241 129 89 130 75 134 44 138 57 147 217 169 259 182 131 197 89 222 138 
1301 -0.4183971704500676 0.15723059793682917 0.9635602871683548 0 0 0 0.41 62 212 66 284 100 112 101 912 120 242 138 58 
1302 -0.32730194505360133 0.17222218322646302 0.9070238094381143 0 0 0 0.21 62 213 66 285 75 481 101 913 
1303 -0.3834469305187921 0.16910949697423114 0.9399878665055816 0 0 0 0.09 62 214 66 286 101 914 120 243 
1304 -0.33573287363410675 0.1774542031739411 0.8963116432164046 0 0 0 0.21 62 215 66 287 75 482 83 456 84 232 101 915 
1305 -0.3650306398493313 0.17525489197354507 0.9118918624900357 0 0 0 0.08 62 216 101 916 222 139 
1306 -0.32628842709109485 0.18335970619946035 0.8965667813692301 0 0 0 0.22 62 217 66 288 101 917 120 244 147 218 
1307 -0.4511291489699431 0.17355185597444586 0.9514624165601177 0 0 0 0.71 62 218 66 289 74 59 100 113 120 245 138 59 147 219 163 65 169 260 
1308 -0.3270668312624649 0.1893780096702439 0.8963494740585051 0 0 0 0.42 62 219 66 290 70 441 101 918 222 140 
1309 -0.39249568709521604 0.18762326728416662 0.939561428481439 0 0 0 0.35 62 220 66 291 75 483 101 919 120 246 147 220 
1310 -0.30080802847678306 0.19151836001657196 0.8615292189797162 0 0 0 0.28 62 221 101 920 120 247 
1311 -0.38920678130924485 0.18904389503871608 0.9287544387911101 0 0 0 0.22 62 222 75 484 101 921 
1312 -0.4007556267208954 0.19078346132450072 0.9319551434294864 0 0 0 0.14 62 223 66 292 83 457 89 161 101 922 120 248 
1313 -0.33212572371911553 0.19673212445667423 0.8889538693521202 0 0 0 0.36 62 224 66 293 75 485 89 162 101 923 120 249 147 221 
1314 -0.40188334301125517 0.19607886186952647 0.9294021620986554 0 0 0 0.17 62 225 66 294 83 458 84 233 89 163 101 924 120 250 147 222 
1315 -0.5810257179744451 0.20385580714363621 1.0995972357110175 0 0 0 0.39 62 226 66 295 81 71 84 234 87 116 89 164 100 114 101 925 120 251 129 90 134 45 138 60 147 223 182 132 
1316 -0.3568134764460096 0.20400026781643676 0.9048070850303609 0 0 0 0.2 62 227 66 296 75 486 101 926 120 252 222 141 
1317 -0.3352015076772327 0.2116956719073338 0.8791147838342253 0 0 0 0.37 62 228 66 297 101 927 120 253 129 91 
1318 -0.3866393216157241 0.2166266765075294 0.9165490353803323 0 0 0 0.2 62 229 66 298 101 928 120 254 222 142 
1319 -0.39698833694172625 0.21932983014164453 0.9189520861697528 0 0 0 0.34 62 230 66 299 70 442 84 235 87 117 100 115 101 929 120 255 147 224 182 133 222 143 
1320 -0.4175957768100321 0.22402633135697347 0.9339429102295311 0 0 0 0.25 62 231 66 300 81 72 84 236 101 930 120 256 147 225 222 144 
1321 -0.33600807019778567 0.22771321715718806 0.8731934703830709 0 0 0 0.35 62 232 66 301 70 443 83 459 87 118 89 165 100 116 101 931 147 226 222 145 
1322 -0.3352581668721909 0.2271551314968913 0.8707448587236984 0 0 0 0.05 62 233 89 166 101 932 
1323 -0.3329290328899556 0.23306058555383902 0.8635218619470063 0 0 0 0.49 62 234 66 302 87 119 101 933 129 92 222 146 
1324 -0.3247818348546432 0.2354701322928506 0.8651149177527838 0 0 0 0.3 62 235 66 303 75 487 83 460 84 237 89 167 101 934 147 227 222 147 
1325 -0.3247818348546432 0.2354701322928506 0.8651149177527838 0 0 0 0.3 62 236 66 304 75 488 83 461 84 238 89 168 101 935 147 228 222 148 
1326 -0.33111893318916713 0.2393002625593599 0.8636217588641788 0 0 0 0.29 62 237 66 305 84 239 89 169 101 936 129 93 147 229 169 261 
1327 -0.40008375227343734 0.24102938933195117 0.9043117510408212 0 0 0 0.23 62 238 81 73 101 937 120 257 147 230 163 66 222 149 
1328 -0.35898473296366723 0.24250040011847845 0.8756605327934718 0 0 0 0.59 62 239 75 489 83 462 87 120 89 170 101 938 147 231 163 67 
1329 -0.4027628138082338 0.24716476394043937 0.9051508975899764 0 0 0 0.2 62 240 66 306 81 74 101 939 120 258 129 94 222 150 
1330 -0.3871284325878871 0.2477986863906502 0.891209881341349 0 0 0 0.38 62 241 66 307 83 463 84 240 89 171 101 940 120 259 147 232 163 68 169 262 222 151 
1331 -0.3871284325878933 0.2477986863906539 0.8912098813413645 0 0 0 0.38 62 242 66 308 83 464 84 241 89 172 101 941 120 260 147 233 163 69 169 263 222 152 
1332 -0.34416898983807076 0.2516585127480803 0.8665858802718817 0 0 0 0.23 62 243 66 309 75 490 89 173 101 942 147 234 222 153 
1333 -0.3501565422584387 0.25270868425998655 0.8698140322061779 0 0 0 0.26 62 244 66 310 75 491 83 465 101 943 120 261 147 235 163 70 
1334 -0.38538325612813057 0.25991625406979385 0.8861576009318871 0 0 0 0.26 62 245 66 311 81 75 83 466 101 944 120 262 147 236 163 71 222 154 
1335 -0.38593700376988743 0.26021818399534685 0.8877688116238392 0 0 0 0.12 62 246 101 945 120 263 
1336 -0.3328866192635429 0.26237583068729836 0.8554626047615468 0 0 0 0.48 62 247 66 312 75 492 101 946 120 264 222 155 
1337 -0.33285893049401655 0.2623462142924773 0.8553772970984013 0 0 0 0.42 62 248 66 313 75 493 101 947 120 265 147 237 222 156 
1338 -0.4085943008189539 0.2651492624691444 0.8986221892501978 0 0 0 0.24 62 249 66 314 81 76 89 174 101 948 120 266 147 238 163 72 222 157 
1339 -0.33619845521919206 0.26565106742968 0.8542409428940999 0 0 0 0.37 62 250 66 315 75 494 101 949 147 239 222 158 
1340 -0.3453415154585444 0.2688830488166583 0.8644507130549185 0 0 0 0.3 62 251 83 467 89 175 101 950 120 267 147 240 
1341 -0.39853400861020327 0.2715209271271461 0.8927628853707622 0 0 0 0.16 62 252 66 316 101 951 120 268 129 95 
1342 -0.3985176597970529 0.2716400093249548 0.8928365507213053 0 0 0 0.32 62 253 100 117 101 952 129 96 182 134 197 90 222 159 
1343 -0.41862433164098345 0.27962763000468954 0.9062895775476422 0 0 0 0.32 62 254 66 317 101 953 120 269 129 97 147 241 163 73 222 160 
1344 -0.4190619004951501 0.27984011976212897 0.9069421907729515 0 0 0 0.16 62 255 66 318 101 954 120 270 129 98 222 161 
1345 -0.4048018012505485 0.2769889326894305 0.894110216435722 0 0 0 0.15 62 256 66 319 83 468 101 955 120 271 147 242 222 162 
1346 -0.4034246474607705 0.28426868556301993 0.8862472482124539 0 0 0 0.48 62 257 66 320 87 121 89 176 101 956 120 272 163 74 222 163 
1347 -0.3958843519107778 0.2879474979910368 0.8925569752102682 0 0 0 0.21 62 258 66 321 101 957 120 273 222 164 
1348 -0.35688275025802607 0.2841056719057488 0.8610284773481348 0 0 0 0.53 62 259 66 322 101 958 120 274 163 75 
1349 -0.3964019471961445 0.2931789817616896 0.8911041441891605 0 0 0 0.29 62 260 101 959 163 76 
1350 -0.3697040829114624 0.2851604300866035 0.8593815517709716 0 0 0 0.34 62 261 66 323 87 122 100 118 101 960 120 275 138 61 169 264 
1351 -0.3588530080751454 0.28984885822751827 0.8623757337615952 0 0 0 0.33 62 262 75 495 101 961 120 276 129 99 147 243 
1352 -0.46087583022137246 0.2903630290629596 0.8916255671535632 0 0 0 0.38 62 263 81 77 101 962 120 277 163 77 
1353 -0.35191961177195114 0.29123423845673985 0.8403201248187623 0 0 0 0.47 62 264 66 324 101 963 120 278 147 244 
1354 -0.9677160878341714 0.3031582190135812 1.0606560272824046 0 0 0 0.45 62 265 67 49 87 123 89 177 101 964 105 25 111 33 120 279 197 91 
1355 -0.3446653325216308 0.29222539246724 0.8174437320258602 0 0 0 0.26 62 266 66 325 75 496 101 965 
1356 -0.324542370589258 0.29169400325698974 0.8086680079258782 0 0 0 0.23 62 267 83 469 101 966 
1357 -0.8775552139831827 0.3188209254524814 1.0428051011475727 0 0 0 0.31 62 268 66 326 67 50 69 98 81 78 87 124 89 178 100 119 101 967 111 34 120 280 129 100 147 245 182 135 184 48 
1358 -0.375074017938215 0.2999687691976597 0.8371643584247478 0 0 0 0.25 62 269 66 327 101 968 147 246 
1359 -0.3505687588886782 0.2970188075171524 0.8130903487190152 0 0 0 0.58 62 270 81 79 87 125 100 120 101 969 147 247 222 165 
1360 -0.4080579227832744 0.3037528056759542 0.8155125487207795 0 0 0 1.16 62 271 66 328 89 179 100 121 101 970 120 281 147 248 
1361 -0.33237950906357583 0.3075758232443972 0.8010511888345572 0 0 0 0.33 62 272 75 497 89 180 101 971 
1362 -0.3229688923528838 0.3159223749125912 0.7757390663721386 0 0 0 0.41 62 273 66 329 101 972 129 101 147 249 222 166 
1363 -0.3758993571864687 0.3340341504224488 0.7947553152792756 0 0 0 0.47 62 274 101 973 120 282 
1364 -0.3237461670632092 0.1382221447874558 0.9138509193715565 0 0 0 0.34 62 275 84 242 89 181 169 265 
1365 -0.3427074502699224 0.1416904756282131 0.9247602143932249 0 0 0 0.25 62 276 66 330 75 498 83 470 101 974 130 76 147 250 
1366 -0.43052229823504135 0.1428093157959621 0.9702486432472669 0 0 0 0.39 62 277 66 331 83 471 87 126 89 182 101 975 120 283 130 77 147 251 197 92 222 167 
1367 -0.3004623243657962 0.16225178330958825 0.8797147217777869 0 0 0 0.21 62 278 66 332 75 499 87 127 89 183 101 976 147 252 
1368 -0.4130689174278369 0.15884035535491792 0.9594416170547934 0 0 0 0.47 62 279 66 333 70 444 81 80 83 472 84 243 87 128 89 184 101 977 129 102 130 78 147 253 163 78 169 266 197 93 222 168 
1369 -0.40727450361386786 0.1608145554446081 0.9558588300645164 0 0 0 0.35 62 280 66 334 83 473 101 978 147 254 222 169 
1370 -0.35333237374513526 0.1762309914116206 0.9216320072335581 0 0 0 0.13 62 281 66 335 75 500 101 979 120 284 147 255 
1371 -0.35773488219562494 0.18046394396045795 0.921216101265324 0 0 0 0.48 62 282 66 336 75 501 101 980 129 103 
1372 -0.35380861931642626 0.1892852545365787 0.9157683340944194 0 0 0 0.14 62 283 66 337 75 502 101 981 120 285 147 256 222 170 
1373 -0.30256181899769047 0.19526985405741593 0.8624565393358029 0 0 0 0.38 62 284 101 982 147 257 222 171 
1374 -0.3679457428575331 0.20177782704552358 0.9011415089440578 0 0 0 0.08 62 285 101 983 120 286 222 172 
1375 -0.36647295518750816 0.21465395020715172 0.8911451033760435 0 0 0 0.23 62 286 66 338 83 474 101 984 120 287 147 258 
1376 -0.3273056232491836 0.23233625063872568 0.8737579320416987 0 0 0 0.28 62 287 66 339 83 475 101 985 
1377 -0.35241098855998504 0.23523719055855635 0.8759739110101645 0 0 0 0.31 62 288 66 340 83 476 87 129 101 986 129 104 
1378 -0.3298529860147293 0.24299846689982862 0.8621821564192209 0 0 0 0.37 62 289 66 341 75 503 83 477 84 244 89 185 101 987 169 267 222 173 
1379 -0.328935022551556 0.2423357856170177 0.8597799066890022 0 0 0 0.28 62 290 66 342 83 478 84 245 101 988 169 268 
1380 -1.112838930391174 0.19550326143766905 1.1235040628886834 0 0 0 0.37 62 291 101 989 147 259 232 50 
1381 -0.3045282716495598 0.2458466506486541 0.8382144874048806 0 0 0 0.23 62 292 66 343 75 504 101 990 147 260 
1382 -0.33094916709054617 0.24995752441028174 0.8641783813298773 0 0 0 0.43 62 293 66 344 70 445 75 505 83 479 101 991 222 174 
1383 -0.33871077992233883 0.2685627757857044 0.8512036644877984 0 0 0 0.14 62 294 66 345 83 480 101 992 120 288 147 261 
1384 -0.4348243525437592 0.28566488202901136 0.9002285529736527 0 0 0 0.38 62 295 66 346 69 99 70 446 81 81 83 481 87 130 89 186 101 993 120 289 129 105 147 262 163 79 182 136 197 94 
1385 -1.1223828633228337 0.30063483701825783 1.149701764372796 0 0 0 0.32 62 296 66 347 87 131 89 187 100 122 101 994 129 106 134 46 152 57 184 49 190 53 197 95 232 51 
1386 -0.35235875939637434 0.29391024900725327 0.8227982027335513 0 0 0 0.26 62 297 66 348 75 506 101 995 222 175 
1387 -1.154188706589148 0.26818475160235106 0.9120462604584143 0 0 0 0.45 62 298 66 349 69 100 71 22 101 996 120 290 147 263 182 137 222 176 232 52 
1388 -0.4161899072522621 0.3329001675377451 0.8437413257582992 0 0 0 0.29 62 299 66 350 101 997 120 291 147 264 
1389 -0.3160457474114714 0.3347477958063444 0.7800422118776852 0 0 0 0.36 62 300 66 351 101 998 147 265 222 177 
1390 -0.3737588414864808 0.19807773562064004 0.9077593886173575 0 0 0 0.34 62 301 66 352 83 482 84 246 101 999 222 178 
1391 -0.30215595919900623 0.20379310275714574 0.8595725780907694 0 0 0 0.22 62 302 66 353 101 1000 130 79 
1392 -0.3909907883984134 0.24545234324700227 0.9030076318545189 0 0 0 0.29 62 303 66 354 83 483 101 1001 120 292 147 266 222 179 
1393 -0.3736834808557581 0.26683440113079265 0.869923472269627 0 0 0 0.26 62 304 66 355 83 484 101 1002 120 293 147 267 222 180 
1394 -0.3770255162399841 0.28494032084599186 0.8677892072921503 0 0 0 0.21 62 305 66 356 83 485 101 1003 120 294 222 181 
1395 -0.3016293068879142 0.12457208735071554 0.9034804363701957 0 0 0 0.44 62 306 138 62 169 269 
1396 -0.3629414788581984 0.1312557713977605 0.9336820691123148 0 0 0 0.25 62 307 66 357 83 486 101 1004 130 80 
1397 -0.32452837795331135 0.1839639220474686 0.9040784749537188 0 0 0 0.29 62 308 66 358 101 1005 120 295 147 268 222 182 
1398 -0.3349241301590206 0.22048533067302212 0.8783922609918481 0 0 0 0.29 62 309 101 1006 147 269 
1399 -0.3741820409839639 0.2282887047683056 0.8917363557392362 0 0 0 0.08 62 310 66 359 101 1007 120 296 
1400 -0.37632191337093174 0.2752243923019261 0.8706166633675303 0 0 0 0.37 62 311 66 360 83 487 101 1008 120 297 129 107 130 81 138 63 147 270 169 270 222 183 
1401 -0.4248951523073792 0.2927463054176993 0.8980586239004908 0 0 0 0.3 62 312 66 361 81 82 87 132 101 1009 120 298 130 82 147 271 
1402 -0.31908992761220134 0.14904012167803812 0.9036913817527142 0 0 0 0.21 62 313 66 362 75 507 83 488 101 1010 147 272 
1403 -0.3474230291304225 0.16702619151872242 0.9167659631730716 0 0 0 0.44 62 314 66 363 75 508 83 489 87 133 89 188 101 1011 129 108 130 83 222 184 
1404 -0.43850893740599506 0.17003461031356865 0.9580361664509336 0 0 0 0.62 62 315 66 364 69 101 74 60 84 247 87 134 129 109 147 273 169 271 182 138 
1405 -0.35792598967506745 0.18035134604585368 0.9120360993818885 0 0 0 0.16 62 316 66 365 75 509 83 490 101 1012 120 299 129 110 147 274 222 185 
1406 -0.37218871898611405 0.19114977682483558 0.909048184808802 0 0 0 0.27 62 317 66 366 75 510 83 491 84 248 89 189 101 1013 130 84 222 186 
1407 -0.43774116977497274 0.25430612979565503 0.9176981227504876 0 0 0 0.52 62 318 74 61 87 135 100 123 101 1014 120 300 129 111 
1408 -0.3598875460961916 0.2797851047409898 0.8592093231165387 0 0 0 0.3 62 319 66 367 101 1015 120 301 129 112 
1409 -0.41641506613549123 0.3074909310032659 0.8881503351536897 0 0 0 0.36 62 320 66 368 83 492 101 1016 120 302 129 113 
1410 -0.36257248837509454 0.32859577571505144 0.8421480270795632 0 0 0 0.35 62 321 66 369 101 1017 
1411 -0.39042774492319665 0.33063837536769136 0.8484472019162 0 0 0 0.3 62 322 66 370 101 1018 
1412 -0.41944177787334236 0.3342552764411667 0.8549535385382278 0 0 0 0.17 62 323 66 371 101 1019 120 303 
1413 -0.43705886043822906 0.1791815554133869 0.9524517442856496 0 0 0 0.51 62 324 66 372 69 102 70 447 84 249 87 136 100 124 101 1020 120 304 129 114 130 85 147 275 163 80 182 139 197 96 222 187 
1414 -0.33732309989362924 0.29038842645449514 0.8469210977025469 0 0 0 0.67 62 325 66 373 89 190 101 1021 
1415 -0.33591840454215954 0.28913195912018974 0.8426992979057526 0 0 0 0.74 62 326 66 374 83 493 89 191 101 1022 
1416 -0.37115478446599287 0.3068002914640096 0.8264640889457812 0 0 0 0.66 62 327 66 375 83 494 87 137 101 1023 
1417 -0.3332864318302623 0.18474317224852183 0.8904951065063124 0 0 0 0.67 62 328 66 376 84 250 87 138 89 192 101 1024 147 276 222 188 
1418 -0.346492027337383 0.20009549720819914 0.8943110603999117 0 0 0 0.46 62 329 66 377 83 495 89 193 101 1025 147 277 222 189 
1419 -0.36559789333979287 0.2922545598134992 0.850392927081478 0 0 0 0.49 62 330 66 378 83 496 89 194 101 1026 129 115 130 86 147 278 222 190 
1420 -0.36559789333979287 0.2922545598134992 0.850392927081478 0 0 0 0.49 62 331 66 379 83 497 89 195 101 1027 129 116 130 87 147 279 222 191 
1421 -0.3781988115037782 0.2804082950076879 0.8953654544407783 0 0 0 0.87 62 332 66 380 101 1028 222 192 
1422 -0.6760925056423767 0.1359136166682688 1.1237231098174862 0 0 0 0.38 101 1029 123 43 147 280 
1423 -0.7811647681182752 0.13890194756757032 1.126971352472356 0 0 0 0.17 64 7 66 381 101 1030 120 305 123 44 182 140 
1424 -0.8846679736022827 0.23169835676994407 1.083771951462581 0 0 0 0.67 64 8 66 382 67 51 69 103 74 62 82 23 89 196 101 1031 111 35 129 117 134 47 169 272 182 141 
1425 -0.698785772540522 0.28876498903064923 1.0319137529766695 0 0 0 0.25 64 9 101 1032 120 306 134 48 
1426 -0.742325127525531 0.30400908609070193 1.0382868118957689 0 0 0 0.33 64 10 67 52 69 104 74 63 82 24 101 1033 170 9 
1427 -0.9451683861693339 0.30836623233259636 1.0567372246529827 0 0 0 0.51 64 11 69 105 101 1034 120 307 138 64 163 81 169 273 
1428 -0.6259960277103174 0.2117312976027725 1.0258134919994764 0 0 0 0.43 64 12 101 1035 129 118 169 274 182 142 
1429 -0.6490618563197218 0.2264751645611007 1.0332531381920669 0 0 0 0.31 64 13 66 383 87 139 101 1036 
1430 -0.6747990042005878 0.28049882488208394 1.0217093397637917 0 0 0 0.4 64 14 66 384 87 140 89 197 101 1037 120 308 134 49 138 65 169 275 182 143 
1431 -0.9068698095448131 0.27523850147426865 1.0635183555553904 0 0 0 0.26 64 15 67 53 89 198 101 1038 129 119 138 66 182 144 
1432 -0.643095748794424 0.30975716112236246 0.9842140370398408 0 0 0 0.35 64 16 66 385 69 106 101 1039 105 26 120 309 138 67 169 276 
1433 -0.5843570161095194 0.2030404597208941 1.0929329632342293 0 0 0 0.66 64 17 69 107 81 83 82 25 84 251 89 199 100 125 101 1040 105 27 129 120 134 50 138 68 163 82 169 277 182 145 
1434 -0.7566731725508583 0.24850530381739125 1.065341414839111 0 0 0 0.44 64 18 66 386 67 54 69 108 74 64 82 26 87 141 89 200 100 126 101 1041 105 28 111 36 120 310 134 51 163 83 170 10 
1435 -0.5715355509471135 0.29464447923567916 0.947928751818228 0 0 0 0.33 64 19 66 387 81 84 101 1042 120 311 138 69 147 281 169 278 
1436 -0.5908096515320472 0.3136641558211716 0.950007529076796 0 0 0 0.52 64 20 66 388 74 65 100 127 101 1043 120 312 138 70 169 279 
1437 -0.7243000355306405 0.25860821362832564 1.057225327967062 0 0 0 0.48 64 21 66 389 87 142 101 1044 120 313 123 45 138 71 163 84 
1438 -0.624936660527978 0.2734007533813479 0.9920454577556995 0 0 0 0.3 64 22 66 390 82 27 87 143 89 201 100 128 101 1045 120 314 134 52 138 72 169 280 182 146 
1439 -0.6081608981041672 0.27842383920380315 0.9794967013390331 0 0 0 0.34 64 23 84 252 87 144 101 1046 120 315 138 73 169 281 182 147 
1440 -0.7325047092768592 0.3095752885110424 1.0324125726661535 0 0 0 0.48 64 24 66 391 82 28 89 202 101 1047 120 316 169 282 182 148 
1441 -0.6801496947709866 0.18714469907670675 1.0665154963094197 0 0 0 0.21 64 25 66 392 74 66 82 29 100 129 101 1048 138 74 169 283 182 149 
1442 -0.6370147187354823 0.2039670068627464 1.033888817981327 0 0 0 0.4 64 26 66 393 81 85 89 203 101 1049 120 317 123 46 129 121 138 75 182 150 
1443 -0.702991653197307 0.22617110661382267 1.070269122269889 0 0 0 0.27 64 27 66 394 84 253 101 1050 120 318 169 284 
1444 -0.894045425590876 0.24954645374912773 1.0823917649608203 0 0 0 0.4 64 28 66 395 69 109 100 130 101 1051 120 319 123 47 138 76 182 151 
1445 -0.8938288536370432 0.2495539597137884 1.0820186264883962 0 0 0 0.42 64 29 66 396 69 110 89 204 100 131 101 1052 120 320 123 48 138 77 169 285 182 152 
1446 -0.7187367975827309 0.31758726376679186 1.0277307545902434 0 0 0 0.53 64 30 66 397 81 86 101 1053 120 321 169 286 
1447 -0.5835649143075052 0.21045891334834368 1.0999953463803356 0 0 0 0.28 64 31 66 398 69 111 89 205 101 1054 120 322 123 49 134 53 138 78 169 287 182 153 
1448 -0.6540133197192605 0.23149373421164054 1.032419161097362 0 0 0 0.47 64 32 66 399 69 112 84 254 87 145 89 206 100 132 101 1055 120 323 129 122 138 79 163 85 169 288 182 154 
1449 -0.7344140771896068 0.2497851435402794 1.0611611208022598 0 0 0 0.47 64 33 66 400 74 67 82 30 101 1056 123 50 
1450 -0.5720603724370011 0.2626116412619869 0.9652857347546187 0 0 0 0.33 64 34 66 401 69 113 87 146 89 207 100 133 101 1057 120 324 129 123 138 80 169 289 182 155 
1451 -0.705087656227854 0.29309727786024864 1.0344368180971506 0 0 0 0.31 64 35 66 402 69 114 81 87 87 147 89 208 100 134 101 1058 120 325 134 54 138 81 169 290 182 156 
1452 -0.6402410872764227 0.30672359653459186 0.9859655273621164 0 0 0 0.54 64 36 66 403 101 1059 105 29 120 326 147 282 163 86 190 54 
1453 -0.4452624097756372 0.05115031460363016 1.0097427640474907 0 0 0 0.18 66 404 89 209 138 82 169 291 
1454 -0.33846211014961325 0.0977885907230883 0.9740142625673586 0 0 0 0.29 66 405 75 511 101 1060 147 283 
1455 -0.35638216874148165 0.10331685453528772 1.0062543390473289 0 0 0 0.15 66 406 83 498 101 1061 
1456 -0.35638216874148165 0.10331685453528772 1.0062543390473289 0 0 0 0.15 66 407 83 499 101 1062 
1457 -0.44103681736654526 0.08706615581283036 0.9752287377288087 0 0 0 0.24 66 408 101 1063 120 327 
1458 -0.26641062547102035 0.09863584105442562 0.8973208107862213 0 0 0 0.37 66 409 101 1064 108 389 147 284 169 292 
1459 -0.38976818737091745 0.10727475254388502 1.019225933174526 0 0 0 0.32 66 410 75 512 101 1065 147 285 
1460 -0.16290432261615675 0.10503025775935579 0.8297943309593001 0 0 0 0.19 70 448 101 1066 108 390 195 228 
1461 -0.25287027823955205 0.10539556189135395 0.8930740456469883 0 0 0 0.1 66 411 83 500 101 1067 
1462 -0.06672591420132842 0.09901852228650228 0.7193262413950415 0 0 0 0.26 75 513 84 255 101 1068 108 391 
1463 -0.06685271555255637 0.09953651127339937 0.7213374667903121 0 0 0 0.39 75 514 84 256 101 1069 169 293 
1464 -0.32946638084749513 0.10954156207378389 0.9592897349922305 0 0 0 0.14 66 412 83 501 101 1070 
1465 -0.2664224485654075 0.1055692387028794 0.8951737042798275 0 0 0 0.18 66 413 101 1071 147 286 
1466 -0.07676658671973612 0.10162721233417524 0.7352610656137881 0 0 0 0.08 75 515 83 502 101 1072 
1467 -0.3734212182993556 0.11232779788330886 1.0004694803247973 0 0 0 0.14 66 414 75 516 101 1073 
1468 -0.2937645827969322 0.10493240601728629 0.906923066030912 0 0 0 0.21 66 415 70 449 75 517 101 1074 
1469 -0.29379754805070313 0.1049774504667669 0.9073723900524476 0 0 0 0.2 66 416 70 450 75 518 83 503 101 1075 147 287 
1470 -0.2636392549514532 0.10701673454144603 0.8938160660530654 0 0 0 0.21 66 417 101 1076 120 328 147 288 
1471 -0.2520884159979517 0.10809293222106926 0.8776401370273121 0 0 0 0.37 66 418 75 519 101 1077 147 289 
1472 -0.26296304479177485 0.11074401188473787 0.8886460588842894 0 0 0 0.1 66 419 101 1078 120 329 
1473 -0.4551020917942756 0.1043929919834233 0.9923313483642757 0 0 0 0.07 66 420 83 504 89 210 169 294 
1474 -0.24285487150550594 0.11065091389241628 0.8701098514297166 0 0 0 0.34 66 421 75 520 101 1079 147 290 
1475 -0.3285529138537781 0.11091647617543464 0.9300417310718666 0 0 0 0.14 66 422 101 1080 147 291 
1476 -0.2937344556586274 0.11349092462079784 0.9062720288274504 0 0 0 0.23 66 423 101 1081 169 295 
1477 -0.29814629562683964 0.1157480440393897 0.9208474623857233 0 0 0 0.14 66 424 101 1082 120 330 
1478 -0.3761937984547073 0.11328109825538778 0.9614290382651928 0 0 0 0.2 66 425 101 1083 120 331 
1479 -0.6370227834736928 0.11738981697097957 1.1588419742807787 0 0 0 0.28 66 426 101 1084 120 332 
1480 -0.45558254103408935 0.10841078224542107 0.9918583447588335 0 0 0 0.15 66 427 89 211 138 83 169 296 
1481 -0.4606580181716608 0.10995561776017786 0.9937352264311465 0 0 0 0.71 66 428 81 88 101 1085 120 333 123 51 147 292 163 87 
1482 -0.45926167780928817 0.10945515365814935 0.9918267851133373 0 0 0 0.17 66 429 81 89 101 1086 120 334 147 293 
1483 -0.4376730091158505 0.11291894524375447 0.9925810432683431 0 0 0 0.57 66 430 101 1087 163 88 
1484 -0.28283623865224305 0.11709150615590441 0.9016331264708208 0 0 0 0.18 66 431 75 521 101 1088 
1485 -0.3518457015706762 0.11560880222744759 0.9385087599429571 0 0 0 0.16 66 432 83 505 101 1089 
1486 -0.10110559916113858 0.10906452804295366 0.737386635681365 0 0 0 0.08 75 522 83 506 101 1090 
1487 -0.3719986356554517 0.11653144111243714 0.9532616677922958 0 0 0 0.12 66 433 101 1091 120 335 
1488 -0.20496216861324157 0.11843304385568498 0.8478719573360646 0 0 0 0.09 83 507 101 1092 169 297 
1489 -0.6393013020703362 0.12728779419800376 1.1795449449363007 0 0 0 0.27 66 434 101 1093 120 336 
1490 -0.29739192811109616 0.12042426485203915 0.9152979358244676 0 0 0 0.23 66 435 83 508 101 1094 
1491 -0.2952910632897334 0.11935980339458493 0.9084921359461583 0 0 0 0.27 66 436 75 523 83 509 101 1095 
1492 -0.11703138763658769 0.10991871391900684 0.7473535515349349 0 0 0 0.31 83 510 101 1096 195 229 
1493 -0.44752784077995106 0.11458015957800921 0.9782712435048283 0 0 0 0.13 66 437 101 1097 120 337 
1494 -0.19782264930788124 0.12137211082753123 0.8403489840609318 0 0 0 0.38 70 451 101 1098 108 392 192 196 
1495 -0.6711887513358374 0.13128706175747415 1.1662512836098302 0 0 0 0.44 66 438 84 257 100 135 101 1099 120 338 
1496 -0.4514067715488491 0.12151771887296778 0.9728562205443605 0 0 0 0.36 66 439 89 212 101 1100 120 339 147 294 
1497 -0.22760005932833388 0.1272298814724721 0.8551368467301295 0 0 0 0.11 66 440 100 136 101 1101 
1498 -0.45271797096319333 0.12402450493770464 0.9711331758374002 0 0 0 0.24 66 441 84 258 89 213 101 1102 169 298 222 193 
1499 -0.3568277860545112 0.13245803547384122 0.9466899496307056 0 0 0 0.16 66 442 83 511 101 1103 
1500 -0.1909656343861092 0.13114870995166716 0.8379711331260898 0 0 0 0.21 75 524 100 137 101 1104 
1501 -0.4236650978504503 0.1325324984299707 0.9820260932145198 0 0 0 0.16 66 443 89 214 101 1105 120 340 
1502 -0.33823028554785695 0.1309082375332827 0.9243276149298094 0 0 0 0.35 66 444 75 525 83 512 101 1106 147 295 
1503 -0.43867258244160884 0.12905690027131275 0.9738878739153616 0 0 0 0.19 66 445 101 1107 120 341 147 296 222 194 
1504 -0.43686610311441165 0.13246969737059403 0.9707870448897077 0 0 0 0.8 66 446 89 215 101 1108 120 342 123 52 147 297 
1505 -0.4268050378470137 0.13821296213152764 0.9806011014998772 0 0 0 0.52 66 447 83 513 84 259 87 148 89 216 101 1109 138 84 169 299 222 195 
1506 -0.6599022488940476 0.1326059602382905 1.0923653307650372 0 0 0 0.15 66 448 101 1110 120 343 
1507 -0.30140720252926323 0.13595369606696844 0.8932651404730365 0 0 0 0.34 66 449 70 452 89 217 100 138 101 1111 138 85 169 300 
1508 -0.28784719014749394 0.1358547560233599 0.884721305493283 0 0 0 0.2 66 450 75 526 101 1112 
1509 -0.7859675736636741 0.12732033745801793 1.126824944105698 0 0 0 0.52 66 451 147 298 169 301 
1510 -0.6741071013743747 0.1402863253705025 1.1151193023382235 0 0 0 0.03 66 452 101 1113 120 344 
1511 -0.33440233931737745 0.14231250477020724 0.918772268358155 0 0 0 0.12 66 453 87 149 101 1114 120 345 
1512 -0.7903547642401298 0.13692380977957372 1.1424946163843588 0 0 0 0.22 66 454 138 86 169 302 
1513 -0.4091148159095106 0.14579993889107917 0.961015161072546 0 0 0 0.19 66 455 101 1115 120 346 222 196 
1514 -0.615435607195307 0.14638489897401016 1.0697408674601159 0 0 0 0.13 66 456 101 1116 120 347 
1515 -0.3787546060989354 0.14915095575250908 0.9433882437183934 0 0 0 0.2 66 457 84 260 101 1117 147 299 
1516 -0.6576696558806517 0.14431977359937145 1.072461796151889 0 0 0 0.11 66 458 101 1118 120 348 
1517 -0.6390531958027256 0.15193886065960305 1.0774469553730703 0 0 0 0.44 66 459 101 1119 120 349 123 53 
1518 -0.2392429242664121 0.14899946649586124 0.8488862479568944 0 0 0 0.1 66 460 75 527 101 1120 
1519 -0.23534058499305519 0.14847838696753135 0.8456793952717246 0 0 0 0.16 66 461 83 514 101 1121 147 300 
1520 -0.39601858058556366 0.15498499189898152 0.949336943398246 0 0 0 0.22 66 462 83 515 101 1122 120 350 147 301 222 197 
1521 -0.41832432479852655 0.15715285863722947 0.9640440545032479 0 0 0 0.21 66 463 83 516 89 218 100 139 101 1123 120 351 
1522 -0.6544895599017303 0.1518521484015608 1.0605244412961254 0 0 0 0.05 66 464 101 1124 120 352 
1523 -0.45189824406163637 0.15353150983746328 0.95776620830007 0 0 0 0.71 66 465 74 68 81 90 84 261 101 1125 120 353 129 124 147 302 163 89 197 97 
1524 -0.3854567086554856 0.1586619221489172 0.941209009829874 0 0 0 0.17 66 466 101 1126 120 354 147 303 222 198 
1525 -0.27349577394381275 0.1551199343358108 0.8695924874957522 0 0 0 0.19 66 467 75 528 101 1127 147 304 
1526 -0.2709099161994267 0.15323474260632336 0.8609928459182902 0 0 0 0.2 66 468 101 1128 120 355 
1527 -0.788065831406947 0.1649307684968274 1.1631180052982617 0 0 0 0.42 66 469 101 1129 120 356 123 54 
1528 -0.1469678556558471 0.1555575865166631 0.8019543989059582 0 0 0 0.3 75 529 83 517 84 262 101 1130 
1529 -0.7706650418595026 0.16083561597084628 1.1275186181451569 0 0 0 0.11 66 470 101 1131 120 357 
1530 -0.7821250295131715 0.15606408590315993 1.1122740592641889 0 0 0 0.13 66 471 101 1132 120 358 
1531 -0.3838269286297815 0.16366202652921358 0.9408170382798773 0 0 0 0.15 66 472 101 1133 147 305 
1532 -0.7181589292297472 0.16632782700794932 1.1186694593057815 0 0 0 0.08 66 473 101 1134 120 359 
1533 -0.7967668584385809 0.15784813263130532 1.12326349213854 0 0 0 0.13 66 474 101 1135 120 360 182 157 
1534 -1.1871326717202644 0.10722771486490765 1.1192925545840013 0 0 0 0.26 66 475 101 1136 120 361 222 199 
1535 -0.31769015236669806 0.1623422776540554 0.8880036817807813 0 0 0 0.26 66 476 101 1137 120 362 
1536 -0.3303262703906368 0.1650634607642502 0.9039282458989978 0 0 0 0.18 66 477 70 453 83 518 101 1138 
1537 -0.6109980551040815 0.16675377102321173 1.0449583125767028 0 0 0 0.2 66 478 101 1139 120 363 
1538 -0.30886410974439427 0.16356242109448563 0.8829854144979314 0 0 0 0.21 66 479 83 519 101 1140 147 306 
1539 -0.3101651295849667 0.16448009801393168 0.8874277297422088 0 0 0 0.1 66 480 83 520 84 263 101 1141 
1540 -0.6087078341274522 0.16977315220178646 1.051935729733361 0 0 0 0.36 66 481 89 219 101 1142 123 55 
1541 -0.6199815405956396 0.1678572366579876 1.0445813594692377 0 0 0 0.36 66 482 89 220 101 1143 120 364 134 55 
1542 -0.762618675883607 0.1712677879487451 1.1199821965283763 0 0 0 0.14 66 483 101 1144 120 365 
1543 -0.022840544944602813 0.14565297848154674 0.6685276112842912 0 0 0 0.18 83 521 84 264 101 1145 
1544 -0.7605547350174656 0.16722624968825434 1.0996298355753094 0 0 0 0.31 66 484 89 221 101 1146 120 366 
1545 -0.2700819478260584 0.16792138941953905 0.867617742402134 0 0 0 0.1 66 485 101 1147 147 307 
1546 -0.8081518987632971 0.16679236694568622 1.1152131610634686 0 0 0 0.28 66 486 69 115 101 1148 
1547 -0.26437485988159365 0.16725693433537966 0.8569063822511362 0 0 0 0.24 66 487 101 1149 120 367 147 308 
1548 -0.7620910007736823 0.17951898208475475 1.1370749418816963 0 0 0 0.24 66 488 101 1150 123 56 147 309 
1549 -0.7715788347755774 0.17540134554476638 1.122215066363812 0 0 0 0.09 66 489 101 1151 120 368 
1550 -1.132593802998632 0.1084533946098517 1.0435091891504236 0 0 0 0.06 66 490 101 1152 232 53 
1551 -1.1427444892728644 0.120569463289239 1.0922977208108322 0 0 0 0.35 66 491 69 116 101 1153 120 369 141 42 147 310 190 55 
1552 -0.7643846030557141 0.17611782835439868 1.1174175946505398 0 0 0 0.33 66 492 123 57 169 303 
1553 -0.5724162353853856 0.21096784953150233 1.1541694854530768 0 0 0 0.41 66 493 101 1154 120 370 197 98 
1554 -0.2789984875925567 0.1718888482245665 0.8734231807017592 0 0 0 0.23 66 494 75 530 101 1155 147 311 
1555 -0.3674195069725905 0.17236931670887515 0.9145196703719961 0 0 0 0.09 66 495 101 1156 120 371 222 200 
1556 -0.7992655343029706 0.18148128305415923 1.1474274632079293 0 0 0 0.31 66 496 101 1157 120 372 
1557 -0.719362564479626 0.19249488798021888 1.1448292744729975 0 0 0 0.17 66 497 101 1158 120 373 
1558 -0.6724589555224281 0.1788712423974403 1.0728554770792476 0 0 0 0.28 66 498 87 150 89 222 101 1159 120 374 123 58 
1559 -0.6354762891961733 0.1786389316521946 1.0559728893489833 0 0 0 0.27 66 499 101 1160 120 375 
1560 -0.11375298996546063 0.15436318991079534 0.7266890480127283 0 0 0 0.12 70 454 83 522 101 1161 
1561 -1.1598120564584913 0.09256180483298095 0.9813236986880521 0 0 0 0.36 66 500 101 1162 120 376 141 43 152 58 182 158 
1562 -0.800318797567747 0.17581045820651522 1.1161209267452985 0 0 0 0.26 66 501 101 1163 120 377 
1563 -0.36869999491897765 0.17521828061667766 0.9138372388968093 0 0 0 0.04 66 502 84 265 89 223 101 1164 222 201 
1564 -0.23569327102622017 0.17173066612161603 0.8362306575177494 0 0 0 0.26 66 503 70 455 101 1165 
1565 -0.7629993835674725 0.179861774936322 1.105464165058882 0 0 0 0.13 66 504 89 224 101 1166 120 378 123 59 169 304 170 11 
1566 -0.7758356772839717 0.18468072708389688 1.1193366916842056 0 0 0 0.28 66 505 101 1167 120 379 123 60 
1567 -0.7229201767654414 0.18640860419981475 1.1023256364931908 0 0 0 0.18 66 506 101 1168 120 380 
1568 -0.06884375869783764 0.15495916508080748 0.6927995438161234 0 0 0 0.3 83 523 101 1169 108 393 195 230 
1569 -0.7550518605093208 0.1813066318986086 1.0914390744699065 0 0 0 0.32 66 507 101 1170 120 381 
1570 -0.8031622245374689 0.1819410992117955 1.107018435823939 0 0 0 0.43 66 508 100 140 101 1171 120 382 123 61 
1571 -1.1188825848317774 0.13289316303260773 1.0697770714978394 0 0 0 0.25 66 509 101 1172 120 383 184 50 190 56 197 99 232 54 
1572 -0.7815811488234399 0.18248312452149995 1.0993229809998146 0 0 0 0.23 66 510 101 1173 120 384 170 12 182 159 
1573 -0.5664618946678014 0.21408238368665222 1.1137799520388734 0 0 0 0.07 66 511 89 225 101 1174 120 385 123 62 
1574 -0.638279572648901 0.18696655612913968 1.041387100952523 0 0 0 0.26 66 512 89 226 101 1175 120 386 123 63 134 56 182 160 
1575 -0.5354476441321029 0.20955244163718698 1.0742848510296603 0 0 0 0.35 66 513 101 1176 120 387 
1576 -0.7819113288483002 0.18630042014524587 1.0967978462164738 0 0 0 0.22 66 514 101 1177 120 388 134 57 
1577 -0.7416404982263533 0.1895682514203178 1.0928811752729852 0 0 0 0.14 66 515 101 1178 120 389 
1578 -0.3890538627426309 0.18223939694355396 0.9146250149809456 0 0 0 0.16 66 516 101 1179 120 390 
1579 -0.06351792589890115 0.15607544301215567 0.6803676597657367 0 0 0 0.12 75 531 83 524 101 1180 
1580 -0.6199571834472091 0.18886708814567635 1.03175821953923 0 0 0 0.24 66 517 81 91 89 227 101 1181 120 391 123 64 182 161 
1581 -0.21173419836899643 0.18103501822993734 0.8281780920500266 0 0 0 0.28 66 518 83 525 101 1182 
1582 -0.743751452353079 0.1910916912910765 1.0881784136023636 0 0 0 0.1 66 519 101 1183 120 392 
1583 -0.661481544282913 0.19121288314480359 1.0527287691945577 0 0 0 0.18 66 520 100 141 101 1184 120 393 123 65 182 162 
1584 -0.6705841169263302 0.1930956982143446 1.0568786147739868 0 0 0 0.2 66 521 84 266 89 228 101 1185 120 394 123 66 
1585 -0.7542995763278734 0.19059246615927597 1.0776374689294699 0 0 0 0.07 66 522 101 1186 120 395 
1586 -0.6812985492227667 0.1954232130516596 1.063325516859158 0 0 0 0.29 66 523 84 267 100 142 101 1187 120 396 123 67 138 87 
1587 -0.3320666121896836 0.18860233575411986 0.886963539096772 0 0 0 0.18 66 524 101 1188 120 397 222 202 
1588 -0.8052426955629931 0.19238308311062047 1.0939641350483116 0 0 0 0.69 66 525 87 151 101 1189 120 398 
1589 -1.1584641590543063 0.11491715226871103 0.967831361898187 0 0 0 0.19 101 1190 152 59 190 57 
1590 -0.3316536216132344 0.19213065324606393 0.8915533721062519 0 0 0 0.73 66 526 87 152 101 1191 120 399 129 125 222 203 
1591 -0.33115527567773495 0.1913761977642648 0.8902791871848643 0 0 0 0.23 66 527 87 153 101 1192 120 400 
1592 -0.6517826037450801 0.20013453404951242 1.0444798849095818 0 0 0 0.49 66 528 82 31 101 1193 120 401 123 68 170 13 182 163 184 51 235 37 
1593 -0.6501713915853409 0.19980741000498184 1.0424696802235882 0 0 0 0.28 66 529 84 268 89 229 101 1194 123 69 222 204 
1594 -0.058064719803677584 0.16617152311962002 0.6836714262871312 0 0 0 0.15 75 532 83 526 101 1195 
1595 -0.7361112017291083 0.20799083747266164 1.091119078179824 0 0 0 0.38 66 530 67 55 101 1196 182 164 
1596 -0.7258642285153436 0.20649214687590076 1.0831042996813651 0 0 0 0.13 66 531 101 1197 120 402 
1597 -0.7258642285153436 0.20649214687590076 1.0831042996813651 0 0 0 0.13 66 532 101 1198 120 403 
1598 -0.8808280489519049 0.19522910751052142 1.1015018136122752 0 0 0 0.16 66 533 101 1199 123 70 
1599 -0.7964930044352688 0.20239506762993975 1.091884506068283 0 0 0 0.36 66 534 82 32 101 1200 120 404 
1600 -0.7818340958000469 0.20214918371740392 1.0718718531691187 0 0 0 0.12 66 535 101 1201 120 405 
1601 -0.6353998272371947 0.2104418610228895 1.037893714482556 0 0 0 0.04 66 536 101 1202 120 406 123 71 
1602 -0.2836432898452768 0.19884001651709993 0.8617701194503633 0 0 0 0.11 66 537 101 1203 120 407 
1603 -0.9005490062305034 0.20174234394197793 1.1051816057221675 0 0 0 0.12 66 538 89 230 169 305 
1604 -0.3246743007550676 0.20095370296078627 0.8822730228757906 0 0 0 0.22 66 539 101 1204 120 408 222 205 
1605 -0.8910346718912858 0.20375870109501854 1.1028896624436388 0 0 0 0.24 66 540 74 69 101 1205 120 409 169 306 182 165 
1606 -0.7941730404558508 0.20820474327372931 1.0829890934170787 0 0 0 0.15 66 541 101 1206 120 410 134 58 
1607 -0.5909046613265347 0.20853467406779527 1.0062674103636242 0 0 0 0.15 66 542 101 1207 120 411 
1608 -1.137901347883193 0.15123488369025861 1.0137434970308474 0 0 0 0.23 66 543 69 117 89 231 101 1208 105 30 111 37 120 412 152 60 165 42 235 38 
1609 -1.1378448384964723 0.15123709221670587 1.0137606273899535 0 0 0 0.15 66 544 69 118 101 1209 105 31 152 61 182 166 235 39 
1610 -0.4341293868331055 0.20866768110498574 0.9394892522599203 0 0 0 0.3 66 545 69 119 70 456 74 70 81 92 84 269 87 154 89 232 100 143 101 1210 120 413 129 126 147 312 163 90 169 307 182 167 197 100 222 206 
1611 -1.1103331722410885 0.19358394229664252 1.133895501492391 0 0 0 0.4 66 546 101 1211 120 414 123 72 147 313 152 62 182 168 190 58 222 207 
1612 -0.629423628356403 0.21404318177392473 1.0243128275892837 0 0 0 0.1 66 547 89 233 101 1212 120 415 
1613 -0.6592325220573189 0.217808138788826 1.0430012840051155 0 0 0 0.45 66 548 84 270 101 1213 182 169 
1614 -0.5698624787050317 0.2082748306468401 0.980182119936205 0 0 0 0.14 66 549 101 1214 120 416 
1615 -0.8839578003065072 0.214742340258919 1.1010106194555664 0 0 0 0.38 66 550 101 1215 120 417 
1616 -0.6330815210528937 0.2213246834290919 1.0271202475238024 0 0 0 0.15 66 551 101 1216 120 418 138 88 169 308 
1617 -0.21067070863323664 0.20310238284067336 0.8069731744779811 0 0 0 0.07 66 552 101 1217 120 419 
1618 -0.5969710421025138 0.2213545458167084 1.002636451148015 0 0 0 0.07 66 553 101 1218 120 420 182 170 
1619 -0.2464010310110464 0.206819979105274 0.8245582760740203 0 0 0 0.03 66 554 101 1219 120 421 
1620 -0.246350167137364 0.20673843514057913 0.824258085662688 0 0 0 0.05 66 555 101 1220 120 422 147 314 
1621 -0.602532670132893 0.2290916427857259 1.0156681304660031 0 0 0 0.11 66 556 101 1221 120 423 
1622 -0.602532670132893 0.2290916427857259 1.0156681304660031 0 0 0 0.11 66 557 101 1222 120 424 
1623 -0.7549136791412817 0.23107260516004233 1.0629494381440006 0 0 0 0.18 66 558 89 234 101 1223 120 425 134 59 
1624 -0.8702670992412588 0.22777415473101606 1.0890333208094398 0 0 0 0.3 66 559 67 56 81 93 101 1224 120 426 123 73 
1625 -0.36419766296991496 0.2198103797568939 0.8932870736098334 0 0 0 0.19 66 560 101 1225 222 208 
1626 -0.25257640944372983 0.21182805294517237 0.8286457099528042 0 0 0 0.15 66 561 101 1226 120 427 
1627 -0.4202766796027101 0.22729917062011248 0.9307386890425876 0 0 0 0.18 66 562 101 1227 120 428 129 127 147 315 
1628 -1.1163448546712802 0.22119093004565954 1.1434373341806396 0 0 0 0.29 66 563 67 57 101 1228 111 38 152 63 182 171 190 59 197 101 222 209 
1629 -0.9061735107787494 0.2270376791406716 1.0923771819025698 0 0 0 0.29 66 564 74 71 82 33 101 1229 123 74 170 14 182 172 
1630 -0.2652355503148775 0.212930244028222 0.830869999963841 0 0 0 0.09 66 565 83 527 101 1230 
1631 -0.9289058581224757 0.22805443100976988 1.0967867895390353 0 0 0 0.33 66 566 101 1231 120 429 123 75 
1632 -0.20562396275783182 0.21022145528114938 0.8000109401042969 0 0 0 0.4 6 576 75 533 87 155 101 1232 108 394 
1633 -0.6560611056013017 0.23559876835129626 1.0262340070089702 0 0 0 0.22 66 567 87 156 101 1233 
1634 -0.2814317588651051 0.21719874863522076 0.8408514813388791 0 0 0 0.09 66 568 101 1234 147 316 
1635 -0.28052448982353206 0.2163766495925497 0.8381658615222367 0 0 0 0.11 66 569 75 534 101 1235 
1636 -0.25986382215615916 0.21695362572597837 0.8300879602133594 0 0 0 0.06 66 570 101 1236 120 430 
1637 -0.262011545210439 0.21866817035514607 0.8367048519979119 0 0 0 0.37 66 571 83 528 84 271 101 1237 
1638 -0.6559003894351509 0.2388597839621205 1.0249781124911117 0 0 0 0.37 66 572 84 272 101 1238 120 431 138 89 169 309 
1639 -0.9606475207509698 0.23014108462229238 1.0895873378623029 0 0 0 0.23 66 573 101 1239 222 210 232 55 
1640 -0.7247911947537315 0.24646725739195166 1.0647721045926835 0 0 0 0.17 66 574 69 120 81 94 89 235 101 1240 170 15 182 173 
1641 -0.5306720405263465 0.25421361581250207 1.0253795083828452 0 0 0 0.19 66 575 101 1241 120 432 184 52 
1642 -0.3182379098482259 0.22228253938997528 0.8572706848452292 0 0 0 0.09 66 576 75 535 101 1242 
1643 -0.81160286733257 0.2398023813080377 1.0677822044516203 0 0 0 0.26 66 577 69 121 74 72 82 34 101 1243 120 433 123 76 
1644 -0.6750944838998212 0.2435296356746355 1.0380238042762573 0 0 0 0.31 66 578 101 1244 182 174 
1645 -0.28012321831841763 0.2211987417594473 0.8399281932907472 0 0 0 0.32 66 579 83 529 101 1245 
1646 -0.20191927250271588 0.2138755565582283 0.7916709204293243 0 0 0 0.06 70 457 101 1246 108 395 
1647 -0.318887744308029 0.22692971696596342 0.8660418494945539 0 0 0 0.24 66 580 75 536 101 1247 222 211 
1648 -0.6908809201484649 0.24667343036677183 1.0403589579441752 0 0 0 0.08 66 581 101 1248 120 434 
1649 -0.5407636600308537 0.2587891811922622 1.0311473708541221 0 0 0 0.23 66 582 101 1249 147 317 182 175 
1650 -0.7078110102943456 0.2517179182710288 1.0571335621442552 0 0 0 0.21 66 583 89 236 101 1250 120 435 134 60 
1651 -0.7076323741614974 0.2515040935383595 1.056795021626298 0 0 0 0.22 66 584 69 122 89 237 101 1251 120 436 134 61 169 310 170 16 182 176 
1652 -0.7762136823270034 0.24723452933062406 1.0610016665559105 0 0 0 0.8 66 585 69 123 74 73 81 95 100 144 101 1252 111 39 120 437 182 177 222 212 
1653 -0.3556216178658627 0.23037581130336734 0.8770039474487415 0 0 0 0.13 66 586 75 537 101 1253 120 438 
1654 -0.9656717849178427 0.2424528703295891 1.0994786078620653 0 0 0 0.12 66 587 101 1254 120 439 
1655 -0.6120639534243553 0.24513527081450356 0.9997185266908917 0 0 0 0.15 66 588 101 1255 120 440 134 62 
1656 -0.9006186720653717 0.24441661572963558 1.0846560101799652 0 0 0 0.25 66 589 67 58 69 124 74 74 82 35 101 1256 111 40 120 441 123 77 163 91 169 311 182 178 
1657 -0.5483845888694246 0.24422538648586808 0.9764943331263441 0 0 0 0.11 66 590 101 1257 120 442 
1658 -0.7555573048617991 0.26081350543264437 1.0838029692190727 0 0 0 0.15 66 591 101 1258 120 443 
1659 -0.6796178745068814 0.2510447008384428 1.0310463106245407 0 0 0 0.15 66 592 101 1259 120 444 138 90 
1660 -0.6761321960053202 0.24963358069006492 1.0252470977089876 0 0 0 0.05 66 593 101 1260 120 445 
1661 -0.5693817895040185 0.24505236568115968 0.9771990762163554 0 0 0 0.43 66 594 87 157 89 238 101 1261 
1662 -1.2343494845012406 0.2917793637261502 1.3140169581923091 0 0 0 0.13 66 595 101 1262 120 446 
1663 -0.6599951530099897 0.25191005450375753 1.0211863015434837 0 0 0 0.27 66 596 69 125 101 1263 
1664 -0.8719718430836646 0.2498816842082644 1.0762141932204512 0 0 0 0.35 66 597 69 126 74 75 100 145 101 1264 120 447 182 179 222 213 
1665 -0.7802126301408463 0.2555137710215687 1.0656793556047313 0 0 0 0.41 66 598 101 1265 120 448 123 78 169 312 182 180 
1666 -0.9205383881574406 0.24750727195481573 1.081583326586556 0 0 0 0.44 66 599 87 158 101 1266 152 64 
1667 -0.8582347971745948 0.2538581888213066 1.0805064430845925 0 0 0 0.37 66 600 87 159 101 1267 182 181 
1668 -0.682128354584125 0.2566446867072196 1.034538388751841 0 0 0 0.22 66 601 101 1268 120 449 182 182 
1669 -0.2433676250966027 0.2262161489407417 0.8090586305492662 0 0 0 0.15 66 602 70 458 83 530 89 239 101 1269 108 396 
1670 -0.559593656792517 0.2632192053059754 1.0111158600381376 0 0 0 0.64 66 603 101 1270 120 450 
