# 3D point list with one line of data per point:
#   POINT3D_ID, X, Y, Z, R, G, B, ERROR, TRACK[] as (IMAGE_ID, POINT2D_IDX)
# Number of points: 273, mean track length: 13.85
489 0.30678128121274223 0.003018531566764729 0.9683628998282602 42 31 24 1.21 18 393 19 406 20 376 22 418 23 385 24 349 26 299 36 282 37 228 38 345 39 291 40 293 43 232 
490 0.5463184391361792 0.26013479861580985 0.8118899443962295 39 38 40 1.77 35 196 36 283 38 346 39 292 40 294 42 248 43 233 
491 0.7636576280751289 -0.07814717780621919 1.3686147941767972 81 84 88 1.58 20 377 21 406 22 419 23 386 35 197 37 229 38 347 39 293 40 295 42 249 43 234 
492 0.6767111259582353 0.2638770632404003 0.9216686383651588 74 69 71 1.27 35 198 36 284 37 230 38 348 39 294 
493 0.7819540977067304 0.16538924081873213 1.3220796851420409 116 108 105 1.45 20 378 21 407 22 420 23 387 35 199 37 231 38 349 39 295 40 296 42 250 43 235 
494 0.7295022764487602 0.2805383116718262 0.9050272509157667 43 42 45 1.72 36 285 38 350 39 296 40 297 42 251 
495 0.44540705971832867 -0.13662894424353314 0.8738119318897088 57 51 46 2.66 18 394 19 407 20 379 21 408 22 421 23 388 24 350 26 300 35 200 36 286 37 232 38 351 39 297 40 298 42 252 43 236 7 25 8 25 9 26 10 24 11 23 12 16 13 14 14 14 15 16 16 13 17 16 41 32 46 29 47 30 48 32 49 30 
496 0.6728934182800734 0.016885426889730163 1.282324255444534 41 42 47 1.51 20 380 22 422 23 389 24 351 35 201 36 287 37 233 38 352 39 298 40 299 42 253 43 237 
497 0.47127591871690794 0.0934378484701329 0.8592688832876898 58 57 60 1.59 18 395 19 408 20 381 21 409 22 423 23 390 24 352 26 301 35 202 36 288 37 234 38 353 39 299 40 300 42 254 43 238 
498 0.7930073105573949 0.29268340300378104 1.2888060183989398 117 111 109 1.73 21 410 22 424 23 391 35 203 37 235 38 354 39 300 40 301 42 255 43 239 
499 0.5943387366738914 0.2667893356740437 1.1344497767918533 39 25 24 1.57 18 396 20 382 21 411 22 425 23 392 35 204 36 289 37 236 38 355 39 301 40 302 42 256 43 240 
500 0.31325628826706886 -0.13131714452919246 0.7702950379151088 86 78 73 1.46 18 397 19 409 20 383 21 412 22 426 23 393 24 353 26 302 36 290 37 237 38 356 39 302 40 303 42 257 43 241 
501 0.49927273000158606 0.04021238959673488 1.1006442672001089 76 67 63 1.28 18 398 19 410 22 427 23 394 24 354 26 303 35 205 36 291 37 238 38 357 39 303 40 304 42 258 43 242 
502 0.32016933729292446 0.08912105412018892 0.9504976011052851 50 34 29 1.29 18 399 19 411 22 428 23 395 24 355 26 304 35 206 36 292 37 239 38 358 39 304 40 305 43 243 
503 0.7652194523444472 0.1492882263542017 1.3114233553946206 121 109 106 1.56 20 384 21 413 22 429 23 396 35 207 37 240 38 359 39 305 40 306 42 259 43 244 
504 0.564640325973671 0.1624149791971277 1.164554745979835 107 123 122 1.37 18 400 21 414 22 430 23 397 24 356 35 208 36 293 37 241 38 360 39 306 40 307 42 260 43 245 
505 0.5375914215513002 -0.10064577980032115 1.107569399139069 170 180 188 1.44 21 415 22 431 23 398 24 357 35 209 36 294 37 242 38 361 39 307 40 308 42 261 43 246 
506 0.497223910858004 0.06962169622142278 1.0884853311370104 97 90 84 3.03 18 401 19 412 20 385 22 432 23 399 24 358 26 305 35 210 36 295 37 243 38 362 39 308 40 309 42 262 43 247 6 22 8 26 9 27 10 25 11 24 12 17 15 17 41 33 46 30 47 31 48 33 49 31 
507 0.7169121447004914 -0.022423741447795995 1.3305957421348527 157 171 184 1.57 19 413 21 416 22 433 23 400 35 211 36 296 37 244 38 363 39 309 40 310 42 263 43 248 
508 0.700328561289053 0.02007648415836082 1.309075385762783 118 126 137 1.46 19 414 22 434 23 401 35 212 36 297 37 245 38 364 39 310 40 311 42 264 43 249 
509 0.4748681059654164 0.16937888359966546 0.8110761709863438 123 127 135 1.56 18 402 19 415 20 386 21 417 22 435 23 402 24 359 26 306 35 213 36 298 37 246 38 365 39 311 40 312 42 265 43 250 
510 0.8226185598045855 -0.09496736044465566 1.3920878413469873 19 18 24 1.84 20 387 21 418 22 436 23 403 35 214 37 247 38 366 39 312 40 313 42 266 43 251 
511 0.2984156709654251 -0.052153888677240676 0.9822856946652143 36 26 20 2.89 18 403 19 416 20 388 22 437 23 404 24 360 26 307 36 299 37 248 38 367 39 313 40 314 43 252 6 23 7 26 8 27 9 28 10 26 11 25 12 18 13 15 14 15 15 18 46 31 47 32 48 34 49 32 
512 0.6953910791263507 -0.02765585182198874 1.3231860304428156 118 142 157 2.67 22 438 23 405 24 361 35 215 36 300 37 249 38 368 39 314 40 315 42 267 43 253 19 417 41 34 46 32 47 33 48 35 49 33 
513 0.429735247460642 -0.11764570441949909 0.8607174221640036 77 67 63 2.77 18 404 19 418 20 389 21 419 22 439 23 406 24 362 26 308 36 301 37 250 38 369 39 315 40 316 42 268 43 254 7 27 8 28 9 29 10 27 11 26 12 19 13 16 14 16 15 19 16 14 17 17 41 35 46 33 47 34 48 36 49 34 
514 0.6919076455685168 0.2716749303244844 0.9153541061827194 25 28 27 1.49 36 302 38 370 39 316 
515 0.8513218896572191 0.3180876053208333 1.1080954929515896 66 63 70 1.59 35 216 37 251 38 371 39 317 40 317 42 269 43 255 
516 0.6834407105159865 0.1692887622705607 1.2508754948783392 112 128 133 1.59 19 419 20 390 22 440 23 407 35 217 36 303 37 252 38 372 39 318 40 318 42 270 43 256 
517 0.5008643122044089 -0.013262283215498947 1.1150703157252986 71 64 61 1.21 18 405 19 420 22 441 23 408 24 363 26 309 35 218 36 304 37 253 38 373 39 319 40 319 42 271 43 257 
518 0.27006294770425987 -0.031354542612753826 0.9731296295966829 31 28 24 1.45 19 421 20 391 21 420 23 409 24 364 26 310 36 305 37 254 38 374 39 320 40 320 43 258 
519 0.31015973464251456 -0.11729054389445255 0.7702294615580042 144 148 152 1.58 18 406 19 422 20 392 21 421 22 442 23 410 24 365 26 311 36 306 37 255 38 375 39 321 40 321 42 272 43 259 
520 0.6303004656073276 -0.06767074651549643 1.2530903978622094 112 101 91 1.55 19 423 20 393 21 422 23 411 24 366 26 312 35 219 36 307 37 256 38 376 39 322 40 322 42 273 43 260 
521 0.5515919874127737 -0.10863423758965302 1.2017855708947194 56 44 41 1.47 18 407 21 423 35 220 36 308 37 257 38 377 39 323 40 323 42 274 43 261 
522 0.5430035889034701 0.18615364360019324 1.1363500253918692 90 103 114 1.31 18 408 19 424 21 424 22 443 23 412 24 367 26 313 35 221 36 309 37 258 38 378 39 324 40 324 42 275 43 262 
523 0.637735415338608 0.2785975057148546 0.926341425984198 24 23 23 1.34 18 409 19 425 20 394 21 425 22 444 23 413 35 222 36 310 38 379 39 325 
524 0.6972633049021163 -0.005416194058084128 1.3170456716599506 165 179 192 1.7 19 426 22 445 23 414 35 223 36 311 37 259 38 380 39 326 40 325 42 276 43 263 20 395 
525 0.3204222274018933 -0.09055671877824875 0.7723724678899554 124 128 133 3.23 18 410 19 427 20 396 21 426 22 446 23 415 24 368 26 314 35 224 36 312 37 260 38 381 39 327 40 326 42 277 43 264 6 24 7 28 8 29 9 30 10 28 11 27 12 20 13 17 14 17 15 20 16 15 17 18 41 36 46 34 47 35 48 37 49 35 
526 0.7209707677910401 0.11344671154251498 1.283584087774675 124 115 109 1.72 18 411 19 428 21 427 22 447 23 416 35 225 37 261 38 382 39 328 40 327 42 278 43 265 
527 0.7111293706999062 0.012213381790114407 1.31974207002048 211 226 231 1.54 19 429 21 428 22 448 23 417 35 226 36 313 37 262 38 383 39 329 40 328 42 279 43 266 
528 0.7336100504428221 0.2907714787282603 1.1574043966471201 40 36 37 1.52 35 227 37 263 38 384 39 330 40 329 42 280 43 267 
529 -0.04072281018831953 -0.1092754025818896 0.7480257043337817 154 160 163 1.86 18 412 19 430 20 397 21 429 22 449 23 418 24 369 26 315 36 314 37 264 38 385 42 281 5 8 6 25 7 29 8 30 9 31 10 29 11 28 12 21 13 18 14 18 15 21 16 16 17 19 48 38 49 36 
530 0.7793174509902235 0.08067135296533293 1.340527049818493 86 76 77 1.65 20 398 21 430 22 450 23 419 35 228 37 265 38 386 39 331 40 330 42 282 43 268 
531 0.25271372817272547 -0.03456754367907699 0.9578947067000406 35 32 28 1.21 19 431 20 399 21 431 24 370 26 316 38 387 39 332 40 331 
532 0.8104306680761901 -0.09343324008059711 1.384836581835084 29 24 27 1.67 20 400 21 432 22 451 23 420 35 229 37 266 38 388 39 333 40 332 42 283 43 269 
533 0.47588616967136915 0.24510728704077914 0.7216777633227348 70 61 61 2.0 35 230 36 315 38 389 39 334 40 333 42 284 43 270 
534 0.5625680044523017 -0.07574288648567647 1.2111543676309129 59 54 51 1.42 18 413 21 433 22 452 23 421 24 371 35 231 36 316 37 267 38 390 39 335 40 334 42 285 43 271 
535 0.6432407278438721 0.2845157317135777 0.8760422712972433 81 84 85 2.0 19 432 20 401 21 434 22 453 23 422 35 232 36 317 38 391 39 336 40 335 42 286 43 272 12 22 41 37 
536 0.7826031091784108 0.046480138916803776 1.353067103726481 127 128 124 1.9 18 414 20 402 21 435 22 454 23 423 35 233 37 268 38 392 39 337 40 336 42 287 43 273 
537 0.5687157279529909 0.1770315126555764 1.16147792075373 89 103 111 1.35 18 415 21 436 22 455 23 424 24 372 35 234 36 318 37 269 38 393 39 338 40 337 42 288 43 274 
538 0.625228828340025 0.2717305089510428 1.098107492872253 16 17 19 1.14 35 235 36 319 37 270 38 394 39 339 40 338 
539 0.603753829253785 0.03698397943196885 1.2077432305819529 123 112 103 2.35 18 416 20 403 21 437 22 456 26 317 35 236 36 320 37 271 38 395 39 340 40 339 42 289 43 275 6 26 7 30 8 31 9 32 10 30 41 38 46 35 47 36 48 39 49 37 
540 0.7456107114302493 0.0010315573048164971 1.3385430352257872 143 138 135 1.52 20 404 21 438 22 457 23 425 35 237 37 272 38 396 39 341 40 340 42 290 43 276 
541 0.7998821489313296 0.3011416512620844 1.3000237748963177 100 82 77 2.2 21 439 22 458 35 238 37 273 38 397 39 342 40 341 42 291 43 277 41 39 46 36 47 37 48 40 49 38 
542 0.5553672297447059 0.13103080973635164 1.1416756925605152 14 11 10 1.43 18 417 19 433 21 440 22 459 23 426 24 373 35 239 36 321 37 274 38 398 39 343 40 342 42 292 43 278 
543 0.7681154730121154 0.29200684513636854 1.1616462540965868 40 37 39 1.52 35 240 37 275 38 399 39 344 40 343 42 293 43 279 
544 0.5980472185391721 0.2543754961487771 0.8785172104462537 80 70 68 1.55 18 418 19 434 20 405 21 441 22 460 23 427 24 374 26 318 35 241 36 322 37 276 38 400 39 345 40 344 42 294 43 280 
545 0.6712371489261008 0.17400978083104857 1.223438149041784 118 109 102 2.32 19 435 20 406 22 461 23 428 35 242 36 323 37 277 38 401 39 346 40 345 42 295 43 281 6 27 7 31 8 32 9 33 10 31 41 40 46 37 47 38 48 41 49 39 
546 0.16265969836477784 -0.019248822628455627 0.8578524400443905 32 23 18 3.89 18 419 21 442 22 462 23 429 24 375 26 319 36 324 37 278 38 402 39 347 42 296 43 282 35 243 5 9 6 28 7 32 8 33 9 34 10 32 11 29 12 23 13 19 14 19 15 22 16 17 17 20 41 41 46 38 47 39 48 42 49 40 
547 0.6072196458626866 0.2732004811189036 0.7949036635567464 34 35 39 1.69 35 244 36 325 38 403 39 348 40 346 42 297 
548 -0.045918897043231724 -0.08274157498014699 0.7304727704119286 66 71 80 1.64 18 420 19 436 20 407 21 443 22 463 23 430 24 376 26 320 36 326 37 279 38 404 42 298 
549 0.8532528731205222 0.3265549652268042 1.07657953237916 48 50 32 1.52 35 245 38 405 39 349 40 347 42 299 
550 0.5417392663570666 0.1618356298985365 1.1422139206775763 82 88 94 1.35 18 421 19 437 21 444 22 464 23 431 24 377 26 321 35 246 36 327 37 280 38 406 39 350 40 348 42 300 43 283 
551 0.5243109046783007 0.06631097924404557 1.1302152991818102 92 87 83 1.28 18 422 19 438 21 445 22 465 23 432 24 378 26 322 35 247 36 328 37 281 38 407 39 351 40 349 42 301 43 284 
552 0.7724525847821861 -0.0009856303660879518 1.3580726497531608 158 149 139 1.72 20 408 21 446 22 466 23 433 35 248 37 282 38 408 39 352 40 350 42 302 43 285 
553 0.6052623449106141 -0.038662382959730617 0.986917247771565 151 161 171 1.39 18 423 19 439 20 409 21 447 22 467 23 434 24 379 26 323 35 249 36 329 37 283 38 409 39 353 40 351 42 303 43 286 
554 0.7632056919533511 0.18503252407382753 1.2992869941766771 124 113 106 1.66 18 424 20 410 21 448 22 468 23 435 35 250 37 284 38 410 39 354 40 352 42 304 43 287 
555 0.5478870678434078 0.2577006431769268 0.81411289798731 16 18 24 1.14 36 330 38 411 39 355 
556 0.8282834956362592 0.3204868082656143 1.042206191772435 52 51 43 1.54 35 251 38 412 39 356 40 353 42 305 43 288 
557 0.20453414225616065 0.17538945447931908 0.5638025103067948 136 128 126 2.25 36 331 38 413 39 357 40 354 42 306 43 289 
558 0.7948175590419608 0.1681389676538688 1.3317606190069233 135 123 117 1.42 20 411 21 449 22 469 23 436 35 252 37 285 38 414 39 358 40 355 42 307 43 290 
559 0.6484678822924932 0.2564160418916488 1.1801927561206178 65 54 52 1.53 19 440 20 412 21 450 23 437 24 380 35 253 36 332 37 286 38 415 39 359 40 356 42 308 43 291 
560 0.7707059505969881 0.30919398540685944 1.0159456840222876 36 46 26 1.58 35 254 36 333 38 416 39 360 40 357 42 309 43 292 
561 0.7506223806209729 0.20106816524243823 1.2830476223067895 120 114 114 1.75 18 425 20 413 21 451 22 470 23 438 35 255 37 287 38 417 39 361 40 358 42 310 43 293 
562 0.879367528706227 0.32967837964212526 1.0696634697901857 46 55 31 1.51 35 256 38 418 39 362 40 359 
563 0.5093299646974906 0.2548934010485492 0.7940498256464122 30 23 23 1.62 18 426 19 441 20 414 21 452 22 471 23 439 24 381 26 324 35 257 36 334 38 419 39 363 40 360 42 311 43 294 
564 0.6148052244442996 0.28004695032239235 0.8159530773179128 88 81 80 1.72 19 442 20 415 21 453 22 472 23 440 35 258 36 335 38 420 39 364 40 361 42 312 43 295 26 325 
565 0.3849737554752608 0.22537810965755775 0.6377854121896773 47 43 45 2.24 36 336 38 421 39 365 40 362 42 313 43 296 
566 0.731695097060264 0.16009587639254655 1.2799875463280448 23 16 15 1.85 19 443 21 454 22 473 23 441 35 259 37 288 38 422 39 366 40 363 42 314 43 297 
567 0.6982518158909281 0.29827737990532827 0.8825242158044798 88 85 87 1.49 19 444 35 260 36 337 38 423 39 367 40 364 42 315 43 298 
568 0.578337049204247 0.07872747453225673 1.1755652788661701 114 106 100 2.12 18 427 20 416 21 455 22 474 23 442 35 261 36 338 37 289 38 424 39 368 40 365 42 316 43 299 6 29 7 33 8 34 9 35 10 33 11 30 17 21 41 42 46 39 47 40 48 43 49 41 
569 0.43868259363524414 -0.14194482770245648 0.8696811996834826 94 107 117 1.34 18 428 19 445 20 417 21 456 22 475 23 443 24 382 26 326 36 339 37 290 38 425 39 369 40 366 42 317 43 300 
570 0.19348249805982176 -0.18060150229946323 0.6886948692046445 136 137 136 1.44 18 429 19 446 20 418 21 457 22 476 23 444 24 383 26 327 38 426 39 370 40 367 42 318 43 301 
571 0.7268090466815322 0.257305510549635 0.9072682122075346 23 26 21 1.7 19 447 35 262 36 340 37 291 38 427 39 371 40 368 42 319 43 302 
572 0.5305849605820203 0.26349743572444073 0.7863899651919759 93 81 79 1.9 18 430 20 419 35 263 36 341 38 428 39 372 40 369 42 320 43 303 
573 0.775673793635011 -0.053168271704240724 1.3741679664755213 105 99 100 1.51 20 420 21 458 22 477 23 445 35 264 37 292 38 429 39 373 40 370 42 321 43 304 
574 0.57845921919725 0.2463245056282955 1.0086594269281024 27 26 30 1.66 35 265 36 342 37 293 38 430 39 374 40 371 42 322 43 305 
575 0.5145839875155207 -0.12494963857206963 1.152345397018226 39 35 31 1.33 18 431 22 478 23 446 24 384 35 266 36 343 37 294 38 431 39 375 40 372 42 323 43 306 
576 0.3835608841247584 -0.34971297723513606 0.8762672859141423 96 99 101 1.82 18 432 19 448 20 421 21 459 22 479 23 447 37 295 38 432 39 376 40 373 42 324 43 307 
577 0.39601061805941784 0.07859428402746092 1.0202164320174238 59 48 43 1.4 20 422 21 460 22 480 23 448 35 267 36 344 37 296 38 433 40 374 42 325 43 308 
578 0.6161981308116673 0.015624386929331779 1.2185934731149062 120 113 106 1.69 20 423 21 461 24 385 26 328 35 268 36 345 37 297 38 434 39 377 40 375 42 326 43 309 
579 0.796960570326374 0.20653782331163612 1.3231189870369644 139 129 124 1.46 20 424 21 462 22 481 23 449 35 269 37 298 38 435 39 378 40 376 42 327 43 310 
580 0.5025186705160664 0.24911724644375788 0.8118461017842056 42 36 33 2.4 18 433 19 449 20 425 21 463 22 482 24 386 26 329 35 270 36 346 38 436 39 379 40 377 42 328 43 311 11 31 12 24 13 20 14 20 16 18 17 22 41 43 
581 0.7926695270967545 0.15895055439053557 1.3339264854118054 125 115 112 3.76 20 426 21 464 22 483 23 450 35 271 37 299 38 437 39 380 40 378 42 329 43 312 6 30 7 34 8 35 46 40 47 41 48 44 49 42 
582 0.33722535150126676 -0.15631943693352057 0.7943893496370148 150 152 150 3.03 18 434 19 450 20 427 21 465 22 484 23 451 24 387 26 330 36 347 37 300 38 438 39 381 40 379 42 330 43 313 6 31 7 35 8 36 9 36 10 34 11 32 12 25 13 21 14 21 15 23 16 19 17 23 41 44 46 41 47 42 48 45 49 43 
583 0.5880449177041959 -0.11292112758211381 0.9823792166694186 59 52 48 2.39 18 435 19 451 20 428 21 466 22 485 23 452 24 388 26 331 35 272 36 348 37 301 38 439 39 382 40 380 42 331 43 314 7 36 8 37 9 37 10 35 11 33 12 26 13 22 14 22 15 24 16 20 17 24 41 45 46 42 47 43 48 46 49 44 
584 0.7899837851021252 0.30128573444542944 1.2833452841047353 107 94 90 3.32 21 467 22 486 23 453 35 273 37 302 38 440 39 383 40 381 42 332 43 315 41 46 46 43 47 44 48 47 49 45 
585 0.740315578405414 0.061842509173727626 1.3177035204673004 155 147 139 1.77 18 436 21 468 22 487 23 454 35 274 37 303 38 441 39 384 40 382 42 333 43 316 
586 0.5482222616894723 -0.08010372305294808 1.1983099487329432 34 28 25 1.3 18 437 21 469 22 488 23 455 24 389 35 275 36 349 37 304 38 442 39 385 40 383 42 334 43 317 
587 0.6751959397128505 0.10181611946420309 1.2501614338953517 119 106 100 1.49 19 452 20 429 22 489 23 456 24 390 35 276 36 350 37 305 38 443 39 386 40 384 42 335 43 318 
588 0.7660947164543084 -0.05784798232718756 1.368130189962137 105 104 101 1.62 20 430 21 470 22 490 23 457 35 277 37 306 38 444 39 387 40 385 42 336 43 319 
589 0.6166176276350908 -0.11505625715825024 1.013830028177972 120 133 142 1.38 18 438 19 453 20 431 21 471 22 491 23 458 24 391 26 332 35 278 36 351 37 307 38 445 39 388 40 386 42 337 43 320 
590 0.7870794936333767 0.27526556686620557 1.2931041098896692 97 80 77 1.72 21 472 22 492 23 459 35 279 37 308 38 446 39 389 40 387 42 338 43 321 
591 0.5832561325308034 -0.02307536541120904 1.209033663631953 128 140 150 2.63 18 439 20 432 21 473 22 493 23 460 26 333 35 280 36 352 37 309 38 447 39 390 40 388 42 339 43 322 5 10 6 32 7 37 9 38 10 36 41 47 46 44 47 45 48 48 49 46 
592 0.6596918996268502 0.09788336842617018 1.2353533615047365 132 121 112 1.5 19 454 20 433 23 461 24 392 35 281 36 353 37 310 38 448 39 391 40 389 42 340 43 323 
593 0.6436546471371568 0.2750084806456125 0.9092389204284144 42 51 51 1.44 18 440 19 455 20 434 21 474 22 494 23 462 35 282 36 354 38 449 39 392 40 390 
594 0.6392168071102495 0.264359972974047 0.9126649180254377 71 88 83 1.46 18 441 19 456 20 435 21 475 22 495 23 463 35 283 36 355 37 311 38 450 39 393 40 391 
595 0.71903021778554 0.11471932816499537 1.2824995837627138 78 69 69 1.63 19 457 21 476 22 496 23 464 35 284 37 312 38 451 39 394 40 392 42 341 43 324 
596 0.19010097553143568 0.20476024556341269 0.534001742940944 51 47 45 2.32 36 356 38 452 39 395 40 393 42 342 43 325 
597 0.768281789792741 0.01312456789901061 1.3536728845317507 141 133 125 1.65 20 436 21 477 22 497 23 465 35 285 37 313 38 453 39 396 40 394 42 343 43 326 
598 0.7825907357203958 0.2831218202396536 1.2845875696833078 97 96 95 1.63 21 478 22 498 23 466 35 286 37 314 38 454 39 397 40 395 42 344 43 327 
599 0.15041412758605738 0.19058873664407397 0.8049215391743638 75 64 60 1.52 22 499 23 467 24 393 26 334 35 287 36 357 37 315 38 455 39 398 42 345 43 328 
600 0.6277512815735042 0.009737235176706199 1.2297082228297391 109 98 91 1.52 19 458 20 437 21 479 24 394 26 335 35 288 36 358 37 316 38 456 39 399 40 396 42 346 43 329 
601 -0.0483611930982222 -0.1925000947272755 0.7448371666300013 106 71 59 1.7 18 442 19 459 20 438 21 480 22 500 23 468 24 395 26 336 36 359 37 317 38 457 39 400 42 347 43 330 
602 0.7842927798468051 -0.003936699747455488 1.3704950257168285 154 144 138 1.43 20 439 21 481 22 501 23 469 35 289 37 318 38 458 39 401 40 397 42 348 43 331 
603 0.7226275346804418 0.03747733840247015 1.3180846260614067 66 43 44 1.58 19 460 21 482 22 502 23 470 35 290 37 319 38 459 39 402 40 398 42 349 43 332 
604 0.7077924891942383 0.3075217939759231 0.8788904879780721 31 30 29 1.36 19 461 35 291 36 360 40 399 
605 0.5868141530501024 0.2402188436229798 0.9898511884058754 51 45 49 1.07 35 292 36 361 37 320 38 460 39 403 
606 0.5610322522251926 -0.08684840217856407 1.0779900315002366 124 133 136 1.45 20 440 21 483 22 503 23 471 24 396 35 293 36 362 37 321 38 461 39 404 40 400 42 350 43 333 
607 0.6464266220476368 0.28630299280031607 0.7818834902148027 59 52 47 1.25 22 504 23 472 35 294 36 363 40 401 
608 -0.008601701470347837 -0.05041187999444085 0.7478737835546461 182 188 196 1.55 18 443 19 462 20 441 21 484 22 505 23 473 24 397 26 337 36 364 37 322 38 462 40 402 42 351 
609 0.5396266401418316 0.016035232118376458 1.183281448441558 124 142 155 1.56 18 444 19 463 21 485 22 506 23 474 24 398 26 338 35 295 36 365 37 323 38 463 39 405 40 403 42 352 43 334 
610 0.37131793599177687 0.22299935995080059 0.6361864367317162 44 38 37 2.17 36 366 38 464 39 406 40 404 42 353 43 335 
611 0.6241078495904292 -0.10263229472297512 1.017665013852913 175 195 205 1.38 18 445 19 464 20 442 21 486 22 507 23 475 24 399 26 339 35 296 36 367 37 324 38 465 39 407 40 405 42 354 43 336 
612 0.6457915935712082 0.28665412268092955 0.8746039487865954 82 77 77 1.61 19 465 20 443 21 487 22 508 23 476 35 297 36 368 38 466 39 408 40 406 42 355 43 337 
613 0.6398030716995217 0.16346192154745923 1.19586159865376 129 123 119 2.39 20 444 21 488 23 477 24 400 35 298 36 369 37 325 38 467 39 409 40 407 42 356 43 338 6 33 7 38 8 38 10 37 19 466 41 48 46 45 47 46 48 49 49 47 
614 0.5235964763582118 -0.12087391568803156 1.1667911315778103 25 25 25 2.88 18 446 19 467 21 489 22 509 23 478 24 401 35 299 36 370 37 326 38 468 39 410 40 408 42 357 43 339 9 39 10 38 11 34 41 49 46 46 47 47 48 50 49 48 
615 0.5018254318012637 0.2584693452813831 0.6695187721016244 66 57 49 1.66 20 445 21 490 22 510 23 479 24 402 26 340 35 300 36 371 38 469 39 411 40 409 42 358 43 340 
616 0.16799792384424903 -0.01401515373910288 0.8574767807855989 41 31 23 1.5 18 447 19 468 20 446 21 491 22 511 23 480 24 403 26 341 35 301 36 372 37 327 38 470 39 412 42 359 43 341 
617 0.6363591022777256 0.28880672556673104 0.8386609744364649 110 105 105 1.76 19 469 20 447 21 492 22 512 23 481 35 302 36 373 38 471 39 413 40 410 42 360 43 342 41 50 46 47 
618 0.6003351261898374 -0.0025946425277935605 1.2146662474769063 110 96 89 1.36 20 448 21 493 22 513 26 342 35 303 36 374 37 328 38 472 39 414 40 411 42 361 43 343 
619 0.3926749225385008 0.15309960776834514 1.0031646788484632 61 56 61 1.3 18 448 20 449 21 494 22 514 23 482 24 404 35 304 36 375 37 329 38 473 40 412 42 362 43 344 
620 0.6877827057220991 0.25565091421162883 1.2356944160860521 128 147 158 2.25 20 450 22 515 23 483 35 305 36 376 37 330 38 474 39 415 40 413 42 363 43 345 19 470 41 51 46 48 47 48 48 51 49 49 
621 0.5099493817710837 0.07934760514547505 1.0959046271313508 86 72 69 1.34 18 449 19 471 20 451 21 495 22 516 23 484 24 405 26 343 35 306 36 377 37 331 38 475 39 416 40 414 42 364 43 346 
622 0.5852529306435714 0.002406121962004003 1.2042525822774524 62 55 55 1.43 20 452 21 496 22 517 23 485 26 344 35 307 36 378 37 332 38 476 39 417 40 415 42 365 43 347 
623 0.6783644794152889 0.28031594444780705 1.1997069332097916 61 44 46 2.6 22 518 23 486 35 308 36 379 37 333 38 477 39 418 40 416 42 366 43 348 6 34 41 52 46 49 47 49 48 52 49 50 
624 0.4901472758892375 0.19897685302717005 0.8516876479796855 0 1 2 2.1 20 453 21 497 22 519 23 487 24 406 35 309 36 380 37 334 38 478 39 419 40 417 42 367 43 349 10 39 11 35 17 25 19 472 41 53 12 27 13 23 14 23 18 450 46 50 48 53 
625 0.606091001654542 -0.019742201986365737 0.9772753139372036 168 177 183 1.42 18 451 19 473 20 454 21 498 22 520 23 488 24 407 26 345 35 310 36 381 37 335 38 479 39 420 40 418 42 368 43 350 
626 0.48313078271796095 0.2007380690330889 0.8271869543375325 69 78 89 1.54 18 452 19 474 20 455 21 499 22 521 23 489 24 408 26 346 35 311 36 382 37 336 38 480 39 421 40 419 42 369 43 351 
627 0.2878438697865324 -0.14084778431049363 0.7520058707620767 95 87 82 1.46 18 453 19 475 20 456 21 500 22 522 23 490 24 409 26 347 35 312 36 383 37 337 38 481 39 422 40 420 42 370 43 352 
628 0.5202336752517126 0.3050639694165792 1.043326218985481 29 30 34 2.71 23 491 24 410 26 348 35 313 36 384 37 338 42 371 43 353 6 35 41 54 48 54 49 51 
629 0.5610423850706009 0.20946013577424352 0.9161302783887666 114 123 131 1.01 35 314 36 385 37 339 38 482 
630 0.5915565494110255 0.18912560559642996 1.1543645024838538 38 31 31 1.53 18 454 20 457 21 501 22 523 23 492 26 349 35 315 36 386 37 340 38 483 39 423 40 421 42 372 43 354 
631 0.5951936706343742 -0.08685336107963759 0.9899094949326771 73 68 66 2.98 18 455 19 476 20 458 21 502 22 524 23 493 24 411 26 350 35 316 36 387 37 341 38 484 39 424 40 422 42 373 43 355 4 2 7 39 8 39 9 40 10 40 11 36 12 28 13 24 14 24 15 25 16 21 17 26 41 55 46 51 47 50 48 55 49 52 
632 0.6830660710771679 0.01928421190174746 1.2926538245286623 42 50 51 2.34 20 459 22 525 23 494 24 412 35 317 36 388 37 342 38 485 39 425 40 423 42 374 43 356 6 36 10 41 41 56 46 52 47 51 48 56 49 53 
633 0.6892979846670138 0.23300343482622854 1.24168280986361 147 160 176 1.57 20 460 22 526 23 495 35 318 36 389 37 343 38 486 39 426 40 424 42 375 43 357 
634 0.6810256381729486 0.2081549120445044 1.2419994943863708 107 119 131 2.82 22 527 23 496 35 319 36 390 37 344 38 487 39 427 40 425 42 376 43 358 19 477 20 461 41 57 46 53 47 52 48 57 49 54 
635 0.5507399413955774 0.080439151627954 1.1500706988858778 98 94 93 1.51 18 456 19 478 20 462 21 503 22 528 23 497 24 413 35 320 36 391 37 345 38 488 39 428 40 426 42 377 43 359 
636 0.5903997721075216 0.05838511260762697 1.1883523484218155 82 66 64 1.31 20 463 21 504 22 529 23 498 26 351 35 321 36 392 37 346 38 489 39 429 40 427 42 378 43 360 
637 -0.04379189540252668 0.05691533285835384 0.6918890526064103 65 65 64 1.47 18 457 19 479 20 464 21 505 22 530 23 499 24 414 26 352 36 393 37 347 38 490 42 379 
638 0.16723520824926733 0.04372122979596639 0.8413441944752645 108 91 73 1.64 18 458 21 506 22 531 23 500 24 415 26 353 35 322 36 394 37 348 38 491 39 430 42 380 43 361 
639 0.5262792464004217 0.08489123181891636 1.1267519019831018 104 97 92 1.22 18 459 19 480 21 507 22 532 23 501 24 416 26 354 35 323 36 395 37 349 38 492 39 431 40 428 42 381 43 362 
640 0.4358955806186624 -0.1165806231249901 0.8685103795970692 110 123 130 2.63 18 460 19 481 20 465 21 508 22 533 23 502 24 417 26 355 35 324 36 396 37 350 38 493 39 432 40 429 42 382 43 363 7 40 8 40 9 41 10 42 11 37 12 29 13 25 14 25 15 26 16 22 17 27 41 58 46 54 47 53 48 58 49 55 
641 0.18093856866238092 0.041209137776679984 0.6428578116855594 113 112 109 2.12 18 461 19 482 20 466 21 509 22 534 23 503 24 418 26 356 36 397 38 494 39 433 40 430 42 383 43 364 
642 0.3887789415209041 -0.034704488361023154 1.0524422549841286 48 42 38 3.04 18 462 20 467 21 510 22 535 23 504 24 419 35 325 36 398 37 351 38 495 40 431 42 384 43 365 6 37 7 41 8 41 9 42 10 43 11 38 12 30 14 26 41 59 46 55 47 54 48 59 49 56 
643 0.7088720306519196 0.26837660967924587 1.0903903818951999 28 27 31 4.08 22 536 23 505 35 326 36 399 37 352 38 496 39 434 40 432 42 385 43 366 20 468 21 511 41 60 46 56 47 55 48 60 49 57 
644 0.4676970704961749 -0.12389870405590114 0.8893550330116349 139 148 152 1.47 18 463 19 483 20 469 21 512 22 537 23 506 24 420 26 357 35 327 36 400 37 353 38 497 39 435 40 433 42 386 43 367 
645 0.5377327533453307 0.11612605214950218 1.1281977148078108 114 111 111 1.28 18 464 19 484 21 513 22 538 23 507 24 421 26 358 35 328 36 401 37 354 38 498 39 436 40 434 42 387 43 368 
646 0.5889440581773926 -0.022561031582446087 0.9704958749766232 171 174 167 1.43 18 465 19 485 20 470 21 514 22 539 23 508 24 422 26 359 35 329 36 402 37 355 38 499 39 437 40 435 42 388 43 369 
647 0.4517767277557489 0.2436161746636857 0.7475340727694509 103 94 91 1.95 35 330 36 403 38 500 39 438 40 436 42 389 43 370 
648 -0.03612581833865838 0.06025411411878892 0.7037033234196889 108 114 113 1.92 18 466 19 486 20 471 21 515 22 540 23 509 24 423 26 360 36 404 37 356 38 501 40 437 42 390 5 11 6 38 7 42 8 42 9 43 10 44 11 39 12 31 13 26 14 27 15 27 16 23 17 28 41 61 43 371 48 61 49 58 
649 0.6067214059362257 -0.027855472775074375 1.0082829263292747 41 36 39 1.3 18 467 19 487 20 472 21 516 22 541 23 510 24 424 26 361 35 331 36 405 37 357 38 502 39 439 40 438 42 391 43 372 
650 0.11980971583784344 0.07304421449407121 0.8242330781174497 69 82 85 1.67 18 468 19 488 20 473 22 542 23 511 24 425 26 362 35 332 36 406 37 358 38 503 39 440 42 392 43 373 
651 0.6743534098509316 0.2631958932658176 1.198278118603766 128 120 116 1.57 19 489 20 474 22 543 23 512 35 333 36 407 37 359 38 504 39 441 40 439 42 393 43 374 
652 0.3538537730062417 0.02072931740874384 1.0021674688195168 73 59 47 2.59 18 469 19 490 21 517 22 544 23 513 24 426 26 363 35 334 36 408 37 360 38 505 39 442 42 394 43 375 5 12 6 39 7 43 8 43 9 44 10 45 11 40 12 32 13 27 14 28 17 29 46 57 47 56 48 62 49 59 
653 0.1829979324232313 0.20156684113759757 0.5199581219490849 30 25 25 2.73 36 409 38 506 40 440 42 395 43 376 
654 0.5757512277043679 0.03610262744063346 1.1964087360409894 138 169 179 2.53 20 475 21 518 22 545 23 514 35 335 36 410 37 361 38 507 39 443 40 441 42 396 43 377 6 40 7 44 8 44 9 45 10 46 11 41 17 30 41 62 46 58 47 57 48 63 49 60 
655 0.6821106418212617 0.2965355795037877 0.9089037578794763 51 51 53 1.77 19 491 20 476 21 519 22 546 23 515 35 336 36 411 38 508 39 444 40 442 11 42 12 33 48 64 
656 0.4700106002907454 0.026304131324647016 0.8763029661450834 88 89 89 2.2 19 492 20 477 21 520 22 547 23 516 24 427 26 364 35 337 36 412 37 362 38 509 39 445 40 443 42 397 43 378 7 45 8 45 9 46 10 47 11 43 12 34 13 28 14 29 15 28 16 24 17 31 18 470 41 63 46 59 47 58 48 65 49 61 
657 0.5843860893976361 0.2383520448493219 1.142851430350624 66 77 81 1.63 18 471 20 478 21 521 22 548 23 517 35 338 36 413 37 363 38 510 39 446 40 444 42 398 43 379 6 41 7 46 8 46 9 47 10 48 41 64 46 60 47 59 48 66 49 62 17 32 
658 0.2089858703979679 0.20657875241489393 0.5406008252745834 81 70 67 6.29 36 414 38 511 39 447 40 445 42 399 43 380 15 29 16 25 17 33 18 472 19 493 20 479 21 522 22 549 23 518 26 365 41 65 46 61 
659 -0.044547347366869064 -0.046367940219788316 0.7034431418885266 76 65 56 2.57 18 473 19 494 20 480 21 523 22 550 23 519 24 428 26 366 36 415 37 364 38 512 39 448 42 400 43 381 5 13 6 42 7 47 8 47 9 48 10 49 11 44 12 35 13 29 14 30 15 30 16 26 17 34 48 67 49 63 
660 0.3359880586941172 -0.1413250163000504 0.8217238721526061 54 44 37 1.46 18 474 19 495 20 481 21 524 22 551 23 520 24 429 26 367 36 416 37 365 38 513 39 449 40 446 42 401 43 382 
661 0.5035879095317985 -0.013401408103728722 1.116620837908593 93 86 80 1.37 18 475 19 496 21 525 22 552 23 521 24 430 26 368 35 339 36 417 37 366 38 514 39 450 40 447 42 402 43 383 
662 0.5609515123392534 0.22165170237280707 0.7332161547139031 25 28 34 2.56 22 553 26 369 35 340 36 418 38 515 39 451 40 448 42 403 9 49 23 522 41 66 43 384 47 60 
663 0.6379419232957225 0.2668254232450513 0.9288602742247102 103 118 121 1.07 20 482 21 526 22 554 23 523 35 341 36 419 37 367 38 516 39 452 
664 0.6121583882821996 0.04986056984372112 0.9863063074299908 86 78 77 1.38 19 497 20 483 21 527 22 555 23 524 24 431 26 370 35 342 36 420 37 368 38 517 39 453 40 449 42 404 43 385 
665 0.011302406180266279 0.033651771270967835 0.7371867436518316 26 23 28 1.75 18 476 19 498 20 484 21 528 22 556 23 525 24 432 36 421 37 369 39 454 40 450 42 405 5 14 6 43 7 48 8 48 9 50 10 50 11 45 12 36 13 30 14 31 15 31 16 27 17 35 41 67 47 61 48 68 49 64 
666 0.6829788445615453 -0.05103296593840518 1.3131990861811365 71 86 96 1.49 22 557 23 526 24 433 35 343 36 422 37 370 38 518 39 455 40 451 42 406 43 386 
667 0.13657253003262892 0.16143449018994593 0.4985365295923593 80 85 87 1.92 22 558 23 527 24 434 26 371 36 423 40 452 42 407 43 387 
668 0.6135642382097152 -0.08440121963864271 1.0032831057710168 50 48 47 1.39 18 477 19 499 20 485 21 529 22 559 23 528 24 435 26 372 35 344 36 424 37 371 38 519 39 456 40 453 42 408 43 388 
669 0.10550359033337324 0.13079168523668985 0.7762608918347331 24 15 14 2.81 18 478 23 529 24 436 26 373 36 425 37 372 38 520 39 457 40 454 5 15 6 44 7 49 8 49 10 51 11 46 12 37 13 31 14 32 15 32 16 28 17 36 19 500 47 62 48 69 49 65 
670 0.395790370658018 0.017574690138225272 1.0446433007709623 80 83 87 2.62 20 486 21 530 22 560 23 530 24 437 35 345 36 426 37 373 38 521 40 455 42 409 43 389 6 45 7 50 8 50 9 51 10 52 11 47 12 38 13 32 17 37 26 374 41 68 46 62 47 63 48 70 49 66 39 458 14 33 
671 -0.037886212601825495 -0.10529972610221526 0.7459288097652991 97 112 126 1.4 18 479 19 501 20 487 21 531 22 561 23 531 24 438 26 375 36 427 37 374 38 522 42 410 
672 0.6179743365308203 -0.07950360333846575 1.2510147420647129 117 109 102 2.94 20 488 21 532 24 439 35 346 36 428 37 375 38 523 39 459 40 456 42 411 43 390 10 53 41 69 46 63 47 64 48 71 49 67 
673 0.6740677375843805 0.2934685589794887 0.8619584328012004 113 110 110 1.72 19 502 20 489 21 533 22 562 23 532 35 347 36 429 38 524 39 460 40 457 42 412 43 391 
674 -0.1856573288031168 0.1364299441714706 0.5398185756758243 93 93 88 6.31 24 440 26 376 36 430 38 525 40 458 5 16 7 51 8 51 9 52 10 54 11 48 12 39 13 33 15 33 17 38 18 480 19 503 20 490 21 534 23 533 41 70 
675 0.6387485938487412 0.11752859520546698 1.2099240931118793 138 132 128 2.51 20 491 21 535 23 534 24 441 26 377 35 348 36 431 37 376 38 526 39 461 40 459 42 413 43 392 6 46 7 52 8 52 9 53 10 55 41 71 46 64 47 65 48 72 49 68 
676 0.025277675889287185 0.06743860965893211 0.7242282816072549 148 139 123 1.8 36 432 37 377 38 527 40 460 42 414 
677 0.32686166326687305 -0.1285704205177084 0.8245583733591442 49 39 30 1.89 18 481 19 504 20 492 21 536 22 563 23 535 24 442 26 378 36 433 37 378 38 528 39 462 40 461 42 415 43 393 
678 0.09446029578206364 -0.11108660166231085 0.8492772761674204 44 34 27 1.16 18 482 19 505 20 493 23 536 24 443 26 379 36 434 37 379 38 529 39 463 40 462 43 394 
679 0.6696793677148399 -0.031407731431686674 1.2871139334775883 143 172 191 1.66 19 506 20 494 22 564 23 537 24 444 35 349 36 435 37 380 38 530 39 464 40 463 42 416 43 395 
680 0.6757016285379399 0.1503455950941065 1.2336637763609204 79 68 68 2.02 20 495 22 565 23 538 35 350 36 436 37 381 38 531 39 465 40 464 42 417 43 396 6 47 7 53 8 53 9 54 10 56 19 507 41 72 46 65 47 66 48 73 49 69 
681 -0.1909705600477148 0.01488077635647159 0.586338546395625 13 9 7 1.8 21 537 22 566 23 539 24 445 26 380 36 437 38 532 40 465 
682 -0.04366472398402396 0.08125270458247853 0.6845093282777897 62 56 56 1.58 18 483 19 508 20 496 21 538 22 567 23 540 24 446 26 381 36 438 37 382 38 533 42 418 
683 0.5726001338488343 0.05948635118805528 1.1701659852330764 26 22 19 1.38 18 484 20 497 21 539 22 568 23 541 24 447 35 351 36 439 37 383 38 534 39 466 40 466 42 419 43 397 
684 0.6871311154836774 0.01966485020734737 1.2980723279619732 51 55 57 1.22 22 569 23 542 35 352 36 440 37 384 38 535 39 467 40 467 42 420 43 398 
685 0.64551558962535 0.2947356209153919 0.9161816655538908 60 62 68 2.83 19 509 21 540 22 570 23 543 35 353 36 441 38 536 39 468 40 468 11 49 12 40 13 34 18 485 48 74 
686 0.6377416448934866 0.2748819630764031 0.9472845273270972 95 90 93 1.05 35 354 36 442 37 385 38 537 
687 -0.03734915757677993 0.08158711482151879 0.6965161602561876 115 122 120 1.94 18 486 19 510 20 498 21 541 22 571 23 544 24 448 26 382 36 443 37 386 38 538 40 469 42 421 5 17 6 48 7 54 8 54 9 55 10 57 11 50 12 41 13 35 14 34 15 34 16 29 17 39 43 399 48 75 49 70 
688 0.6358174181073244 0.2538188584110508 0.7933128536142939 114 102 101 2.57 35 355 36 444 38 539 39 469 40 470 42 422 43 400 9 56 22 572 23 545 41 73 46 66 47 67 
689 0.6637220911157281 0.07973618591045577 1.2429055083396743 156 146 136 1.47 19 511 20 499 22 573 23 546 24 449 35 356 36 445 37 387 38 540 39 470 40 471 42 423 43 401 
690 0.5123656469762278 -0.0654447189759934 1.1404821083204977 56 52 54 3.2 18 487 19 512 21 542 22 574 23 547 24 450 26 383 35 357 36 446 37 388 38 541 39 471 40 472 42 424 43 402 5 18 6 49 7 55 8 55 9 57 10 58 11 51 41 74 46 67 47 68 48 76 49 71 
691 0.2976572064511055 -0.13821678357747474 0.7606295960133277 91 93 91 1.43 18 488 19 513 20 500 21 543 22 575 23 548 24 451 26 384 35 358 36 447 37 389 38 542 39 472 40 473 42 425 43 403 
692 0.40741138137556077 0.20971864496163067 1.0116720357447466 79 96 101 1.59 18 489 20 501 21 544 22 576 23 549 26 385 35 359 36 448 37 390 39 473 40 474 42 426 43 404 
693 0.6393305040797073 0.23168957580896182 0.7978495057514036 43 41 46 2.42 35 360 36 449 38 543 39 474 40 475 42 427 43 405 8 56 9 58 41 75 46 68 47 69 
694 0.7687518612788735 0.3260774343332706 0.9553982901743997 73 65 64 2.27 19 514 35 361 36 450 9 59 41 76 
695 0.616396184486357 0.258896267098902 0.6713834752740748 83 63 60 1.95 22 577 36 451 40 476 41 77 
696 0.559994283064093 0.16355102572942054 1.1564334814823927 107 119 132 1.49 18 490 19 515 21 545 22 578 23 550 24 452 35 362 36 452 37 391 38 544 39 475 40 477 42 428 43 406 
697 0.0022531115808635573 -0.0477367672392686 0.7531767514157993 125 110 97 1.56 18 491 19 516 20 502 21 546 22 579 23 551 24 453 35 363 36 453 37 392 38 545 40 478 42 429 
698 0.6122557840180869 0.017163417621851498 1.2193292762826182 115 114 110 1.47 20 503 21 547 22 580 26 386 35 364 36 454 37 393 38 546 39 476 40 479 42 430 43 407 
699 0.7206509050827956 -0.052420471344855966 1.3366122675541756 22 19 21 1.61 21 548 22 581 23 552 35 365 36 455 37 394 38 547 39 477 40 480 42 431 43 408 
700 0.15392711640449014 -0.09702143554129472 0.878883037746683 32 26 21 5.57 18 492 21 549 22 582 23 553 24 454 26 387 36 456 37 395 38 548 39 478 42 432 43 409 19 517 35 366 6 50 7 56 8 57 9 60 10 59 11 52 12 42 13 36 14 35 47 70 48 77 49 72 
701 0.5410058026010637 -0.07584294851499675 1.2013691890356433 54 64 67 1.63 18 493 19 518 21 550 22 583 23 554 24 455 35 367 36 457 37 396 38 549 39 479 40 481 42 433 43 410 
702 0.7285160402970701 0.29600397732827993 1.101045297946531 71 67 64 1.4 35 368 36 458 37 397 38 550 39 480 40 482 42 434 43 411 
703 -0.013766521498311098 -0.09927423962003404 0.7672646096439386 99 85 74 1.59 22 584 23 555 24 456 26 388 35 369 36 459 37 398 38 551 39 481 40 483 
704 0.6805777466665512 0.184197478178293 1.2467974650614435 98 110 124 1.7 20 504 22 585 23 556 35 370 36 460 37 399 38 552 39 482 40 484 42 435 43 412 
705 0.5917638840063711 0.1350272060870088 1.1669047932180519 81 86 85 1.51 18 494 20 505 21 551 22 586 23 557 26 389 35 371 36 461 37 400 38 553 39 483 40 485 42 436 43 413 
706 -0.04097085970924756 -0.058571896048046086 0.7214667932158512 102 101 105 1.49 18 495 19 519 20 506 21 552 22 587 23 558 24 457 26 390 36 462 37 401 38 554 39 484 42 437 
707 0.3865183358624586 0.029423700764392494 1.0212379231319473 63 49 39 1.35 18 496 20 507 21 553 22 588 23 559 24 458 35 372 36 463 37 402 38 555 42 438 43 414 
708 0.15761484909244758 0.08905856561313594 0.8272866350646925 80 92 91 3.19 18 497 21 554 22 589 23 560 24 459 26 391 35 373 36 464 37 403 38 556 39 485 42 439 43 415 5 19 6 51 7 57 8 58 9 61 10 60 11 53 12 43 13 37 14 36 15 35 16 30 17 40 41 78 46 69 47 71 48 78 49 73 
709 0.6671492232013108 0.07592570733917305 1.2477985933795064 144 133 124 1.53 20 508 22 590 23 561 24 460 35 374 36 465 37 404 38 557 39 486 40 486 42 440 43 416 
710 0.7501922437769015 0.3011494772405962 1.0196014985380706 35 32 33 1.44 35 375 36 466 38 558 39 487 40 487 42 441 43 417 
711 0.6248781218475772 0.2659934907415115 1.1549053653808772 113 103 98 1.58 20 509 21 555 35 376 36 467 37 405 38 559 39 488 40 488 42 442 43 418 
712 0.6705431707901146 -0.008751974045450577 1.2806538449912792 129 157 174 1.88 20 510 22 591 23 562 24 461 35 377 36 468 37 406 38 560 39 489 40 489 42 443 43 419 10 61 
713 0.6739811173050616 0.2168869512604299 1.2079987851146121 115 106 102 1.56 19 520 20 511 22 592 23 563 35 378 36 469 37 407 38 561 39 490 40 490 42 444 43 420 
714 0.509972748834758 0.2592768084731547 0.8057108740580977 68 64 68 1.86 18 498 19 521 20 512 21 556 23 564 24 462 26 392 35 379 36 470 38 562 39 491 40 491 42 445 43 421 
715 0.4904466960164622 0.24449378389306098 0.8325027093666738 52 41 35 1.67 26 393 35 380 36 471 37 408 38 563 39 492 40 492 42 446 43 422 
716 0.4888947966740117 -0.061665538425418845 1.123067178375977 39 30 22 2.64 18 499 19 522 22 593 23 565 24 463 26 394 36 472 37 409 38 564 39 493 40 493 42 447 43 423 6 52 7 58 9 62 10 62 11 54 15 36 35 381 41 79 46 70 47 72 48 79 49 74 
717 0.6389904229167135 0.26647493282241475 0.7898106757458897 70 65 68 1.94 35 382 36 473 38 565 39 494 40 494 42 448 43 424 
718 0.5857419619960613 0.05280481728083822 1.187748240267806 81 80 87 1.36 20 513 21 557 22 594 23 566 26 395 35 383 36 474 37 410 38 566 39 495 40 495 42 449 43 425 
719 0.11649427910965701 0.15712547078404857 0.7972218735898103 99 103 105 1.83 18 500 19 523 20 514 22 595 23 567 24 464 26 396 35 384 36 475 37 411 38 567 39 496 42 450 43 426 
720 0.46903388564813137 -0.1094163207811318 0.8924037607843126 57 55 55 3.35 18 501 19 524 20 515 21 558 22 596 23 568 24 465 26 397 35 385 36 476 37 412 38 568 39 497 40 496 42 451 43 427 7 59 8 59 9 63 10 63 11 55 12 44 13 38 14 37 15 37 16 31 17 41 41 80 46 71 47 73 48 80 49 75 
721 0.09986720779057628 -0.08407896836603508 0.8505174706578289 42 39 36 1.89 18 502 19 525 20 516 23 569 24 466 26 398 36 477 37 413 38 569 39 498 40 497 42 452 43 428 6 53 7 60 8 60 9 64 10 64 11 56 12 45 13 39 14 38 15 38 16 32 17 42 22 597 47 74 48 81 49 76 
722 -0.013964880250544738 -0.1004029243092017 0.7763214274061774 24 19 20 1.38 23 570 24 467 35 386 36 478 37 414 38 570 39 499 40 498 
723 0.6936965819088335 0.2678518139182479 1.0573668572990078 69 66 60 1.43 35 387 36 479 37 415 38 571 39 500 
724 0.2864622481054089 0.22397501452129898 0.5581494507847333 49 47 49 2.43 36 480 38 572 39 501 40 499 42 453 43 429 
725 0.48087553430708724 0.259855324700956 0.6873992804934771 20 20 24 1.73 18 503 20 517 21 559 22 598 23 571 24 468 26 399 35 388 36 481 38 573 39 502 40 500 42 454 43 430 
726 0.41677533967659885 0.02167110269291343 1.0683842248636746 48 47 48 1.59 20 518 21 560 22 599 26 400 35 389 36 482 37 416 38 574 39 503 40 501 42 455 43 431 
727 0.49705283200023687 0.0606920975748777 1.090784723258706 98 90 85 1.36 18 504 19 526 20 519 22 600 23 572 24 469 26 401 35 390 36 483 37 417 38 575 39 504 40 502 42 456 43 432 
728 0.6083712378621556 -0.09041851051125549 0.9987024399033188 98 108 118 1.43 18 505 19 527 20 520 21 561 22 601 23 573 24 470 26 402 35 391 36 484 37 418 38 576 39 505 40 503 42 457 43 433 
729 0.5772614887153936 -0.06875094570879425 0.9859756271042838 47 38 33 0.73 35 392 36 485 37 419 38 577 
730 0.11422830783157777 0.18149919155236285 0.7913753140624161 114 119 122 1.88 18 506 19 528 20 521 23 574 24 471 26 403 35 393 36 486 37 420 38 578 39 506 42 458 43 434 
731 0.4943928995270904 0.0736745367675806 1.083898458784323 97 87 80 1.3 18 507 19 529 22 602 23 575 24 472 26 404 36 487 37 421 38 579 39 507 40 504 42 459 43 435 
732 0.5562624862638289 -0.05062255633847443 1.2105179573729457 112 132 142 1.83 18 508 19 530 21 562 22 603 23 576 24 473 35 394 36 488 37 422 38 580 39 508 40 505 42 460 43 436 
733 0.505799011591244 0.19615764498898938 1.0598048944633307 27 20 21 1.37 18 509 19 531 20 522 22 604 23 577 24 474 26 405 35 395 36 489 37 423 38 581 39 509 40 506 42 461 43 437 
734 0.40565907688213787 0.16067945536852166 1.0246166135109753 90 103 110 1.7 18 510 20 523 21 563 22 605 23 578 26 406 35 396 36 490 37 424 39 510 40 507 42 462 43 438 6 54 7 61 8 61 9 65 10 65 11 57 12 46 13 40 17 43 41 81 46 72 47 75 48 82 49 77 
735 0.6797679428663034 0.3025511429775801 0.8569992034490044 27 28 27 1.75 19 532 20 524 22 606 23 579 35 397 36 491 40 508 41 82 47 76 48 83 
736 0.5369589158526357 0.123772445512415 1.1241662425517815 117 113 112 2.68 18 511 19 533 21 564 22 607 23 580 24 475 26 407 35 398 36 492 37 425 38 582 39 511 40 509 42 463 43 439 6 55 7 62 8 62 9 66 10 66 11 58 46 73 47 77 48 84 49 78 
737 0.603879932054455 0.2683569217395386 0.8196418758013794 38 38 43 1.48 35 399 36 493 38 583 39 512 40 510 
738 0.582709015365486 -0.08136541315972326 1.226809368901403 113 99 94 1.35 20 525 21 565 22 608 23 581 26 408 35 400 36 494 37 426 38 584 39 513 40 511 42 464 43 440 
739 0.6592804747934793 0.046906809362593706 1.2491707693347542 145 140 131 1.41 19 534 20 526 22 609 23 582 24 476 35 401 36 495 37 427 38 585 39 514 40 512 42 465 43 441 
740 0.5854604753495168 0.1138241191559858 1.1671553349404697 114 112 105 1.56 18 512 20 527 21 566 22 610 23 583 35 402 36 496 37 428 38 586 39 515 40 513 42 466 43 442 
741 0.7023283046240185 0.06786215234289308 1.294835308082105 184 197 210 1.54 22 611 23 584 35 403 36 497 37 429 38 587 39 516 40 514 42 467 43 443 
742 0.4000551633759792 -0.030888986123084716 1.0734944439301066 28 27 24 1.36 20 528 21 567 22 612 23 585 26 409 35 404 36 498 37 430 39 517 40 515 42 468 43 444 
743 0.6843951807509848 -0.006107459995844061 1.308227584998886 200 205 211 2.15 20 529 22 613 23 586 24 477 35 405 36 499 37 431 38 588 39 518 40 516 42 469 43 445 6 56 7 63 8 63 9 67 41 83 46 74 47 78 48 85 49 79 
744 0.5918377609822664 0.27275793864183073 0.8601106493225464 64 55 55 1.72 18 513 19 535 20 530 21 568 22 614 23 587 24 478 26 410 35 406 36 500 38 589 39 519 40 517 42 470 43 446 
745 0.5746150659422942 -0.09512923636813755 0.9707507652060325 81 74 71 3.28 18 514 19 536 20 531 21 569 22 615 23 588 24 479 26 411 35 407 36 501 37 432 38 590 39 520 40 518 42 471 43 447 7 64 8 64 9 68 10 67 11 59 12 47 13 41 14 39 15 39 16 33 17 44 41 84 46 75 47 79 48 86 49 80 
746 0.558831194668208 0.174331230221607 1.151146839797977 81 103 113 2.25 18 515 19 537 21 570 22 616 23 589 24 480 35 408 36 502 37 433 38 591 39 521 40 519 42 472 43 448 6 57 7 65 8 65 9 69 10 68 11 60 15 40 41 85 46 76 47 80 48 87 49 81 
747 0.5124225918233151 0.2369693100495934 1.0528071118029143 97 85 78 1.48 18 516 19 538 20 532 22 617 23 590 24 481 26 412 35 409 36 503 37 434 38 592 39 522 40 520 42 473 43 449 
748 0.3093047220361564 -0.13237097527305297 0.7677883574283969 94 83 73 1.4 18 517 19 539 20 533 21 571 22 618 23 591 24 482 26 413 36 504 37 435 38 593 39 523 40 521 42 474 43 450 
749 0.4793721847951839 0.21493153233090626 0.7954968198405802 68 76 85 1.62 18 518 19 540 20 534 21 572 22 619 23 592 24 483 26 414 35 410 36 505 37 436 38 594 39 524 40 522 42 475 43 451 
750 0.4947554868255254 0.21416464677715327 0.6845551683232239 40 36 38 1.61 19 541 22 620 26 415 35 411 36 506 38 595 39 525 40 523 42 476 
751 0.3745023509506436 0.11795207225184323 0.9860830745260984 102 89 69 1.41 18 519 20 535 21 573 22 621 23 593 24 484 35 412 36 507 37 437 38 596 39 526 42 477 43 452 
752 0.4332290928770496 0.23801491487155996 0.6833303151208768 75 66 68 2.4 35 413 36 508 38 597 39 527 40 524 42 478 43 453 8 66 41 86 
753 0.52364272361007 0.22008943684283866 0.76101737104979 142 145 144 6.28 35 414 36 509 37 438 38 598 39 528 40 525 11 61 12 48 14 40 41 87 42 479 43 454 
754 0.48145844771743057 0.2478478725797229 0.690702838191442 22 22 25 2.1 35 415 36 510 38 599 39 529 40 526 42 480 43 455 
755 0.6059884114161609 0.14908694046384144 1.1749060518384582 128 124 124 2.41 20 536 21 574 22 622 26 416 35 416 36 511 37 439 38 600 39 530 40 527 42 481 43 456 6 58 7 66 8 67 9 70 10 69 17 45 41 88 46 77 47 81 48 88 49 82 
756 0.5943286231831767 0.05487390164666741 1.1968910343518178 126 119 113 1.36 20 537 21 575 22 623 23 594 26 417 35 417 36 512 37 440 38 601 39 531 40 528 42 482 43 457 
757 0.3775788578627462 0.23147770867425077 0.6136812838493583 87 83 83 2.25 36 513 38 602 39 532 40 529 42 483 43 458 
758 0.6687512399880354 0.11358852064888542 1.2381472297211555 140 131 121 2.3 19 542 20 538 22 624 23 595 24 485 35 418 36 514 37 441 38 603 39 533 40 530 42 484 43 459 6 59 7 67 8 68 9 71 10 70 41 89 46 78 47 82 48 89 49 83 
759 0.6537766955284681 0.12273377241461969 1.2199610873857467 156 146 135 1.39 19 543 20 539 23 596 24 486 35 419 36 515 37 442 38 604 39 534 40 531 42 485 43 460 
760 -0.045911872198210996 -0.1322690043031978 0.7381565859611225 110 103 105 1.54 18 520 19 544 20 540 21 576 22 625 23 597 24 487 26 418 36 516 37 443 38 605 39 535 42 486 
761 0.3245839937840336 -0.14492966378713482 0.7794620223472305 120 123 124 1.33 18 521 19 545 20 541 21 577 22 626 23 598 24 488 26 419 36 517 37 444 38 606 39 536 40 532 42 487 43 461 
