# 3D point list with one line of data per point:
#   POINT3D_ID, X, Y, Z, R, G, B, ERROR, TRACK[] as (IMAGE_ID, POINT2D_IDX)
# Number of points: 303, mean track length: 9.11
305 -0.36439216856573176 -0.08630614290268393 1.3738780652066573 0 0 0 0.77 8 115 30 44 116 117 139 92 174 151 
306 -0.3530772714983205 -0.08416580161707246 1.3648172004517738 0 0 0 0.5 8 116 24 8 30 45 31 33 99 13 116 118 139 93 154 77 166 85 174 152 178 54 180 29 189 72 210 23 225 42 233 46 
307 -0.557015443454364 -0.07137125621225722 0.6309573716175645 0 0 0 0.27 8 117 23 60 24 9 55 38 58 23 59 78 144 129 151 126 174 153 216 112 225 43 
308 -0.5564464733049692 -0.07134610117803411 0.6303655819607404 0 0 0 0.32 8 118 23 61 57 117 94 109 144 130 151 127 174 154 216 113 225 44 
309 -0.4224176323570261 -0.06270619979641048 1.385183277948324 0 0 0 0.59 8 119 30 46 139 94 154 78 174 155 
310 -0.5279679359356972 -0.05423974178663642 0.7674255668576223 0 0 0 0.36 8 120 23 62 57 118 94 110 116 119 140 96 144 131 145 77 151 128 161 93 174 156 177 103 178 55 216 114 228 82 
311 -0.5361894998923463 -0.012849795625973116 0.7285151185729669 0 0 0 0.65 8 121 55 39 94 111 137 81 139 95 143 83 144 132 151 129 174 157 183 78 189 73 205 102 211 81 215 71 
312 -0.43154565476401263 0.008696186620056667 1.2217309197654531 0 0 0 0.34 8 122 18 7 23 63 31 34 34 106 37 92 45 39 57 119 59 79 72 27 94 112 102 45 106 37 116 120 117 95 122 12 131 64 133 27 137 82 140 97 143 84 150 51 151 130 154 79 166 86 173 71 177 104 178 56 180 30 191 62 193 122 202 86 210 24 211 82 212 92 216 115 218 111 226 80 228 83 
313 -0.4421864473144905 0.009874526365637628 1.2116980385291718 0 0 0 0.48 8 123 23 64 24 10 30 47 37 93 55 40 59 80 99 14 119 86 125 96 139 96 143 85 144 133 173 72 174 158 180 31 189 74 233 47 
314 -0.4640885156948102 0.007083931637023682 1.1122189913878207 0 0 0 0.29 8 124 23 65 31 35 59 81 72 28 116 121 117 96 119 87 133 28 143 86 145 78 177 105 189 75 215 72 
315 -0.5577142602405442 0.00031695115375297085 0.6318314990431984 0 0 0 0.61 8 125 34 107 55 41 57 120 58 24 144 134 151 131 161 94 174 159 189 76 193 123 202 87 205 103 211 83 212 93 216 116 228 84 
316 -0.5358770028849098 -1.0465304055217028 1.010785005388488 0 0 0 0.83 8 126 45 40 59 82 94 113 144 135 149 83 166 87 212 94 
317 -0.5438169001176352 -0.32781597770758253 0.8719947592786853 0 0 0 0.67 7 66 8 127 23 66 34 108 86 72 161 95 173 73 174 160 193 124 202 88 205 104 210 25 218 112 
318 -0.589789499541449 -0.2987140667543346 0.8780565321302372 0 0 0 0.66 8 128 145 79 174 161 
319 -0.5149253539285443 -0.32418634556644527 1.30921284891756 0 0 0 0.49 8 129 23 67 24 11 31 36 59 83 86 73 145 80 149 84 154 80 174 162 180 32 212 95 216 117 228 85 233 48 
320 -0.5145437585687613 -0.32401888910450455 1.308488782799656 0 0 0 0.44 8 130 23 68 31 37 34 109 45 41 46 64 59 84 90 28 94 114 116 122 144 136 145 81 149 85 151 132 154 81 161 96 173 74 174 163 178 57 180 33 211 84 212 96 216 118 233 49 
321 -0.5642665713564263 -0.24814452504349974 0.864885112358241 0 0 0 0.58 8 131 86 74 116 123 125 97 131 65 140 98 145 82 150 52 151 133 154 82 173 75 174 164 178 58 189 77 205 105 211 85 
322 -0.48385948758511665 -0.1560110455641017 0.8731748471109939 0 0 0 0.67 8 132 23 69 131 66 173 76 174 165 177 106 218 113 225 45 
323 -0.5397333916890086 -0.1456081784113228 0.751706137501317 0 0 0 0.42 8 133 23 70 30 48 34 110 57 121 58 25 86 75 94 115 99 15 115 17 116 124 119 88 125 98 137 83 139 97 140 99 143 87 144 137 145 83 149 86 151 134 154 83 161 97 166 88 167 23 173 77 174 166 183 79 189 78 191 63 193 125 202 89 205 106 210 26 211 86 212 97 216 119 218 114 225 46 226 81 228 86 
324 -0.4112631543258511 -0.1350286667380741 1.3831360164877942 0 0 0 0.62 8 134 86 76 116 125 119 89 139 98 154 84 174 167 189 79 
325 -0.4667368719416197 -0.05328122281733606 1.1176633920900525 0 0 0 0.41 7 67 8 135 37 94 45 42 46 65 86 77 117 97 119 90 125 99 133 29 140 100 145 84 150 53 154 85 166 89 174 168 177 107 191 64 193 126 202 90 211 87 212 98 215 73 216 120 218 115 228 87 
326 -0.5198592828475204 0.03570516017687916 0.6783712633693897 0 0 0 0.54 8 136 23 71 34 111 57 122 58 26 59 85 125 100 140 101 151 135 154 86 161 98 173 78 174 169 180 34 193 127 205 107 216 121 218 116 228 88 
327 -0.4859014844944849 0.07914205645208733 0.8291681121613389 0 0 0 0.36 8 137 24 12 34 112 99 16 144 138 174 170 180 35 
328 -0.5229975863308371 -0.7792895027404932 0.94291730841328 0 0 0 0.39 8 138 34 113 46 66 57 123 59 86 86 78 94 116 116 126 132 51 144 139 151 136 166 90 178 59 186 19 189 80 202 91 211 88 212 99 225 47 
329 -0.5229975863308371 -0.7792895027404932 0.94291730841328 0 0 0 0.39 8 139 34 114 46 67 57 124 59 87 86 79 94 117 116 127 132 52 144 140 151 137 166 91 178 60 186 20 189 81 202 92 211 89 212 100 225 48 
330 -0.6051162967549879 -0.5175682322904656 0.9050105550017999 0 0 0 0.48 8 140 34 115 57 125 116 128 125 101 131 67 132 53 133 30 144 141 173 79 193 128 202 93 
331 -0.6051162967549879 -0.5175682322904656 0.9050105550017999 0 0 0 0.48 8 141 34 116 57 126 116 129 125 102 131 68 132 54 133 31 144 142 173 80 193 129 202 94 
332 -0.4830558997572128 -0.4157943196390918 0.9803706074264255 0 0 0 0.35 8 142 154 87 174 171 
333 -0.5318105515593095 -0.25564887656741725 0.8651537606782119 0 0 0 0.71 8 143 23 72 30 49 34 117 46 68 86 80 94 118 125 103 131 69 139 99 173 81 174 172 205 108 211 90 215 74 216 122 225 49 228 89 
334 -0.5750683962061075 -0.16454732918940984 0.6037035512444716 0 0 0 0.23 8 144 144 143 151 138 174 173 
335 -0.5577612307556243 -0.1576437428464871 0.6680825272299115 0 0 0 0.34 8 145 30 50 57 127 58 27 59 88 94 119 116 130 119 91 140 102 144 144 145 85 149 87 150 54 151 139 174 174 183 80 202 95 228 90 
336 -0.5541444886482556 -0.13601846986735447 0.691618511121257 0 0 0 0.35 8 146 55 42 57 128 58 28 119 92 125 104 137 84 139 100 140 103 143 88 144 145 145 86 149 88 151 140 174 175 193 130 205 109 211 91 226 82 
337 -0.4538326222344749 -0.011435209920397234 1.139749556011805 0 0 0 0.49 8 147 106 38 117 98 119 93 131 70 137 85 140 104 151 141 166 92 177 108 215 75 
338 -0.5492931540218791 0.028043045796184496 0.5166295910644864 0 0 0 0.32 8 148 174 176 216 123 
339 -0.5004470707762855 0.022960437253331106 0.8232422985311039 0 0 0 0.68 8 149 23 73 31 38 34 118 45 43 57 129 131 71 140 105 144 146 149 89 173 82 174 177 177 109 180 36 193 131 218 117 
340 -0.5399582015037399 -0.6529601513455189 0.9320518976659347 0 0 0 0.59 8 150 34 119 46 69 57 130 116 131 125 105 139 101 166 93 178 61 202 96 211 92 212 101 
341 -0.5311495444847463 -0.020604845232074363 0.7657539575876526 0 0 0 0.87 8 151 30 51 57 131 125 106 139 102 144 147 145 87 174 178 193 132 210 27 215 76 218 118 226 83 
342 -0.548080221763493 -0.0016714124329707959 0.6961789891485065 0 0 0 0.45 8 152 37 95 57 132 116 132 140 106 151 142 174 179 193 133 205 110 
343 -0.5606549461542399 -0.009557887895333468 0.6284611368543209 0 0 0 0.97 8 153 23 74 55 43 90 29 119 94 174 180 226 84 
344 -0.46092373770441625 0.05765338574185873 0.9892627665493497 0 0 0 0.7 8 154 24 13 30 52 31 39 57 133 90 30 133 32 137 86 139 103 140 107 144 148 151 143 174 181 178 62 180 37 189 82 191 65 193 134 216 124 233 50 
345 -0.5015023033946175 -0.41851710557603405 0.9465131830611156 0 0 0 1.14 8 155 34 120 94 120 125 107 144 149 145 88 151 144 189 83 193 135 205 111 
346 -0.47523592077278154 -0.418782487420939 0.9883670271342676 0 0 0 0.76 8 156 23 75 46 70 55 44 116 133 117 99 119 95 125 108 131 72 132 55 133 33 139 104 144 150 145 89 149 90 161 99 166 94 173 83 174 182 183 81 189 84 193 136 205 112 215 77 216 125 
347 -0.5005439527333033 0.002032565350968677 0.8369681698152421 0 0 0 0.73 8 157 30 53 90 31 115 18 116 134 131 73 174 183 
348 -0.5240893146177106 -0.7010039055143635 0.9283575609512473 0 0 0 1.12 18 8 47 19 116 135 149 91 205 113 
349 -0.5069739838380146 -0.6815598907043292 0.9413790281098232 0 0 0 0.29 18 9 37 96 46 71 47 20 86 81 90 32 94 121 116 136 149 92 166 95 183 82 205 114 210 28 211 93 218 119 226 85 
350 -0.4757095108490668 -0.610148667357562 0.9475091277702823 0 0 0 1.13 18 10 47 21 94 122 151 145 166 96 211 94 
351 -0.6048193994025368 -0.46496133306124643 0.9164507567444733 0 0 0 0.78 18 11 46 72 86 82 94 123 116 137 193 137 
352 -0.5472268641575848 -0.43851061683123094 0.8981568950115761 0 0 0 0.78 18 12 23 76 37 97 46 73 154 88 161 100 180 38 193 138 205 115 226 86 
353 -0.6044066656653335 -0.45478445038874293 0.9144925297388483 0 0 0 0.41 18 13 116 138 144 151 180 39 205 116 216 126 
354 -0.46369147392858984 -0.3410117123176023 0.9664531323276566 0 0 0 0.44 18 14 46 74 72 29 177 110 205 117 
355 -0.4653056672794256 -0.10269601621830717 0.9438696429560668 0 0 0 0.29 18 15 46 75 116 139 117 100 140 108 149 93 154 89 161 101 193 139 233 51 
356 -0.5066587134977354 -0.77465504461745 0.9610406224460227 0 0 0 0.2 18 16 34 121 94 124 173 84 218 120 
357 -0.5887461632849261 -0.7885381600220025 0.9577778694713776 0 0 0 0.28 18 17 34 122 86 83 94 125 116 140 149 94 
358 -0.5149939074048465 -0.7033225175535404 0.925291175194191 0 0 0 0.19 18 18 94 126 116 141 149 95 151 146 166 97 205 118 
359 -0.5166300778081462 -0.6990414036436962 0.9275258048736276 0 0 0 0.25 18 19 34 123 37 98 46 76 57 134 86 84 94 127 116 142 149 96 166 98 186 21 205 119 211 95 218 121 
360 -0.499103774790635 -0.6460249118945339 0.9492581477383456 0 0 0 0.38 18 20 94 128 149 97 210 29 
361 -0.599139861053758 -0.46343215705011187 0.9155311194510505 0 0 0 0.48 18 21 34 124 37 99 86 85 94 129 116 143 125 109 143 89 145 90 154 90 173 85 193 140 205 120 216 127 
362 -0.46836743605902775 -0.41096252151740703 0.9815127856227663 0 0 0 0.79 18 22 116 144 117 101 140 109 173 86 177 111 
363 -0.5194730778710175 -0.2784297695463324 0.8581648333677337 0 0 0 0.88 18 23 47 22 72 30 94 130 117 102 140 110 193 141 
364 -0.4535542062267431 0.013695481013182116 1.136507816813139 0 0 0 0.22 18 24 117 103 125 110 143 90 149 98 166 99 193 142 216 128 233 52 
365 -0.5889819446920721 -0.7442522625139378 0.9474909706913808 0 0 0 0.38 18 25 46 77 94 131 116 145 144 152 149 99 151 147 166 100 173 87 174 184 189 85 211 96 212 102 
366 -0.504944947072098 -0.6390839643325658 0.9488065816369862 0 0 0 0.31 18 26 47 23 59 89 86 86 94 132 116 146 125 111 139 105 143 91 151 148 173 88 202 97 205 121 210 30 212 103 226 87 
367 -0.43848804735136276 0.04738134937157107 1.2162460893265563 0 0 0 0.32 18 27 117 104 140 111 180 40 193 143 228 91 
368 -0.48350062452728254 -0.5344430873432103 0.9316625505458284 0 0 0 0.6 18 28 47 24 57 135 94 133 102 46 116 147 125 112 131 74 139 106 144 153 151 149 166 101 178 63 202 98 205 122 211 97 212 104 215 78 218 122 
369 -0.6108091572992358 -0.4772283458854384 0.9117220259787349 0 0 0 0.48 18 29 116 148 145 91 161 102 212 105 
370 -0.4757477753207152 -0.3500687093146813 0.9112758200745275 0 0 0 0.46 18 30 34 125 37 100 45 44 47 25 57 136 59 90 90 33 94 134 102 47 115 19 116 149 117 105 125 113 131 75 132 56 137 87 139 107 140 112 144 154 149 100 150 55 154 91 161 103 166 102 177 112 178 64 191 66 193 144 202 99 205 123 211 98 212 106 215 79 216 129 218 123 225 50 
371 -0.5132224416576768 -0.6973871711117952 0.936236073240389 0 0 0 0.47 18 31 34 126 45 45 47 26 59 91 86 87 90 34 94 135 116 150 131 76 144 155 149 101 151 150 178 65 202 100 205 124 211 99 212 107 225 51 
372 -0.5116088951242593 -0.7668736907509933 0.9514910268320176 0 0 0 0.6 18 32 34 127 37 101 46 78 57 137 59 92 86 88 94 136 102 48 116 151 131 77 132 57 133 34 137 88 144 156 149 102 151 151 166 103 202 101 205 125 211 100 212 108 218 124 225 52 
373 -0.48507317254756677 -0.46318216835035964 0.9254611614155049 0 0 0 0.65 23 77 47 27 116 152 154 92 177 113 
374 -0.4757069019047216 -0.4804385337991961 0.9829113757245478 0 0 0 0.5 23 78 72 31 86 89 94 137 116 153 166 104 183 83 211 101 216 130 218 125 
375 -0.4777027319264481 -0.4497684525272174 0.931224632228351 0 0 0 0.3 23 79 117 106 173 89 193 145 218 126 
376 -0.48419555559531796 -0.4485363911925561 0.9862427039619531 0 0 0 0.22 23 80 94 138 116 154 149 103 161 104 177 114 180 41 183 84 193 146 216 131 226 88 
377 -0.5001206785632918 -0.41100757545380007 0.8671308256655776 0 0 0 0.5 23 81 34 128 47 28 94 139 116 155 149 104 151 152 166 105 180 42 
378 -0.4715622833139316 -0.4352950890943342 0.977526516500248 0 0 0 0.45 23 82 86 90 90 35 94 140 102 49 116 156 117 107 119 96 125 114 143 92 149 105 154 93 161 105 173 90 180 43 183 85 193 147 212 109 218 127 226 89 
379 -0.4892312809882709 -0.40070491427190696 0.9264864711007551 0 0 0 0.7 23 83 46 79 116 157 117 108 216 132 
380 -0.4852659466918129 -0.3681985152221987 0.9185048976327405 0 0 0 0.18 23 84 94 141 117 109 125 115 140 113 145 92 150 56 154 94 166 106 173 91 177 115 180 44 193 148 218 128 
381 -0.48597713749312554 -0.34428447102419013 0.8661840149411891 0 0 0 0.15 23 85 94 142 106 39 180 45 226 90 
382 -0.5323358108114631 -0.3407052217631176 0.8703538579392779 0 0 0 0.17 23 86 94 143 106 40 140 114 180 46 193 149 
383 -0.48990360753766116 -0.3162322195963143 0.8806833038413445 0 0 0 0.38 23 87 37 102 47 29 72 32 86 91 94 144 106 41 116 158 117 110 125 116 132 58 140 115 150 57 151 153 154 95 180 47 193 150 211 102 226 91 
384 -0.4902712444457734 -0.31135052702518323 0.9004831370780929 0 0 0 0.28 23 88 37 103 46 80 106 42 117 111 149 106 150 58 154 96 161 106 173 92 177 116 180 48 218 129 226 92 228 92 
385 -0.473399559213537 -0.3189868124849172 0.9549801156726099 0 0 0 0.41 23 89 37 104 94 145 106 43 117 112 150 59 151 154 161 107 180 49 193 151 216 133 218 130 228 93 
386 -0.4887616027443837 -0.28888513674984195 0.8763390252169619 0 0 0 0.28 23 90 37 105 72 33 86 92 94 146 116 159 117 113 125 117 140 116 150 60 173 93 177 117 193 152 228 94 
387 -0.4930473312741933 -0.2633148393775649 0.8532890953754643 0 0 0 0.31 23 91 86 93 90 36 117 114 140 117 154 97 193 153 
388 -0.48943322942905515 -0.19389817714262808 0.88220413991853 0 0 0 0.4 23 92 106 44 116 160 117 115 125 118 144 157 145 93 154 98 177 118 205 126 228 95 
389 -0.5434302137129511 -0.14635500932191628 0.7279951560795673 0 0 0 0.35 23 93 116 161 145 94 167 24 174 185 
390 -0.3059798714054263 -0.18402096916585817 1.3766422298777254 0 0 0 0.84 23 94 99 17 174 186 
391 -0.3057094390312066 -0.18338815644134107 1.3737554141241632 0 0 0 0.9 23 95 99 18 174 187 205 127 
392 -0.023114590609125595 -0.11786109610680626 1.3012609184628041 0 0 0 0.38 23 96 117 116 140 118 150 61 177 119 
393 -0.02305983529964871 -0.1180844645495483 1.3005799514406806 0 0 0 0.32 23 97 117 117 177 120 
394 -0.46847894247017097 -0.1148348997824373 1.108328072737103 0 0 0 0.23 23 98 106 45 116 162 117 118 119 97 149 107 154 99 173 94 177 121 183 86 212 110 216 134 218 131 226 93 233 53 
395 -0.46602948002541944 -0.10061163856810265 0.9502114350486606 0 0 0 0.24 23 99 90 37 106 46 116 163 117 119 161 108 183 87 193 154 205 128 
396 -0.4592883955376278 -0.10937408207240507 1.1424854667618058 0 0 0 0.25 23 100 90 38 94 147 117 120 145 95 193 155 233 54 
397 -0.03905936404240414 -0.10058333367697024 1.2986729632576794 0 0 0 0.32 23 101 106 47 117 121 140 119 
398 -0.01443344367884507 -0.09913437546042039 1.3013423581225274 0 0 0 0.34 23 102 102 50 117 122 140 120 
399 -0.4520575714463899 -0.0491389718960713 1.182189098885125 0 0 0 0.22 23 103 117 123 140 121 166 107 193 156 215 80 226 94 228 96 
400 -0.44528852258001944 -0.0468291782841503 1.2101047598387338 0 0 0 0.24 23 104 72 34 106 48 117 124 151 155 216 135 233 55 
401 -0.47235199922307 -0.0429353471147273 1.087080104401869 0 0 0 0.26 23 105 34 129 117 125 119 98 140 122 150 62 166 108 218 132 228 97 
402 -0.344122224118309 -0.02773790687115297 1.3576855633692808 0 0 0 0.44 23 106 72 35 106 49 116 164 117 126 139 108 140 123 143 93 150 63 186 22 216 136 228 98 
403 -0.4702300252115318 -0.02176470286731591 1.094028745126203 0 0 0 0.22 23 107 34 130 116 165 117 127 125 119 150 64 166 109 173 95 177 122 183 88 215 81 218 133 226 95 
404 -0.6011540498710075 -0.4729721394682076 0.9135852250112817 0 0 0 0.21 23 108 37 106 86 94 143 94 161 109 173 96 193 157 205 129 212 111 218 134 
405 -0.5591135195249445 -0.45155903303906797 0.9045643993599474 0 0 0 0.28 23 109 173 97 218 135 
406 -0.49279517154106606 -0.4401471007260437 0.9295865907950989 0 0 0 0.59 23 110 46 81 47 30 117 128 151 156 161 110 173 98 216 137 
407 -0.4801579541531689 -0.35992455776504456 0.8550751208309003 0 0 0 0.32 23 111 125 120 140 124 145 96 149 108 161 111 173 99 177 123 183 89 193 158 216 138 218 136 
408 -0.5575895521449218 -0.35332843166489636 0.8671906554142277 0 0 0 0.31 23 112 72 36 140 125 177 124 193 159 218 137 
409 -0.5063733428552717 -0.34243298294392405 0.8583741951706482 0 0 0 0.4 23 113 34 131 37 107 59 93 94 148 106 50 140 126 193 160 
410 -0.5493220233225785 -0.3487488113640335 0.8684027065733932 0 0 0 0.34 23 114 37 108 46 82 94 149 116 166 132 59 140 127 144 158 150 65 154 100 161 112 177 125 180 50 193 161 211 103 218 138 226 96 
411 -0.4762663580545436 -0.345331635889306 0.9119524881386892 0 0 0 0.34 23 115 86 95 94 150 106 51 116 167 125 121 140 128 144 159 149 109 150 66 151 157 154 101 161 113 166 110 173 100 177 126 193 162 205 130 215 82 218 139 
412 -0.4699576035362286 -0.3448325495748997 0.9179516113836192 0 0 0 0.27 23 116 37 109 46 83 59 94 86 96 94 151 116 168 117 129 125 122 132 60 139 109 140 129 144 160 145 97 150 67 151 158 154 102 161 114 166 111 177 127 180 51 191 67 193 163 205 131 212 112 216 139 218 140 
413 -0.46340732307470656 -0.34486747132575507 0.9668658646306841 0 0 0 0.29 23 117 37 110 45 46 72 37 86 97 117 130 125 123 132 61 140 130 144 161 145 98 150 68 161 115 177 128 193 164 205 132 216 140 218 141 226 97 
414 -0.47144863637116 -0.332495988231551 0.964267129816966 0 0 0 0.17 23 118 116 169 117 131 149 110 161 116 215 83 
415 -0.48865655128448615 -0.2892975072094788 0.9020469988824776 0 0 0 0.36 23 119 34 132 37 111 47 31 59 95 72 38 86 98 94 152 106 52 117 132 119 99 125 124 131 78 143 95 144 162 145 99 149 111 150 69 151 159 154 103 177 129 183 90 189 86 191 68 202 102 210 31 212 113 216 141 218 142 226 98 228 99 
416 -0.4703629722696135 -0.22423158854911746 0.9624724297644454 0 0 0 0.2 23 120 94 153 102 51 106 53 116 170 117 133 139 110 143 96 149 112 150 70 151 160 154 104 166 112 183 91 216 142 
417 -0.5520368018438347 -0.1688582556948767 0.6804721124905215 0 0 0 0.36 23 121 58 29 86 99 94 154 116 171 125 125 139 111 140 131 151 161 166 113 167 25 173 101 174 188 177 130 193 165 205 133 211 104 216 143 218 143 228 100 
418 -0.5385534160593898 -0.15961067311812785 0.7592255985136321 0 0 0 0.5 23 122 46 84 125 126 174 189 
419 -0.4751549463720138 -0.12388137248127651 0.935702946632491 0 0 0 0.3 23 123 31 40 34 133 37 112 46 85 72 39 90 39 102 52 106 54 116 172 117 134 119 100 122 13 125 127 132 62 140 132 149 113 150 71 154 105 161 117 166 114 177 131 180 52 193 166 205 134 210 32 211 105 216 144 218 144 226 99 228 101 233 56 
420 -0.46951567626651575 -0.11394713083722087 0.9423457017268563 0 0 0 0.51 23 124 117 135 125 128 144 163 145 100 216 145 233 57 
421 -0.46962623280019683 -0.11393620153367674 0.9424918807206385 0 0 0 0.56 23 125 34 134 117 136 125 129 144 164 145 101 177 132 216 146 233 58 
422 -0.48269883236209404 -0.11580494429684753 1.0450996922046027 0 0 0 0.2 23 126 117 137 183 92 218 145 
423 -0.47302758602302686 -0.10428185315761127 0.938496310153301 0 0 0 0.17 23 127 37 113 46 86 59 96 72 40 86 100 106 55 117 138 125 130 177 133 180 53 186 23 189 87 191 69 211 106 216 147 218 146 226 100 
424 -0.01024134102584358 -0.09587132925356609 1.3019464876737519 0 0 0 0.42 23 128 57 138 72 41 102 53 117 139 140 133 177 134 
425 -0.033127726715571786 -0.09577504853603337 1.3053428073427575 0 0 0 0.42 23 129 57 139 106 56 117 140 140 134 177 135 191 70 
426 -0.43730661509383983 -0.04188733409240104 1.2200769973442667 0 0 0 0.23 23 130 31 41 72 42 106 57 115 20 117 141 137 89 140 135 143 97 173 102 215 84 216 148 226 101 
427 -0.39999712377988267 0.05755399158668199 1.3616195644035312 0 0 0 0.14 23 131 102 54 117 142 
428 -0.5234604241514501 0.020785949434845567 0.6611524254369077 0 0 0 0.45 23 132 34 135 140 136 174 190 211 107 
429 -0.523319625269373 0.02152177539050762 0.6684139581155647 0 0 0 0.41 23 133 144 165 167 26 174 191 183 93 193 167 211 108 216 149 218 147 
430 -0.4374277979520197 0.05277471890500524 1.213006703374145 0 0 0 0.39 23 134 34 136 37 114 46 87 57 140 59 97 102 55 106 58 116 173 117 143 119 101 125 131 137 90 140 137 143 98 150 72 154 106 166 115 173 103 177 136 180 54 189 88 191 71 193 168 211 109 212 114 216 150 218 148 226 102 228 102 233 59 
431 -0.5541633456147557 -0.44411270616933934 0.8842044716515822 0 0 0 0.25 23 135 57 141 86 101 94 155 116 174 125 132 139 112 154 107 166 116 173 104 191 72 193 169 218 149 
432 -0.614668521871371 -0.41179381708199037 0.8963241594607129 0 0 0 0.23 23 136 34 137 116 175 173 105 177 137 
433 -0.604627817883085 -0.4065975720276663 0.8980422478292596 0 0 0 0.51 23 137 34 138 59 98 94 156 116 176 125 133 149 114 151 162 154 108 166 117 173 106 177 138 189 89 193 170 202 103 205 135 212 115 218 150 
434 -0.46514155504214166 -0.41375209008256225 0.9949982065644897 0 0 0 0.41 23 138 34 139 37 115 94 157 116 177 117 144 132 63 140 138 144 166 151 163 173 107 177 139 180 55 193 171 211 110 216 151 
435 -0.48292041250327306 -0.34983201972428535 0.8568652706844714 0 0 0 0.32 23 139 45 47 46 88 86 102 90 40 94 158 137 91 140 139 145 102 150 73 151 164 154 109 173 108 189 90 193 172 202 104 211 111 218 151 
436 -0.48314245951673296 -0.34536948631066067 0.857363041156661 0 0 0 0.35 23 140 45 48 57 142 86 103 90 41 102 56 116 178 122 14 125 134 131 79 139 113 140 140 144 167 145 103 149 115 150 74 166 118 177 140 178 66 193 173 205 136 211 112 215 85 218 152 
437 -0.4717166494612362 -0.33702536706166253 0.9593901066894497 0 0 0 0.49 23 141 117 145 131 80 132 64 144 168 145 104 151 165 161 118 173 109 193 174 210 33 212 116 226 103 
438 -0.5282016288227785 -0.26518710180022315 0.8569157302903334 0 0 0 0.54 23 142 59 99 86 104 115 21 117 146 144 169 151 166 193 175 228 103 
439 -0.4893752582880219 -0.24009796466062044 0.8892062569457638 0 0 0 0.4 23 143 34 140 37 116 45 49 47 32 57 143 59 100 72 43 94 159 102 57 116 179 117 147 119 102 131 81 140 141 144 170 145 105 150 75 151 167 161 119 166 119 173 110 177 141 178 67 183 94 189 91 191 73 205 137 215 86 228 104 
440 -0.4873016578191521 -0.2362527436555995 0.8919999320827893 0 0 0 0.3 23 144 37 117 45 50 47 33 57 144 59 101 72 44 86 105 94 160 106 59 116 180 117 148 125 135 139 114 140 142 143 99 144 171 145 106 149 116 151 168 154 110 166 120 173 111 191 74 193 176 202 105 205 138 211 113 212 117 216 152 233 60 
441 -0.4876044600624849 -0.23643973298425805 0.8923788138498019 0 0 0 0.27 23 145 57 145 72 45 106 60 117 149 125 136 140 143 143 100 145 107 154 111 166 121 173 112 183 95 193 177 205 139 215 87 216 153 228 105 
442 -0.5369273974647303 -0.16224944735404873 0.752624498253756 0 0 0 0.35 23 146 174 192 202 106 
443 -0.5370819924886371 -0.16259628022608813 0.7599244300482444 0 0 0 0.29 23 147 34 141 57 146 94 161 140 144 144 172 145 108 151 169 174 193 180 56 193 178 212 118 
444 -0.47932557670622666 -0.17647047948642744 0.9391620079646391 0 0 0 0.42 23 148 34 142 47 34 72 46 117 150 132 65 137 92 140 145 144 173 149 117 151 170 161 120 173 113 183 96 193 179 202 107 212 119 216 154 218 153 226 104 233 61 
445 -0.37716512390339374 0.0024872095510608534 1.3735957269046477 0 0 0 0.33 23 149 117 151 144 174 
446 -0.542887293592585 -0.011532577988251158 0.6929440978180157 0 0 0 0.31 23 150 24 14 34 143 57 147 58 30 59 102 139 115 140 146 144 175 145 109 151 171 161 121 166 122 173 114 174 194 178 68 180 57 183 97 193 180 205 140 216 155 218 154 226 105 228 106 
447 -0.4357028843148998 0.05188959994256908 1.1346419265367542 0 0 0 0.35 23 151 117 152 119 103 140 147 154 112 166 123 228 107 
448 -0.5364472715853998 -0.4542934950970553 0.889982218370906 0 0 0 1.19 23 152 189 92 191 75 193 181 215 88 
449 -0.6033386819754477 -0.41197562742424726 0.907024533553122 0 0 0 0.24 23 153 86 106 94 162 125 137 143 101 151 172 177 142 193 182 202 108 212 120 
450 -0.4851201829425618 -0.23142932506300848 0.8979785583995171 0 0 0 0.37 23 154 37 118 116 181 117 153 143 102 154 113 173 115 193 183 205 141 218 155 
451 -0.4875500255804232 -0.18634599421847622 0.868100479132303 0 0 0 0.26 23 155 117 154 125 138 183 98 
452 -0.017438213312755472 -0.1040660617701321 1.3024886144884058 0 0 0 0.42 23 156 102 58 117 155 177 143 
453 -0.44311282156306697 0.04291295120103938 1.2130131746369726 0 0 0 0.36 23 157 31 42 34 144 57 148 59 103 72 47 106 61 115 22 116 182 117 156 119 104 137 93 140 148 144 176 150 76 154 114 166 124 173 116 177 144 180 58 189 93 191 76 193 184 212 121 216 156 218 156 226 106 228 108 233 62 
454 -0.4401055914275821 0.049542635451534686 1.1016314675275969 0 0 0 0.61 23 158 57 149 59 104 117 157 177 145 191 77 212 122 226 107 
455 -0.541605711700621 -0.32338067837199347 1.3174116872461927 0 0 0 0.64 23 159 30 54 45 51 90 42 116 183 144 177 145 110 149 118 154 115 161 122 174 195 233 63 
456 -0.5259190863456684 -0.31830054733058555 1.30763617964509 0 0 0 0.51 23 160 116 184 144 178 145 111 154 116 161 123 174 196 180 59 216 157 
457 -0.4744719676554359 -0.26374986886733537 1.276944168224525 0 0 0 0.71 23 161 24 15 34 145 57 150 59 105 86 107 94 163 116 185 133 35 145 112 151 173 154 117 173 117 174 197 178 69 189 94 212 123 216 158 233 64 
458 -0.474919256266188 -0.2135429287676199 0.9495636335927702 0 0 0 0.34 23 162 31 43 34 146 59 106 94 164 116 186 117 158 119 105 125 139 131 82 137 94 140 149 144 179 150 77 173 118 177 146 178 70 193 185 202 109 212 124 215 89 
459 -0.4902665637079677 -0.2602164766559753 1.289608096669628 0 0 0 0.43 23 163 24 16 30 55 57 151 86 108 94 165 116 187 131 83 145 113 151 174 154 118 173 119 174 198 189 95 212 125 216 159 233 65 
460 -0.41274637268696845 -0.20407886108784626 1.2640860874551985 0 0 0 0.49 23 164 119 106 139 116 150 78 174 199 
461 -0.44281892109470694 0.03581342087459251 1.2105679321914187 0 0 0 0.4 23 165 116 188 117 159 119 107 122 15 137 95 143 103 154 119 186 24 211 114 233 66 
462 -0.4438792907507566 0.03582735905911083 1.2138736463530326 0 0 0 0.25 23 166 116 189 117 160 122 16 143 104 154 120 
463 -0.48202721617014477 -0.3385834080946298 0.910048327387592 0 0 0 0.55 23 167 90 43 102 59 106 62 119 108 122 17 131 84 140 150 150 79 161 124 173 120 177 147 178 71 191 78 193 186 205 142 211 115 218 157 
464 -0.473019183446227 -0.2703985996455113 0.9489754369196721 0 0 0 0.47 23 168 37 119 72 48 86 109 115 23 117 161 119 109 125 140 133 36 137 96 139 117 140 151 143 105 144 180 145 114 150 80 151 175 161 125 166 125 173 121 177 148 178 72 183 99 189 96 191 79 193 187 202 110 205 143 211 116 212 126 215 90 218 158 226 108 228 109 
465 -0.5247281272181652 -0.13406831586522683 0.827178209016796 0 0 0 0.36 23 169 57 152 139 118 140 152 144 181 149 119 174 200 177 149 183 100 193 188 211 117 212 127 216 160 228 110 
466 -0.5251109870860001 -0.13407836998160258 0.8277399732578562 0 0 0 0.4 23 170 57 153 59 107 99 19 115 24 116 190 139 119 140 153 144 182 149 120 151 176 166 126 174 201 177 150 193 189 211 118 216 161 218 159 228 111 
467 -0.5232026184531463 0.020304333780069874 0.6762675614122514 0 0 0 0.26 23 171 144 183 174 202 177 151 218 160 
468 -0.4882571712179937 -0.38349871412627745 0.9713288834357708 0 0 0 1.13 23 172 117 162 125 141 132 66 137 97 173 122 225 53 
469 -0.5099809841758035 -0.11275168270798225 0.836239460259698 0 0 0 0.59 23 173 31 44 59 108 94 166 115 25 116 191 119 110 125 142 131 85 140 154 144 184 145 115 166 127 173 123 174 203 177 152 178 73 183 101 189 97 193 190 211 119 215 91 216 162 
470 -0.5546953062676154 -0.029165173030389006 0.663138743389724 0 0 0 1.59 23 174 30 56 115 26 161 126 174 204 205 144 216 163 
471 -0.5573751128847229 -0.029383648568601765 0.665859376098738 0 0 0 1.14 23 175 30 57 137 98 144 185 149 121 151 177 161 127 174 205 183 102 202 111 205 145 216 164 233 67 
472 -0.4998187194349889 0.001960632276315812 0.8390510880534228 0 0 0 1.2 23 176 34 147 161 128 174 206 183 103 
473 -0.5564438728248347 -0.060694787059177295 0.6494052232252693 0 0 0 0.38 24 17 37 120 45 52 86 110 125 143 131 86 144 186 151 178 174 207 193 191 205 146 212 128 215 92 228 112 
474 -0.4199035102953826 0.008651737814749713 1.23236606894317 0 0 0 0.32 24 18 30 58 31 45 46 89 57 154 59 109 116 192 125 144 139 120 143 106 144 187 150 81 151 179 166 128 173 124 174 208 178 74 180 60 211 120 226 109 228 113 233 68 
475 -0.4199189782457566 0.008606776023513863 1.2330242422302649 0 0 0 0.39 24 19 116 193 125 145 174 209 
476 -0.5638529811141533 0.0032512055978782535 0.46956455207490494 0 0 0 0.59 24 20 37 121 174 210 
477 -0.5701113807833527 -0.07209658291044792 0.566487818933427 0 0 0 0.33 24 21 57 155 94 167 144 188 174 211 228 114 
478 -0.5568622247791986 -0.06672233276305456 0.6348396892878825 0 0 0 0.29 24 22 151 180 174 212 228 115 
479 -0.48118427723354223 -0.3367810940358817 0.8869919904286365 0 0 0 0.8 24 23 116 194 125 146 139 121 140 155 173 125 174 213 180 61 205 147 211 121 
480 -0.48129647136669046 -0.336686329510263 0.8871894115743943 0 0 0 0.71 24 24 139 122 140 156 174 214 180 62 211 122 
481 -0.4918420227769477 -0.2614355858937271 1.2935307797519688 0 0 0 0.43 24 25 34 148 57 156 86 111 94 168 116 195 131 87 151 181 174 215 180 63 212 129 216 165 233 69 
482 -0.462706350898833 -0.2257060253926411 1.2694095147116753 0 0 0 0.49 24 26 57 157 174 216 
483 -0.41713243111641607 -0.2363190349668439 1.2761029132626895 0 0 0 0.65 24 27 31 46 154 121 173 126 174 217 180 64 216 166 233 70 
484 -0.5433438962943578 -0.17604683563878643 0.729381567114852 0 0 0 0.45 30 59 94 169 145 116 174 218 177 153 216 167 228 116 
485 -0.45139539889056207 -0.08828091709253678 1.4035305042545096 0 0 0 0.34 30 60 57 158 119 111 125 147 137 99 144 189 150 82 151 182 174 219 212 130 216 168 
486 -0.35028335799844657 -0.0643133889638593 1.3669062690478146 0 0 0 1.11 30 61 116 196 174 220 
487 -0.5476374464930746 -0.04615816381551199 0.6905623667217676 0 0 0 0.32 30 62 34 149 45 53 46 90 55 45 90 44 116 197 125 148 140 157 151 183 154 122 161 129 167 27 174 221 177 154 183 104 205 148 218 161 233 71 
488 -0.5408975514770973 0.0060713387124942345 0.685285122688715 0 0 0 0.44 30 63 55 46 140 158 144 190 174 222 205 149 
489 -0.5549542571718529 -0.1729553956008601 0.6865543321463007 0 0 0 0.34 30 64 55 47 94 170 116 198 140 159 174 223 
490 -0.4421876978028795 -0.1504909389751165 1.231084264009368 0 0 0 0.55 30 65 139 123 166 129 174 224 212 131 
491 -0.36331293600340664 -0.10252063506710579 1.3911318355382996 0 0 0 0.78 30 66 174 225 212 132 
492 -0.3575061215338211 -0.10114980082532396 1.3749088849351219 0 0 0 0.65 30 67 166 130 174 226 212 133 225 54 
493 -0.4477919639866398 -0.09385563484718552 1.4025337579407569 0 0 0 0.46 30 68 57 159 137 100 174 227 212 134 216 169 233 72 
494 -0.5460230343122603 -0.17101094299792063 0.7151503708966447 0 0 0 0.32 30 69 59 110 86 112 116 199 145 117 149 122 154 123 174 228 177 155 193 192 216 170 228 117 
495 -0.5433380621948403 -0.12319037845000425 0.7546506599420367 0 0 0 0.26 30 70 55 48 57 160 58 31 90 45 137 101 139 124 144 191 174 229 216 171 
496 -0.373088614916495 -0.09160220479074799 1.3789094308263816 0 0 0 0.85 30 71 116 200 139 125 174 230 
497 -0.557651608516036 -0.06994070082863364 0.652978758117998 0 0 0 0.19 30 72 57 161 58 32 139 126 140 160 161 130 174 231 183 105 212 135 216 172 218 162 
498 -0.4378813636172747 -0.07379002710745833 1.2220332477576288 0 0 0 0.35 30 73 31 47 37 122 57 162 94 171 116 201 139 127 143 107 154 124 166 131 173 127 174 232 177 156 178 75 210 34 215 93 218 163 225 55 233 73 
499 -0.5537306452478615 -0.15708210901474262 0.693553415806949 0 0 0 0.22 30 74 34 150 119 112 140 161 174 233 177 157 183 106 216 173 228 118 
500 -0.5583377364660056 -0.12617778817123795 0.6575623771407999 0 0 0 0.29 30 75 174 234 205 150 
501 -0.5571607904480471 -0.09245640996943193 0.6845599198394037 0 0 0 0.36 30 76 99 20 174 235 183 107 189 98 205 151 211 123 
502 -0.551083443063921 -0.06287050641849988 0.6677482495771179 0 0 0 0.49 30 77 57 163 58 33 59 111 94 172 99 21 116 202 125 149 132 67 144 192 149 123 154 125 161 131 174 236 193 193 210 35 212 136 215 94 228 119 
503 -0.5305663881869983 -0.05600177945431388 0.7387163245981294 0 0 0 0.45 30 78 174 237 183 108 189 99 
504 -0.5632906476824366 -0.0355126150111341 0.6840545934603721 0 0 0 0.46 30 79 174 238 233 74 
505 -0.550409894661543 -0.00023870949728675388 0.6682954884379547 0 0 0 0.55 30 80 46 91 151 184 161 132 174 239 191 80 
506 -0.5476533657839661 0.0004950454549630419 0.6762876480615734 0 0 0 0.43 30 81 34 151 174 240 
507 -0.4735608811660033 0.03542074303653262 1.0148494247598707 0 0 0 0.44 30 82 57 164 59 112 125 150 139 128 140 162 144 193 145 118 151 185 174 241 189 100 191 81 193 194 202 112 211 124 228 120 
508 -0.4737859538972273 0.03529817819012703 1.015303729562549 0 0 0 0.44 30 83 46 92 55 49 57 165 90 46 132 68 137 102 140 163 144 194 150 83 151 186 174 242 189 101 191 82 202 113 211 125 228 121 
509 -0.46758306005586103 0.040751454645652524 1.0863668589183433 0 0 0 0.32 30 84 37 123 46 93 55 50 57 166 59 113 90 47 116 203 125 151 132 69 140 164 143 108 144 195 150 84 151 187 174 243 189 102 191 83 193 195 202 114 211 126 216 174 228 122 
510 -0.563634335997614 -0.16807920752845662 0.6572240761926497 0 0 0 0.31 30 85 57 167 58 34 116 204 119 113 125 152 139 129 154 126 174 244 202 115 211 127 228 123 
511 -0.5532140534503738 -0.15808040201569676 0.6856581484645824 0 0 0 0.51 30 86 58 35 119 114 125 153 139 130 151 188 161 133 174 245 178 76 183 109 191 84 205 152 215 95 228 124 
512 -0.34276815014036643 -0.08534507942829286 1.3648184108528714 0 0 0 0.67 30 87 31 48 99 22 139 131 154 127 166 132 174 246 178 77 180 65 225 56 
513 -0.5572195089589648 -0.06999693097982518 0.6426032238742857 0 0 0 0.26 30 88 34 152 119 115 125 154 139 132 144 196 151 189 174 247 211 128 228 125 233 75 
514 -0.5303602205216047 -0.16732203674677018 0.7752864611898223 0 0 0 0.47 30 89 94 173 115 27 149 124 166 133 167 28 174 248 202 116 205 153 212 137 
515 -0.5303971662261638 -0.1674221094942559 0.7754071295485622 0 0 0 0.51 30 90 94 174 115 28 119 116 166 134 167 29 174 249 202 117 205 154 212 138 215 96 
516 -0.5273174547634725 -0.13607892813195493 0.7907984764488803 0 0 0 0.47 30 91 55 51 145 119 161 134 174 250 205 155 
517 -0.5505424555065811 -0.11926981041674223 0.671431082365784 0 0 0 0.39 30 92 161 135 174 251 205 156 216 175 
518 -0.4763789619413588 -0.059336160031604426 1.0554366315013264 0 0 0 0.41 30 93 31 49 37 124 57 168 125 155 143 109 166 135 174 252 
519 -0.4399726939659841 -0.055582917496745675 1.2160676637840133 0 0 0 0.25 30 94 116 205 139 133 174 253 
520 -0.4335073417794408 -0.0466306752810271 1.2292477727562932 0 0 0 0.38 30 95 116 206 154 128 174 254 
521 -0.5474903875116554 -0.30645124231495563 1.2987455887753525 0 0 0 1.07 30 96 145 120 174 255 211 129 
522 -0.5469836331607328 -0.15354371466353978 0.7191289785866536 0 0 0 0.47 30 97 58 36 94 175 116 207 119 117 131 88 140 165 144 197 149 125 151 190 174 256 177 158 202 118 211 130 216 176 218 164 225 57 228 126 
523 -0.4750379675207584 -0.09195603855370758 0.9688685821254925 0 0 0 0.41 30 98 55 52 133 37 137 103 145 121 150 85 161 136 174 257 
524 -0.539767077188511 0.002761260730278345 0.728481594639736 0 0 0 1.04 30 99 116 208 132 70 174 258 183 110 189 103 
525 -0.5397687876893241 0.0026864207397271074 0.7284778182943473 0 0 0 1.19 30 100 116 209 132 71 174 259 189 104 
526 -0.45612135501535916 0.0414117993270314 1.1371553348717591 0 0 0 0.58 30 101 46 94 116 210 139 134 174 260 177 159 211 131 233 76 
527 -0.5213790924544187 0.05345479189782132 0.6845523049532226 0 0 0 1.07 30 102 90 48 161 137 174 261 183 111 
528 -0.5119794518305543 0.05297303389939315 0.674389969150941 0 0 0 0.8 30 103 161 138 174 262 183 112 
529 -0.49972431424860475 0.07217354524813539 0.785017531259799 0 0 0 0.99 30 104 34 153 119 118 139 135 174 263 
530 -0.5008136418825727 0.07215942453387604 0.7862949325574746 0 0 0 0.99 30 105 34 154 139 136 174 264 183 113 
531 -0.5241696227698821 -0.14171057855043523 0.7740908751798771 0 0 0 0.57 30 106 144 198 151 191 174 265 
532 -0.5285969862027895 -0.11328978625646144 0.8271880079351284 0 0 0 0.24 30 107 137 104 161 139 174 266 216 177 
533 -0.5244672133620986 -0.0016974524789005472 0.7298523456377976 0 0 0 1.03 30 108 132 72 174 267 
534 -0.533426552984995 0.003785383100877718 0.7638208943524684 0 0 0 0.55 30 109 116 211 140 166 174 268 177 160 193 196 
535 -0.5213610236561756 0.010320994055964487 0.8275752304839271 0 0 0 0.73 30 110 46 95 59 114 90 49 119 119 144 199 174 269 183 114 211 132 
536 -0.4909830531156944 0.019668157166449506 0.9997041062184442 0 0 0 0.52 30 111 37 125 132 73 174 270 183 115 
537 -0.6061870714213307 -0.33873830644376834 0.8841152112990749 0 0 0 0.71 30 112 34 155 45 54 144 200 174 271 205 157 216 178 
538 -0.5482655553231246 -0.006533499560786367 0.6735418096495409 0 0 0 0.38 30 113 161 140 174 272 205 158 216 179 
539 -0.5356775547893035 -0.003994501917876059 0.7038471560081627 0 0 0 0.33 30 114 55 53 161 141 174 273 
540 -0.46824290637309973 0.07251468906248651 0.9656100920048692 0 0 0 0.5 30 115 131 89 139 137 174 274 183 116 
541 -0.4410958090407791 -0.27056278162039143 1.2689629838495808 0 0 0 1.17 30 116 31 50 45 55 57 169 116 212 125 156 131 90 149 126 150 86 154 129 174 275 189 105 218 165 233 77 
542 -0.4228095760928726 0.022430300930900406 1.2233489481659252 0 0 0 0.53 30 117 116 213 174 276 
543 -0.48953368086283344 -0.26947727096888124 0.8785034635045827 0 0 0 0.21 31 51 72 49 106 63 116 214 154 130 177 161 
544 -0.4893023538170728 -0.24837200989948582 0.8734917461669455 0 0 0 0.44 31 52 37 126 45 56 46 96 47 35 86 113 90 50 117 163 125 157 132 74 149 127 150 87 151 192 154 131 173 128 177 162 193 197 216 180 228 127 
545 -0.4846224179849995 -0.24207080760859767 0.9012296245628358 0 0 0 0.18 31 53 139 138 177 163 
546 -0.4766736725050949 -0.1694128052357394 0.9361928792044534 0 0 0 0.1 31 54 106 64 177 164 218 166 
547 -0.4822657595258857 -0.12373120540301508 1.0407919606841145 0 0 0 0.18 31 55 116 215 117 164 166 136 177 165 216 181 226 110 
548 -0.48227802259136093 -0.12386757571230646 1.0410482382648902 0 0 0 0.18 31 56 117 165 216 182 233 78 
549 -0.3732809549493351 -0.0961921351816664 1.3782842747152928 0 0 0 0.87 31 57 99 23 139 139 154 132 174 277 
550 -0.47366999675169535 -0.07234770369616439 1.0601023017719855 0 0 0 0.23 31 58 34 156 37 127 46 97 94 176 116 216 117 166 122 18 140 167 145 122 149 128 151 193 154 133 166 137 177 166 183 117 193 198 202 119 205 159 215 97 216 183 218 167 226 111 228 128 
551 -0.45561002070816337 -0.07301986968824341 1.145380002030581 0 0 0 0.22 31 59 37 128 46 98 86 114 90 51 106 65 116 217 117 167 131 91 140 168 149 129 150 88 151 194 154 134 166 138 173 129 177 167 193 199 210 36 212 139 215 98 216 184 218 168 226 112 228 129 233 79 
552 -0.4447159106504555 -0.07073284751607982 1.2136375007794937 0 0 0 0.35 31 60 45 57 46 99 57 170 72 50 94 177 106 66 116 218 117 168 125 158 144 201 149 130 150 89 151 195 154 135 166 139 173 130 177 168 180 66 186 25 193 200 210 37 211 133 226 113 228 130 233 80 
553 -0.4847292476106769 -0.05726318260605515 1.0373735848576806 0 0 0 0.45 31 61 47 36 117 169 119 120 140 169 145 123 149 131 154 136 177 169 183 118 191 85 193 201 215 99 216 185 218 169 228 131 
554 -0.47166719439805277 -0.053373340528765204 1.0635505636575788 0 0 0 0.3 31 62 72 51 116 219 117 170 139 140 177 170 193 202 211 134 226 114 
555 -0.48055620626662043 -0.03766187965897567 1.0351977225785625 0 0 0 0.24 31 63 46 100 116 220 117 171 125 159 131 92 140 170 177 171 183 119 205 160 211 135 215 100 216 186 226 115 228 132 233 81 
556 -0.4440584003134317 -0.014624931632478844 1.2078997385624526 0 0 0 0.44 30 118 31 64 34 157 37 129 45 58 46 101 55 54 57 171 59 115 72 52 94 178 106 67 116 221 117 172 122 19 125 160 131 93 137 105 140 171 143 110 144 202 149 132 150 90 151 196 154 137 173 131 174 278 177 172 178 78 191 86 193 203 211 136 212 140 215 101 225 58 228 133 
557 -0.44422716493880227 0.029312427522323103 1.205375012077383 0 0 0 0.17 31 65 37 130 45 59 46 102 72 53 106 68 116 222 117 173 125 161 140 172 154 138 193 204 218 170 226 116 228 134 
558 -0.47378811694187173 -0.12269985504234938 1.060365058153271 0 0 0 0.31 31 66 34 158 57 172 59 116 72 54 86 115 117 174 140 173 144 203 150 91 161 142 177 173 183 120 193 205 205 161 216 187 218 171 226 117 228 135 233 82 
559 -0.4670203756416051 -0.11028692308409138 1.105901537734911 0 0 0 0.32 31 67 34 159 37 131 72 55 106 69 117 175 119 121 125 162 144 204 145 124 150 92 166 140 177 174 183 121 191 87 211 137 215 102 216 188 218 172 233 83 
560 -0.353955404222726 -0.09851147282905307 1.3819099344466126 0 0 0 0.63 31 68 116 223 174 279 178 79 
561 -0.46482966560016353 -0.022035854837792523 1.1172457646379266 0 0 0 0.32 31 69 117 176 139 141 215 103 233 84 
562 -0.4692983719588714 0.0033964612364703276 1.081114904189771 0 0 0 0.18 31 70 57 173 72 56 94 179 116 224 117 177 140 174 144 205 145 125 150 93 151 197 166 141 174 280 177 175 178 80 189 106 191 88 193 206 202 120 211 138 212 141 215 104 216 189 218 173 228 136 233 85 
563 -0.4736994958638661 -0.1466826038247349 0.9414506263632394 0 0 0 0.33 31 71 45 60 57 174 59 117 72 57 90 52 94 180 102 60 117 178 119 122 125 163 132 75 139 142 144 206 149 133 166 142 173 132 177 176 193 207 212 142 228 137 
564 -0.5336790489217592 -0.2597003249328927 0.8634253461234898 0 0 0 0.55 31 72 37 132 57 175 117 179 132 76 140 175 183 122 186 26 228 138 
565 -0.46883374840872866 -0.055080631240605214 1.0797550382816201 0 0 0 0.38 7 68 31 73 34 160 37 133 57 176 72 58 86 116 94 181 116 225 117 180 119 123 125 164 131 94 140 176 145 126 150 94 154 139 166 143 173 133 174 281 177 177 202 121 211 139 212 143 228 139 
566 -0.48934598019984604 0.01155986486093675 0.8494347926587567 0 0 0 0.57 31 74 90 53 99 24 140 177 145 127 174 282 178 81 183 123 189 107 191 89 193 208 233 86 
567 -0.42634886706895797 -0.2936626284447582 1.276330733964247 0 0 0 0.59 31 75 154 140 174 283 
568 -0.4896474326285871 0.0008664435014162715 0.8668157819347379 0 0 0 0.59 31 76 34 161 45 61 55 55 57 177 59 118 90 54 115 29 116 226 119 124 125 165 133 38 140 178 144 207 151 198 174 284 177 178 178 82 183 124 193 209 211 140 212 144 215 105 218 174 228 140 233 87 
569 -0.5119305883905818 -0.8601360098752433 1.0022966242004 0 0 0 0.51 34 162 94 182 132 77 144 208 151 199 211 141 
570 -0.5052179348490762 -0.8179024847086857 0.9788072388795308 0 0 0 0.52 34 163 116 227 132 78 189 108 
571 -0.5390885845158936 -0.7956828560065845 0.9424426218282107 0 0 0 0.21 34 164 94 183 151 200 166 144 210 38 
572 -0.5183749351202209 -0.7356235421652362 0.9315604109261659 0 0 0 0.16 34 165 46 103 131 95 151 201 205 162 218 175 
573 -0.5182385345697397 -0.7355110779243286 0.9313568496052663 0 0 0 0.19 34 166 94 184 131 96 151 202 218 176 
574 -0.49168130750637085 -0.7206139842238366 0.9575821926542584 0 0 0 0.48 34 167 46 104 57 178 86 117 119 125 143 111 144 209 166 145 186 27 212 145 
575 -0.4989589728762971 -0.7253049920270626 1.0006118820116405 0 0 0 0.4 34 168 45 62 46 105 57 179 94 185 116 228 119 126 131 97 132 79 139 143 149 134 151 203 166 146 189 109 205 163 211 142 212 146 218 177 
576 -0.49639706056392385 -0.6980408377057369 0.9583863198689022 0 0 0 0.22 34 169 37 134 45 63 57 180 86 118 94 186 116 229 119 127 143 112 144 210 149 135 151 204 166 147 183 125 189 110 191 90 205 164 211 143 212 147 218 178 225 59 226 118 
577 -0.5445554888076 -0.6908477418030963 0.9262645449173803 0 0 0 0.34 34 170 46 106 59 119 86 119 90 55 94 187 131 98 139 144 144 211 151 205 166 148 173 134 189 111 202 122 205 165 211 144 218 179 
578 -0.5014176223581109 -0.6937670995724354 0.9932701664203577 0 0 0 0.17 34 171 46 107 211 145 
579 -0.495414761138366 -0.6559662407295073 0.952513577011148 0 0 0 0.36 34 172 47 37 57 181 94 188 116 230 125 166 132 80 139 145 149 136 151 206 166 149 173 135 186 28 202 123 205 166 211 146 218 180 226 119 
580 -0.4955031787264202 -0.6600491818859268 0.962329853926316 0 0 0 0.25 34 173 131 99 139 146 144 212 
581 -0.4943351248467201 -0.6435826307032343 0.9549194202617898 0 0 0 0.18 34 174 37 135 46 108 186 29 
582 -0.4960209384988655 -0.6201333201310303 0.9506196936915942 0 0 0 0.26 34 175 46 109 94 189 102 61 116 231 144 213 151 207 173 136 205 167 218 181 
583 -0.5553731927157537 -0.553108623422516 0.8866321029443267 0 0 0 0.58 34 176 116 232 218 182 
584 -0.546685293073871 -0.5529303015821463 0.9002463743688013 0 0 0 0.28 34 177 59 120 86 120 116 233 143 113 144 214 151 208 166 150 173 137 218 183 
585 -0.4732271602757736 -0.5379276531052282 0.9319384568724094 0 0 0 0.19 34 178 57 182 86 121 94 190 116 234 125 167 144 215 149 137 166 151 218 184 
586 -0.5038479042302438 -0.48829475651225634 0.8690549280995906 0 0 0 0.38 34 179 37 136 143 114 151 209 177 179 193 210 218 185 226 120 
587 -0.5990593316270514 -0.5393930245440811 0.9342020733706475 0 0 0 0.29 34 180 94 191 139 147 
588 -0.5363050992574463 -0.48710795157636727 0.9092342692375583 0 0 0 0.27 34 181 46 110 57 183 145 128 191 91 226 121 
589 -0.5329019049969191 -0.48459232932206026 0.904356010842269 0 0 0 0.18 34 182 46 111 117 181 
590 -0.4718364669301955 -0.4754606390055878 0.9824478367951599 0 0 0 0.53 34 183 46 112 86 122 102 62 116 235 117 182 119 128 149 138 151 210 161 143 166 152 183 126 193 211 205 168 210 39 216 190 
591 -0.5429931439967136 -0.46205032856039346 0.8848735256441845 0 0 0 0.64 34 184 46 113 94 192 116 236 125 168 145 129 151 211 161 144 183 127 193 212 205 169 218 186 
592 -0.48514171032635806 -0.4402790378690843 0.9241192618868144 0 0 0 0.38 34 185 94 193 116 237 202 124 211 147 
593 -0.4853575620147327 -0.45615322529353175 0.9795518016399356 0 0 0 0.6 34 186 37 137 116 238 117 183 125 169 132 81 139 148 149 139 154 141 183 128 193 213 211 148 216 191 218 187 226 122 
594 -0.6006611081398611 -0.4429697608442506 0.9123635968652927 0 0 0 0.29 34 187 37 138 59 121 86 123 94 194 125 170 139 149 177 180 189 112 193 214 218 188 
595 -0.5970336934967011 -0.4318215372599378 0.9057609207383123 0 0 0 0.14 34 188 94 195 180 67 211 149 
596 -0.49866310037530365 -0.34301409373346115 0.8572449441073672 0 0 0 0.47 34 189 46 114 106 70 116 239 117 184 
597 -0.46684310441450316 -0.34408719200751303 0.9611434181197532 0 0 0 0.48 34 190 37 139 116 240 117 185 125 171 132 82 144 216 161 145 193 215 205 170 215 106 216 192 
598 -0.4613137222011923 -0.3419009459567828 0.9784780812122962 0 0 0 0.39 34 191 46 115 94 196 117 186 125 172 166 153 
599 -0.5925093121935553 -0.21628089314305596 0.5128286802551587 0 0 0 1.09 34 192 55 56 139 150 161 146 174 285 228 141 
600 -0.4891821329412577 -0.2548175725676513 0.8874127116539281 0 0 0 0.56 34 193 37 140 47 38 57 184 117 187 125 173 137 106 144 217 149 140 228 142 
601 -0.47288482976959006 -0.24365712002878845 0.9105443782305912 0 0 0 0.21 34 194 86 124 117 188 154 142 183 129 228 143 
602 -0.5607505980810337 -0.1759777717153796 0.6536963611406489 0 0 0 0.36 34 195 45 64 55 57 58 37 86 125 94 197 116 241 119 129 137 107 140 179 150 95 167 30 174 286 
603 -0.5502793646366556 -0.17702158312712726 0.6974572736734024 0 0 0 0.41 34 196 145 130 174 287 183 130 
604 -0.5419792938774649 -0.12435088954806439 0.7030532782638649 0 0 0 0.26 34 197 45 65 149 141 151 212 174 288 205 171 216 193 218 189 
605 -0.47206801066903253 -0.10536033659725272 1.1053556223155219 0 0 0 0.27 34 198 117 189 119 130 140 180 145 131 166 154 173 138 183 131 193 216 215 107 226 123 
606 -0.5409748045600979 -0.08286326944016399 0.7222662832287746 0 0 0 0.33 34 199 55 58 119 131 132 83 140 181 174 289 183 132 212 148 218 190 
607 -0.4833030012261016 -0.09160294712155614 1.024964749168066 0 0 0 0.21 34 200 57 185 117 190 145 132 183 133 205 172 
