# 3D point list with one line of data per point:
#   POINT3D_ID, X, Y, Z, R, G, B, ERROR, TRACK[] as (IMAGE_ID, POINT2D_IDX)
# Number of points: 390, mean track length: 6.63
114 0.028035556717794948 0.06575941305997648 0.9864591164968085 0 0 0 0.28 4 59 148 72 229 114 
115 0.03297329894210536 0.08634890642337714 0.9834593069418845 0 0 0 0.15 4 60 11 35 38 45 52 22 229 115 
116 -0.03445419956079565 0.12161361703996863 0.9801074977851948 0 0 0 0.23 4 61 16 43 33 63 77 58 85 60 110 26 146 46 164 58 214 44 229 116 
117 -0.35148737356618887 -0.14549040328125373 1.0853001649855258 0 0 0 0.36 4 62 19 22 40 30 85 61 113 38 148 73 224 60 229 117 
118 -0.023128949823218902 -0.10834283509359699 1.020536864827935 0 0 0 0.19 4 63 11 36 16 44 17 23 19 23 25 9 27 26 33 64 38 46 40 31 44 45 50 30 71 13 77 59 85 62 112 19 118 29 126 11 127 18 128 14 135 12 148 74 157 23 164 59 185 26 196 55 200 16 213 49 220 14 224 61 229 118 232 11 
119 -0.10302956983713678 -0.08963528106466678 1.029370815537931 0 0 0 0.26 4 64 11 37 27 27 29 14 33 65 38 47 71 14 110 27 113 39 148 75 159 39 224 62 229 119 
120 0.014290438808633676 -0.08621525386357085 1.0145813323040087 0 0 0 0.31 4 65 16 45 42 19 77 60 109 46 112 20 113 40 118 30 159 40 164 60 176 26 196 56 213 50 214 45 229 120 
121 0.006413765827874291 -0.083969889688102 1.0144568219650354 0 0 0 0.23 4 66 16 46 28 16 38 48 42 20 50 31 77 61 85 63 92 20 109 47 110 28 112 21 113 41 118 31 127 19 146 47 148 76 164 61 185 27 194 22 196 57 213 51 214 46 224 63 229 121 
122 -0.08476371394461882 -0.0841019407737132 1.0241233007794732 0 0 0 0.25 4 67 9 20 11 38 16 47 19 24 27 28 38 49 44 46 52 23 77 62 85 64 109 48 113 42 127 20 135 13 148 77 185 28 194 23 214 47 229 122 
123 -0.1284240118072367 -0.08373564799955109 1.0316130906521923 0 0 0 0.17 4 68 9 21 11 39 16 48 19 25 29 15 44 47 77 63 85 65 93 24 109 49 110 29 113 43 118 32 164 62 176 27 196 58 200 17 213 52 214 48 220 15 224 64 229 123 
124 -0.21122517444190625 -0.0825666018733671 1.0456753863436516 0 0 0 0.24 4 69 9 22 11 40 19 26 27 29 28 17 29 16 33 66 38 50 44 48 77 64 85 66 92 21 109 50 110 30 113 44 127 21 128 15 146 48 148 78 157 24 159 41 162 17 164 63 176 28 185 29 213 53 220 16 224 65 229 124 232 12 
125 -0.21123404097129878 -0.0825995756928858 1.0456982043765732 0 0 0 0.22 4 70 9 23 28 18 33 67 44 49 77 65 85 67 93 25 109 51 110 31 113 45 127 22 128 16 146 49 148 79 157 25 164 64 185 30 196 59 200 18 213 54 220 17 224 66 229 125 232 13 
126 -0.061689273314690984 -0.009631011607753114 1.004865600787229 0 0 0 0.29 4 71 27 30 118 33 148 80 229 126 232 14 
127 -0.14108816377822983 0.05087815409588313 1.008359535950812 0 0 0 0.29 4 72 16 49 33 68 38 51 50 32 146 50 148 81 196 60 229 127 
128 0.03830011984757654 0.05780107826123349 0.9864944238757304 0 0 0 0.37 4 73 11 41 16 50 38 52 77 66 85 68 93 26 146 51 148 82 188 3 194 24 196 61 214 49 229 128 
129 -0.030368074319774375 0.05739860044004115 0.9894060873420407 0 0 0 0.27 4 74 11 42 16 51 44 50 85 69 92 22 118 34 146 52 148 83 159 42 164 65 176 29 185 31 194 25 196 62 213 55 214 50 229 129 
130 -0.026001345766435775 0.0573640371459037 0.9904648963560178 0 0 0 0.26 4 75 11 43 16 52 33 69 38 53 77 67 85 70 92 23 146 53 148 84 164 66 185 32 196 63 213 56 214 51 229 130 
131 -0.02621022443287001 0.05740802843312256 0.9908444960812179 0 0 0 0.28 4 76 148 85 196 64 214 52 229 131 
132 -0.2526120510012055 0.059705188728543086 1.0274543695910066 0 0 0 0.23 4 77 11 44 29 17 77 68 118 35 148 86 164 67 196 65 213 57 229 132 232 15 
133 -0.29467411289304407 0.05956536196013401 1.0321834817440205 0 0 0 0.28 4 78 11 45 17 24 33 70 50 33 77 69 118 36 146 54 148 87 157 26 159 43 196 66 213 58 229 133 
134 -0.2901951839407846 0.060617227291726423 1.0342134014452187 0 0 0 0.16 4 79 11 46 33 71 44 51 77 70 146 55 148 88 157 27 164 68 176 30 229 134 
135 -0.19327831882734206 0.07227155856092445 1.0133207117670244 0 0 0 0.21 4 80 9 24 11 47 17 25 27 31 77 71 128 17 148 89 196 67 229 135 
136 0.004467361605513054 0.08551652105319406 0.9849838974904697 0 0 0 0.24 4 81 9 25 16 53 17 26 28 19 33 72 38 54 44 52 52 24 77 72 92 24 148 90 164 69 196 68 213 59 214 53 229 136 232 16 
137 0.003770278254967257 0.09172792225145425 0.9837595417686535 0 0 0 0.25 4 82 38 55 52 25 77 73 109 52 110 32 213 60 214 54 229 137 
138 -0.032581850708815537 0.11043562119352532 0.9821375800438557 0 0 0 0.22 4 83 11 48 16 54 17 27 27 32 28 20 38 56 52 26 77 74 85 71 92 25 93 27 110 33 118 37 146 56 148 91 164 70 176 31 194 26 213 61 214 55 229 138 232 17 
139 0.0026306985169669743 -0.08104252297793786 1.0142170706038138 0 0 0 0.16 4 84 11 49 17 28 19 27 25 10 27 33 40 32 42 21 52 27 63 5 71 15 77 75 85 72 148 92 162 18 194 27 213 62 229 139 
140 0.010011832881816278 -0.08090338304127931 1.0139003315671509 0 0 0 0.25 4 85 11 50 16 55 19 28 27 34 29 18 33 73 38 57 40 33 42 22 44 53 52 28 77 76 85 73 92 26 93 28 109 53 112 22 118 38 126 12 128 18 135 14 146 57 148 93 159 44 162 19 164 71 185 33 194 28 196 69 213 63 214 56 220 18 224 67 229 140 
141 -0.2504555219130761 -0.01338750843990043 1.0444892278947324 0 0 0 0.24 4 86 17 29 19 29 33 74 44 54 71 16 118 39 146 58 148 94 162 20 164 72 196 70 213 64 220 19 229 141 232 18 
142 -0.2646982040020701 -0.013145923856014078 1.04358626469471 0 0 0 0.34 4 87 11 51 17 30 50 34 118 40 229 142 
143 -0.1784845048688102 0.0885801328243794 1.0098806033943546 0 0 0 0.36 4 88 27 35 28 21 229 143 232 19 
144 0.02331954086272633 -0.13303725508681605 1.0209923197447486 0 0 0 0.37 4 89 52 29 77 77 113 46 135 15 142 18 148 95 164 73 214 57 229 144 232 20 
145 -0.06178033489745839 -0.09065774279077944 1.0196834498098664 0 0 0 0.29 4 90 9 26 11 52 16 56 17 31 19 30 25 11 26 12 27 36 29 19 33 75 38 58 40 34 42 23 52 30 63 6 71 17 77 78 85 74 93 29 109 54 113 47 118 41 126 13 127 23 142 19 146 59 148 96 159 45 162 21 164 74 185 34 194 29 196 71 200 19 213 65 214 58 220 20 224 68 229 145 
146 -0.2130510577003099 -0.014115092970157901 1.037960571226178 0 0 0 0.3 4 91 11 53 17 32 19 31 27 37 29 20 33 76 40 35 44 55 71 18 77 79 85 75 113 48 118 42 126 14 142 20 148 97 159 46 162 22 164 75 176 32 196 72 213 66 224 69 229 146 232 21 
147 -0.3113349778003657 0.024643352643419898 1.0452468558993329 0 0 0 0.35 4 92 19 32 29 21 40 36 44 56 52 31 71 19 73 1 77 80 85 76 92 27 109 55 110 34 113 49 127 24 146 60 148 98 159 47 162 23 164 76 196 73 220 21 224 70 229 147 
148 -0.3070125999937134 0.026445807534922677 1.0444906121682267 0 0 0 0.4 4 93 17 33 19 33 25 12 44 57 52 32 73 2 77 81 146 61 148 99 164 77 220 22 224 71 229 148 
149 -0.053836526464421275 -0.09551976993656432 1.0194490471402318 0 0 0 0.33 4 94 9 27 16 57 25 13 26 13 27 38 38 59 40 37 42 24 44 58 52 33 71 20 77 82 85 77 93 30 109 56 113 50 126 15 127 25 135 16 146 62 148 100 159 48 164 78 185 35 194 30 196 74 200 20 214 59 224 72 229 149 
150 -0.3169682299530304 -0.039261876810119806 1.0584946934712465 0 0 0 0.29 4 95 17 34 26 14 71 21 198 8 199 4 229 150 
151 -0.013753881764144263 0.07096257780843286 0.9897880848082998 0 0 0 0.34 4 96 11 54 17 35 25 14 26 15 38 60 85 78 113 51 118 43 164 79 196 75 198 9 213 67 229 151 232 22 
152 -0.05356126284623149 -0.14999745750223786 1.0296089696567259 0 0 0 0.33 9 28 33 77 109 57 112 23 213 68 229 152 
153 0.04126643510620157 -0.08346127951634326 1.0126660873517075 0 0 0 0.23 9 29 213 69 229 153 
154 0.007309517300033283 0.06960611886881789 0.987581944552589 0 0 0 0.36 9 30 38 61 52 34 148 101 194 31 213 70 229 154 
155 0.026979407605542665 -0.13546665612826417 1.0221735448172649 0 0 0 0.8 9 31 38 62 44 59 77 83 146 63 164 80 229 155 
156 -0.03537636467962514 -0.08444774654908833 1.0160236342390792 0 0 0 0.22 9 32 28 22 38 63 77 84 112 24 113 52 146 64 157 28 214 60 229 156 
157 0.023405311372274487 -0.08105430092567903 1.0124716306134496 0 0 0 0.33 9 33 33 78 196 76 229 157 
158 -0.12396832207735375 -0.08903909362971532 1.0333405032098069 0 0 0 0.36 9 34 50 35 110 35 113 53 176 33 200 21 229 158 
159 -0.22277305075706919 0.04212874373976678 1.021592916896041 0 0 0 0.28 9 35 44 60 52 35 109 58 148 102 159 49 229 159 
160 -0.04190492434946885 -0.11129837909600859 1.0208352209038125 0 0 0 0.65 9 36 38 64 42 25 85 79 146 65 164 81 196 77 200 22 229 160 
161 -0.05083915374499939 -0.1050142687903119 1.0212488614949895 0 0 0 0.59 9 37 164 82 200 23 213 71 229 161 
162 -0.40671646678096274 -0.02970871870448835 1.0747919149587382 0 0 0 0.14 19 34 85 80 229 162 
163 -0.4026929704774119 -0.03791450092706679 1.0716303759788783 0 0 0 0.26 40 38 52 36 85 81 142 21 159 50 229 163 
164 -0.056580401317256376 -0.17432540631199311 1.0392459295039111 0 0 0 0.3 9 38 19 35 40 39 77 85 196 78 224 73 229 164 
165 -0.40005670426588075 -0.03145280194632317 1.0735244739985943 0 0 0 0.25 44 61 85 82 142 22 224 74 229 165 
166 -0.0613730474821275 -0.18458455625795694 1.0407383261952883 0 0 0 0.5 9 39 40 40 63 7 77 86 126 16 142 23 159 51 196 79 214 61 229 166 
167 -0.13863456909585886 -0.10000939963767146 1.0363314100947199 0 0 0 0.71 9 40 33 79 40 41 44 62 63 8 77 87 142 24 159 52 164 83 185 36 220 23 
168 -0.2807339025444367 -0.011585900323265435 1.0498228508434244 0 0 0 0.41 19 36 40 42 52 37 85 83 142 25 196 80 229 167 
169 -0.004300790673859838 -0.1349968379203931 1.017700894276922 0 0 0 1.21 9 41 40 43 109 59 159 53 196 81 229 168 
170 0.015287333504354642 -0.1172512997269882 1.020140850514876 0 0 0 0.16 11 55 16 58 33 80 157 29 200 24 213 72 224 75 229 169 
171 -0.016412790561970106 -0.10614499500108528 1.0189070972951721 0 0 0 0.34 11 56 16 59 33 81 38 65 109 60 127 26 213 73 229 170 
172 0.03358425191632276 -0.09986107281978764 1.016372226710555 0 0 0 0.21 11 57 33 82 38 66 52 38 109 61 164 84 196 82 213 74 229 171 
173 0.04075909286250664 -0.09121069260675192 1.0141959699413232 0 0 0 0.11 11 58 33 83 214 62 
174 -0.04159102542985052 -0.08698104530631677 1.0173897658374706 0 0 0 0.31 11 59 16 60 28 23 176 34 213 75 229 172 
175 0.01043607888322683 -0.08613949558275474 1.0146837835445504 0 0 0 0.24 11 60 33 84 38 67 44 63 77 88 110 36 113 54 148 103 157 30 194 32 213 76 214 63 229 173 
176 0.03673934661560151 -0.03881557196717794 1.007272328325178 0 0 0 0.16 11 61 52 39 229 174 
177 0.01733700974371696 -0.021422720602530476 1.005802791853514 0 0 0 0.22 11 62 52 40 127 27 229 175 
178 0.03812643265388693 -0.01805434587433563 1.002918744866224 0 0 0 0.05 11 63 33 85 164 85 229 176 
179 -0.2532316859494287 -0.010850266900872253 1.0429003162852741 0 0 0 0.39 11 64 33 86 50 36 52 41 164 86 224 76 229 177 
180 0.00319120708815091 -0.008983297034797185 1.0040504208661223 0 0 0 0.14 11 65 16 61 229 178 
181 0.03372331766912624 0.0669100430869939 0.9867596698511322 0 0 0 0.17 11 66 38 68 85 84 213 77 229 179 
182 -0.0017791883916856309 0.08500882528034445 0.9848171958275717 0 0 0 0.43 11 67 52 42 148 104 229 180 
183 -0.05536954208061373 0.08854486474440056 0.9863261415907023 0 0 0 0.5 11 68 52 43 229 181 
184 0.03902560726615475 0.09243728468338426 0.982351656534991 0 0 0 0.18 11 69 16 62 28 24 93 31 146 66 213 78 214 64 229 182 
185 0.03274545627759143 0.09645680248935003 0.9821455308394376 0 0 0 0.24 11 70 146 67 213 79 229 183 
186 -0.034325080283933385 0.11285393870720736 0.9818224788317748 0 0 0 0.28 11 71 16 63 28 25 38 69 52 44 77 89 92 28 93 32 110 37 146 68 148 105 176 35 213 80 214 65 229 184 
187 -0.05488018901077012 -0.14225295240599242 1.0298752040250643 0 0 0 0.33 11 72 16 64 33 87 44 64 50 37 148 106 196 83 229 185 
188 -0.1813453994454912 -0.13049556796045658 1.0527354823279509 0 0 0 0.37 11 73 109 62 229 186 
189 -0.043491498550837 -0.09048311133095664 1.0184294560210112 0 0 0 0.54 11 74 19 37 85 85 93 33 113 55 224 77 229 187 
190 -0.08684296340381396 -0.08930780672020208 1.02609728504781 0 0 0 0.34 11 75 16 65 17 36 50 38 77 90 113 56 162 24 164 87 176 36 196 84 213 81 224 78 229 188 
191 -0.2781296772892982 -0.08416834646120581 1.058430372267788 0 0 0 0.17 11 76 110 38 148 107 224 79 229 189 
192 -0.053398412854125915 -0.016243760990215343 1.0087574504053243 0 0 0 0.28 11 77 16 66 77 91 85 86 127 28 128 19 142 26 148 108 159 54 194 33 196 85 213 82 214 66 229 190 
193 -0.055817700637356464 -0.01581431839713703 1.0076302268037325 0 0 0 0.19 11 78 38 70 52 45 148 109 196 86 213 83 229 191 
194 0.005080769528967874 -0.0034034167997762836 1.0018217820005748 0 0 0 0.27 11 79 33 88 118 44 148 110 229 192 
195 0.03191375330426519 0.057927142346937306 0.9866505689102911 0 0 0 0.24 11 80 159 55 194 34 229 193 
196 -0.10337820755385764 0.05970502066765854 0.9994654833037495 0 0 0 0.27 11 81 16 67 28 26 33 89 44 65 50 39 92 29 93 34 128 20 135 17 146 69 148 111 157 31 159 56 164 88 176 37 200 25 213 84 224 80 229 194 
197 -0.033674478496244664 0.07376330203060588 0.9880294598169541 0 0 0 0.38 11 82 17 37 33 90 52 46 118 45 146 70 229 195 
198 -0.0020802695180342024 0.08132338866642115 0.9855851045380116 0 0 0 0.29 11 83 33 91 229 196 
199 0.03780417540483143 0.0900815120373342 0.9827940874990619 0 0 0 0.56 11 84 38 71 229 197 
200 -0.05380835279916128 -0.1477182379207296 1.0305832108615005 0 0 0 0.32 11 85 27 39 50 40 71 22 128 21 142 27 196 87 229 198 232 23 
201 -0.2831570424323858 -0.09124995615278454 1.057306675385276 0 0 0 0.3 11 86 77 92 148 112 229 199 
202 -0.09731777530585606 -0.02234455994850799 1.0175846547038983 0 0 0 0.32 11 87 26 16 146 71 159 57 229 200 
203 -0.2616509612972625 0.06862237672548986 1.0255696587069572 0 0 0 0.29 11 88 27 40 85 87 148 113 164 89 176 38 229 201 
204 -0.18627758432385133 0.08387172404541346 1.0104785606886264 0 0 0 0.25 11 89 27 41 148 114 196 88 229 202 
205 -0.08817928822342355 0.09172936480420167 0.9956909188193463 0 0 0 0.41 11 90 25 15 52 47 77 93 118 46 148 115 229 203 
206 -0.1390945177654899 0.09339363784066759 1.003644402854534 0 0 0 0.28 11 91 17 38 27 42 28 27 77 94 118 47 148 116 229 204 
207 -0.09734568312835283 0.09282678045744666 0.995595101731047 0 0 0 0.31 11 92 25 16 26 17 27 43 42 26 52 48 63 9 148 117 229 205 
208 -0.14996154662041417 0.11110997012411769 0.9993631412536971 0 0 0 0.23 11 93 17 39 229 206 
209 -0.13628682808340048 0.0882433808148488 1.0052685443130298 0 0 0 0.38 11 94 77 95 118 48 148 118 164 90 229 207 
210 -0.06711309726995889 -0.09769394233614083 1.0196899491365363 0 0 0 0.86 11 95 25 17 26 18 27 44 38 72 77 96 109 63 126 17 127 29 146 72 148 119 185 37 224 81 229 208 
211 -0.01372310712316156 0.07092464542126772 0.989839531031883 0 0 0 0.27 11 96 17 40 38 73 85 88 113 57 118 49 198 10 213 85 229 209 232 24 
212 0.03739875020563127 -0.0975165958086343 1.0153889367136995 0 0 0 0.23 16 68 213 86 229 210 
213 -0.012447195055589496 -0.09094960363129424 1.0172454220127451 0 0 0 0.21 16 69 33 92 157 32 229 211 
214 0.013553953985461623 0.08196286509277134 0.9895234317344815 0 0 0 0.45 16 70 38 74 93 35 109 64 127 30 229 212 
215 0.013548493123748156 0.08193431123224697 0.9896463702670024 0 0 0 0.34 16 71 38 75 93 36 113 58 194 35 213 87 229 213 
216 0.007050360894919094 -0.08633670335751358 1.0147246246289627 0 0 0 0.35 16 72 33 93 113 59 159 58 185 38 213 88 229 214 
217 -0.16934952465287764 0.058438588415577856 1.0160601375331508 0 0 0 0.54 16 73 77 97 85 89 148 120 159 59 213 89 229 215 
218 0.03714044060251611 0.08395283204124505 0.9837241705545099 0 0 0 0.21 16 74 28 28 38 76 52 49 77 98 118 50 148 121 213 90 229 216 
219 -0.17298036970651584 -0.09288164208446453 1.0389004291685586 0 0 0 0.51 19 38 40 44 44 66 85 90 109 65 142 28 220 24 229 217 
220 -0.030588472391208158 0.057411228381008234 0.9899564761037639 0 0 0 0.38 16 75 17 41 85 91 148 122 159 60 185 39 194 36 196 89 214 67 229 218 
221 0.005081493350473261 0.06794500476576115 0.9875320553726957 0 0 0 0.21 16 76 52 50 77 99 126 18 148 123 164 91 194 37 229 219 
222 0.026724167466885072 -0.12874366198226786 1.0214583098757273 0 0 0 0.36 16 77 27 45 40 45 42 27 63 10 77 100 85 92 126 19 135 18 142 29 146 73 148 124 159 61 164 92 185 40 196 90 224 82 229 220 232 25 
223 -0.0674624418153041 -0.09420465565330335 1.0206131218291459 0 0 0 0.27 16 78 25 18 40 46 42 28 44 67 93 37 109 66 196 91 214 68 229 221 
224 -0.030326805575353236 0.08704927358978944 0.9855060458880722 0 0 0 0.46 16 79 93 38 118 51 142 30 213 91 229 222 
225 -0.17864865588540216 -0.03755109394705223 1.0356493674868652 0 0 0 0.17 17 42 52 51 148 125 229 223 
226 -0.001152855917196989 -0.11974052143922125 1.0207814262247235 0 0 0 0.26 19 39 33 94 148 126 196 92 229 224 
227 -0.3529376625569788 -0.13406726060093715 1.082608171791628 0 0 0 0.3 19 40 85 93 148 127 229 225 
228 -0.06810476469545075 -0.08659942855479093 1.0185527059338877 0 0 0 0.37 19 41 33 95 40 47 77 101 148 128 185 41 196 93 224 83 229 226 
229 -0.09713462320005155 -0.08715780037474459 1.0271128125337683 0 0 0 0.29 19 42 40 48 110 39 113 60 157 33 159 62 162 25 164 93 176 39 229 227 
230 -0.11546422270900211 -0.08378944995114046 1.028724312061647 0 0 0 0.29 19 43 40 49 77 102 85 94 159 63 164 94 185 42 229 228 
231 -0.1154365839559095 -0.08379548847835472 1.028723461222042 0 0 0 0.35 19 44 40 50 77 103 85 95 185 43 229 229 
232 -0.14493917699380465 -0.08358031855943752 1.033600258747325 0 0 0 0.2 19 45 33 96 52 52 85 96 92 30 109 67 113 61 148 129 164 95 196 94 214 69 220 25 224 84 229 230 232 26 
233 -0.16863727368155662 -0.08355214289568516 1.0383721702421518 0 0 0 0.26 19 46 27 46 33 97 52 53 85 97 110 40 148 130 159 64 229 231 
234 -0.2149032129289418 -0.06218683947474046 1.0464609142987287 0 0 0 0.39 19 47 42 29 200 26 229 232 
235 -0.25327259584501594 -0.018764242002261934 1.0441046957074804 0 0 0 0.16 19 48 26 19 44 68 52 54 77 104 148 131 196 95 224 85 229 233 
236 -0.2923100822890794 0.11001568942810774 1.0241493830294228 0 0 0 0.2 19 49 196 96 229 234 
237 -0.14400048385957176 -0.1464413281898187 1.0485123518573058 0 0 0 0.25 19 50 148 132 196 97 229 235 
238 0.022036569341133908 -0.10945104009620199 1.0192182392740592 0 0 0 0.38 19 51 25 19 38 77 40 51 42 30 52 55 77 105 85 98 93 39 113 62 126 20 142 31 148 133 159 65 162 26 164 96 185 44 196 98 200 27 224 86 229 236 232 27 
239 -0.049959796732878765 -0.11102810380554022 1.0184373199933203 0 0 0 0.43 19 52 28 29 85 99 92 31 146 74 176 40 194 38 200 28 224 87 229 237 
240 -0.23671441505201982 -0.08806083316214494 1.0526103305802315 0 0 0 0.18 19 53 85 100 148 134 229 238 
241 -0.3661222280422286 -0.07843131028330519 1.0760610041059255 0 0 0 0.14 19 54 40 52 159 66 224 88 229 239 
242 -0.39454496490273033 -0.06513397663380345 1.0797368048921276 0 0 0 0.29 19 55 40 53 85 101 126 21 142 32 148 135 159 67 224 89 229 240 
243 -0.32927839650919327 -0.04845910786987648 1.06318290972611 0 0 0 0.17 19 56 52 56 229 241 
244 -0.31057824780926285 -0.036006052450770355 1.0568794223760407 0 0 0 0.11 19 57 40 54 85 102 142 33 229 242 
245 -0.3950857782142485 -0.037952539342246266 1.0726379579423615 0 0 0 0.24 19 58 40 55 52 57 85 103 142 34 159 68 196 99 224 90 229 243 
246 -0.39776143373849904 0.0034115077483507818 1.065656594350169 0 0 0 0.42 19 59 40 56 85 104 142 35 224 91 229 244 
247 -0.39576088225840633 0.0213036090190785 1.062327975027982 0 0 0 0.6 19 60 52 58 159 69 224 92 229 245 
248 -0.3487900512234676 -0.14212931584678143 1.086191472994136 0 0 0 0.23 19 61 113 63 118 52 126 22 142 36 148 136 229 246 232 28 
249 -0.34884514132516414 -0.14221518219825843 1.0862267979518754 0 0 0 0.24 19 62 29 22 113 64 118 53 126 23 148 137 229 247 232 29 
250 -0.23949000350143604 -0.12883687437213015 1.0578326185961089 0 0 0 0.23 19 63 142 37 229 248 
251 -0.293461409110338 -0.11716246894316751 1.074497454577194 0 0 0 0.22 19 64 159 70 229 249 
252 -0.3338980076134262 0.0710213385160192 1.0419263908746117 0 0 0 0.22 19 65 40 57 42 31 52 59 77 106 148 138 229 250 
253 -0.33340373743487484 0.0709415615764546 1.0411594169335916 0 0 0 0.25 19 66 40 58 44 69 52 60 77 107 85 105 109 68 142 38 148 139 159 71 196 100 220 26 229 251 
254 -0.39817396040011604 0.08987913923919559 1.0503384123822241 0 0 0 0.31 19 67 224 93 229 252 
255 -0.23583153046303212 0.09955583786888604 1.0160658262325926 0 0 0 0.36 19 68 224 94 229 253 
256 -0.3460141145364577 -0.18451170122416752 0.8668677527213414 0 0 0 0.33 19 69 142 39 229 254 
257 -0.343724548925508 -0.17896892076496657 0.8755034034991144 0 0 0 0.37 19 70 142 40 224 95 229 255 
258 -0.12169919649375414 -0.13707683921250796 1.0407277628851619 0 0 0 0.32 19 71 40 59 85 106 142 41 196 101 229 256 
259 -0.3411213842325017 -0.09581336384998779 0.9115460094349376 0 0 0 0.47 19 72 159 72 229 257 
260 -0.34222011887764403 -0.01892616333208243 0.8804402571569757 0 0 0 0.09 19 73 142 42 159 73 229 258 
261 -0.1517008799122767 -0.127791997873573 1.0453632791404375 0 0 0 0.21 19 74 148 140 229 259 
262 -0.34874529561822293 -0.13700862811785802 1.085322639008048 0 0 0 0.26 19 75 42 32 126 24 142 43 148 141 198 11 199 5 229 260 
263 -0.13675099641080168 -0.110017619218369 1.0408842802934153 0 0 0 0.34 19 76 27 47 142 44 196 102 220 27 224 96 229 261 
264 -0.34281377860868956 -0.10571992285411806 0.9148067724210422 0 0 0 0.18 19 77 159 74 229 262 
265 -0.3977529034558788 -0.04435793304501215 1.0713907390094313 0 0 0 0.33 19 78 40 60 52 61 142 45 229 263 
266 -0.34324408549944174 -0.030778886722756575 0.8658429349834678 0 0 0 0.6 19 79 142 46 224 97 229 264 
267 0.012094547880116695 0.10089027387191295 0.9860721179367161 0 0 0 0.52 19 80 33 98 42 33 142 47 162 27 196 103 220 28 229 265 
268 -0.34290372183281354 -0.18470104648077673 0.8798203088282669 0 0 0 0.54 19 81 142 48 224 98 229 266 
269 -0.12818600658538373 -0.14681846384167518 1.045384505014147 0 0 0 0.47 19 82 142 49 229 267 
270 -0.340933432606053 -0.13132762787906146 0.8997968845478153 0 0 0 0.37 19 83 26 20 229 268 
271 -0.027688376434495343 -0.11361393456453715 1.0206521220469873 0 0 0 0.42 19 84 26 21 27 48 33 99 38 78 40 61 71 23 77 108 127 31 142 50 148 142 164 97 196 104 199 6 229 269 
272 -0.3451329237656252 -0.10244227243813585 0.8759224398016212 0 0 0 0.3 19 85 142 51 159 75 229 270 
273 -0.358341756137946 -0.13173151975665404 1.079458567831336 0 0 0 0.54 19 86 73 3 85 107 142 52 148 143 159 76 199 7 229 271 
274 -0.34746759558499807 -0.1040716910652278 0.8643517502121731 0 0 0 0.26 19 87 142 53 229 272 
275 -0.3393361118430521 -0.014130286472233697 0.8966429723524217 0 0 0 0.29 19 88 126 25 142 54 148 144 159 77 164 98 229 273 
276 -0.27903643344068174 -0.011437117582741655 1.047768247377011 0 0 0 0.44 19 89 40 62 52 62 85 108 126 26 142 55 148 145 196 105 229 274 
277 -0.3171770545037857 0.08809565034511217 1.0302243203529877 0 0 0 0.6 19 90 77 109 229 275 
278 -0.07855990909140934 -0.10169222269175136 1.0208743599693264 0 0 0 0.37 25 20 26 22 33 100 71 24 77 110 110 41 113 65 128 22 146 75 148 146 159 78 164 99 194 39 213 92 229 276 232 30 
279 -0.3357964509283658 -0.06524412598277288 1.0661779486120522 0 0 0 0.29 25 21 40 63 42 34 126 27 224 99 229 277 
280 -0.31177635596615944 0.015102481817818486 1.0463744696356663 0 0 0 0.3 25 22 118 54 126 28 159 79 220 29 229 278 
281 0.0014277519863336013 0.05768449601453607 0.9885894040859275 0 0 0 0.27 25 23 26 23 29 23 85 109 109 69 113 66 148 147 194 40 229 279 
282 -0.3657349119294019 0.010736097820057853 0.49727698561953615 0 0 0 0.72 25 24 26 24 73 4 229 280 
283 0.011218259593754876 0.08419007500229879 0.9890513849793823 0 0 0 0.29 25 25 26 25 27 49 29 24 33 101 77 111 118 55 142 56 194 41 196 106 229 281 
284 0.010760051904636648 0.0928233599230408 0.9876895317015353 0 0 0 0.29 25 26 33 102 42 35 52 63 142 57 148 148 162 28 194 42 196 107 220 30 229 282 
285 -0.10767397244805371 0.10875248397800268 0.9925533414218709 0 0 0 0.27 25 27 126 29 148 149 229 283 
286 -0.26877402664267797 -0.08747308782033404 1.052548609478087 0 0 0 1.03 25 28 71 25 148 150 159 80 164 100 196 108 224 100 229 284 232 31 
287 -0.3644357691197221 -0.09286260418779632 0.5291164631422773 0 0 0 0.4 25 29 73 5 229 285 
288 -0.09316042323488967 0.09542330061000676 0.9958857503853674 0 0 0 0.28 25 30 142 58 229 286 
289 -0.0022754450879443355 0.0999233316810442 0.9831454923299542 0 0 0 0.59 25 31 42 36 52 64 93 40 110 42 142 59 164 101 196 109 214 70 229 287 
290 -0.26177232777012244 0.1093683417432648 1.0187901179547882 0 0 0 0.32 25 32 26 26 52 65 71 26 126 30 148 151 196 110 220 31 224 101 229 288 
291 -0.3071790523514461 0.004802492647824769 1.046846459051621 0 0 0 0.28 25 33 40 64 127 32 148 152 164 102 198 12 199 8 220 32 224 102 229 289 
292 -0.15305631759320068 0.10116857683780824 1.0010648315846462 0 0 0 0.42 25 34 26 27 33 103 77 112 113 67 126 31 142 60 148 153 196 111 229 290 
293 -0.3310550930863709 0.07689178183785858 1.0402167139840646 0 0 0 0.43 25 35 40 65 42 37 142 61 229 291 
294 -0.3579226158934433 -0.23767187299134554 0.692564495040846 0 0 0 0.68 25 36 73 6 229 292 
295 -0.03034609077973429 0.07099115996009785 0.9901395691591977 0 0 0 0.2 25 37 38 79 77 113 85 110 146 76 148 154 164 103 194 43 198 13 229 293 
296 -0.030465303170103077 0.07094860249340967 0.9903868019607497 0 0 0 0.21 25 38 77 114 85 111 148 155 164 104 194 44 196 112 198 14 229 294 
297 -0.02783445727535636 0.04784454194425327 0.992141034180391 0 0 0 0.42 25 39 142 62 198 15 213 93 229 295 
298 -0.2955334563187774 0.0902870966162 1.0285025658563833 0 0 0 0.33 25 40 199 9 220 33 224 103 229 296 
299 -0.3645109880039795 -0.21108271289170663 0.5786120709125678 0 0 0 0.4 26 28 63 11 224 104 229 297 
300 -0.3648170025925662 -0.2045388168740413 0.552237367053251 0 0 0 0.74 26 29 224 105 229 298 
301 -0.05333532618705631 -0.14757493432191335 1.0300168737761461 0 0 0 0.3 26 30 71 27 142 63 196 113 229 299 
302 -0.3525183180037512 -0.1393881322305632 0.7610325239328872 0 0 0 0.38 26 31 142 64 229 300 
303 0.03270899212778434 -0.07679975913084174 1.0113983501713484 0 0 0 0.31 26 32 40 66 52 66 127 33 142 65 148 156 159 81 194 45 196 114 224 106 229 301 
304 -0.10934751235647214 -0.09004579852472186 1.0291942266591634 0 0 0 0.48 26 33 38 80 42 38 71 28 85 112 110 43 148 157 185 45 220 34 229 302 
305 -0.0032611523881773685 -0.021969472444816732 1.0054317141011135 0 0 0 0.44 26 34 42 39 142 66 229 303 
306 -0.08894395981652674 -0.02194824379247262 1.0140293409012093 0 0 0 0.3 26 35 63 12 93 41 109 70 142 67 148 158 224 107 229 304 
307 -0.24969258797424257 -0.02626829696000043 1.0462459547957774 0 0 0 0.31 26 36 40 67 220 35 224 108 229 305 
308 -0.15106178887744962 0.05747760892889809 1.0082128999589042 0 0 0 0.3 26 37 109 71 229 306 
309 -0.3431688376711856 0.01112757724453192 0.6296087757904163 0 0 0 0.36 26 38 142 68 229 307 
310 -0.26744377225714017 0.0762525706273677 1.0242666589808989 0 0 0 0.41 26 39 33 104 92 32 229 308 
311 -0.06177668356593276 0.09393133312790311 0.9854652908102142 0 0 0 0.23 26 40 42 40 52 67 142 69 229 309 
312 -0.34492267644223523 0.11135091333119156 1.0350801465760169 0 0 0 0.6 26 41 142 70 159 82 229 310 
313 -0.35257371759947675 -0.2099762743961088 0.6943596374146636 0 0 0 0.55 26 42 63 13 142 71 229 311 
314 -0.35908155416686244 -0.1352151152197599 0.5699559585770457 0 0 0 0.42 26 43 73 7 229 312 
315 -0.36669696520220424 -0.06572513912361153 0.5109905569532904 0 0 0 0.27 26 44 73 8 198 16 229 313 
316 -0.030370101733259908 0.03791117310042698 0.9937241512782629 0 0 0 0.19 26 45 142 72 229 314 
317 -0.3674960560419776 0.015536605362718947 0.4959980735196287 0 0 0 0.35 26 46 199 10 229 315 
318 0.029486611522269408 -0.12257116317561871 1.0199730904494515 0 0 0 0.23 26 47 40 68 42 41 71 29 85 113 128 23 142 73 148 159 159 83 196 115 220 36 224 109 229 316 
319 -0.36825867213923574 -0.16004461919404156 0.48481019253935587 0 0 0 0.82 26 48 224 110 229 317 
320 -0.3395527652896642 -0.13816839913031095 0.9028747685930684 0 0 0 0.32 26 49 142 74 159 84 198 17 199 11 224 111 229 318 
321 -0.017237530426315456 -0.07614248186920206 1.0144877799020706 0 0 0 0.41 26 50 63 14 71 30 113 68 162 29 176 41 198 18 229 319 
322 -0.35891834422133867 -0.11294143054344177 0.638646056678724 0 0 0 0.32 26 51 63 15 73 9 142 75 199 12 229 320 
323 -0.36810754442632393 -0.1108655866343777 1.0834078904845745 0 0 0 0.22 26 52 40 69 52 68 85 114 142 76 148 160 164 105 224 112 229 321 
324 -0.3361778258894372 -0.003118574300388395 1.0569594418830297 0 0 0 0.39 26 53 40 70 142 77 148 161 159 85 196 116 220 37 224 113 229 322 
325 0.017843295543427194 0.05710541987468241 0.9914470606485555 0 0 0 0.25 26 54 126 32 127 34 142 78 148 162 229 323 
326 -0.13305157861376948 -0.07437934060409485 1.0333386904436814 0 0 0 0.42 26 55 33 105 127 35 142 79 229 324 
327 -0.37072828092178217 -0.09183178330824901 0.4659365006408736 0 0 0 0.2 26 56 199 13 229 325 
328 -0.35346625896649864 -0.14428067442927411 0.6703441554351973 0 0 0 0.58 26 57 142 80 198 19 199 14 229 326 
329 -0.048000386470405956 0.07055922053625036 0.991516137563597 0 0 0 0.22 26 58 85 115 126 33 142 81 148 163 196 117 229 327 
330 -0.034040880940203855 -0.1214905486500189 1.017587056954066 0 0 0 1.03 27 50 38 81 44 70 85 116 229 328 
331 0.03181173458684371 -0.108819406383996 1.0168060104609873 0 0 0 0.18 27 51 33 106 148 164 229 329 
332 -0.28505603850187095 -0.08377048248300652 1.0583500558664418 0 0 0 0.23 29 25 44 71 52 69 77 115 85 117 109 72 126 34 128 24 159 86 162 30 164 106 196 118 229 330 
333 0.020038345902095064 -0.022566584991825508 1.0055891183795904 0 0 0 0.15 27 52 42 42 85 118 127 36 148 165 196 119 229 331 
334 -0.029282749877025428 -0.11911197396488273 1.0208594310686177 0 0 0 0.68 27 53 38 82 128 25 148 166 185 46 200 29 229 332 
335 -0.2881533313326261 -0.08124407212654672 1.0575866650753085 0 0 0 0.61 40 71 52 70 77 116 85 119 109 73 113 69 164 107 229 333 
336 -0.3403137928565671 0.012087445838255599 1.0509946727210302 0 0 0 0.2 40 72 142 82 196 120 224 114 229 334 
337 -0.21173450008848893 -0.08825368360515097 1.0469828166543234 0 0 0 0.43 27 54 29 26 33 107 110 44 113 70 127 37 128 26 148 167 157 34 159 87 162 31 200 30 213 94 220 38 224 115 229 335 
338 -0.28407126533787747 -0.08746735430712138 1.060212236526818 0 0 0 0.28 29 27 33 108 73 10 77 117 85 120 92 33 110 45 113 71 142 83 159 88 162 32 196 121 213 95 220 39 224 116 229 336 
339 -0.010734492451516002 -0.12087621339139286 1.019426000469022 0 0 0 0.25 27 55 164 108 224 117 229 337 
340 -0.3490935432828562 -0.00791548407103272 0.7722530953091531 0 0 0 0.23 126 35 142 84 229 338 
341 -0.3498977229651833 -0.015751173874417292 0.7874983853046116 0 0 0 0.27 73 11 126 36 142 85 229 339 
342 -0.033875540256935496 -0.11918807584704656 1.019943899442705 0 0 0 0.58 28 30 112 25 214 71 229 340 
343 0.0380486902911942 0.06542244987214474 0.98664784851174 0 0 0 0.08 28 31 213 96 229 341 
344 -0.014663803598435046 -0.08016864749593706 1.0152487262319905 0 0 0 0.26 28 32 40 73 52 71 63 16 85 121 109 74 113 72 148 168 159 89 229 342 
345 -0.3396121641015156 -0.12689729899149782 0.9022647105225204 0 0 0 0.21 29 28 148 169 224 118 229 343 
346 -0.14425177787953852 0.044200905365023 1.00886995629401 0 0 0 0.25 29 29 40 74 42 43 52 72 148 170 159 90 229 344 
347 -0.340716221004611 0.039677626910693216 0.885714701515112 0 0 0 0.16 29 30 142 86 164 109 229 345 
348 0.004983253067799819 0.06785324713758363 0.9876530378301381 0 0 0 0.3 29 31 38 83 164 110 194 46 214 72 229 346 
349 0.03442660116604795 -0.1022763111952923 1.0168723324371165 0 0 0 0.25 33 109 85 122 229 347 
350 0.013381538112721974 -0.09314637381105308 1.015533027522869 0 0 0 0.42 33 110 113 73 146 77 157 35 213 97 214 73 229 348 
351 -0.04463635905219522 -0.09043816051496867 1.018700362699055 0 0 0 0.84 33 111 38 84 109 75 113 74 213 98 229 349 
352 -0.05698615559485709 -0.08730708002065833 1.0185579138202907 0 0 0 0.16 33 112 109 76 113 75 213 99 229 350 
353 -0.17712538534004144 -0.07080843825845616 1.040584492037331 0 0 0 0.13 33 113 85 123 196 122 229 351 
354 0.008551831281057536 -0.009036195478248903 1.0027722542680693 0 0 0 0.24 33 114 38 85 52 73 229 352 
355 0.029218708932753332 -0.10389868259459803 1.0170124170389911 0 0 0 0.27 33 115 164 111 224 119 229 353 
356 0.04141760104159566 -0.09348660949162764 1.015063496357698 0 0 0 0.4 33 116 148 171 214 74 229 354 
357 0.0186979412504294 -0.09112690396612415 1.016172507789869 0 0 0 0.24 33 117 146 78 213 100 229 355 
358 0.01878359825071278 -0.09110368076819915 1.015930763896543 0 0 0 0.31 33 118 38 86 113 76 146 79 213 101 224 120 229 356 
359 -0.0665638936453306 -0.084621836348919 1.019623293179399 0 0 0 0.25 33 119 38 87 127 38 148 172 185 47 196 123 224 121 229 357 
360 -0.21629665958021374 0.02599817775864514 1.0299788720864782 0 0 0 0.33 33 120 224 122 229 358 
361 0.040275581214987866 0.04363429928459185 0.9895810536153106 0 0 0 0.15 33 121 148 173 159 91 229 359 
362 -0.0604725968912525 0.04330553227469512 0.991653532816416 0 0 0 0.1 33 122 148 174 196 124 229 360 
363 -0.2954865098132612 0.04591656365698293 1.0347555895825582 0 0 0 0.21 33 123 52 74 229 361 
364 0.008716402249873096 0.08657113268516624 0.9859443086509215 0 0 0 0.19 33 124 196 125 229 362 
365 -0.12548161467950633 -0.15276442947629854 1.0436346308972915 0 0 0 0.2 33 125 40 75 85 124 127 39 148 175 159 92 229 363 
366 0.026038140980128157 -0.10919014571946595 1.0188602188869385 0 0 0 0.3 33 126 40 76 50 41 52 75 77 118 196 126 213 102 229 364 
367 -0.0914587494207483 -0.08015590718103643 1.0252759367355657 0 0 0 0.22 33 127 77 119 148 176 214 75 229 365 
368 -0.21824340040159002 -0.08264721596836513 1.0475781706689502 0 0 0 0.33 33 128 44 72 52 76 92 34 109 77 148 177 159 93 162 33 164 112 196 127 224 123 229 366 
369 -0.09690964990150554 -0.03757190000377695 1.0209983277378416 0 0 0 0.27 33 129 77 120 196 128 229 367 
370 -0.16519901155532382 -0.027363271233762 1.0301997768243478 0 0 0 0.18 148 178 159 94 224 124 229 368 
371 -0.1979870093298505 -0.0251763254515566 1.0350133952326757 0 0 0 0.44 33 130 85 125 109 78 148 179 229 369 
372 -0.0035471195266435465 -0.015725239652641176 1.005749259485302 0 0 0 0.33 33 131 52 77 142 87 148 180 196 129 229 370 
373 -0.0003157227621244725 -0.014578436506120245 1.0043883195969576 0 0 0 0.41 33 132 40 77 109 79 224 125 229 371 
374 0.021458288254191948 -0.11357367734216828 1.0192671868081513 0 0 0 0.46 33 133 38 88 42 44 52 78 77 121 85 126 142 88 148 181 196 130 229 372 232 32 
375 -0.16120714824188345 -0.02401405402535248 1.0286869269411274 0 0 0 0.33 33 134 52 79 85 127 159 95 196 131 224 126 229 373 
376 0.0025344719283009226 0.10358902382380299 0.9815112385676783 0 0 0 0.48 33 135 85 128 142 89 229 374 
377 0.0038947844308877917 -0.1351730456918175 1.020469675681464 0 0 0 0.27 38 89 85 129 92 35 135 19 159 96 229 375 
378 -0.09785707821045203 0.006973124889892346 1.012658671728146 0 0 0 0.15 38 90 52 80 148 182 229 376 
379 -0.028771048593723862 0.0495400234176829 0.9894647625097396 0 0 0 0.39 38 91 214 76 229 377 
380 -0.033547228403004184 -0.12214822493821646 1.0186661077786796 0 0 0 0.65 38 92 44 73 85 130 224 127 229 378 
381 -0.12572947770639473 -0.0985598555625504 1.0285777470228925 0 0 0 0.14 38 93 213 103 229 379 
382 -0.12572947770650766 -0.09855985556314426 1.0285777470247486 0 0 0 0.14 38 94 213 104 229 380 
383 -0.15136326359838723 -0.08364011476279579 1.0355956433267661 0 0 0 0.03 38 95 196 132 229 381 
384 -0.05408193809237243 -0.03039424364584885 1.0107605271076334 0 0 0 0.06 38 96 52 81 229 382 
385 -0.06164339008249742 -0.009423529078921394 1.0047714035765671 0 0 0 0.14 38 97 77 122 229 383 
386 -0.25789684277993247 0.045204017142294425 1.028228516571137 0 0 0 0.16 146 80 213 105 229 384 
387 0.015219135334274707 0.05610741723140351 0.990946229798322 0 0 0 0.12 38 98 77 123 135 20 229 385 
388 0.03514198011659231 0.05775498472650802 0.9869864451259325 0 0 0 0.79 38 99 42 45 159 97 188 4 229 386 
389 -0.1326384023540283 0.05817595733436844 1.0085027103539088 0 0 0 0.27 38 100 77 124 229 387 
390 -0.1783949014953893 0.059230739010131615 1.0147708605289834 0 0 0 0.23 38 101 42 46 77 125 85 131 148 183 196 133 214 77 229 388 
391 -0.06773435815083005 0.06592363181917048 0.989467082526415 0 0 0 0.29 38 102 109 80 113 77 148 184 164 113 194 47 229 389 
392 -0.03637774093742331 -0.06128779191777365 1.0152715458635417 0 0 0 0.3 38 103 85 132 229 390 
393 0.001828906519450678 0.05770259233170977 0.9878085301344349 0 0 0 0.27 38 104 85 133 109 81 148 185 164 114 194 48 214 78 229 391 
394 0.004723647322927146 0.07977364359528896 0.9853019821179871 0 0 0 0.29 38 105 52 82 85 134 148 186 164 115 214 79 229 392 
395 0.03534122353362621 -0.11051312324851445 1.0184137755332807 0 0 0 0.37 38 106 77 126 85 135 142 90 148 187 196 134 224 128 229 393 
396 -0.1405547592592538 -0.11441194718838286 1.0408704238621787 0 0 0 0.34 38 107 128 27 196 135 229 394 
397 -0.04962058218237455 -0.11108058217885579 1.017647312021119 0 0 0 0.37 40 78 85 136 146 81 148 188 214 80 224 129 229 395 
398 -0.24538987124312273 -0.1271575568167765 1.0590491263349 0 0 0 0.56 40 79 52 83 77 127 109 82 196 136 229 396 
399 -0.17835416482466868 -0.10247462781593397 1.037372192589809 0 0 0 0.16 40 80 85 137 229 397 
400 -0.36508471621155963 -0.12229670723292767 1.082057524081381 0 0 0 0.36 40 81 85 138 142 91 229 398 
401 -0.049598959811608494 -0.08055160903165097 1.01697329912472 0 0 0 0.27 40 82 77 128 109 83 146 82 164 116 185 48 229 399 
402 -0.15750222651400597 -0.08357130306264822 1.0369378083748246 0 0 0 0.2 40 83 85 139 142 92 148 189 159 98 196 137 224 130 229 400 
403 -0.4271098299168002 -0.1078615010174358 1.0902247876696867 0 0 0 0.25 40 84 52 84 159 99 229 401 
404 -0.43505638421164167 -0.10552353691794762 1.0929336296153127 0 0 0 0.15 40 85 52 85 85 140 229 402 
405 -0.1422932936202439 -0.05747957937879254 1.028881792442714 0 0 0 0.23 40 86 224 131 229 403 
406 -0.3660102861341853 -0.07836771746664364 1.0757711912306807 0 0 0 0.15 40 87 52 86 85 141 109 84 224 132 229 404 
407 0.03305663107392858 -0.033180708945879836 1.006330330730565 0 0 0 0.23 40 88 52 87 229 405 
408 -0.29030268954777666 -0.05744133123602718 1.0581642170549894 0 0 0 0.15 40 89 44 74 162 34 229 406 
409 -0.33727834545184393 -0.05292273953768433 0.9080312747121227 0 0 0 0.4 40 90 126 37 142 93 229 407 
410 -0.39354060093308835 -0.05891318776439603 1.0721947940936842 0 0 0 0.25 40 91 52 88 229 408 
411 -0.17833753399583557 -0.032569672950905765 1.0341414646711233 0 0 0 0.16 40 92 42 47 229 409 
412 -0.3670021748672854 -0.04619654876979766 1.0693274052164081 0 0 0 0.3 40 93 52 89 229 410 
413 -0.03722460287894685 -0.01601233941114638 1.0074288851571682 0 0 0 0.3 40 94 85 142 109 85 148 190 194 49 196 138 229 411 
414 -0.3372719270515793 -0.001265257038974981 1.0525404666088587 0 0 0 0.32 40 95 224 133 229 412 
415 -0.38356508868133093 0.0005076098144337428 1.0649608290316857 0 0 0 0.19 40 96 224 134 229 413 
416 -0.3025671348156057 0.007050154174931493 1.0468892109833041 0 0 0 0.39 40 97 224 135 229 414 
417 -0.3384476653279799 0.008187242724613573 1.049247194802137 0 0 0 0.2 40 98 196 139 229 415 
418 -0.31087833700408624 0.009789557640709504 1.047305932173633 0 0 0 0.12 40 99 196 140 229 416 
419 -0.1226881326786342 0.042386999259067845 1.0093170672470733 0 0 0 0.17 40 100 196 141 229 417 
420 -0.24861284776217843 0.04079432002740803 1.0324242756921032 0 0 0 0.14 40 101 109 86 196 142 229 418 
421 -0.22061563150967306 0.044384938325025075 1.0215562356823453 0 0 0 0.07 40 102 52 90 159 100 196 143 229 419 
422 -0.24854247749654185 -0.15019957012131033 1.0655726537312218 0 0 0 0.5 40 103 126 38 159 101 196 144 229 420 
423 -0.2917372787941834 -0.12521127304412552 1.0719327016739524 0 0 0 0.28 40 104 42 48 196 145 229 421 
424 -0.36255411229219553 -0.11741788277021062 1.0803090309664418 0 0 0 0.19 40 105 142 94 148 191 229 422 
425 -0.34190825252253704 -0.08339881643158611 1.0702221864184136 0 0 0 0.28 40 106 42 49 142 95 148 192 229 423 
426 -0.33135526511463903 -0.07314376296051982 1.0690781287209274 0 0 0 0.15 40 107 85 143 159 102 224 136 229 424 
427 -0.36056802048680026 -0.07569767726387061 1.0737421345287144 0 0 0 0.29 40 108 142 96 224 137 229 425 
428 -0.4048535530403451 -0.07482726125722314 1.0808549963732534 0 0 0 0.3 40 109 85 144 142 97 229 426 
429 -0.38572045279105427 -0.06077440742044244 1.0767936025930263 0 0 0 0.4 40 110 44 75 77 129 148 193 229 427 
430 -0.35939715306998604 -0.05814863650448803 1.0677113324204928 0 0 0 0.29 40 111 42 50 109 87 196 146 229 428 
431 -0.07949814340797176 -0.02539812900323057 1.014566267164093 0 0 0 0.26 40 112 196 147 229 429 
432 -0.07708484783701905 -0.021812871827549103 1.012807326156931 0 0 0 0.39 40 113 52 91 85 145 109 88 196 148 229 430 
433 -0.019945956785597938 -0.015208279319766772 1.0082560439733412 0 0 0 0.15 40 114 196 149 229 431 
434 -0.4065823793665884 -0.03278420116514816 1.071642517671269 0 0 0 0.18 40 115 159 103 229 432 
435 -0.2306436225307847 -0.013724897293698253 1.0367692647721445 0 0 0 0.31 40 116 44 76 85 146 148 194 196 150 224 138 229 433 
436 -0.21332582146078466 0.003721416848964368 1.0358152290482183 0 0 0 0.09 40 117 196 151 229 434 
437 -0.35746071799012713 -0.0034922975676696354 1.0626181264539174 0 0 0 0.47 40 118 196 152 229 435 
438 -0.39981370884257694 0.007815342755744428 1.0647773388963235 0 0 0 0.27 40 119 85 147 142 98 159 104 224 139 229 436 
439 -0.30768307107109794 0.017843459643742707 1.0463729214864768 0 0 0 0.24 40 120 126 39 196 153 220 40 224 140 229 437 
440 -0.38168681813048044 0.014370600132135062 1.0619831434329923 0 0 0 0.16 40 121 142 99 229 438 
441 -0.39237540859594444 0.0674465450951605 1.051432800637887 0 0 0 0.37 40 122 52 92 142 100 159 105 196 154 224 141 229 439 
442 -0.40491813805547844 0.06699786248067166 1.0542679237029207 0 0 0 0.37 40 123 52 93 229 440 
443 -0.39704032808974665 0.06796419142321913 1.0506281753468425 0 0 0 0.29 40 124 52 94 85 148 229 441 
444 -0.2510654445660259 -0.15548422048509902 1.0630510984096575 0 0 0 0.35 40 125 42 51 126 40 229 442 
445 -0.022949445593137306 -0.11804697643830778 1.0208878409659468 0 0 0 0.29 40 126 127 40 229 443 
446 -0.35790415886536986 -0.12181761631205644 1.0805216694229054 0 0 0 0.35 40 127 42 52 85 149 109 89 142 101 159 106 229 444 
447 -0.34335197841200504 -0.09961634553721199 0.8651891068180674 0 0 0 0.46 142 102 159 107 229 445 
448 -0.44178353674585175 -0.1140736416764455 1.0947248183714147 0 0 0 0.31 40 128 42 53 52 95 142 103 229 446 
449 -0.44264279115860233 -0.11394236682005511 1.0952211308238369 0 0 0 0.19 40 129 142 104 229 447 
450 -0.3409413498188784 -0.07154756462641379 0.8998099024998598 0 0 0 0.35 77 130 142 105 229 448 
451 -0.3595241646323706 -0.08119549382845076 1.0734726471199927 0 0 0 0.29 40 130 85 150 142 106 229 449 
452 -0.31176940619800764 -0.06173625046997086 1.0615802362818256 0 0 0 0.18 40 131 85 151 142 107 196 155 224 142 229 450 
453 -0.3329663316442217 -0.06137401394234713 1.065082768974391 0 0 0 0.34 40 132 42 54 224 143 229 451 
454 -0.2866678876509159 -0.01311422736420536 1.0501255868935688 0 0 0 0.16 40 133 52 96 85 152 142 108 229 452 
455 -0.3099857063385403 -0.0019439659247597633 1.047752219040414 0 0 0 0.07 40 134 142 109 229 453 
456 -0.3392036884870761 0.018786936140716467 1.0481566237896434 0 0 0 0.33 40 135 77 131 85 153 142 110 148 195 162 35 164 117 196 156 229 454 
457 -0.4014542125420137 0.03110844686389763 1.062880090756206 0 0 0 0.41 40 136 142 111 224 144 229 455 
458 -0.1222312996481952 -0.1370592459680928 1.0413863727282455 0 0 0 0.34 40 137 142 112 229 456 
459 -0.032884715852135614 -0.10447546816420744 1.0208490341927963 0 0 0 0.27 40 138 127 41 229 457 
460 -0.2964156722937062 -0.12164966091089453 1.0708685816175905 0 0 0 0.19 40 139 142 113 229 458 
461 -0.41747839792296726 -0.10973387366308439 1.0907635874858563 0 0 0 0.22 40 140 85 154 142 114 159 108 229 459 
462 -0.37446600585658846 -0.10060023277217459 1.0843585897115124 0 0 0 0.24 40 141 85 155 142 115 229 460 
463 -0.41715818943536537 -0.10408620648999235 1.0984584793795418 0 0 0 0.17 40 142 85 156 142 116 196 157 
464 -0.34008285262501786 -0.06985505168077792 0.9055029218890661 0 0 0 0.2 126 41 142 117 229 461 
465 -0.40276309708207203 -0.06915533280474737 1.081994435131704 0 0 0 0.41 40 143 85 157 229 462 
466 -0.41669172309619895 -0.06560218732654428 1.0847235461281652 0 0 0 0.37 40 144 52 97 85 158 142 118 159 109 229 463 
467 -0.3066846761482742 -0.0548833818860735 1.0572817317129486 0 0 0 0.33 40 145 85 159 109 90 127 42 142 119 148 196 159 110 164 118 196 158 220 41 224 145 229 464 
468 -0.3334557973082557 -0.05466528103540426 1.0644572537250536 0 0 0 0.36 40 146 42 55 52 98 85 160 142 120 196 159 229 465 
469 -0.08188515899788669 -0.0256030268744106 1.0146344884867415 0 0 0 0.18 40 147 142 121 196 160 229 466 
470 -0.42440301420150883 0.06614366300020567 1.0561898645425654 0 0 0 0.44 40 148 52 99 85 161 229 467 
471 -0.42440301420150883 0.06614366300020567 1.0561898645425654 0 0 0 0.44 40 149 52 100 85 162 229 468 
472 -0.3249852022185248 0.07112500133101511 1.0397233691097816 0 0 0 0.17 40 150 85 163 142 122 229 469 
473 -0.377953258198259 -0.06990373628987798 1.077446436690537 0 0 0 0.25 40 151 42 56 85 164 142 123 229 470 
474 -0.39108952780587974 -0.05400891023476692 1.0757931648086207 0 0 0 0.18 40 152 52 101 142 124 229 471 
475 -0.3354829873169489 0.004669425033435751 1.0528926383679555 0 0 0 0.24 40 153 196 161 224 146 229 472 
476 -0.2912286296841206 -0.12920246557583362 1.079307227709217 0 0 0 0.19 40 154 196 162 229 473 
477 -0.27276107856515236 -0.11753281899966515 1.0657355709740859 0 0 0 0.96 40 155 85 165 109 91 229 474 
478 -0.33787630953670994 -0.0729843534159515 1.0687585407463827 0 0 0 0.42 40 156 42 57 85 166 142 125 196 163 229 475 
479 -0.3375674837482017 -0.07264687350153487 1.068113137935037 0 0 0 0.41 40 157 142 126 224 147 229 476 
480 -0.3525319814123947 -0.035872539159932486 1.0671449229595036 0 0 0 0.1 40 158 142 127 229 477 
481 -0.3504847533761931 0.02515086066500844 1.0503343104001304 0 0 0 0.4 40 159 42 58 229 478 
482 -0.41606530469874015 0.028931020165282238 1.067120419092326 0 0 0 0.36 40 160 142 128 229 479 
483 -0.4146679837198375 0.04648111639956993 1.0623416984039908 0 0 0 0.21 52 102 142 129 229 480 
484 -0.4146679837198375 0.04648111639956993 1.0623416984039908 0 0 0 0.21 52 103 142 130 229 481 
485 -0.24153377653729494 -0.15595517796434266 1.0636664421360182 0 0 0 0.7 40 161 52 104 85 167 109 92 142 131 196 164 229 482 
486 -0.0889728221297006 -0.08530188705265632 1.022016440491894 0 0 0 0.46 40 162 42 59 85 168 109 93 142 132 196 165 224 148 229 483 
487 -0.34171305164350996 -0.07083260374921058 0.8946562494825104 0 0 0 0.26 126 42 142 133 229 484 
488 -0.34345129735436725 -0.0219447469621485 0.8592605992598582 0 0 0 0.58 148 197 159 111 229 485 
489 -0.24088567849579398 0.021371364356091993 1.0348481647382288 0 0 0 0.5 40 163 52 105 142 134 229 486 
490 -0.20437723217890552 -0.012067952740199 1.0348814300640312 0 0 0 0.29 40 164 200 31 229 487 
491 -0.0640842464038882 -0.09943810891034306 1.01654364557855 0 0 0 0.57 42 60 44 77 148 198 164 119 196 166 224 149 229 488 
492 -0.3379259017631386 -0.09152977234328236 0.8788034238227838 0 0 0 0.47 42 61 110 46 229 489 
493 -0.3381403978861424 -0.09143328280123292 0.8788246050643912 0 0 0 0.5 42 62 110 47 159 112 229 490 
494 -0.3421315596425911 -0.08612669243408838 0.9256142219977709 0 0 0 0.24 42 63 159 113 229 491 
495 -0.3389812781793845 -0.07871246986806191 0.8844907517514446 0 0 0 0.41 42 64 159 114 164 120 229 492 
496 -0.21567505876480975 -0.05624384417319162 1.0457035990730639 0 0 0 0.2 42 65 148 199 196 167 229 493 
497 -0.05449825295139431 -0.007677104108135081 1.0084630696649197 0 0 0 0.14 42 66 196 168 229 494 
498 -0.3446700159687508 -0.03249627004806177 0.8497764996565494 0 0 0 0.39 42 67 126 43 159 115 229 495 
499 -0.020270073687078963 0.043122115844090994 0.995785165281716 0 0 0 0.17 42 68 196 169 229 496 
500 -0.0197255487502763 0.06067965611993241 0.9949780915365709 0 0 0 0.21 42 69 85 169 229 497 
501 -0.0643142022283538 0.05705502346744198 0.9910602002359689 0 0 0 0.37 42 70 148 200 229 498 
502 -0.18652099631289368 0.05849987940133203 1.0131398835804155 0 0 0 0.26 42 71 85 170 109 94 148 201 214 81 229 499 
503 -0.05976702007554953 0.0894504085674383 0.9841712683786998 0 0 0 0.43 42 72 52 106 229 500 
