# 3D point list with one line of data per point:
#   POINT3D_ID, X, Y, Z, R, G, B, ERROR, TRACK[] as (IMAGE_ID, POINT2D_IDX)
# Number of points: 259, mean track length: 10.1
3823 0.2322967456050936 0.15510240368240943 0.6768494658573854 0 0 0 0.44 7 2466 149 1584 151 1294 
3824 -0.3156399514385661 0.29983014707918904 0.9195317851709437 0 0 0 0.26 7 2467 30 436 161 710 205 600 216 1037 149 1585 183 540 
3825 -0.23382573250937302 0.2803234372899367 0.889821944444407 0 0 0 0.59 7 2468 46 909 119 387 125 1190 226 728 34 727 151 1295 167 712 186 357 216 1038 
3826 -0.22072615803979476 0.2786707725895878 0.8876458166145281 0 0 0 0.43 7 2469 216 1039 233 916 161 711 57 695 99 802 167 713 173 908 177 709 218 1042 34 728 72 787 94 1527 153 430 154 1139 193 1365 211 829 
3827 0.15228277763300374 0.17623091712620859 0.7065389650977683 0 0 0 0.41 7 2470 55 486 99 803 125 1191 143 470 149 1586 166 1034 193 1366 216 1040 228 1236 233 917 31 482 177 710 
3828 0.04897402574406371 0.20497786168646562 0.7546601686331749 0 0 0 0.48 7 2471 46 910 151 1296 193 1367 211 830 233 918 
3829 0.20683401013665703 0.16230218115570144 0.6798312322629376 0 0 0 0.34 7 2472 34 729 125 1192 151 1297 177 711 233 919 
3830 -0.1415123718486258 0.2555231282950461 0.837070833292356 0 0 0 0.4 7 2473 23 859 72 788 149 1587 154 1140 161 712 218 1043 31 483 99 804 102 627 171 1182 226 729 
3831 0.12344757876466778 0.18894621936629244 0.7240182631471045 0 0 0 0.17 7 2474 140 1001 226 730 
3832 0.12743829110070423 0.184971508221624 0.7131182614926797 0 0 0 0.25 7 2475 34 730 46 911 125 1193 140 1002 151 1298 166 1035 177 712 193 1368 216 1041 228 1237 23 860 106 542 131 364 149 1588 173 909 218 1044 226 731 
3833 0.20683144796911912 0.1629303365331438 0.6750956559364482 0 0 0 0.45 7 2476 34 731 46 912 125 1194 193 1369 216 1042 228 1238 233 920 
3834 0.18192858666751505 0.1718472390959288 0.6884079203802839 0 0 0 0.2 7 2477 37 829 46 913 99 805 119 388 154 1141 228 1239 
3835 -0.24592450484340933 0.2896976068290299 0.895105975715157 0 0 0 0.45 7 2478 59 638 99 806 102 628 116 1401 125 1195 139 490 140 1003 143 471 144 680 178 374 180 1356 211 831 218 1045 226 732 228 1240 233 921 18 2234 24 546 119 389 145 506 171 1183 210 715 72 789 177 713 203 592 
3836 0.18048213277753739 0.17511853168598118 0.6927411323896813 0 0 0 0.53 7 2479 30 437 34 732 37 830 102 629 125 1196 140 1004 151 1299 154 1142 216 1043 226 733 
3837 0.22039968103715085 0.16350601416001995 0.671714892294475 0 0 0 0.35 7 2480 34 733 125 1197 149 1589 154 1143 218 1046 226 734 23 861 31 484 72 790 173 910 177 714 106 543 
3838 -0.13924827683431334 0.26207095448057877 0.8465074770165791 0 0 0 0.35 7 2481 37 831 46 914 99 807 119 390 151 1300 161 713 166 1036 193 1370 216 1044 218 1047 226 735 31 485 72 791 131 365 173 911 177 715 180 1357 23 862 203 593 228 1241 233 922 
3839 -0.19632199836149652 0.27430203272327286 0.863802127584926 0 0 0 0.27 7 2482 30 438 161 714 183 541 205 601 211 832 233 923 
3840 0.25010774950086 0.1571998446097121 0.6556708481431586 0 0 0 0.36 7 2483 23 863 122 594 154 1144 72 792 99 808 106 544 125 1198 140 1005 151 1301 173 912 177 716 180 1358 211 833 226 736 228 1242 
3841 -0.09360238674289888 0.23796540896216375 0.7894734027685856 0 0 0 0.36 7 2484 23 864 30 439 46 915 125 1199 140 1006 149 1590 151 1302 166 1037 211 834 228 1243 31 486 72 793 90 383 99 809 122 595 143 472 144 681 173 913 177 717 193 1371 216 1045 218 1048 37 832 106 545 68 159 
3842 0.08482140855930588 0.2017264998683968 0.7279741146088704 0 0 0 0.23 7 2485 23 865 30 440 37 833 94 1528 99 810 116 1402 140 1007 149 1591 151 1303 166 1038 171 1184 177 718 180 1359 183 542 193 1372 205 602 216 1046 218 1049 233 924 31 487 34 734 173 914 226 737 106 546 150 368 68 160 161 715 
3843 0.17948442427579248 0.18135960506759347 0.6941931316736563 0 0 0 0.26 7 2486 46 916 116 1403 125 1200 218 1050 117 219 151 1304 193 1373 228 1244 233 925 
3844 0.21647921869719344 0.17015955135733626 0.6727748869933174 0 0 0 0.19 7 2487 193 1374 211 835 
3845 -0.16447773148769285 0.27086651677204066 0.85059499409987 0 0 0 0.55 7 2488 34 735 37 834 46 917 143 473 151 1305 166 1039 177 719 205 603 216 1047 228 1245 233 926 31 488 99 811 149 1592 68 161 140 1008 193 1375 23 866 72 794 218 1051 226 738 
3846 0.03125505862409869 0.21991425591854857 0.7586592771870397 0 0 0 0.26 7 2489 37 835 122 596 150 369 151 1306 161 716 183 543 186 358 211 836 216 1048 228 1246 233 927 
3847 0.05525008905648793 0.21580712415248754 0.7514473775086169 0 0 0 0.48 7 2490 23 867 72 795 94 1529 119 391 151 1307 161 717 166 1040 177 720 183 544 186 359 193 1376 211 837 218 1052 228 1247 233 928 31 489 143 474 173 915 68 162 106 547 
3848 -0.1213077728141083 0.2469981443892401 0.7941230529605626 0 0 0 0.26 7 2491 30 441 34 736 37 836 45 349 46 918 94 1530 116 1404 125 1201 139 491 140 1009 145 507 151 1308 154 1145 177 721 183 545 193 1377 211 838 216 1049 218 1053 226 739 228 1248 233 929 68 163 149 1593 
3849 0.08427164928210895 0.20903426983226162 0.736025359330153 0 0 0 0.29 7 2492 30 442 37 837 46 919 57 696 116 1405 122 597 140 1010 149 1594 150 370 166 1041 173 916 177 722 193 1378 211 839 228 1249 233 930 31 490 119 392 191 384 212 630 218 1054 102 630 106 548 180 1360 
3850 -0.04566118743387304 0.22837607680350938 0.7566015145295014 0 0 0 0.37 7 2493 57 697 94 1531 99 812 116 1406 125 1202 139 492 144 682 151 1309 166 1042 180 1361 193 1379 228 1250 31 491 119 393 161 718 211 840 106 549 
3851 0.12094461239736376 0.20177671360262175 0.7181489633167165 0 0 0 0.38 7 2494 116 1407 122 598 140 1011 151 1310 193 1380 226 740 228 1251 233 931 
3852 0.12093213889609811 0.20073085810070515 0.7132616236497025 0 0 0 0.38 7 2495 37 838 72 796 122 599 140 1012 144 683 149 1595 150 371 151 1311 193 1381 211 841 228 1252 233 932 31 492 55 487 205 604 99 813 106 550 173 917 180 1362 
3853 0.15059013100757385 0.19368408800318979 0.6984835634653835 0 0 0 0.5 7 2496 37 839 46 920 151 1312 193 1382 226 741 228 1253 233 933 23 868 31 493 139 493 72 797 102 631 106 551 173 918 180 1363 
3854 -0.13964463580801045 0.2727814175815945 0.8416476395471209 0 0 0 0.45 7 2497 46 921 102 632 125 1203 149 1596 161 719 177 723 193 1383 24 547 99 814 173 919 216 1050 180 1364 203 594 
3855 -0.13650714314106818 0.26640552172809817 0.8245806693543086 0 0 0 0.58 7 2498 23 869 30 443 186 360 193 1384 226 742 24 548 31 494 37 840 72 798 140 1013 151 1313 171 1185 216 1051 228 1254 233 934 
3856 -0.09207895880297795 0.2432371038562974 0.774503631179481 0 0 0 0.51 7 2499 34 737 46 922 90 384 94 1532 99 815 116 1408 125 1204 139 494 145 508 151 1314 166 1043 183 546 211 842 218 1055 228 1255 31 495 72 799 
3857 0.149607293205883 0.1990286391107358 0.7003902352187391 0 0 0 0.53 7 2500 34 738 37 841 72 800 125 1205 151 1315 177 724 193 1385 218 1056 226 743 233 935 99 816 106 552 
3858 -0.35375487932430816 0.3237061038391304 0.9275142366757548 0 0 0 0.45 7 2501 34 739 140 1014 216 1052 174 121 205 605 
3859 0.20896042547137494 0.18112372714954958 0.6670653396185234 0 0 0 0.35 7 2502 34 740 125 1206 193 1386 211 843 228 1256 233 936 
3860 0.1997372801977808 0.18407606117740136 0.6691693832427884 0 0 0 0.35 7 2503 46 923 94 1533 116 1409 143 475 144 684 151 1316 193 1387 216 1053 218 1057 228 1257 55 488 68 164 125 1207 233 937 
3861 0.03758148616546613 0.22904403409093152 0.7519973432734672 0 0 0 0.37 7 2504 37 842 46 924 122 600 150 372 161 720 186 361 205 606 233 938 
3862 -0.2823704430059328 0.30844588084972435 0.8953164258926076 0 0 0 0.34 7 2505 211 844 233 939 
3863 -0.0379664998259255 0.23473319506960547 0.7498280103660295 0 0 0 0.35 7 2506 46 925 72 801 99 817 122 601 125 1208 139 495 140 1015 180 1365 233 940 31 496 
3864 0.21555915259395073 0.18295578396420004 0.6615766764125766 0 0 0 0.41 7 2507 46 926 57 698 116 1410 131 366 139 496 140 1016 144 685 151 1317 193 1388 211 845 216 1054 228 1258 
3865 0.05837563500763126 0.2255719101311603 0.7371958844510239 0 0 0 0.26 7 2508 37 843 46 927 122 602 125 1209 143 476 150 373 151 1318 186 362 205 607 226 744 228 1259 233 941 
3866 -0.05206186280197039 0.2451813427205265 0.7607330387505017 0 0 0 0.5 7 2509 37 844 99 818 122 603 140 1017 177 725 193 1389 211 846 216 1055 228 1260 233 942 31 497 72 802 149 1597 180 1366 106 553 121 142 203 595 
3867 0.18959363599583673 0.1918811706874438 0.6641887871878428 0 0 0 0.37 7 2510 46 928 55 489 116 1411 125 1210 151 1319 193 1390 228 1261 
3868 0.00014923281645670477 0.2364510749927999 0.7457650405105244 0 0 0 0.63 7 2511 122 604 125 1211 183 547 228 1262 68 165 
3869 -0.14413880522093234 0.2818129366796123 0.8353501887347521 0 0 0 0.22 57 699 161 721 216 1056 
3870 -0.13592080853875968 0.2648164919039588 0.7906524775718827 0 0 0 0.33 7 2512 140 1018 151 1320 211 847 218 1058 31 498 72 803 
3871 -0.07116520246141111 0.2516024123384005 0.7645607429744172 0 0 0 0.47 7 2513 30 444 34 741 46 929 72 804 125 1212 139 497 143 477 149 1598 151 1321 177 726 193 1391 212 631 216 1057 218 1059 228 1263 233 943 31 499 55 490 102 633 144 686 211 848 37 845 106 554 116 1412 119 394 137 231 68 166 
3872 -0.08796082626674223 0.25820784712358014 0.7734105879479961 0 0 0 0.39 7 2514 23 870 37 846 151 1322 193 1392 216 1058 
3873 0.2188669842204992 0.1918793610475782 0.6530908535928555 0 0 0 0.3 23 871 59 639 119 395 154 1146 173 920 8 576 31 500 72 805 177 727 34 742 46 930 57 700 106 555 116 1413 131 367 144 687 149 1599 189 365 191 385 218 1060 226 745 228 1264 55 491 68 167 140 1019 151 1323 193 1393 202 466 117 220 
3874 -0.38399921287328864 0.33195785220184726 0.9111605936983204 0 0 0 0.48 7 2515 30 445 140 1020 228 1265 8 577 116 1414 119 396 125 1213 143 478 144 688 161 722 173 921 
3875 -0.35256340303754846 0.3255205090079662 0.8971165086779865 0 0 0 0.37 7 2516 37 847 154 1147 193 1394 216 1059 233 944 161 723 58 618 151 1324 203 596 211 849 218 1061 72 806 116 1415 166 1044 173 922 228 1266 
3876 -0.38929349969662563 0.33439389161074295 0.9135309298288146 0 0 0 0.51 7 2517 55 492 58 619 161 724 116 1416 125 1214 167 714 216 1060 
3877 -0.1394284182040037 0.2719075035528808 0.7922280016005581 0 0 0 0.65 7 2518 30 446 90 385 99 819 119 397 125 1215 180 1367 189 366 191 386 233 945 24 549 173 923 211 850 218 1062 55 493 68 168 72 807 143 479 205 608 
3878 -0.3180017876934552 0.31725776619092777 0.8795872491982843 0 0 0 0.38 7 2519 193 1395 228 1267 
3879 0.23417956199956405 0.1979001845810807 0.6530817034386022 0 0 0 0.44 7 2520 140 1021 154 1148 212 632 218 1063 228 1268 
3880 -0.14825499021510063 0.27682675014257396 0.7970066349658653 0 0 0 0.37 7 2521 154 1149 166 1045 
3881 -0.18835021713758013 0.28637043457733263 0.8118251047523454 0 0 0 0.26 7 2522 183 548 211 851 216 1061 
3882 -0.054870749708722244 0.2556236563379898 0.7504554275283406 0 0 0 0.4 7 2523 34 743 99 820 116 1417 144 689 171 1186 228 1269 24 550 45 350 106 556 140 1022 193 1396 
3883 -0.18274700716208386 0.2905871048823864 0.820147165179856 0 0 0 0.32 7 2524 34 744 211 852 233 946 
3884 0.0701459087447757 0.2423948111330196 0.7297183297955552 0 0 0 0.39 7 2525 37 848 125 1216 139 498 
3885 0.08142828962252657 0.24025935333522855 0.7253453241243111 0 0 0 0.26 7 2526 30 447 139 499 193 1397 211 853 216 1062 228 1270 233 947 
3886 0.2208475776644078 0.2023555157902816 0.6506089233473686 0 0 0 0.15 7 2527 151 1325 211 854 
3887 0.05406440736319385 0.24769913265019688 0.7361500232302167 0 0 0 0.31 7 2528 119 398 125 1217 139 500 143 480 150 374 183 549 212 633 228 1271 233 948 31 501 46 931 72 808 177 728 186 363 189 367 191 387 218 1064 23 872 106 557 173 924 
3888 0.18314270671910118 0.21603648326594696 0.6744163722695078 0 0 0 0.3 7 2529 34 745 37 849 46 932 116 1418 122 605 125 1218 193 1398 218 1065 233 949 106 558 140 1023 173 925 177 729 226 746 228 1272 
3889 -0.10145883462426303 0.27061005649524794 0.7742664183385828 0 0 0 0.41 7 2530 34 746 116 1419 139 501 140 1024 149 1600 166 1046 193 1399 211 855 228 1273 233 950 45 351 68 169 90 386 
3890 -0.07229491342468462 0.2650765953015529 0.7591613202549131 0 0 0 0.31 7 2531 23 873 34 747 46 933 151 1326 211 856 228 1274 233 951 30 448 31 502 145 509 205 609 226 747 
3891 0.17812961619389087 0.2199246275797612 0.6760722750347963 0 0 0 0.29 7 2532 34 748 37 850 119 399 125 1219 228 1275 117 221 140 1025 
3892 -0.058789937320138784 0.2644293284583298 0.756933614174338 0 0 0 0.35 7 2533 37 851 116 1420 228 1276 
3893 0.1847966041858918 0.22058198190637957 0.6683180348104029 0 0 0 0.46 7 2534 57 701 116 1421 143 481 166 1047 212 634 226 748 
3894 0.030135953511920464 0.24601397003219166 0.7136291644044941 0 0 0 0.15 72 809 177 730 193 1400 216 1063 
3895 -0.23985631705487176 0.30866391005839316 0.8380777361210275 0 0 0 0.26 7 2535 151 1327 211 857 
3896 -0.33771033144213985 0.3337880834449708 0.8873799617096051 0 0 0 0.38 7 2536 125 1220 166 1048 211 858 
3897 -0.08056916683106195 0.27121323918784396 0.7609495612582103 0 0 0 0.44 7 2537 23 874 34 749 99 821 154 1150 166 1049 183 550 228 1277 30 449 31 503 173 926 216 1064 45 352 106 559 
3898 -0.23252911290236053 0.30783573813509596 0.8325848177784564 0 0 0 0.3 7 2538 30 450 72 810 116 1422 140 1026 151 1328 154 1151 161 725 177 731 216 1065 228 1278 
3899 0.017952487026877184 0.2521450836636208 0.7180873472249988 0 0 0 0.26 7 2539 116 1423 125 1221 140 1027 151 1329 193 1401 228 1279 233 952 
3900 0.13110671384207798 0.22850016902332465 0.6712094849599952 0 0 0 0.42 7 2540 34 750 140 1028 151 1330 193 1402 216 1066 37 852 117 222 125 1222 143 482 144 690 186 364 211 859 228 1280 233 953 
3901 -0.1473192403035268 0.29202832595354805 0.7955473514234184 0 0 0 0.38 7 2541 125 1223 211 860 
3902 -0.4039452710507134 0.34942195443883517 0.9086082829835229 0 0 0 0.58 7 2542 58 620 140 1029 
3903 -0.4114127497754794 0.3525080692315982 0.9129917050444076 0 0 0 0.68 7 2543 154 1152 216 1067 
3904 -0.19090996331674195 0.30301340312870423 0.8118827737194617 0 0 0 0.36 7 2544 102 634 116 1424 177 732 228 1281 8 578 23 875 30 451 31 504 57 702 72 811 140 1030 144 691 154 1153 193 1403 218 1066 233 954 119 400 
3905 0.007643014612580404 0.25889776705387607 0.7197263789231705 0 0 0 0.37 7 2545 161 726 177 733 218 1067 
3906 -0.057483856643412365 0.2752439884349163 0.752341067717546 0 0 0 0.34 7 2546 140 1031 151 1331 228 1282 
3907 -0.4470528156160681 0.36339543418108916 0.9327784281625596 0 0 0 0.43 7 2547 34 751 58 621 
3908 -0.10544174474682647 0.28454540348303486 0.7672007061379345 0 0 0 0.47 7 2548 30 452 34 752 116 1425 177 734 193 1404 233 955 
3909 -0.45465786279205406 0.3657992419522785 0.9348157231250979 0 0 0 0.26 7 2549 58 622 116 1426 
3910 -0.14245301148563072 0.2928362172141081 0.7833455765703777 0 0 0 0.49 7 2550 116 1427 140 1032 145 510 151 1332 177 735 193 1405 233 956 139 502 183 551 23 876 31 505 72 812 218 1068 106 560 
3911 -0.4214755629225457 0.36000933388370204 0.9160738088843849 0 0 0 0.42 7 2551 37 853 183 552 216 1068 
3912 -0.23486254088641095 0.31859605686644227 0.8291693401075252 0 0 0 0.49 7 2552 140 1033 193 1406 216 1069 228 1283 
3913 -0.3896420705686037 0.35385334691978926 0.898705185578983 0 0 0 0.39 7 2553 37 854 58 623 116 1428 151 1333 154 1154 216 1070 218 1069 
3914 -0.05919827352254256 0.2812274214186351 0.7397068217322299 0 0 0 0.52 7 2554 116 1429 151 1334 177 736 183 553 218 1070 228 1284 
3915 -0.01852969011976439 0.27229513400090855 0.719735944479718 0 0 0 0.45 7 2555 99 822 139 503 211 861 218 1071 31 506 57 703 72 813 116 1430 151 1335 173 927 180 1368 193 1407 216 1071 
3916 -0.4804214185280493 0.37721224747907633 0.9406486650046033 0 0 0 0.45 7 2556 72 814 151 1336 193 1408 171 1187 218 1072 228 1285 
3917 -0.3438420024470307 0.3482600399272259 0.8787982012658989 0 0 0 0.23 7 2557 116 1431 140 1034 180 1369 
3918 0.049315973073162586 0.26020706230451235 0.6895553852303621 0 0 0 0.28 7 2558 46 934 177 737 211 862 218 1073 23 877 72 815 106 561 116 1432 151 1337 
3919 -0.5158265618773754 0.384699636253875 0.957519999317708 0 0 0 0.41 7 2559 72 816 151 1338 
3920 -0.5240593975544764 0.38898623241841795 0.9652917668079278 0 0 0 0.32 7 2560 37 855 46 935 125 1224 24 551 119 401 143 483 151 1339 191 388 
3921 -0.0005720061278364721 0.2726288141243838 0.7100147159616531 0 0 0 0.37 7 2561 99 823 161 727 171 1188 183 554 216 1072 
3922 -0.07420683132875422 0.2893236788083767 0.7441884478380555 0 0 0 0.66 7 2562 30 453 37 856 116 1433 218 1074 31 507 151 1340 173 928 
3923 0.0452489705698198 0.2651558539019722 0.6925148152337423 0 0 0 0.37 7 2563 140 1035 145 511 150 375 151 1341 193 1409 211 863 228 1286 
3924 0.057327271923373384 0.26312049023911543 0.6869845444948861 0 0 0 0.44 7 2564 116 1434 145 512 166 1050 183 555 
3925 -0.5523170560826061 0.39928195816880857 0.9826254611808218 0 0 0 0.74 7 2565 46 936 57 704 144 692 191 389 
3926 -0.06825862073927716 0.29445023911757257 0.7457469634867117 0 0 0 0.26 7 2566 151 1342 173 929 
3927 0.09194781268951449 0.2466824539332034 0.6395655596651191 0 0 0 0.13 7 2567 46 937 233 957 
3928 -0.09680294276749868 -0.32475274279625066 1.1441706805510534 0 0 0 0.25 7 2568 116 1435 144 693 
3929 -0.059180057404985935 -0.32449865131114797 1.0519792735461284 0 0 0 0.23 7 2569 139 504 161 728 191 390 202 467 205 610 
3930 -0.012271849492460967 -0.32234538047499095 0.9932042972668491 0 0 0 0.43 7 2570 34 753 143 484 144 694 166 1051 202 468 
3931 -0.05516720629354522 -0.2681568434345814 1.1808840162979868 0 0 0 0.15 7 2571 116 1436 149 1601 166 1052 
3932 -0.5195483856399626 0.010666787010450093 1.1664267830840327 0 0 0 0.61 7 2572 144 695 145 513 212 635 94 1534 116 1437 167 715 193 1410 125 1225 166 1053 211 864 8 579 34 754 57 705 58 624 86 854 151 1343 161 729 
3933 -0.10203214113067699 -0.22837379072998074 1.0972424252865298 0 0 0 0.45 7 2573 57 706 58 625 116 1438 149 1602 8 580 161 730 
3934 -0.10101054825413928 -0.20596124884920783 1.0848601786106817 0 0 0 0.62 7 2574 46 938 47 153 94 1535 149 1603 191 391 145 514 173 930 202 469 218 1075 
3935 -0.07423989257202813 -0.2293157860496956 0.9967954624097244 0 0 0 0.46 7 2575 180 1370 212 636 218 1076 8 581 23 878 24 552 116 1439 144 696 154 1155 166 1054 173 931 117 223 125 1226 202 470 
3936 -0.027056869375080284 -0.2377775168225625 0.9792446766784174 0 0 0 0.57 7 2576 34 755 55 494 119 402 122 606 125 1227 137 232 143 485 149 1604 161 731 23 879 72 817 86 855 94 1536 102 635 116 1440 139 505 144 697 151 1344 166 1055 177 738 183 556 193 1411 216 1073 218 1077 226 749 117 224 154 1156 173 932 180 1371 
3937 -0.02301471264154989 -0.23617216567438126 0.976214645095159 0 0 0 0.33 7 2577 46 939 55 495 94 1537 119 403 144 698 161 732 177 739 183 557 193 1412 23 880 72 818 143 486 149 1605 180 1372 212 637 226 750 
3938 -0.06724361635413358 -0.1687485014335641 1.118871828320144 0 0 0 0.28 7 2578 58 626 139 506 144 699 149 1606 189 368 211 865 216 1074 37 857 46 940 59 640 86 856 125 1228 143 487 153 431 167 716 177 740 183 558 186 365 191 392 193 1413 212 638 218 1078 55 496 94 1538 202 471 210 716 
3939 -0.09607000450944195 -0.14082514441076555 1.060123045140674 0 0 0 0.85 7 2579 47 154 149 1607 
3940 -0.08477027329457185 -0.15662717031006868 0.9574093424412597 0 0 0 0.49 7 2580 59 641 86 857 94 1539 137 233 144 700 149 1608 161 733 191 393 202 472 8 582 24 553 57 707 115 45 125 1229 166 1056 177 741 212 639 225 190 55 497 102 636 117 225 145 515 140 1036 154 1157 
3941 -0.15037216882923957 -0.11965625903488863 0.9853461025866495 0 0 0 0.28 7 2581 45 353 132 52 161 734 
3942 -0.0800350258100054 -0.1595548757371574 0.9423678317541012 0 0 0 0.63 7 2582 30 454 150 376 161 735 
3943 -0.14652100277043303 -0.12041308183315928 0.96812530155923 0 0 0 0.33 7 2583 23 881 55 498 102 637 116 1441 132 53 139 507 144 701 145 516 149 1609 150 377 166 1057 177 742 178 375 193 1414 215 25 218 1079 8 583 24 554 34 756 57 708 59 642 86 858 131 368 151 1345 161 736 173 933 180 1373 205 611 212 640 45 354 90 387 117 226 122 607 125 1230 140 1037 211 866 
3944 -0.07260855527396431 -0.15654999402251485 0.9428558281977794 0 0 0 0.44 7 2584 34 757 55 499 57 709 59 643 137 234 140 1038 144 702 150 378 151 1346 186 366 191 394 193 1415 202 473 212 641 215 26 216 1075 24 555 102 638 180 1374 115 46 116 1442 177 743 218 1080 226 751 23 882 86 859 94 1540 106 562 149 1610 154 1158 166 1058 173 934 117 227 
3945 -0.5168260177237713 0.0878648473298831 1.1257090596150423 0 0 0 0.57 7 2585 37 858 46 941 139 508 144 703 145 517 193 1416 202 474 8 584 24 556 55 500 57 710 125 1231 131 369 143 488 153 432 173 935 178 376 180 1375 191 395 218 1081 228 1287 
3946 -0.08813222881524053 -0.14300925588196076 0.9574937938777719 0 0 0 0.18 7 2586 191 396 212 642 
3947 -0.06460546696722021 -0.15684818239434858 0.9404483426991325 0 0 0 0.35 7 2587 34 758 55 501 57 711 140 1039 144 704 150 379 151 1347 161 737 193 1417 216 1076 46 942 86 860 117 228 186 367 205 612 211 867 
3948 -0.022281156042829542 -0.17206648346352496 0.918610831144245 0 0 0 0.46 7 2588 37 859 94 1541 116 1443 140 1040 144 705 150 380 161 738 215 27 216 1077 226 752 115 47 
3949 -0.11238246746267527 -0.10631699723215689 1.0324943643993698 0 0 0 0.45 7 2589 125 1232 186 368 211 868 212 643 8 585 57 712 59 644 145 518 131 370 167 717 
3950 -0.03349475800839301 -0.16221020496683278 0.9224606669900633 0 0 0 0.34 7 2590 34 759 37 860 46 943 59 645 86 861 119 404 122 608 125 1233 144 706 149 1611 150 381 151 1348 161 739 178 377 193 1418 205 613 211 869 212 644 218 1082 117 229 
3951 -0.5275241915803123 0.10418151227239136 1.134413596098903 0 0 0 0.51 7 2591 57 713 58 627 139 509 144 707 154 1159 212 645 46 944 48 189 86 862 94 1542 125 1234 131 371 167 718 173 936 178 378 180 1376 186 369 189 369 211 870 228 1288 8 586 24 557 145 519 153 433 166 1059 
3952 -0.08526846822291893 -0.13304954922349177 0.9400843782664999 0 0 0 0.5 7 2592 34 760 59 646 140 1041 149 1612 166 1060 211 871 8 587 23 883 139 510 24 558 106 563 131 372 145 520 150 382 151 1349 154 1160 177 744 205 614 37 861 90 388 117 230 161 740 180 1377 183 559 86 863 
3953 -0.3530338296733265 0.03741744293111928 1.1902821371540484 0 0 0 0.2 7 2593 57 714 144 708 
3954 -0.0770877803699803 -0.1344584868594985 0.9327043533292039 0 0 0 0.26 7 2594 86 864 94 1543 144 709 193 1419 211 872 212 646 
3955 -0.13426590943706138 -0.09923453818977937 0.9623528181781676 0 0 0 0.34 7 2595 30 455 34 761 116 1444 149 1613 202 475 212 647 
3956 -0.3269605573294149 0.02886453560284793 1.1799430367648618 0 0 0 0.49 7 2596 18 2235 34 762 151 1350 180 1378 8 588 55 502 145 521 205 615 
3957 -0.11573463686647388 -0.09227670393499694 1.0389803487327185 0 0 0 0.46 7 2597 45 355 47 155 57 715 58 628 59 647 86 865 90 389 116 1445 149 1614 180 1379 46 945 125 1235 144 710 151 1351 167 719 186 370 8 589 34 763 94 1544 132 54 166 1061 202 476 216 1078 
3958 -0.11652313783578029 -0.08674032848272613 1.036043301194731 0 0 0 0.58 7 2598 34 764 45 356 46 946 86 866 116 1446 144 711 149 1615 166 1062 205 616 37 862 57 716 167 720 191 397 8 590 58 629 94 1545 131 373 180 1380 211 873 
3959 -0.03286886034181202 -0.14568089965246703 0.9188532087838833 0 0 0 0.35 7 2599 55 503 59 648 94 1546 116 1447 119 405 125 1236 131 374 144 712 149 1616 150 383 161 741 180 1381 189 370 202 477 205 617 211 874 215 28 218 1083 8 591 24 559 37 863 143 489 154 1161 166 1063 173 937 177 745 193 1420 212 648 106 564 226 753 72 819 117 231 140 1042 210 717 
3960 -0.030368416392735877 -0.14415196994859855 0.91016652017717 0 0 0 0.49 7 2600 72 820 140 1043 144 713 161 742 193 1421 205 618 211 875 218 1084 18 2236 24 560 37 864 180 1382 106 565 154 1162 117 232 166 1064 
3961 -0.07714430017578672 -0.08410512933370798 1.082454768625272 0 0 0 0.26 7 2601 34 765 37 865 46 947 59 649 86 867 116 1448 125 1237 144 714 149 1617 151 1352 161 743 186 371 189 371 191 398 205 619 212 649 94 1547 167 721 
3962 -0.346223569496075 0.056928861234482965 1.160133484909905 0 0 0 0.64 7 2602 149 1618 161 744 228 1289 
3963 -0.07999143635234349 -0.07322473380491132 1.075889230756005 0 0 0 0.29 7 2603 58 630 59 650 86 868 94 1548 139 511 149 1619 166 1065 186 372 211 876 34 766 37 866 46 948 125 1238 151 1353 167 722 178 379 189 372 191 399 202 478 210 718 
3964 -0.025332283992602934 -0.1270320839819741 0.9143779588243222 0 0 0 0.39 7 2604 34 767 45 357 86 869 94 1549 116 1449 122 609 144 715 149 1620 150 384 166 1066 183 560 189 373 212 650 
3965 -0.07914334382306917 -0.0672357565886778 1.0910821956291306 0 0 0 0.37 7 2605 45 358 59 651 90 390 149 1621 166 1067 212 651 37 867 86 870 94 1550 116 1450 125 1239 151 1354 167 723 186 373 191 400 
3966 -0.0862051983818864 -0.08733947581469162 0.9431702333204484 0 0 0 0.38 7 2606 30 456 34 768 37 868 45 359 46 949 47 156 57 717 59 652 86 871 90 391 94 1551 116 1451 119 406 125 1240 132 55 139 512 140 1044 144 716 149 1622 150 385 151 1355 154 1163 161 745 166 1068 180 1383 183 561 186 374 189 374 191 401 193 1422 202 479 205 620 211 877 212 652 228 1290 23 884 55 504 72 821 106 566 137 235 173 938 177 746 210 719 218 1085 226 754 117 233 143 490 145 522 216 1079 
3967 -0.08155231289980758 -0.08899793243942546 0.9393431130632418 0 0 0 0.58 7 2607 37 869 46 950 47 157 86 872 94 1552 140 1045 149 1623 150 386 177 747 193 1423 215 29 218 1086 
3968 -0.11957743145143822 -0.05994350871603946 0.988651078212242 0 0 0 0.27 7 2608 37 870 57 718 59 653 86 873 94 1553 116 1452 125 1241 186 375 
3969 -0.08727202089064831 -0.07104571756229382 0.944275925974675 0 0 0 0.65 7 2609 149 1624 161 746 34 769 151 1356 216 1080 
3970 -0.07356292067686328 -0.05103723760397787 1.066777955776379 0 0 0 0.5 7 2610 34 770 37 871 58 631 94 1554 116 1453 144 717 180 1384 193 1424 57 719 125 1242 228 1291 59 654 86 874 154 1164 167 724 171 1189 189 375 191 402 202 480 211 878 8 592 140 1046 145 523 151 1357 166 1069 173 939 
3971 -0.09077784250185914 -0.0675548256543266 0.9324160749429601 0 0 0 0.45 7 2611 34 771 37 872 46 951 47 158 59 655 94 1555 119 407 125 1243 132 56 139 513 140 1047 143 491 149 1625 150 387 151 1358 161 747 166 1070 183 562 191 403 202 481 205 621 210 720 211 879 212 653 216 1081 218 1087 228 1292 23 885 72 822 86 875 106 567 117 234 131 375 144 718 145 524 154 1165 177 748 189 376 226 755 
3972 -0.12095147676278929 -0.039666491627026665 0.9797272166651214 0 0 0 0.29 7 2612 30 457 154 1166 
3973 -0.10166835116032209 -0.05767019567566871 0.9336322103257105 0 0 0 0.52 7 2613 37 873 46 952 55 505 57 720 132 57 137 236 149 1626 151 1359 183 563 191 404 193 1425 211 880 215 30 228 1293 8 593 34 772 86 876 94 1556 116 1454 140 1048 177 749 218 1088 226 756 
3974 -0.52926216277463 0.14943942939954197 1.0890898967754843 0 0 0 0.51 7 2614 34 773 45 360 94 1557 116 1455 125 1244 161 748 211 881 
3975 -0.06949926949569982 -0.03423924286544631 1.0741180026957047 0 0 0 0.18 7 2615 149 1627 202 482 
3976 -0.5190836425578393 0.15534381250533616 1.0804511797861311 0 0 0 0.63 7 2616 45 361 57 721 
3977 -0.5151495006668169 0.15394573371342002 1.0790533264849431 0 0 0 0.52 7 2617 46 953 57 722 58 632 94 1558 116 1456 125 1245 144 719 161 749 189 377 216 1082 37 874 119 408 
3978 -0.04266663523525123 -0.0630714500859203 0.9011514737545434 0 0 0 0.39 7 2618 30 458 37 875 46 954 47 159 55 506 59 656 72 823 90 392 94 1559 116 1457 119 409 122 610 125 1246 137 237 140 1049 144 720 145 525 149 1628 150 388 151 1360 154 1167 161 750 166 1071 177 750 178 380 183 564 191 405 202 483 211 882 212 654 218 1089 226 757 228 1294 31 508 102 639 131 376 180 1385 205 622 210 721 34 774 106 568 
3979 -0.10444227283897009 -0.028092335603268338 0.9188331326207968 0 0 0 0.47 7 2619 37 876 186 376 228 1295 31 509 34 775 46 955 57 723 94 1560 116 1458 140 1050 149 1629 151 1361 154 1168 166 1072 177 751 193 1426 117 235 125 1247 137 238 144 721 
3980 -0.053496931684981375 -0.046020376610125674 0.8958674685158796 0 0 0 0.34 7 2620 30 459 37 877 46 956 55 507 139 514 150 389 161 751 186 377 205 623 211 883 216 1083 34 776 68 170 137 239 228 1296 
3981 -0.1000264489520874 -0.01819029965928671 0.9081985444365676 0 0 0 0.54 7 2621 59 657 149 1630 8 594 30 460 31 510 57 724 94 1561 116 1459 144 722 145 526 154 1169 23 886 55 508 102 640 106 569 139 515 161 752 173 940 180 1386 183 565 226 758 228 1297 
3982 -0.1391667359607619 0.005736315359253928 0.9166246837033775 0 0 0 0.43 7 2622 94 1562 171 1190 
3983 -0.11686413901868019 0.014965364882540765 0.9658049028243161 0 0 0 0.45 7 2623 46 957 139 516 149 1631 186 378 
3984 -0.14557343636279396 0.01643320046878153 0.9226812752008057 0 0 0 0.36 7 2624 59 658 86 877 94 1563 149 1632 151 1362 166 1073 186 379 202 484 211 884 228 1298 
3985 -0.5368153745510204 0.19417114795839158 1.0948263759614782 0 0 0 0.64 7 2625 51 193 139 517 186 380 34 777 59 659 86 878 151 1363 166 1074 167 725 171 1191 189 378 211 885 228 1299 24 561 125 1248 
3986 -0.4441643088033726 0.160118201593812 1.0702802222498085 0 0 0 0.36 7 2626 94 1564 186 381 55 509 86 879 116 1460 125 1249 154 1170 167 726 180 1387 183 566 58 633 8 595 119 410 191 406 24 562 143 492 166 1075 
3987 -0.45655988105550904 0.1660548795917175 1.0718839230872779 0 0 0 0.29 7 2627 37 878 46 958 57 725 58 634 94 1565 116 1461 125 1250 151 1364 154 1171 189 379 211 886 216 1084 86 880 166 1076 167 727 228 1300 8 596 90 393 144 723 202 485 55 510 59 660 137 240 143 493 226 759 
3988 -0.34593626293452523 0.11972539370290636 1.030313561089405 0 0 0 0.53 7 2628 149 1633 212 655 
3989 -0.38125614585715023 0.1381481284870027 1.0402353665156279 0 0 0 0.47 7 2629 125 1251 149 1634 
3990 -0.21128152293572522 0.07369188277310662 1.0032938257913502 0 0 0 0.41 7 2630 30 461 46 959 151 1365 205 624 55 511 57 726 58 635 59 661 86 881 94 1566 116 1462 119 411 125 1252 144 724 154 1172 167 728 177 752 180 1388 186 382 202 486 218 1090 
3991 -0.3676868642930708 0.13439711221951625 1.0339067821883003 0 0 0 0.55 7 2631 94 1567 149 1635 
3992 -0.1475417975287611 0.03346379333510792 0.9138620058632989 0 0 0 0.47 7 2632 59 662 86 882 125 1253 145 527 151 1366 211 887 
3993 -0.04901186089318652 -0.007434191146436208 0.8757500982208815 0 0 0 0.33 7 2633 30 462 34 778 37 879 46 960 86 883 90 394 116 1463 119 412 122 611 125 1254 143 494 144 725 149 1636 150 390 151 1367 154 1173 161 753 166 1077 177 753 186 383 189 380 191 407 193 1427 205 625 212 656 216 1085 228 1301 233 958 23 887 45 362 55 512 68 171 72 824 139 518 140 1051 145 528 183 567 211 888 226 760 117 236 
3994 -0.328076536668166 0.12039105114705344 1.0191380704600372 0 0 0 0.21 7 2634 58 636 116 1464 57 727 86 884 94 1568 144 726 151 1368 167 729 193 1428 218 1091 
3995 -0.10253734239133817 0.018191310766288223 0.8987782667113886 0 0 0 0.48 7 2635 30 463 34 779 37 880 46 961 57 728 59 663 94 1569 139 519 140 1052 144 727 145 529 150 391 161 754 183 568 191 408 193 1429 212 657 228 1302 233 959 23 888 31 511 149 1637 154 1174 177 754 210 722 68 172 117 237 
3996 -0.47834796878074515 0.18578475211481615 1.0784508371356418 0 0 0 0.24 7 2636 55 513 58 637 94 1570 116 1465 171 1192 186 384 216 1086 
3997 -0.056845588854115274 -0.0005158222822600453 0.879264155743315 0 0 0 0.39 7 2637 30 464 46 962 139 520 161 755 205 626 233 960 68 173 149 1638 
3998 -0.4834417311328999 0.18786620143114827 1.0774407649173274 0 0 0 0.33 7 2638 139 521 211 889 
3999 -0.0901127697541345 0.015615039866714373 0.8954473143587144 0 0 0 0.27 7 2639 30 465 34 780 46 963 47 160 57 729 86 885 94 1571 116 1466 119 413 125 1255 140 1053 143 495 145 530 149 1639 150 392 151 1369 154 1175 161 756 177 755 189 381 193 1430 211 890 212 658 216 1087 228 1303 23 889 31 512 55 514 72 825 139 522 166 1078 173 941 180 1389 183 569 205 627 210 723 218 1092 226 761 106 570 68 174 117 238 233 961 
4000 -0.40578277236600646 0.15563848701567815 1.0457089635349424 0 0 0 0.18 7 2640 58 638 90 395 116 1467 193 1431 216 1088 
4001 -0.38082615835062195 0.14741310454397247 1.036816289908802 0 0 0 0.35 7 2641 57 730 58 639 94 1572 166 1079 228 1304 23 890 167 730 211 891 
4002 -0.34992482271557024 0.13631274851068947 1.0278717067068897 0 0 0 0.45 7 2642 116 1468 149 1640 205 628 46 964 58 640 86 886 94 1573 167 731 125 1256 186 385 
4003 -0.47871998859021636 0.1902466894658005 1.0761129138632277 0 0 0 0.23 7 2643 37 881 46 965 
4004 -0.3834467240369706 0.15157642029835558 1.0381725165185605 0 0 0 0.3 7 2644 57 731 58 641 86 887 94 1574 116 1469 125 1257 166 1080 193 1432 212 659 46 966 59 664 144 728 154 1176 167 732 186 386 228 1305 
4005 -0.04453589605260504 0.0012241521964235765 0.8688816994787324 0 0 0 0.46 7 2645 30 466 34 781 46 967 57 732 59 665 119 414 122 612 131 377 137 241 139 523 143 496 150 393 151 1370 177 756 212 660 233 962 8 597 173 942 225 191 23 891 72 826 99 824 102 641 106 571 216 1089 117 239 
4006 -0.31844882452199835 0.12600458415313692 1.0143044331239846 0 0 0 0.56 7 2646 34 782 94 1575 210 724 
4007 -0.5156994959951511 0.20154089245417459 1.0593256062311551 0 0 0 0.43 7 2647 51 194 57 733 94 1576 116 1470 139 524 144 729 151 1371 154 1177 171 1193 178 381 183 570 193 1433 34 783 37 882 58 642 59 666 86 888 125 1258 166 1081 167 733 180 1390 189 382 212 661 8 598 24 563 48 190 102 642 211 892 216 1090 228 1306 
4008 -0.35192023714550025 0.14176687684200556 1.0242737049837165 0 0 0 0.28 7 2648 57 734 90 396 140 1054 149 1641 205 629 216 1091 58 643 94 1577 153 434 166 1082 167 734 228 1307 37 883 46 968 86 889 116 1471 131 378 144 730 34 784 174 122 193 1434 211 893 
4009 -0.09234518172774776 0.029309241345864726 0.8971818741068096 0 0 0 0.61 7 2649 149 1642 161 757 183 571 205 630 233 963 55 515 125 1259 151 1372 193 1435 226 762 
4010 -0.3292469215493836 0.13634810190744795 1.0117356851989332 0 0 0 0.36 7 2650 37 884 46 969 116 1472 125 1260 149 1643 150 394 218 1093 
4011 -0.14403275843117427 0.04922298398492748 0.8934924050078897 0 0 0 0.29 7 2651 151 1373 212 662 228 1308 
4012 -0.3336157219558961 0.14106486906746188 1.0109877072477225 0 0 0 0.11 7 2652 34 785 58 644 116 1473 140 1055 154 1178 
4013 -0.46226955596002556 0.19606231093672138 1.0687964604431062 0 0 0 0.44 7 2653 34 786 37 885 46 970 86 890 90 397 211 894 216 1092 
4014 -0.3260349706291485 0.1393699687209827 1.0088217382310845 0 0 0 0.25 7 2654 46 971 149 1644 150 395 193 1436 211 895 
4015 -0.12521365893090222 0.05871959881557988 0.9324804167553089 0 0 0 0.28 7 2655 59 667 149 1645 202 487 233 964 
4016 -0.3201620726362345 0.13826541361034098 1.0043185466037945 0 0 0 0.44 7 2656 46 972 125 1261 140 1056 150 396 233 965 
4017 -0.05504494461846787 0.026342364516375505 0.8618717448480946 0 0 0 0.15 7 2657 166 1083 233 966 
4018 -0.2968845835308827 0.13434352558010582 0.9961065297031814 0 0 0 0.27 7 2658 154 1179 191 409 211 896 212 663 46 973 57 735 58 645 116 1474 144 731 150 397 167 735 173 943 177 757 202 488 218 1094 228 1309 8 599 140 1057 166 1084 37 886 55 516 119 415 125 1262 174 123 183 572 
4019 -0.29110482421620915 0.1328395620070901 0.9917218691618364 0 0 0 0.28 7 2659 34 787 57 736 116 1475 153 435 166 1085 59 668 167 736 225 192 228 1310 8 600 86 891 173 944 218 1095 174 124 
4020 -0.4303712313025734 0.19326817112993522 1.0532771445682227 0 0 0 0.42 7 2660 94 1578 171 1194 211 897 
4021 -0.2094018964892051 0.10396263141839238 0.9551376922347452 0 0 0 0.47 7 2661 57 737 116 1476 125 1263 144 732 150 398 151 1374 218 1096 228 1311 86 892 90 398 94 1579 99 825 132 58 167 737 177 758 212 664 225 193 58 646 174 125 
4022 -0.5392434341702731 0.23374175047921258 1.0734859861996418 0 0 0 0.38 7 2662 34 788 46 974 57 738 86 893 119 416 212 665 55 517 144 733 153 436 161 758 167 738 59 669 
4023 -0.3245004324806899 0.15307682802509395 1.0047171983292642 0 0 0 0.14 7 2663 34 789 37 887 46 975 132 59 228 1312 57 739 59 670 94 1580 167 739 202 489 86 894 
4024 -0.35916287939894914 0.16815737097584504 1.0151880746647528 0 0 0 0.3 7 2664 116 1477 149 1646 166 1086 171 1195 210 725 
4025 -0.24794714642967633 0.12367027419694988 0.9698640329939061 0 0 0 0.32 7 2665 186 387 191 410 212 666 233 967 
4026 -0.5273344588569544 0.2277958229524492 1.054910755118879 0 0 0 0.27 7 2666 57 740 58 647 
4027 -0.53967447256781 0.2375271408556988 1.071911711334862 0 0 0 0.54 7 2667 46 976 51 195 57 741 154 1180 151 1375 153 437 167 740 193 1437 218 1097 
4028 -0.5368990674715295 0.2327556091517061 1.0550268638871565 0 0 0 0.33 7 2668 45 363 58 648 86 895 94 1581 116 1478 119 417 139 525 183 573 189 383 202 490 211 898 216 1093 51 196 167 741 228 1313 125 1264 218 1098 
4029 -0.13597209637527544 0.08265672523181009 0.9031659033331729 0 0 0 0.59 7 2669 30 467 55 518 116 1479 151 1376 161 759 186 388 211 899 228 1314 31 513 59 671 94 1582 144 734 154 1181 178 382 212 667 57 742 86 896 99 826 149 1647 68 175 137 242 
4030 -0.09536244585642177 0.06483448248711092 0.8712534364861424 0 0 0 0.46 7 2670 30 468 90 399 139 526 149 1648 205 631 216 1094 226 763 228 1315 23 892 31 514 57 743 86 897 102 643 116 1480 144 735 151 1377 154 1182 173 945 177 759 180 1391 218 1099 55 519 94 1583 106 572 125 1265 137 243 203 597 
4031 -0.1309561397618952 0.08736498171859679 0.9093573470350336 0 0 0 0.33 7 2671 55 520 57 744 137 244 139 527 212 668 228 1316 31 515 59 672 86 898 94 1584 102 644 116 1481 144 736 151 1378 154 1183 177 760 106 573 125 1266 211 900 
4032 -0.2530745286885849 0.1383279686181509 0.9683999130187645 0 0 0 0.25 7 2672 37 888 58 649 59 673 94 1585 99 827 116 1482 132 60 139 528 144 737 149 1649 178 383 212 669 86 899 167 742 228 1317 8 601 23 893 55 521 57 745 72 827 102 645 119 418 131 379 140 1058 143 497 145 531 151 1379 177 761 180 1392 183 574 189 384 191 411 210 726 218 1100 233 968 161 760 205 632 154 1184 173 946 216 1095 34 790 125 1267 137 245 174 126 202 491 166 1087 203 598 193 1438 
4033 -0.27840314809612293 0.14746548306249507 0.9706859492613281 0 0 0 0.45 7 2673 57 746 90 400 149 1650 94 1586 99 828 116 1483 167 743 189 385 131 380 177 762 45 364 144 738 174 127 205 633 
4034 -0.2235542990490551 0.13029448875599114 0.9565845100496387 0 0 0 0.33 7 2674 37 889 45 365 58 650 90 401 94 1587 116 1484 125 1268 132 61 140 1059 144 739 145 532 151 1380 212 670 228 1318 167 744 68 176 34 791 180 1393 203 599 18 2237 143 498 189 386 210 727 
4035 -0.10737064182341528 0.07684896709127292 0.870906395990867 0 0 0 0.45 7 2675 34 792 55 522 59 674 116 1485 125 1269 151 1381 186 389 233 969 8 602 57 747 30 469 106 574 140 1060 183 575 191 412 193 1439 228 1319 
4036 -0.10283724337291439 0.07399148483595393 0.8641868681134618 0 0 0 0.29 7 2676 30 470 144 740 151 1382 186 390 205 634 
4037 0.1052113631954305 0.017560880872437182 0.8415871438800231 0 0 0 0.55 7 2677 37 890 186 391 
4038 -0.14151382512609867 0.09067258446174911 0.8730326320370206 0 0 0 0.19 7 2678 45 366 57 748 86 900 90 402 94 1588 116 1486 122 613 139 529 140 1061 144 741 149 1651 151 1383 177 763 193 1440 211 901 216 1096 218 1101 228 1320 233 970 31 516 
4039 0.13568116121222848 0.004885624902729945 0.8219455401511611 0 0 0 0.34 7 2679 94 1589 99 829 116 1487 149 1652 24 564 31 517 154 1185 178 384 180 1394 211 902 34 793 55 523 57 749 59 675 106 575 119 419 125 1270 140 1062 150 399 151 1384 161 761 166 1088 173 947 177 764 191 413 193 1441 202 492 
4040 -0.27316003632216945 0.1571306056841128 0.9801406574647928 0 0 0 0.25 7 2680 125 1271 211 903 
4041 -0.12012782287778871 0.08889096889390417 0.8673438069108628 0 0 0 0.47 7 2681 34 794 45 367 47 161 59 676 86 901 116 1488 140 1063 144 742 151 1385 166 1089 212 671 226 764 31 518 137 246 145 533 173 948 205 635 216 1097 183 576 55 524 102 646 
4042 -0.18216497113069233 0.12419003738293563 0.9326501797852741 0 0 0 0.32 7 2682 45 368 144 743 149 1653 202 493 205 636 37 891 46 977 161 762 167 745 218 1102 225 194 86 902 8 603 23 894 57 750 59 677 116 1489 140 1064 145 534 173 949 177 765 183 577 193 1442 210 728 216 1098 228 1321 233 971 30 471 154 1186 94 1590 121 143 203 600 212 672 
4043 -0.31141257653364623 0.17328210434749386 0.9806675541028304 0 0 0 0.39 7 2683 58 651 94 1591 116 1490 149 1654 202 494 210 729 211 904 233 972 46 978 99 830 150 400 167 746 34 795 59 678 86 903 125 1272 137 247 139 530 144 744 145 535 151 1386 154 1187 166 1090 177 766 193 1443 216 1099 225 195 226 765 228 1322 72 828 140 1065 218 1103 
4044 -0.03504017314268136 0.061385991644106117 0.8302986823978263 0 0 0 0.43 7 2684 59 679 149 1655 178 385 211 905 31 519 37 892 72 829 102 647 140 1066 226 766 228 1323 
4045 -0.17242013813034215 0.12822453726361493 0.9260805822113607 0 0 0 0.39 7 2685 30 472 59 680 94 1592 116 1491 122 614 125 1273 140 1067 144 745 145 536 149 1656 183 578 205 637 212 673 216 1100 228 1324 37 893 99 831 154 1188 167 747 193 1444 233 973 8 604 23 895 55 525 86 904 137 248 171 1196 203 601 210 730 
4046 -0.06551619595818758 0.07670237486743588 0.8378357943008079 0 0 0 0.21 7 2686 86 905 144 746 218 1104 228 1325 
4047 -0.3133756768635422 0.18207735492255733 0.9762141336155987 0 0 0 0.08 7 2687 149 1657 233 974 
4048 -0.0424770980077415 0.07281924720973994 0.8272474867583346 0 0 0 0.34 7 2688 57 751 59 681 86 906 90 403 116 1492 122 615 139 531 144 747 149 1658 151 1387 189 387 193 1445 202 495 212 674 
4049 0.2720172974733084 -0.03084085186759623 0.7316175151395112 0 0 0 0.41 7 2689 122 616 140 1068 212 675 
4050 -0.24533136171947684 0.16210855669267565 0.9583132745866744 0 0 0 0.03 7 2690 125 1274 193 1446 
4051 -0.059447135016837786 0.08431346452143247 0.8371004800565894 0 0 0 0.47 7 2691 37 894 45 369 59 682 86 907 90 404 94 1593 116 1493 121 144 122 617 125 1275 139 532 151 1388 189 388 191 414 212 676 216 1101 228 1326 23 896 31 520 72 830 99 832 149 1659 154 1189 173 950 177 767 180 1395 193 1447 218 1105 226 767 8 605 30 473 55 526 106 576 143 499 145 537 178 386 205 638 68 177 161 763 117 240 144 748 34 796 102 648 119 420 203 602 210 731 233 975 
4052 -0.08627129177743346 0.09428520898601006 0.8433826554991445 0 0 0 0.33 7 2692 59 683 94 1594 125 1276 166 1091 211 906 
4053 -0.21266220950765644 0.15526034483170273 0.9417844393818369 0 0 0 0.21 7 2693 30 474 34 797 37 895 46 979 94 1595 116 1494 132 62 140 1069 177 768 178 387 183 579 228 1327 233 976 45 370 180 1396 211 907 119 421 210 732 
4054 0.15056124471247614 0.02511832111131415 0.779161570116007 0 0 0 0.17 7 2694 57 752 116 1495 
4055 -0.5184639381991379 0.25788992998454563 1.0335836815956037 0 0 0 0.36 7 2695 161 764 216 1102 
4056 -0.05012495786247534 0.087687493474228 0.8302789912256806 0 0 0 0.89 7 2696 72 831 94 1596 125 1277 193 1448 205 639 226 768 55 527 59 684 102 649 115 48 116 1496 145 538 178 388 218 1106 225 196 228 1328 117 241 119 422 137 249 191 415 34 798 173 951 23 897 86 908 99 833 140 1070 150 401 151 1389 154 1190 166 1092 177 769 180 1397 203 603 210 733 211 908 233 977 
4057 -0.23813835562281938 0.1679033445744664 0.9423926682082141 0 0 0 0.29 7 2697 90 405 149 1660 144 749 145 539 174 128 205 640 
4058 -0.22432275597376766 0.16456439046644838 0.9419095335793851 0 0 0 0.33 7 2698 30 475 149 1661 161 765 205 641 233 978 116 1497 145 540 166 1093 167 748 177 770 183 580 189 389 193 1449 226 769 55 528 57 753 58 652 99 834 137 250 139 533 144 750 212 677 216 1103 90 406 174 129 
4059 -0.1548349901938033 0.13913153246578325 0.9114412498781808 0 0 0 0.35 7 2699 30 476 57 754 116 1498 119 423 125 1278 143 500 149 1662 151 1390 189 390 191 416 205 642 228 1329 23 898 31 521 94 1597 154 1191 212 678 216 1104 233 979 
4060 -0.14535718161912456 0.12129498411618517 0.8562237040192177 0 0 0 0.27 7 2700 30 477 34 799 86 909 94 1598 116 1499 125 1279 139 534 149 1663 154 1192 161 766 166 1094 173 952 193 1450 205 643 211 909 216 1105 218 1107 228 1330 233 980 8 606 31 522 140 1071 55 529 106 577 226 770 
4061 -0.16597481997745706 0.14425911503462077 0.9098269695831663 0 0 0 0.32 7 2701 30 478 116 1500 125 1280 139 535 151 1391 166 1095 177 771 23 899 31 523 226 771 86 910 154 1193 210 734 218 1108 
4062 -0.10042533252322726 0.11158563258990989 0.8528982863149361 0 0 0 0.34 7 2702 211 910 233 981 23 900 31 524 72 832 94 1599 99 835 116 1501 125 1281 139 536 149 1664 151 1392 154 1194 191 417 193 1451 216 1106 228 1331 55 530 106 578 140 1072 144 751 145 541 161 767 183 581 205 644 226 772 
4063 -0.25760946709823607 0.1791893842775184 0.9545139679797243 0 0 0 0.23 7 2703 205 645 233 982 137 251 174 130 
4064 -0.11089987609150727 0.11493962754734727 0.8534767062505366 0 0 0 0.34 7 2704 30 479 34 800 57 755 94 1600 116 1502 140 1073 149 1665 151 1393 161 768 205 646 211 911 233 983 31 525 72 833 119 424 144 752 145 542 154 1195 177 772 193 1452 218 1109 106 579 137 252 180 1398 183 582 216 1107 226 773 
4065 0.08349874376929801 0.05703101396512825 0.8031378137278586 0 0 0 0.49 7 2705 86 911 180 1399 24 565 57 756 94 1601 99 836 119 425 125 1282 211 912 212 679 68 178 218 1110 59 685 117 242 131 381 145 543 161 769 193 1453 216 1108 228 1332 
4066 -0.5158772995853864 0.26188586485146353 1.0311520661521043 0 0 0 0.24 7 2706 34 801 45 371 116 1503 139 537 216 1109 
4067 -0.12093647999571425 0.1193379094638351 0.8530788652706629 0 0 0 0.38 7 2707 46 980 94 1602 116 1504 125 1283 144 753 149 1666 202 496 233 984 31 526 203 604 210 735 
4068 -0.2798838430743813 0.18878509704181487 0.9589609670444257 0 0 0 0.64 7 2708 45 372 46 981 149 1667 202 497 34 802 59 686 161 770 171 1197 203 605 228 1333 
4069 0.07362838435562749 0.06319391198358539 0.8030241056618778 0 0 0 0.32 7 2709 37 896 139 538 140 1074 144 754 150 402 186 392 211 913 212 680 
4070 0.1051988605232528 0.05170195400546889 0.7876558771592326 0 0 0 0.45 7 2710 23 901 37 897 59 687 94 1603 99 837 102 650 140 1075 144 755 145 544 202 498 233 985 8 607 31 527 46 982 86 912 116 1505 154 1196 216 1110 218 1111 55 531 106 580 
4071 -0.383526963681352 0.22636663023206793 0.9997945679317682 0 0 0 0.38 7 2711 34 803 37 898 57 757 116 1506 125 1284 145 545 151 1394 183 583 216 1111 8 608 72 834 121 145 139 539 191 418 233 986 
4072 -0.258477736430698 0.18574675541099026 0.9508874586707512 0 0 0 0.28 7 2712 149 1668 161 771 205 647 233 987 139 540 174 131 183 584 
4073 0.08596521643929242 0.05812142924127569 0.7822377942494222 0 0 0 0.61 7 2713 119 426 125 1285 144 756 228 1334 23 902 24 566 31 528 72 835 94 1604 116 1507 139 541 140 1076 154 1197 161 772 173 953 180 1400 211 914 218 1112 226 774 55 532 57 758 183 585 205 648 106 581 145 546 
4074 -0.2164003462300224 0.1743848402634738 0.937311192196268 0 0 0 0.2 37 899 86 913 191 419 211 915 
4075 -0.383983361732358 0.23080156821961398 1.0004971358981527 0 0 0 0.59 7 2714 45 373 57 759 94 1605 116 1508 125 1286 149 1669 86 914 144 757 167 749 171 1198 8 609 24 567 34 804 55 533 102 651 119 427 131 382 151 1395 178 389 183 586 191 420 193 1454 228 1335 58 653 72 836 133 86 137 253 143 501 153 438 180 1401 202 499 226 775 37 900 59 688 216 1112 46 983 168 82 218 1113 203 606 211 916 
4076 -0.24995072710967253 0.1876945921634241 0.9494474474977306 0 0 0 0.63 7 2715 30 480 233 988 161 773 
4077 -0.12411376184162827 0.12855554578945474 0.8494868809664394 0 0 0 0.18 7 2716 23 903 46 984 94 1606 116 1509 149 1670 166 1096 205 649 31 529 
4078 -0.0406201205258008 0.09979005413633828 0.8096777006639064 0 0 0 0.71 7 2717 30 481 47 162 125 1287 216 1113 57 760 23 904 34 805 145 547 233 989 117 243 144 758 177 773 
4079 -0.10984867637065318 0.12670451442130726 0.8475217557799395 0 0 0 0.29 7 2718 47 163 149 1671 151 1396 161 774 205 650 31 530 99 838 116 1510 211 917 30 482 37 901 218 1114 226 776 233 990 
4080 -0.08681660661693544 0.1174683194109303 0.8228448892320525 0 0 0 0.18 7 2719 34 806 47 164 149 1672 150 403 151 1397 161 775 177 774 180 1402 205 651 216 1114 226 777 228 1336 233 991 8 610 23 905 31 531 55 534 57 761 59 689 72 837 86 915 102 652 116 1511 125 1288 140 1077 143 502 144 759 166 1097 173 954 189 391 193 1455 212 681 218 1115 37 902 106 582 145 548 154 1198 183 587 
4081 -0.15429613832637398 0.158402869985649 0.9025084424636081 0 0 0 0.21 7 2720 30 483 57 762 137 254 144 760 149 1673 151 1398 183 588 186 393 205 652 216 1115 233 992 34 807 46 985 94 1607 116 1512 125 1289 193 1456 68 179 
