# 3D point list with one line of data per point:
#   POINT3D_ID, X, Y, Z, R, G, B, ERROR, TRACK[] as (IMAGE_ID, POINT2D_IDX)
# Number of points: 350, mean track length: 8.59
226 -0.5154816306377474 0.02668759507156234 0.7203856430120998 0 0 0 0.26 23 54 68 226 125 60 
227 -0.44922514059156304 -0.13880924324236546 1.139138895378346 0 0 0 0.32 23 55 34 82 68 227 106 60 116 64 131 52 140 78 144 82 151 78 154 27 173 43 180 39 193 72 218 39 
228 -0.4909557088203458 -0.11515299624283733 0.8231137382580499 0 0 0 0.24 23 56 68 228 94 37 151 79 161 40 173 44 177 62 180 40 205 40 218 40 
229 -0.37755036612186527 -0.1405607864865106 1.3552634292074965 0 0 0 0.35 23 57 24 37 68 229 99 31 106 61 122 28 131 53 154 28 171 16 173 45 180 41 191 46 216 88 228 87 
230 -0.09195658367394183 -0.11909972346757594 1.295411004903711 0 0 0 0.23 23 58 68 230 106 62 
231 -0.4722834144045723 -0.11272841619325165 0.9261518941962505 0 0 0 0.18 23 59 37 50 68 231 72 23 86 22 94 38 125 61 177 63 180 42 218 41 
232 -0.11984042251800145 -0.11678743771599827 1.2946103245225664 0 0 0 0.21 23 60 68 232 106 63 177 64 
233 -0.42413989865063784 -0.10222583190811846 1.3657629308177879 0 0 0 0.25 23 61 24 38 34 83 37 51 46 44 55 50 59 66 68 233 72 24 86 23 106 64 119 47 125 62 150 53 151 80 166 53 178 40 186 16 189 32 193 73 202 62 211 61 212 61 218 42 225 16 226 29 
234 -0.10793313812757889 -0.07229239870094935 1.2842510453957177 0 0 0 0.29 23 62 68 234 139 64 150 54 
235 -0.4336688432737771 -0.07051138523954187 1.201702269588707 0 0 0 0.27 23 63 45 20 68 235 106 65 140 79 150 55 151 81 166 54 193 74 202 63 211 62 226 30 
236 -0.2572749194426757 -0.0585375070498887 1.3038947084412635 0 0 0 0.32 23 64 30 59 31 70 57 72 59 67 68 236 72 25 99 32 106 66 131 54 137 53 139 65 140 80 144 83 145 34 150 56 154 29 161 41 202 64 205 41 212 62 216 89 228 88 
237 -0.5258264772290107 -0.048958938986009504 0.8057492033622106 0 0 0 0.32 23 65 37 52 55 51 68 237 137 54 151 82 154 30 173 46 177 65 218 43 
238 -0.5259635027327753 -0.03941284980808549 0.8216727279344807 0 0 0 0.6 23 66 31 71 59 68 68 238 102 12 116 65 149 64 154 31 173 47 180 43 202 65 218 44 
239 -0.4506863703088143 -0.030256192135164506 1.149157022229807 0 0 0 0.36 23 67 55 52 68 239 150 57 166 55 228 89 
240 -0.4564386424875406 -0.024087940010821825 1.1228648439834312 0 0 0 0.44 23 68 34 84 68 240 106 67 193 75 226 31 228 90 
241 -0.12574433840073826 -0.007867138957820353 1.2696632952587392 0 0 0 0.22 23 69 24 39 68 241 99 33 
242 -0.222507673772528 -0.0065209859981704 1.2882310874833882 0 0 0 0.08 23 70 55 53 68 242 
243 -0.4374201530858902 -0.006005127291646977 1.1965736016667374 0 0 0 0.28 23 71 31 72 34 85 68 243 106 68 137 55 139 66 140 81 143 41 149 65 150 58 173 48 212 63 226 32 228 91 
244 -0.14579044232904684 0.012804338754250275 1.2794361367607912 0 0 0 0.31 23 72 68 244 72 26 137 56 150 59 180 44 
245 -0.3420023954050854 0.011452908019522305 1.340741089336179 0 0 0 0.41 23 73 24 40 57 73 68 245 
246 -0.12755354521754247 0.028849618741148258 1.2798119145039772 0 0 0 0.09 23 74 68 246 106 69 140 82 
247 -0.48356318878286403 0.029291093540687346 0.9999097073117049 0 0 0 0.37 23 75 34 86 37 53 46 45 55 54 68 247 72 27 106 70 116 66 119 48 125 63 139 67 140 83 143 42 144 84 150 60 151 83 173 49 177 66 180 45 191 47 193 76 212 64 218 45 226 33 228 92 
248 -0.4319983039273334 0.04522134162713104 1.193273528181549 0 0 0 0.42 23 76 30 60 31 73 34 87 46 46 57 74 59 69 68 248 99 34 102 13 106 71 116 67 119 49 137 57 139 68 140 84 143 43 150 61 151 84 166 56 177 67 180 46 189 33 191 48 193 77 211 63 212 65 216 90 218 46 226 34 233 77 
249 -0.502243782941895 0.02679722742346349 0.7992596527577617 0 0 0 0.3 23 77 68 249 106 72 180 47 
250 -0.052925168363246164 0.08214605465985386 1.267944308671761 0 0 0 0.24 23 78 68 250 106 73 140 85 
251 -0.18415628324360803 0.08459621193473316 1.2776497421721862 0 0 0 0.26 23 79 30 61 31 74 57 75 68 251 72 28 99 35 106 74 137 58 140 86 150 62 177 68 189 34 
252 -0.4938420468001339 0.06698954680523393 0.8103050712518027 0 0 0 0.22 23 80 68 252 72 29 143 44 173 50 193 78 228 93 
253 -0.4874361280367771 -0.24659097868454688 0.880488526308036 0 0 0 0.31 23 81 68 253 94 39 106 75 140 87 144 85 149 66 154 32 161 42 166 57 173 51 193 79 205 42 211 64 212 66 
254 -0.012185386286686903 -0.11870838059708465 1.2871979975201704 0 0 0 0.31 23 82 31 75 57 76 68 254 99 36 106 76 
255 -0.0058016276594994734 -0.11723155737591179 1.274561953187916 0 0 0 0.21 23 83 68 255 106 77 150 63 189 35 
256 -0.14463709679824702 -0.04792406464397497 1.2708973508269799 0 0 0 0.29 23 84 31 76 68 256 
257 -0.45445620429665096 -0.05077815253713882 1.1300542906516116 0 0 0 0.24 23 85 68 257 143 45 149 67 
258 -0.45443676953337514 -0.04338889049747018 1.1275241113573173 0 0 0 0.25 23 86 68 258 116 68 143 46 151 85 180 48 
259 -0.08154764599086954 -0.02863391236293164 1.2754839340184156 0 0 0 0.17 23 87 68 259 99 37 
260 -0.12911336275902893 -0.013976073263585128 1.2845295717628566 0 0 0 0.4 23 88 24 41 30 62 68 260 106 78 143 47 150 64 189 36 
261 -0.3613349246768883 -0.013754812551621982 1.3436046192771582 0 0 0 0.32 23 89 68 261 139 69 178 41 193 80 202 66 212 67 
262 -0.16677201304137837 0.0034284067501767538 1.2673347663502466 0 0 0 0.39 23 90 68 262 106 79 150 65 
263 -0.04212526452978301 0.0077323351433411965 1.2716992446110789 0 0 0 0.25 23 91 68 263 99 38 106 80 202 67 
264 -0.309445555027342 0.0039015861234703423 1.3198559124140845 0 0 0 0.37 23 92 24 42 31 77 57 77 59 70 68 264 99 39 106 81 116 69 119 50 137 59 150 66 154 33 161 43 178 42 212 68 228 94 
265 -0.474032234469668 0.0028122827747386427 0.9168974182779585 0 0 0 0.1 23 93 68 265 143 48 166 58 178 43 189 37 218 47 
266 -0.4245027090915368 0.021751564196175834 1.2003491709460563 0 0 0 0.31 23 94 45 21 68 266 72 30 106 82 122 29 140 88 151 86 173 52 178 44 193 81 211 65 216 91 
267 -0.08158617584615184 0.07905563318935233 1.2618540181412787 0 0 0 0.32 23 95 68 267 106 83 177 69 202 68 
268 -0.08164161212181177 0.07935999885381416 1.2654722898213129 0 0 0 0.32 23 96 68 268 106 84 140 89 202 69 
269 -0.021004724408758103 0.09218809488841187 1.2549318476695195 0 0 0 0.22 23 97 24 43 68 269 202 70 
270 -0.105563123195721 -0.12093092139615721 1.2918621559994736 0 0 0 0.25 23 98 55 55 68 270 106 85 140 90 150 67 202 71 
271 -0.0808845528159695 -0.1233991942204933 1.4268624625142 0 0 0 0.23 23 99 68 271 106 86 
272 -0.16829137124290205 -0.03495112628022684 1.2850567587115664 0 0 0 0.22 23 100 24 44 57 78 68 272 150 68 180 49 202 72 
273 -0.16786211493217362 -0.03486810791193187 1.2820228640486926 0 0 0 0.24 23 101 57 79 68 273 150 69 
274 -0.24821892876210774 -0.034180660654850266 1.3027236428017768 0 0 0 0.29 23 102 24 45 59 71 68 274 99 40 106 87 119 51 131 55 137 60 140 91 150 70 154 34 161 44 180 50 191 49 202 73 212 69 228 95 
275 -0.047765347121574146 -0.0002634921219535865 1.2748730879608712 0 0 0 0.35 23 103 30 63 68 275 99 41 106 88 140 92 191 50 202 74 
276 -0.1331101599643915 0.06667445951124239 1.2779492728767898 0 0 0 0.48 23 104 68 276 177 70 189 38 
277 -0.15592902248094215 0.09278094354686925 1.2687610669040257 0 0 0 0.58 23 105 24 46 30 64 57 80 68 277 99 42 106 89 137 61 140 93 143 49 150 71 171 17 
278 -0.4839546105510647 -0.2688787315878499 1.2694400479114822 0 0 0 0.3 23 106 24 47 30 65 31 78 46 47 55 56 57 81 59 72 68 278 86 24 94 40 106 90 116 70 122 30 131 56 145 35 150 72 151 87 154 35 173 53 177 71 178 45 189 39 212 70 216 92 225 17 
279 -0.07240151523730064 -0.07473538162033327 1.277919716024962 0 0 0 0.22 23 107 68 279 106 91 
280 -0.41526971948361496 -0.03422463824998455 1.2054289788970725 0 0 0 0.44 23 108 31 79 34 88 37 54 59 73 68 280 86 25 94 41 106 92 125 64 139 70 140 94 144 86 151 88 166 59 173 54 193 82 202 75 211 66 212 71 228 96 
281 -0.24871552313750744 -0.015598695359341365 1.3063708261770859 0 0 0 0.53 23 109 31 80 57 82 59 74 68 281 99 43 106 93 119 52 133 18 137 62 139 71 140 95 144 87 150 73 154 36 161 45 177 72 180 51 216 93 225 18 228 97 
282 -0.1054815044276689 -0.07529411487922483 1.285835338515373 0 0 0 0.33 23 110 31 81 57 83 68 282 106 94 140 96 150 74 202 76 
283 -0.3806737251272952 -0.033167776954396856 1.3532121347800103 0 0 0 0.26 23 111 59 75 68 283 
284 -0.4964957694597333 0.0388157870292059 0.8027279784509127 0 0 0 0.53 23 112 24 48 30 66 31 82 34 89 45 22 57 84 59 76 68 284 72 31 90 23 106 95 139 72 144 88 151 89 177 73 183 29 193 83 202 77 212 72 218 48 228 98 
285 -0.09273201341494913 -0.0019366022036961675 1.2697607842803194 0 0 0 0.47 23 113 57 85 68 285 140 97 
286 -0.4060562645260267 0.07994693977603654 1.166140494891616 0 0 0 0.16 23 114 68 286 143 50 
287 -0.05498887421376674 -0.12077199291684457 1.379490719690488 0 0 0 0.27 23 115 24 49 68 287 106 96 
288 -0.17434786393482915 -0.006847111609368099 1.286405905187038 0 0 0 0.72 23 116 24 50 57 86 68 288 180 52 
289 -0.13815425579109486 0.020790696200392058 1.2768106926383307 0 0 0 0.37 23 117 68 289 106 97 177 74 
290 -0.4185647488548918 0.016031147989155763 1.2078008210410949 0 0 0 0.48 23 118 24 51 34 90 37 55 46 48 57 87 59 77 68 290 99 44 106 98 116 71 122 31 137 63 139 73 143 51 144 89 150 75 151 90 171 18 173 55 180 53 189 40 191 51 202 78 212 73 226 35 228 99 233 78 
291 -0.4310721887200683 -0.2766178498345418 1.2387113419101745 0 0 0 0.76 23 119 30 67 31 83 34 91 37 56 55 57 57 88 68 291 94 42 106 99 116 72 122 32 125 65 131 57 133 19 144 90 150 76 151 91 154 37 166 60 173 56 180 54 189 41 202 79 211 67 216 94 
292 -0.0015288160117044277 -0.14741876859116218 1.2820261460952658 0 0 0 0.4 24 52 68 292 177 75 
293 -0.10106478235340091 -0.14784301595633054 1.2942323352806675 0 0 0 0.4 24 53 31 84 68 293 99 45 140 98 150 77 202 80 
294 -0.3055058122492719 -0.11420004665779515 1.3316040158695928 0 0 0 0.34 24 54 68 294 137 64 150 78 177 76 202 81 
295 -0.37270940589528895 -0.08769845104800567 1.3473345297729808 0 0 0 0.18 24 55 68 295 137 65 166 61 191 52 212 74 216 95 228 100 
296 -0.1353382529321398 -0.08059209749763911 1.294613481026405 0 0 0 0.2 24 56 57 89 68 296 
297 -0.40489642985804375 -0.056816327706936426 1.351949194026709 0 0 0 0.23 24 57 57 90 68 297 202 82 
298 -0.3124766828557825 -0.029478558119460457 1.3224656480578865 0 0 0 0.3 24 58 68 298 131 58 139 74 216 96 
299 -0.2493572447613689 -0.02534764770104941 1.3073841105046697 0 0 0 0.31 24 59 59 78 68 299 99 46 106 100 150 79 228 101 
300 -0.03476589974683211 -0.009907277964587118 1.2750491355814781 0 0 0 0.61 24 60 30 68 68 300 99 47 202 83 
301 -0.519191335725701 -0.006627483425942008 0.8201426023341774 0 0 0 0.28 24 61 30 69 31 85 59 79 68 301 99 48 139 75 140 99 193 84 211 68 228 102 
302 -0.4730479734688779 0.0028632197074126642 0.9149385097647065 0 0 0 0.09 24 62 68 302 139 76 166 62 
303 -0.4828657561328548 0.003179705947936772 0.8714800634954886 0 0 0 0.34 24 63 31 86 34 92 45 23 46 49 68 303 99 49 106 101 125 66 140 100 171 19 173 57 180 55 212 75 233 79 
304 -0.00938634222594067 0.020362092883762114 1.2678407748753149 0 0 0 0.36 24 64 68 304 99 50 202 84 
305 -0.00938634222594067 0.020362092883762114 1.2678407748753149 0 0 0 0.36 24 65 68 305 99 51 202 85 
306 -0.4743901357585169 0.014897553561749188 0.9119896836968024 0 0 0 0.26 24 66 34 93 68 306 151 92 180 56 
307 -0.04225703374235217 0.030459464609154212 1.271044087349825 0 0 0 0.19 24 67 68 307 140 101 
308 -0.20090629782132813 0.03422424208126577 1.2913851241845005 0 0 0 0.07 24 68 68 308 139 77 
309 -0.3362558210292228 0.05687863731277935 1.3237527898603167 0 0 0 0.23 24 69 59 80 68 309 139 78 144 91 171 20 177 77 178 46 191 53 202 86 212 76 
310 -0.3342857661637208 0.07326087598509277 1.314816174603068 0 0 0 0.35 24 70 30 70 31 87 59 81 68 310 72 32 99 52 119 53 137 66 140 102 143 52 144 92 150 80 178 47 180 57 191 54 212 77 216 97 
311 -0.28485935413334273 0.07731632647055364 1.3032035574896532 0 0 0 0.33 24 71 55 58 57 91 59 82 68 311 102 14 161 46 171 21 177 78 180 58 212 78 228 103 
312 -0.28172430463882625 0.07865021465278972 1.3230823410680503 0 0 0 0.15 24 72 68 312 140 103 
313 -0.3072801117306342 0.0877670773025519 1.3186353023158326 0 0 0 0.25 24 73 68 313 180 59 
314 -0.26002065088247384 0.09572255353007637 1.295066259589783 0 0 0 0.32 24 74 31 88 57 92 59 83 68 314 99 53 131 59 150 81 171 22 180 60 191 55 228 104 
315 -0.27216654673287716 0.09731002133121402 1.30218207705791 0 0 0 0.36 24 75 31 89 68 315 180 61 
316 -0.10477569586624837 -0.14147740006430837 1.281621657200055 0 0 0 0.06 24 76 31 90 68 316 
317 -0.10521716359524325 -0.14320936829501715 1.299292856446125 0 0 0 0.31 24 77 31 91 55 59 68 317 202 87 
318 -0.27796584917753797 -0.08193109508938794 1.3171189780869343 0 0 0 0.25 24 78 30 71 31 92 57 93 59 84 68 318 99 54 116 73 144 93 150 82 154 38 171 23 178 48 180 62 189 42 202 88 216 98 225 19 
319 -0.15570536877298952 -0.05001480258591963 1.286842637428827 0 0 0 0.25 24 79 30 72 31 93 59 85 68 319 99 55 106 102 137 67 139 79 140 104 150 83 171 24 180 63 189 43 202 89 
320 -0.23094838740848012 -0.025134068858455424 1.2974984039014077 0 0 0 0.29 24 80 30 73 55 60 59 86 68 320 106 103 140 105 150 84 228 105 
321 -0.4124332848748495 -0.009816343482257517 1.3513971671467568 0 0 0 0.26 24 81 30 74 59 87 68 321 99 56 122 33 139 80 143 53 150 85 186 17 189 44 191 56 202 90 212 79 226 36 233 80 
322 -0.38474960044577106 -0.003765509456143246 1.342594477770039 0 0 0 0.2 24 82 30 75 59 88 68 322 72 33 99 57 106 104 119 54 137 68 150 86 154 39 173 58 177 79 178 49 180 64 186 18 189 45 191 57 202 91 210 11 226 37 
323 -0.037638205780040346 0.003380048364918297 1.2690626581840427 0 0 0 0.25 24 83 68 323 177 80 
324 -0.3451008899898233 0.026679063077373586 1.3215390264777003 0 0 0 0.32 24 84 68 324 72 34 143 54 150 87 177 81 189 46 191 58 193 85 216 99 
325 -0.49850180836391433 0.06069095450148989 0.8100370688951248 0 0 0 0.36 24 85 68 325 139 81 143 55 
326 -0.45453196066072044 -0.2660486146507044 1.2452105336426451 0 0 0 0.52 24 86 68 326 116 74 173 59 212 80 225 20 
327 -0.41808773182501047 -0.18168410576829566 1.232689476557379 0 0 0 0.26 24 87 34 94 37 57 57 94 68 327 94 43 99 58 106 105 122 34 133 20 151 93 173 60 178 50 216 100 218 49 233 81 
328 -0.18128025847223306 -0.1018848483413751 1.2952060901411646 0 0 0 0.38 24 88 31 94 55 61 59 89 68 328 143 56 171 25 180 65 
329 -0.13856089592185025 -0.0739702772392367 1.2896782175130297 0 0 0 0.29 24 89 68 329 177 82 
330 -0.032370188438220766 -0.06560135798968024 1.2747214090033994 0 0 0 0.36 24 90 68 330 99 59 106 106 189 47 
331 -0.32058802652471485 -0.06665992378513631 1.3280765956013785 0 0 0 0.31 24 91 30 76 57 95 59 90 68 331 99 60 106 107 116 75 119 55 131 60 137 69 139 82 144 94 150 88 166 63 171 26 178 51 180 66 189 48 191 59 210 12 212 81 216 101 225 21 228 106 
332 -0.31470438587739546 -0.05681949603747787 1.3306008785294656 0 0 0 0.63 24 92 31 95 57 96 68 332 99 61 140 106 150 89 154 40 178 52 180 67 
333 -0.18418704174800535 -0.043265193800719456 1.3023032389237428 0 0 0 0.28 24 93 68 333 177 83 
334 -0.20662631977422619 -0.04254609532830928 1.2962077663928286 0 0 0 0.21 24 94 68 334 177 84 189 49 
335 -0.3390400345738571 0.0032038700292329994 1.3268738914594556 0 0 0 0.25 24 95 31 96 57 97 59 91 68 335 99 62 171 27 211 69 212 82 
336 -0.18101522372404533 0.021837063812602357 1.2859804551640728 0 0 0 0.26 24 96 59 92 68 336 
337 -0.24657514956000537 0.09934065103524979 1.291970018163876 0 0 0 0.53 24 97 59 93 68 337 216 102 
338 -0.448728656000896 -0.22992360310391782 1.2288274742874805 0 0 0 1.07 24 98 68 338 94 44 116 76 122 35 144 95 151 94 212 83 216 103 225 22 
339 -0.17630533545714924 -0.11127814983562917 1.297146003045893 0 0 0 0.17 24 99 31 97 68 339 106 108 180 68 
340 -0.30145985414779436 -0.0455608542856395 1.3217167727014796 0 0 0 0.51 24 100 57 98 68 340 99 63 131 61 139 83 216 104 
341 -0.2903584921162235 -0.03937807962757442 1.3194709751064393 0 0 0 0.37 24 101 68 341 99 64 139 84 171 28 
342 -0.2904010599084554 -0.0397404989365615 1.3196863523715876 0 0 0 0.33 24 102 68 342 119 56 139 85 154 41 171 29 205 43 228 107 
343 -0.4025920652681155 -0.032887322793200315 1.356354697706906 0 0 0 0.38 24 103 59 94 68 343 106 109 119 57 122 36 125 67 131 62 137 70 139 86 144 96 150 90 166 64 180 69 186 19 189 50 202 92 212 84 225 23 228 108 
344 -0.3028921141618615 -0.02823169553141723 1.3298039610034251 0 0 0 0.32 24 104 68 344 131 63 
345 -0.16843139636668714 -0.016676855997232173 1.2827945187813057 0 0 0 0.3 24 105 30 77 68 345 139 87 140 107 
346 -0.3651338329524823 0.012365666617012695 1.3814713489893213 0 0 0 0.93 24 106 68 346 225 24 
347 -0.3619755838059759 0.06931743398225376 1.32100525073452 0 0 0 0.32 24 107 31 98 57 99 59 95 68 347 72 35 140 108 150 91 178 53 180 70 193 86 202 93 228 109 
348 -0.16901612334189495 0.09602634388541792 1.274963369962292 0 0 0 0.5 24 108 31 99 68 348 72 36 99 65 140 109 150 92 
349 -0.2029238453923013 -0.11029192552402094 1.281912551786143 0 0 0 0.72 24 109 59 96 68 349 72 37 99 66 137 71 140 110 145 36 180 71 189 51 216 105 225 25 
350 -0.3904676874847305 -0.0917256910266034 1.353411368410611 0 0 0 0.41 24 110 57 100 59 97 68 350 106 110 131 64 137 72 151 95 178 54 180 72 193 87 202 94 212 85 216 106 225 26 228 110 
351 -0.27711627241193026 -0.02616199349703115 1.3155106621006272 0 0 0 0.41 24 111 68 351 171 30 
352 -0.4487377245281459 -0.019873791992849443 1.1206760717853066 0 0 0 0.41 24 112 68 352 202 95 212 86 
353 -0.28853185505184525 0.002847470423582628 1.3136766215734883 0 0 0 0.49 24 113 30 78 31 100 59 98 68 353 99 67 137 73 139 88 140 111 150 93 161 47 212 87 216 107 
354 -0.41400682253775917 0.041588034924247966 1.2026108242185505 0 0 0 0.41 24 114 30 79 34 95 57 101 59 99 68 354 99 68 125 68 131 65 137 74 143 57 144 97 150 94 166 65 180 73 189 52 191 60 202 96 211 70 212 88 216 108 226 38 
355 -0.38148606448067 0.08053159614934324 1.3336840989836012 0 0 0 0.35 24 115 57 102 59 100 68 355 137 75 150 95 202 97 228 111 
356 -0.22418358740911873 0.0846291995915594 1.2736705197671472 0 0 0 0.37 24 116 30 80 57 103 59 101 68 356 140 112 150 96 189 53 216 109 
357 -0.35213397937962015 -0.0578371383755742 1.3328426233419466 0 0 0 0.43 24 117 59 102 68 357 86 26 99 69 119 58 131 66 137 76 150 97 166 66 171 31 178 55 180 74 191 61 202 98 210 13 212 89 216 110 225 27 228 112 
358 -0.3274175093495122 -0.04959630704646103 1.3329791884710305 0 0 0 0.63 24 118 31 101 57 104 59 103 68 358 99 70 106 111 119 59 131 67 139 89 144 98 150 98 166 67 171 32 178 56 180 75 202 99 210 14 212 90 225 28 228 113 
359 -0.2776946635101433 -0.050047624857770506 1.3138161322728643 0 0 0 0.45 24 119 57 105 68 359 106 112 131 68 140 113 143 58 144 99 150 99 161 48 171 33 177 85 180 76 189 54 205 44 216 111 225 29 228 114 
360 -0.020465091829398832 0.019379950030643276 1.260278776109767 0 0 0 0.46 24 120 68 360 140 114 
361 -0.3177588809956104 -0.12236789280501975 1.3314767772528848 0 0 0 0.94 24 121 31 102 59 104 68 361 86 27 99 71 131 69 137 77 139 90 144 100 166 68 171 34 180 77 212 91 216 112 
362 -0.28638414890009684 -0.1190621017223915 1.3091459736308941 0 0 0 0.69 24 122 31 103 68 362 212 92 216 113 225 30 
363 -0.24049842028663893 -0.00649681198971219 1.2963699888341451 0 0 0 0.45 24 123 31 104 57 106 59 105 68 363 102 15 133 21 137 78 139 91 140 115 144 101 150 100 177 86 180 78 216 114 
364 -0.29530543498948253 -0.17331527724573711 1.3139744616641928 0 0 0 0.89 24 124 31 105 59 106 68 364 106 113 137 79 144 102 150 101 228 115 
365 -0.40777761740418494 -0.24333775043900835 1.2471136360284534 0 0 0 0.56 24 125 31 106 34 96 55 62 68 365 99 72 116 77 144 103 149 68 150 102 154 42 166 69 173 61 180 79 202 100 216 115 
366 -0.42302217237313694 -0.20746001485134546 1.2375838150762004 0 0 0 0.9 24 126 31 107 59 107 68 366 94 45 99 73 106 114 122 37 125 69 131 70 139 92 144 104 149 69 166 70 171 35 173 62 178 57 189 55 191 62 193 88 202 101 212 93 216 116 218 50 228 116 233 82 
367 -0.5152520137363299 -0.1439735589814248 0.8334091119711026 0 0 0 0.33 30 81 46 50 68 367 125 70 154 43 161 49 193 89 205 45 211 71 228 117 233 83 
368 -0.5263119046678643 -0.045191554992179674 0.7808506431589767 0 0 0 0.23 30 82 68 368 177 87 183 30 
369 -0.15616268971119251 -0.008781056665884262 1.2855095886152015 0 0 0 0.18 30 83 55 63 68 369 106 115 150 103 177 88 180 80 
370 -0.36283248378583716 -0.011531314962333223 1.3197210810982507 0 0 0 0.14 30 84 68 370 216 117 
371 -0.3541251431535529 -0.009030335666610496 1.3299656055708027 0 0 0 0.63 30 85 68 371 137 80 144 105 150 104 180 81 193 90 212 94 
372 -0.519305032187853 -0.006686120897776805 0.8200788943522184 0 0 0 0.19 30 86 68 372 99 74 228 118 
373 -0.36615744143609175 0.04980802622503663 1.3275854221581762 0 0 0 0.03 31 108 68 373 212 95 
374 -0.5142545293424597 0.03144233296097576 0.7186322063995272 0 0 0 0.63 30 87 68 374 211 72 
375 -0.4885905207939202 -0.22377380562740873 0.8767882146779554 0 0 0 0.35 30 88 37 58 68 375 119 60 139 93 228 119 233 84 
376 -0.489597688738398 -0.13583308695756233 1.0363447517147235 0 0 0 0.35 30 89 68 376 161 50 
377 -0.44534675861418305 -0.12077647785125141 1.1852210532429237 0 0 0 0.26 30 90 45 24 68 377 116 78 131 71 140 116 177 89 189 56 216 118 
378 -0.45935360893595734 -0.0939726946871551 1.1274533593282916 0 0 0 0.31 30 91 37 59 46 51 68 378 86 28 125 71 166 71 233 85 
379 -0.46115751402822613 -0.08833770836554447 1.0373142649320133 0 0 0 0.54 30 92 46 52 47 19 68 379 119 61 191 63 
380 -0.23925852266903078 -0.0780898355041974 1.2958513966329126 0 0 0 0.27 30 93 68 380 202 102 212 96 228 120 
381 -0.30424241872742686 -0.07196774243317089 1.3217562567687797 0 0 0 0.16 30 94 68 381 116 79 154 44 202 103 212 97 
382 -0.4415583496399146 -0.050342432663952344 1.1949958996760166 0 0 0 0.37 30 95 31 109 55 64 68 382 72 38 102 16 131 72 140 117 143 59 166 72 177 90 210 15 216 119 218 51 226 39 228 121 
383 -0.47622870364724573 -0.04115973153003509 1.017331028693464 0 0 0 0.47 30 96 47 20 68 383 140 118 161 51 193 91 202 104 216 120 
384 -0.5300490029954111 -0.042881900096657065 0.7820405148033172 0 0 0 0.31 30 97 68 384 86 29 119 62 145 37 177 91 183 31 218 52 226 40 
385 -0.53128913009258 -0.025361873133074826 0.8020986438426353 0 0 0 0.34 30 98 31 110 68 385 116 80 125 72 180 82 183 32 193 92 216 121 
386 -0.3668898491485029 -0.004863400155170097 1.337670175679356 0 0 0 0.32 30 99 57 107 59 108 68 386 72 39 99 75 102 17 119 63 137 81 139 94 140 119 144 106 150 105 154 45 166 73 173 63 178 58 180 83 186 20 189 57 191 64 210 16 212 98 226 41 
387 -0.2577114322223563 8.654751232363824e-05 1.2964250906427894 0 0 0 0.2 30 100 31 111 57 108 59 109 68 387 99 76 102 18 119 64 131 73 137 82 139 95 140 120 150 106 177 92 205 46 216 122 228 122 
388 -0.38100637953619326 0.00292922529415403 1.3394847149171092 0 0 0 0.31 30 101 31 112 57 109 59 110 68 388 72 40 99 77 102 19 106 116 119 65 122 38 131 74 143 60 144 107 154 46 166 74 177 93 180 84 186 21 189 58 191 65 228 123 
389 -0.49389126752343215 -0.010056424220014777 0.8562978190287187 0 0 0 0.6 30 102 34 97 46 53 68 389 186 22 211 73 
390 -0.5264559074449682 -0.012915142042546096 0.7442446423861404 0 0 0 0.21 30 103 68 390 139 96 161 52 211 74 216 123 
391 -0.42812623358083723 0.0289140549866492 1.3521711575634867 0 0 0 0.28 30 104 37 60 46 54 68 391 116 81 119 66 137 83 139 97 150 107 154 47 166 75 186 23 212 99 
392 -0.5370772830918383 0.002416338144658724 0.7674467426993383 0 0 0 0.37 30 105 68 392 116 82 139 98 211 75 216 124 228 124 
393 -0.41927900094424236 0.03364038191190033 1.3475789097802813 0 0 0 0.3 30 106 31 113 37 61 46 55 57 110 59 111 68 393 72 41 116 83 119 67 131 75 137 84 143 61 144 108 150 108 151 96 154 48 189 59 191 66 212 100 226 42 228 125 
394 -0.49225882030682117 0.01075231613482417 0.8250842458219981 0 0 0 0.29 30 107 55 65 68 394 72 42 119 68 125 73 143 62 173 64 205 47 
395 -0.4208566897212394 0.04526059783795127 1.1986373351651411 0 0 0 0.35 30 108 68 395 119 69 139 99 150 109 178 59 191 67 193 93 211 76 216 125 
396 -0.2713261456854748 0.08642853033096703 1.2985719383520251 0 0 0 0.28 30 109 31 114 55 66 59 112 68 396 106 117 137 85 140 121 150 110 177 94 
397 -0.49997678313977845 0.06390980651276501 0.7751534546854313 0 0 0 0.32 30 110 34 98 55 67 68 397 139 100 140 122 
398 -0.4884375108526482 0.06962987749364274 0.8249596630076874 0 0 0 0.28 30 111 68 398 125 74 139 101 144 109 228 126 233 86 
399 -0.5256921033222759 -0.16627863668863252 0.8173112290198862 0 0 0 0.53 30 112 31 115 47 21 68 399 86 30 125 75 140 123 149 70 154 49 180 85 218 53 228 127 233 87 
400 -0.4805422935952915 -0.11532249416398158 0.9136088064560356 0 0 0 0.25 30 113 34 99 47 22 55 68 68 400 94 46 116 84 131 76 139 102 140 124 145 38 150 111 151 97 177 95 211 77 216 126 218 54 226 43 228 128 
401 -0.45308709434536276 -0.1236567517698377 1.1570815478349756 0 0 0 0.36 30 114 68 401 154 50 
402 -0.27800406417709944 -0.08200368081459998 1.3176451475828055 0 0 0 0.35 30 115 68 402 99 78 150 112 191 68 
403 -0.5254348738334333 -0.06262920658921331 0.8208962474659919 0 0 0 0.12 30 116 68 403 144 110 191 69 193 94 228 129 
404 -0.4751642315722779 -0.05029596805613148 1.0117260236765138 0 0 0 0.4 30 117 47 23 59 113 68 404 140 125 161 53 183 33 189 60 191 70 205 48 228 130 
405 -0.4645094915740282 -0.047075410585492826 1.0699960916178253 0 0 0 0.53 30 118 47 24 68 405 193 95 
406 -0.16123738400483525 -0.028948924057241514 1.2870575606508303 0 0 0 0.3 30 119 68 406 106 118 139 103 150 113 189 61 202 105 
407 -0.46762553907538523 -0.021607162056358074 0.9306301414135039 0 0 0 0.2 30 120 37 62 46 56 68 407 106 119 119 70 177 96 191 71 212 101 218 55 228 131 
408 -0.4915194957632206 0.00561026151161637 0.8633883848433122 0 0 0 0.16 30 121 37 63 46 57 68 408 139 104 140 126 149 71 166 76 211 78 216 127 228 132 233 88 
409 -0.48378588062821437 0.06927648427206494 0.8892600880545434 0 0 0 0.36 30 122 37 64 45 25 68 409 180 86 233 89 
410 -0.5308968279643078 -0.09591610861098983 0.761848668012413 0 0 0 0.28 30 123 68 410 139 105 205 49 233 90 
411 -0.46445425120385664 0.02773983055878047 0.9871066548963789 0 0 0 0.21 30 124 34 100 57 111 68 411 125 76 137 86 140 127 144 111 151 98 193 96 202 106 216 128 228 133 233 91 
412 -0.4656911671832182 0.03352277462456255 1.0729242681122462 0 0 0 0.26 30 125 37 65 57 112 68 412 72 43 90 24 106 120 131 77 140 128 143 63 144 112 150 114 151 99 173 65 177 97 178 60 191 72 193 97 202 107 218 56 226 44 228 134 233 92 
413 -0.4782951130760117 0.06717185159217567 0.8935929520665854 0 0 0 0.35 30 126 34 101 37 66 57 113 68 413 90 25 144 113 145 39 180 87 191 73 193 98 211 79 233 93 
414 -0.5212960028037599 0.06642245243829052 0.772413344373686 0 0 0 0.16 30 127 68 414 228 135 
415 -0.48215445069038787 -0.24194164403543147 0.8821500190886615 0 0 0 0.21 30 128 47 25 68 415 140 129 149 72 
416 -0.4779859345927693 -0.10787490763612849 0.8975361230024074 0 0 0 0.59 30 129 47 26 68 416 149 73 
417 -0.5189743839229923 -0.06156475682562816 0.8262864075176193 0 0 0 0.31 30 130 34 102 46 58 68 417 119 71 131 78 149 74 154 51 177 98 186 24 189 62 202 108 210 17 211 80 218 57 228 136 233 94 
418 -0.48801707481623335 0.0696410770763915 0.8845194215296667 0 0 0 0.49 30 131 46 59 68 418 125 77 228 137 
419 -0.46889932587514943 -0.11137785909917591 0.929102658045068 0 0 0 0.36 30 132 34 103 57 114 59 114 68 419 72 44 86 31 94 47 106 121 116 85 125 78 131 79 149 75 150 115 151 100 154 52 177 99 193 99 202 109 218 58 226 45 233 95 
420 -0.5032462526938141 0.06573476047264253 0.7760923262473325 0 0 0 0.33 30 133 68 420 144 114 183 34 
421 -0.46162907540246034 -0.0019305360285225032 0.9137207788899161 0 0 0 0.8 30 134 57 115 68 421 119 72 137 87 145 40 151 101 183 35 211 81 228 138 233 96 
422 -0.4664639713183167 0.06599534409130746 0.9514337585745923 0 0 0 0.5 30 135 46 60 57 116 68 422 90 26 99 79 125 79 139 106 144 115 186 25 202 110 228 139 233 97 
423 -0.5011598293748096 0.051789401428245715 0.7952627716940863 0 0 0 0.57 30 136 31 116 68 423 183 36 
424 -0.534272405612805 -0.1739565336288373 0.8012130392540711 0 0 0 0.69 31 117 47 27 68 424 149 76 
425 -0.4902241627709059 -0.18202722724138493 0.8467669139359589 0 0 0 0.29 31 118 34 104 46 61 68 425 106 122 145 41 
426 -0.47656371466439795 -0.17892114053273758 0.925531738351236 0 0 0 0.33 31 119 68 426 106 123 218 59 
427 -0.492497725061079 -0.11321125988043361 0.8714996856919863 0 0 0 0.31 31 120 68 427 166 77 
428 -0.07597226363264124 -0.08171589189738007 1.280732358773963 0 0 0 0.15 31 121 68 428 106 124 150 116 
429 -0.14229884053909578 -0.08104312003128636 1.2899496510819235 0 0 0 0.3 31 122 68 429 72 45 99 80 106 125 140 130 143 64 150 117 180 88 
430 -0.48407744030785965 -0.03850679243905419 0.8600654038221369 0 0 0 0.29 31 123 37 67 46 62 68 430 90 27 125 80 
431 -0.5321291245616842 -0.029487736863961576 0.8090829234967519 0 0 0 0.31 31 124 68 431 151 102 183 37 
432 -0.4655205857334976 -0.026394462237137248 0.9307019192241316 0 0 0 0.23 31 125 37 68 68 432 90 28 99 81 106 126 122 39 125 81 216 129 233 98 
433 -0.12742516335016543 -0.01952520663847441 1.2772557229768837 0 0 0 0.14 31 126 68 433 143 65 171 36 
434 -0.47367923798659756 -0.010596083502027051 1.0544069817355608 0 0 0 0.12 31 127 68 434 173 66 177 100 218 60 
435 -0.08302631181593645 -0.007880604667812457 1.2762242498516052 0 0 0 0.38 31 128 57 117 68 435 106 127 202 111 
436 -0.48821634105206785 -0.007121975227335122 1.0011088493521736 0 0 0 0.34 31 129 68 436 106 128 161 54 
437 -0.4697377771141229 0.043217385446545235 0.9307076159118901 0 0 0 0.19 31 130 68 437 106 129 151 103 161 55 180 89 205 50 216 130 218 61 
438 -0.16015708900528422 0.09731216539601455 1.256015968357127 0 0 0 0.39 31 131 68 438 99 82 
439 -0.2555899643315414 0.10646869059405811 1.2861872770384941 0 0 0 0.34 31 132 59 115 68 439 137 88 
440 -0.4882288997083601 0.0750845887934203 0.8247227223810951 0 0 0 0.25 31 133 68 440 186 26 193 100 218 62 228 140 
441 -0.493132478449851 -0.13016486234981484 0.8273476074350085 0 0 0 0.19 31 134 68 441 161 56 180 90 
442 -0.480301571934869 -0.1149952266144793 0.9132728727790912 0 0 0 0.28 31 135 34 105 68 442 116 86 143 66 150 118 211 82 216 131 218 63 226 46 233 99 
443 -0.46088813362156095 -0.13142347395407258 1.1069578316653468 0 0 0 0.43 31 136 68 443 90 29 228 141 
444 -0.5303244783574146 -0.09368794558180976 0.8014557262429165 0 0 0 0.4 31 137 68 444 86 32 122 40 139 107 140 131 149 77 166 78 177 101 183 38 216 132 228 142 
445 -0.4893492754321881 -0.09280849464013328 0.8481247497517468 0 0 0 0.28 31 138 34 106 37 69 46 63 47 28 68 445 94 48 122 41 125 82 145 42 161 57 166 79 183 39 186 27 193 101 205 51 233 100 
446 -0.5279900355475008 -0.054217446495404706 0.7929774633916697 0 0 0 0.58 31 139 46 64 68 446 86 33 94 49 99 83 116 87 131 80 180 91 183 40 186 28 210 18 216 133 218 64 233 101 
447 -0.5236807567633193 -0.05213371630264448 0.8077315639105476 0 0 0 0.37 31 140 34 107 55 69 68 447 94 50 131 81 140 132 143 67 144 116 149 78 151 104 166 80 173 67 177 102 193 102 
448 -0.3032886868849801 -0.07177924760716825 1.3168344815564506 0 0 0 0.27 31 141 59 116 68 448 99 84 119 73 131 82 140 133 154 53 202 112 216 134 
449 -0.41278223858236035 -0.06933892383471753 1.3537651208723667 0 0 0 0.26 31 142 59 117 68 449 99 85 122 42 125 83 137 89 150 119 166 81 180 92 186 29 211 83 228 143 233 102 
450 -0.5310142878645414 -0.03682573537218285 0.793780323611112 0 0 0 0.24 31 143 68 450 122 43 
451 -0.48940482160914134 -0.011642428608461286 0.8690705675749733 0 0 0 0.22 31 144 68 451 72 46 106 130 143 68 218 65 
452 -0.3909966398519621 0.005383935053699562 1.3441604930272215 0 0 0 0.34 31 145 68 452 106 131 119 74 122 44 228 144 
453 -0.2471824820801641 0.041914348298089515 1.300106185307997 0 0 0 0.19 31 146 55 70 68 453 154 54 177 103 228 145 
454 -0.4734049606095297 0.04238192146875563 0.9297193040979588 0 0 0 0.39 31 147 68 454 151 105 
455 -0.46082532501368323 -0.1375248541628836 0.9530247360620516 0 0 0 1.15 31 148 68 455 161 58 178 61 205 52 233 103 
456 -0.09742292515814222 -0.14205872934609604 1.2803135545784226 0 0 0 0.23 31 149 68 456 99 86 
457 -0.20799279902953732 -0.11387479394886052 1.2871384910522425 0 0 0 0.4 31 150 59 118 68 457 72 47 106 132 119 75 137 90 140 134 150 120 161 59 177 104 189 63 212 102 216 135 225 31 
458 -0.21953245392008217 -0.10857594550530435 1.2986011955462775 0 0 0 0.55 31 151 57 118 59 119 68 458 99 87 106 133 137 91 139 108 144 117 145 43 150 121 161 60 171 37 180 93 189 64 216 136 
459 -0.310782371883439 -0.07000815910758483 1.3218287231500765 0 0 0 0.38 31 152 68 459 116 88 137 92 144 118 154 55 166 82 180 94 216 137 
460 -0.48964579859905555 0.010313529823187043 0.8548879619846823 0 0 0 0.29 31 153 37 70 46 65 68 460 90 30 122 45 140 135 178 62 183 41 186 30 211 84 212 103 233 104 
461 -0.43740739946191426 0.0358685721240897 1.192797252480027 0 0 0 0.39 31 154 68 461 119 76 202 113 
462 -0.43675752448845917 -0.13561569247558078 1.2063688126023644 0 0 0 0.32 31 155 34 108 47 29 68 462 106 134 131 83 140 136 150 122 151 106 173 68 177 105 178 63 216 138 218 66 233 105 
463 -0.23118698906528956 -0.1313400752946281 1.2897980363580097 0 0 0 0.2 31 156 68 463 180 95 
464 -0.47524087221805944 -0.05747133177380236 1.0352924375325225 0 0 0 0.4 31 157 47 30 55 71 57 119 59 120 68 464 106 135 116 89 122 46 125 84 140 137 143 69 149 79 150 123 151 107 154 56 161 61 173 69 177 106 180 96 193 103 205 53 212 104 216 139 228 146 233 106 
465 -0.4352434664136667 -0.06313216370320493 1.1980393442462922 0 0 0 0.27 31 158 34 109 37 71 45 26 46 66 68 465 86 34 94 51 106 136 122 47 125 85 131 84 133 22 149 80 151 108 173 70 178 64 180 97 211 85 212 105 216 140 218 67 226 47 
466 -0.4109653072878282 -0.007762053150532949 1.2172817448299444 0 0 0 0.32 31 159 34 110 37 72 57 120 59 121 68 466 72 48 116 90 143 70 144 119 151 109 166 83 178 65 189 65 191 74 202 114 212 106 226 48 233 107 
467 -0.18353267906569387 -0.13420588249343524 1.3065033467733451 0 0 0 0.42 31 160 68 467 180 98 
468 -0.4918024136058634 0.004780764864374213 0.8405052584030177 0 0 0 0.39 31 161 68 468 122 48 140 138 144 120 145 44 178 66 211 86 
469 -0.5232946380862126 -0.1176063839425111 0.8253369704129202 0 0 0 0.5 31 162 46 67 47 31 59 122 68 469 86 35 94 52 99 88 131 85 140 139 144 121 149 81 154 57 177 107 183 42 189 66 193 104 202 115 210 19 218 68 228 147 233 108 
470 -0.46702979450673243 -0.042613651816131394 0.9396307956156171 0 0 0 0.61 31 163 34 111 57 121 59 123 68 470 94 53 116 91 119 77 140 140 144 122 145 45 151 110 161 62 177 108 178 67 202 116 205 54 216 141 218 69 228 148 
471 -0.2754326538609786 0.09004854802583 1.300135976083746 0 0 0 0.32 31 164 68 471 150 124 216 142 228 149 
472 -0.29604530167885856 -0.17276736201583576 1.3136337576731063 0 0 0 0.77 31 165 68 472 106 137 137 93 144 123 150 125 180 99 212 107 
473 -0.5164333176913248 -0.2843736738283859 1.2536341532039406 0 0 0 0.73 31 166 68 473 106 138 131 86 133 23 149 82 173 71 233 109 
474 -0.4786417565185176 -0.2681158858276942 0.925925980068539 0 0 0 0.3 34 112 46 68 68 474 137 94 150 126 161 63 205 55 211 87 228 150 
475 -0.534098339385385 -0.1913198975310046 0.7664556680836717 0 0 0 0.31 34 113 68 475 131 87 140 141 150 127 161 64 180 100 
476 -0.5313764309000102 -0.18762542223522355 0.7683278047010051 0 0 0 0.43 34 114 47 32 68 476 150 128 
477 -0.5314380870355244 -0.18689347111447013 0.7736528312031418 0 0 0 0.43 34 115 46 69 47 33 68 477 94 54 150 129 
478 -0.5260591548350053 -0.1857326055848957 0.8270141786050714 0 0 0 0.15 34 116 68 478 116 92 140 142 193 105 216 143 
479 -0.5320635152083004 -0.17098490904285468 0.7683727438217574 0 0 0 0.28 34 117 68 479 125 86 140 143 
480 -0.4343399965428807 -0.19492290306566837 1.2217314861826118 0 0 0 0.23 34 118 46 70 55 72 68 480 86 36 145 46 150 130 151 111 216 144 
481 -0.5449701032464779 -0.09779362698739985 0.7445270205960954 0 0 0 0.46 34 119 46 71 68 481 210 20 228 151 233 110 
482 -0.5460868089037001 -0.09788752454762081 0.7458148244837678 0 0 0 0.52 34 120 46 72 68 482 177 109 233 111 
483 -0.5139231390387432 -0.08180091154464462 0.8267921602895788 0 0 0 0.23 34 121 46 73 68 483 94 55 125 87 140 144 161 65 177 110 233 112 
484 -0.5307027293552249 -0.06237176748477712 0.752293465950683 0 0 0 0.28 34 122 68 484 90 31 177 111 
485 -0.5288223826617329 -0.051964092421200606 0.7554261039724939 0 0 0 0.31 34 123 68 485 183 43 
486 -0.48609464484367815 -0.04710527856500592 0.858551472232807 0 0 0 0.28 34 124 68 486 122 49 140 145 149 83 151 112 233 113 
487 -0.5251494602405129 -0.04117671943032318 0.7953637522222804 0 0 0 0.09 34 125 68 487 205 56 
488 -0.4870432181134958 -0.03950703172353407 0.8288568324393712 0 0 0 0.18 34 126 68 488 144 124 151 113 161 66 233 114 
489 -0.5284692425748001 -0.040443512134265475 0.810614590228971 0 0 0 0.37 34 127 68 489 90 32 161 67 173 72 205 57 233 115 
490 -0.4879055593128863 -0.037963045970581664 0.8243686014815186 0 0 0 0.22 34 128 68 490 90 33 99 89 122 50 139 109 149 84 151 114 161 68 166 84 177 112 205 58 211 88 216 145 226 49 228 152 233 116 
491 -0.49059049130709814 -0.03659793206498322 0.8218863154855555 0 0 0 0.19 34 129 68 491 151 115 161 69 180 101 
492 -0.4450151215771456 -0.02791081409293493 1.180088683198314 0 0 0 0.25 34 130 68 492 116 93 149 85 177 113 178 68 193 106 218 70 226 50 
493 -0.527920432241069 -0.009869962042458663 0.7815625507377405 0 0 0 0.42 34 131 46 74 68 493 218 71 
494 -0.4748405242385985 -2.1571395972460222e-05 0.8706211676033123 0 0 0 0.17 34 132 68 494 90 34 125 88 151 116 211 89 216 146 
495 -0.4638234815387488 0.011118928441781913 1.0604667791591784 0 0 0 0.17 34 133 68 495 140 146 151 117 216 147 228 153 
496 -0.47869937414034847 0.018242752819415304 1.0908703383439258 0 0 0 0.26 34 134 68 496 151 118 
497 -0.4908261624511191 0.015224513328244836 0.8680960339675056 0 0 0 0.32 34 135 68 497 139 110 154 58 211 90 
498 -0.4872718505717453 0.018532267663654945 0.8596637004860302 0 0 0 0.18 34 136 45 27 68 498 90 35 166 85 
499 -0.4290329688486319 0.033312730963475964 1.1981733398435963 0 0 0 0.24 34 137 37 73 55 73 68 499 102 20 106 139 125 89 171 38 177 114 218 72 
500 -0.5134001239232646 0.02934076200162462 0.7230817065654019 0 0 0 0.09 34 138 68 500 151 119 
501 -0.5124477831733497 0.0294523678291561 0.7219835059065077 0 0 0 0.14 34 139 68 501 140 147 216 148 
502 -0.49948948181241265 0.037892738040125946 0.7758121475794955 0 0 0 0.14 34 140 68 502 90 36 205 59 
503 -0.46344586613519057 0.047507945534679734 0.9354498042366473 0 0 0 0.21 34 141 68 503 177 115 
504 -0.46798358198133355 0.06240153913534729 0.940070207444038 0 0 0 0.37 34 142 68 504 166 86 177 116 
505 -0.4340152902811773 -0.33444736716546514 1.2510767071478457 0 0 0 0.93 68 505 150 131 180 102 191 75 
506 -0.5267957076073218 -0.2362615082592735 0.8447782426465761 0 0 0 0.31 34 143 68 506 161 70 205 60 
507 -0.5550770247780656 -0.22611844579307303 0.852664662797727 0 0 0 0.46 34 144 46 75 68 507 90 37 119 78 122 51 137 95 139 111 140 148 161 71 205 61 
508 -0.4053649235739896 -0.13489351324999452 1.228144245241345 0 0 0 0.23 34 145 68 508 94 56 166 87 
509 -0.4300189800485983 -0.12727959276801634 1.2087367394477608 0 0 0 0.44 34 146 46 76 47 34 59 124 68 509 86 37 106 140 140 149 150 132 151 120 171 39 173 73 180 103 186 31 193 107 202 117 218 73 228 154 233 117 
510 -0.457815162293212 -0.1118848266384886 1.0870772108250844 0 0 0 0.46 34 147 68 510 193 108 
511 -0.44273212865405903 -0.11056153742028539 1.1809918701914335 0 0 0 0.14 34 148 68 511 143 71 150 133 202 118 212 108 228 155 
512 -0.4706063944528988 -0.09298947570421973 0.9318251212412182 0 0 0 0.31 34 149 59 125 68 512 106 141 131 88 140 150 145 47 151 121 154 59 161 72 180 104 183 44 205 62 
513 -0.46869746395690287 -0.09591763060052384 1.0937572563789986 0 0 0 0.32 34 150 68 513 86 38 94 57 116 94 131 89 149 86 151 122 154 60 177 117 189 67 216 149 226 51 
514 -0.44256958308437033 -0.06038686757924911 1.2305784479073658 0 0 0 0.36 34 151 57 122 68 514 
515 -0.46950391283517584 -0.04166067254054185 0.9043394235537143 0 0 0 0.18 34 152 59 126 68 515 144 125 
516 -0.4405347349236345 -0.04405854994885066 1.369333763189612 0 0 0 0.13 34 153 68 516 125 90 144 126 151 123 
517 -0.5279176841506574 -0.04056259906320869 0.7926435646669407 0 0 0 0.43 34 154 37 74 55 74 68 517 99 90 116 95 144 127 149 87 166 88 183 45 233 118 
518 -0.4499270342973417 -0.02797592237331516 1.1336229900579797 0 0 0 0.31 34 155 68 518 72 49 122 52 140 151 143 72 149 88 151 124 154 61 166 89 173 74 189 68 212 109 
519 -0.43839425679499033 -0.009003571598367642 1.18670966210452 0 0 0 0.37 34 156 37 75 46 77 57 123 59 127 68 519 94 58 140 152 150 134 154 62 186 32 191 76 193 109 212 110 218 74 
520 -0.4282269323732842 0.0005278246160087834 1.297127380174776 0 0 0 0.56 34 157 59 128 68 520 151 125 189 69 216 150 
521 -0.4325617271362009 0.011122494905153019 1.1944368669806842 0 0 0 0.44 34 158 59 129 68 521 122 53 140 153 143 73 144 128 150 135 154 63 166 90 178 69 191 77 193 110 211 91 212 111 216 151 218 75 226 52 
522 -0.4443896722609043 0.01960778148773797 1.1545434270218968 0 0 0 0.18 34 159 55 75 59 130 68 522 119 79 140 154 144 129 151 126 154 64 177 118 189 70 193 111 202 119 218 76 
523 -0.45816693214120713 0.01845663583731948 1.0871462733733368 0 0 0 0.27 34 160 68 523 212 112 
524 -0.48985993487397456 0.01801093149546951 0.8442460177887405 0 0 0 0.08 34 161 57 124 68 524 90 38 144 130 
525 -0.4269093574638052 0.04401005621672147 1.1924496406937501 0 0 0 0.43 34 162 68 525 119 80 139 112 151 127 154 65 166 91 177 119 189 71 193 112 216 152 
526 -0.4901528631524611 0.04548345808350695 0.8092167250866168 0 0 0 0.24 34 163 55 76 68 526 137 96 139 113 143 74 144 131 151 128 183 46 193 113 228 156 
527 -0.4935255219244054 -0.1975373899659817 0.8756865262926524 0 0 0 0.4 34 164 46 78 47 35 68 527 94 59 150 136 189 72 193 114 
528 -0.42022956993590216 -0.12689463860131078 1.2211162259895096 0 0 0 0.22 34 165 59 131 68 528 140 155 202 120 
529 -0.4152003454594684 -0.06561070770876891 1.222723979284545 0 0 0 0.21 34 166 68 529 216 153 226 53 
530 -0.438218897501084 -0.05278940779122346 1.2009961787019798 0 0 0 0.38 34 167 57 125 59 132 68 530 94 60 122 54 131 90 137 97 139 114 140 156 143 75 144 132 150 137 166 92 177 120 193 115 202 121 211 92 212 113 
531 -0.4795416980627612 -0.009029765382239036 0.9003439515067077 0 0 0 0.27 34 168 68 531 137 98 144 133 149 89 151 129 202 122 216 154 228 157 
532 -0.4919545479443718 0.018693017571466637 0.8245562428410592 0 0 0 0.35 34 169 57 126 68 532 72 50 90 39 102 21 116 96 143 76 144 134 151 130 228 158 
533 -0.46894631831784817 0.05556925240282648 0.9034628723055972 0 0 0 0.33 34 170 68 533 125 91 228 159 
534 -0.52769717002876 -0.1614950694297315 0.8324911335278764 0 0 0 0.31 34 171 68 534 131 91 180 105 
535 -0.4974330786419465 -0.09055580709870104 0.8230710980390977 0 0 0 0.2 34 172 68 535 161 73 205 63 228 160 
536 -0.46122159002588614 -0.06232198498507913 1.0547223901513298 0 0 0 0.41 34 173 68 536 144 135 145 48 
537 -0.5377393136264996 -0.05536507701027123 0.7526268476277317 0 0 0 0.51 34 174 59 133 68 537 140 157 144 136 149 90 151 131 154 66 161 74 177 121 180 106 212 114 228 161 
538 -0.415859944028582 -0.03443301936746338 1.2067690577791332 0 0 0 0.33 34 175 37 76 46 79 59 134 68 538 86 39 94 61 116 97 125 92 139 115 144 137 150 138 166 93 177 122 180 107 189 73 202 123 211 93 212 115 228 162 233 119 
539 -0.4669981093115268 -0.03275381190371837 0.9050104236280822 0 0 0 0.44 34 176 68 539 122 55 228 163 
540 -0.44319423340715547 0.002578011307080718 1.1069118665375006 0 0 0 0.14 34 177 68 540 212 116 
541 -0.4862368638848828 -0.2319343988792801 0.8759250771214321 0 0 0 0.32 34 178 47 36 55 77 68 541 140 158 144 138 150 139 151 132 161 75 178 70 193 116 205 64 233 120 
542 -0.4835593773685629 -0.2161904630422376 0.9268472397525459 0 0 0 0.45 34 179 68 542 133 24 144 139 189 74 211 94 228 164 
543 -0.48077740518265394 -0.21465586555791974 0.9218495176963908 0 0 0 0.42 34 180 68 543 211 95 
544 -0.5254871972168781 -0.1425178968435526 0.8158653985323717 0 0 0 0.35 34 181 68 544 173 75 180 108 233 121 
545 -0.45414256262507285 -0.07212185799376694 1.3784347169435496 0 0 0 0.42 34 182 59 135 68 545 151 133 166 94 212 117 216 155 
546 -0.4772166404198307 -0.18360836232410485 0.9935490078615734 0 0 0 0.8 34 183 46 80 68 546 140 159 149 91 205 65 216 156 
547 -0.501809873975958 -0.02997642819813591 0.8290596358294517 0 0 0 0.34 34 184 45 28 68 547 139 116 161 76 
548 -0.4416289325309997 -0.16283062259503622 1.1851301612926979 0 0 0 0.56 34 185 55 78 57 127 59 136 68 548 86 40 94 62 119 81 131 92 140 160 144 140 166 95 191 78 193 117 202 124 212 118 216 157 218 77 
549 -0.5301264970804122 -0.20329832673234785 0.7997840732134872 0 0 0 0.61 34 186 46 81 68 549 119 82 125 93 144 141 145 49 151 134 186 33 211 96 228 165 
550 -0.48569996887718087 -0.10079953895793557 0.9272990650449727 0 0 0 0.31 37 77 68 550 151 135 
551 -0.45647959934360804 -0.028795673822805037 1.1310483586699445 0 0 0 0.18 37 78 68 551 139 117 212 119 
552 -0.4816825156277776 -0.16328292782713633 0.9202214110530957 0 0 0 0.24 37 79 46 82 68 552 183 47 205 66 211 97 216 158 228 166 
553 -0.5340675860748323 -0.10055621938497429 0.7605659053488877 0 0 0 0.25 37 80 68 553 154 67 180 109 193 118 211 98 
554 -0.43179378290577497 -0.20751240167444437 1.220674802031795 0 0 0 0.17 37 81 68 554 233 122 
555 -0.4115381890495145 -0.15529408663587854 1.2346372114559916 0 0 0 0.27 37 82 55 79 68 555 94 63 106 142 119 83 137 99 139 118 150 140 151 136 177 123 218 78 233 123 
556 -0.4371047147055636 -0.10077980216844233 1.3700088816709521 0 0 0 0.2 37 83 46 83 55 80 57 128 59 137 68 556 119 84 125 94 131 93 137 100 143 77 150 141 151 137 166 96 191 79 193 119 202 125 211 99 216 159 
557 -0.48265919651106776 -0.04301440733851905 0.8427051796627245 0 0 0 0.23 37 84 59 138 68 557 125 95 
558 -0.42555185435418624 0.008099501347359019 1.2027786175040622 0 0 0 0.4 37 85 46 84 57 129 68 558 99 91 116 98 122 56 137 101 139 119 150 142 151 138 180 110 211 100 218 79 228 167 
559 -0.43596778521761537 0.029613110034902645 1.3541759299151552 0 0 0 0.3 37 86 68 559 139 120 202 126 233 124 
560 -0.43594305881037465 0.04026789871640534 1.3480231828462579 0 0 0 0.16 37 87 68 560 226 54 
561 -0.42417504501342285 0.05125766217930399 1.1349118477089781 0 0 0 0.27 37 88 46 85 59 139 68 561 140 161 144 142 151 139 186 34 228 168 233 125 
562 -0.47402371856023656 0.025661560033479913 0.9013115156455433 0 0 0 0.26 37 89 68 562 191 80 
563 -0.43901183217154405 -0.12527866484568065 1.210665161559937 0 0 0 0.4 37 90 46 86 68 563 150 143 193 120 202 127 218 80 228 169 
564 -0.46598409008627684 -0.08016279756788099 0.9407420913012254 0 0 0 0.37 45 29 68 564 106 143 125 96 137 102 
565 -0.45748731183851665 -0.13479609600030562 1.128857858518732 0 0 0 0.41 45 30 59 140 68 565 149 92 154 68 216 160 228 170 233 126 
566 -0.47491838231230465 -0.057128038242142 0.9167012170921874 0 0 0 0.27 45 31 68 566 140 162 205 67 
567 -0.44201298524571125 -0.02781624411543062 1.1727946417452433 0 0 0 0.25 45 32 57 130 68 567 131 94 191 81 193 121 216 161 233 127 
568 -0.4401768131715031 0.05148794317781574 1.0629184847126023 0 0 0 0.22 45 33 68 568 140 163 150 144 151 140 180 111 228 171 
569 -0.5001403317515205 0.0423821732801573 0.7767030004555188 0 0 0 0.26 45 34 68 569 143 78 161 77 193 122 
570 -0.5298284824913999 -0.16199082631635245 0.8337904881971153 0 0 0 0.52 45 35 68 570 149 93 161 78 205 68 218 81 
571 -0.48779466039767155 -0.1490285279702912 0.8714551781517401 0 0 0 0.46 45 36 47 37 68 571 90 40 228 172 
572 -0.4752884445473656 -0.10401473705547688 1.0404078146352373 0 0 0 0.39 45 37 68 572 150 145 154 69 202 128 
573 -0.4377592057529422 -0.08609597284608062 1.2027930956933373 0 0 0 0.34 45 38 55 81 68 573 137 103 
574 -0.4697071440993901 -0.08457446933232207 0.9335478985623243 0 0 0 0.44 45 39 68 574 122 57 161 79 
575 -0.5314131518863284 -0.062233480943418136 0.7573573146581397 0 0 0 0.4 45 40 57 131 68 575 94 64 116 99 131 95 145 50 233 128 
