# 3D point list with one line of data per point:
#   POINT3D_ID, X, Y, Z, R, G, B, ERROR, TRACK[] as (IMAGE_ID, POINT2D_IDX)
# Number of points: 361, mean track length: 8.24
3618 0.00903195964514516 -0.06663894155401501 1.0259731556558322 0 0 0 0.18 4 2181 11 1048 146 661 213 1798 
3619 0.22342890176436037 -0.07064510186028508 1.0197673853560065 0 0 0 0.32 2 1754 11 1049 146 662 157 911 159 549 164 1484 165 627 176 988 185 386 213 1799 27 1111 175 177 187 297 234 223 
3620 -0.29787992779547373 -0.05874972424665613 1.073655323792473 0 0 0 0.31 148 745 157 912 213 1800 
3621 0.00898789155642172 -0.06361879203268901 1.0270076799757255 0 0 0 0.08 4 2182 11 1050 146 663 
3622 -0.06536197510885082 -0.060982743769718906 1.0311072080768857 0 0 0 0.24 11 1051 136 305 146 664 
3623 -0.10255861822723002 -0.059833487657490345 1.0401389465398259 0 0 0 0.22 4 2183 11 1052 16 543 146 665 157 913 164 1485 176 989 213 1801 50 332 98 326 
3624 -0.30482254639096623 -0.05569366299918157 1.0724739822065232 0 0 0 0.17 4 2184 157 914 176 990 213 1802 
3625 -0.26374065988542816 -0.056290103777693765 1.067073532668517 0 0 0 0.29 2 1755 4 2185 157 915 176 991 213 1803 11 1053 50 333 60 95 92 290 109 116 
3626 -0.19061116417365087 -0.05748158766149087 1.054047724058597 0 0 0 0.07 124 471 146 666 157 916 
3627 -0.18715934161666148 -0.05743512228396885 1.0529512904610594 0 0 0 0.21 128 448 146 667 157 917 158 458 213 1804 50 334 60 96 92 291 
3628 -0.14707498380346373 -0.05781916930098986 1.0460391888301004 0 0 0 0.36 2 1756 146 668 157 918 213 1805 
3629 -0.108515883278785 -0.058392064539767516 1.041127183383163 0 0 0 0.28 11 1054 146 669 157 919 164 1486 213 1806 13 364 124 472 28 232 50 335 98 327 
3630 -0.06640816417450834 -0.059267055534610785 1.0303716827980043 0 0 0 0.34 11 1055 16 544 157 920 176 992 200 692 213 1807 214 467 231 235 13 365 33 221 28 233 98 328 112 188 187 298 39 167 
3631 -0.062132362916570386 -0.05913012659644783 1.03026336677099 0 0 0 0.27 11 1056 16 545 136 306 146 670 148 746 176 993 200 693 213 1808 214 468 28 234 98 329 112 189 157 921 38 100 109 117 
3632 0.034060211987338475 -0.05967376079854194 1.025491500044819 0 0 0 0.09 11 1057 157 922 213 1809 
3633 0.1531072303912968 -0.06138999226755373 1.0226757512289086 0 0 0 0.29 11 1058 27 1112 146 671 213 1810 
3634 0.26035425627991615 -0.06296731217093554 1.0184410512957687 0 0 0 0.22 11 1059 159 550 164 1487 
3635 0.006284591729625598 -0.05826115887011451 1.0267721406384904 0 0 0 0.26 11 1060 148 747 213 1811 16 546 200 694 
3636 0.31815413275281607 -0.06294395735372517 1.0136793099098318 0 0 0 0.14 11 1061 164 1488 213 1812 
3637 0.003946847595328167 -0.05627837499470079 1.0275866475142994 0 0 0 0.35 4 2186 11 1062 148 748 164 1489 214 469 
3638 0.17720696430963429 -0.059572863233211495 1.0233802207535494 0 0 0 0.12 11 1063 146 672 157 923 175 178 
3639 0.22738326460516947 -0.06066111017853591 1.0206031281960148 0 0 0 0.21 11 1064 146 673 157 924 165 628 235 627 
3640 0.03377424541388461 -0.05637066417654196 1.0252507663301782 0 0 0 0.32 4 2187 11 1065 16 547 27 1113 136 307 146 674 157 925 200 695 213 1813 214 470 28 235 98 330 112 190 187 299 231 236 234 224 
3641 0.18636036385905705 -0.05867262447031289 1.019221393296912 0 0 0 0.33 11 1066 136 308 159 551 213 1814 
3642 -0.0621008198921036 -0.05372722278258816 1.029675544962989 0 0 0 0.35 11 1067 16 548 146 675 157 926 176 994 213 1815 214 471 98 331 112 191 187 300 
3643 0.14760593958446594 -0.05637750409686394 1.020346868485457 0 0 0 0.33 11 1068 127 382 146 676 164 1490 185 387 200 696 213 1816 214 472 44 324 98 332 187 301 157 927 175 179 
3644 0.36269406654384845 -0.05944734747161984 1.0133420552785182 0 0 0 0.2 164 1491 213 1817 235 628 
3645 0.1829487896494602 -0.05597612695003661 1.0210966756927444 0 0 0 0.27 11 1069 148 749 165 629 176 995 185 388 213 1818 214 473 235 629 
3646 0.32223287893886704 -0.057671387922546925 1.0156345218199938 0 0 0 0.39 4 2188 136 309 146 677 159 552 184 332 213 1819 
3647 0.13961418490131594 -0.05416793333962808 1.0220647043392428 0 0 0 0.1 11 1070 176 996 200 697 
3648 0.184369061296126 -0.053982122320474835 1.020431517867056 0 0 0 0.15 11 1071 148 750 235 630 
3649 0.25368003798542066 -0.05513993149167472 1.018531824998648 0 0 0 0.17 11 1072 164 1492 165 630 184 333 213 1820 235 631 
3650 0.4606646999527433 -0.056340985809014615 1.0456649563448122 0 0 0 0.33 4 2189 19 762 162 607 165 631 184 334 220 506 221 595 235 632 
3651 0.35546667230210505 -0.05428179209228474 1.0144847197397588 0 0 0 0.42 11 1073 27 1114 148 751 164 1493 213 1821 
3652 -0.10265296665274454 -0.044193560555955816 1.0353343949840368 0 0 0 0.3 11 1074 146 678 213 1822 
3653 -0.062026785140346444 -0.042189048620284254 1.027524891492044 0 0 0 0.23 11 1075 176 997 213 1823 
3654 0.07565808911418657 -0.04364435438902122 1.020884819357588 0 0 0 0.47 2 1757 4 2190 11 1076 16 549 146 679 148 752 157 928 200 698 213 1824 223 327 
3655 0.32616553890061595 -0.0452930763646861 1.0136606507987722 0 0 0 0.19 4 2191 11 1077 146 680 165 632 213 1825 
3656 -0.033970865246697596 -0.03880343807670555 1.0241123476173717 0 0 0 0.27 11 1078 157 929 158 459 
3657 0.19624025855996927 -0.03865770475277513 1.0234465085751614 0 0 0 0.43 11 1079 157 930 221 596 
3658 0.07218170741185104 -0.0354165125252384 1.0204754518082346 0 0 0 0.52 11 1080 16 550 19 763 164 1494 176 998 200 699 50 336 112 192 187 302 234 225 
3659 -0.14227066414932854 -0.030085982546551572 1.0438173320257826 0 0 0 0.34 4 2192 127 383 157 931 164 1495 213 1826 224 478 13 366 33 222 60 97 118 158 124 473 
3660 -0.2878097274857598 -0.025887306974604663 1.0641428426145425 0 0 0 0.32 4 2193 128 449 176 999 213 1827 
3661 -0.022113325086184236 -0.030437524718223707 1.0262279888787358 0 0 0 0.25 4 2194 9 1324 11 1081 176 1000 98 333 124 474 
3662 0.062389091737135825 -0.03101688694112558 1.0222997306781543 0 0 0 0.33 11 1082 16 551 213 1828 231 237 
3663 -0.10517210863675457 -0.028138812195011353 1.032030019548126 0 0 0 0.25 11 1083 16 552 146 681 157 932 176 1001 213 1829 
3664 0.028863022101228104 -0.029933866683032474 1.0238622087168932 0 0 0 0.28 2 1758 4 2195 11 1084 16 553 19 764 128 450 157 933 176 1002 213 1830 219 537 231 238 
3665 -0.19996262806282483 -0.025071010413021805 1.0512220699383226 0 0 0 0.16 4 2196 146 682 157 934 176 1003 213 1831 
3666 0.10344489908788396 -0.029856346776075432 1.019646595376221 0 0 0 0.31 11 1085 176 1004 200 700 187 303 
3667 0.12000309108630051 -0.0285687516065233 1.0246455923475344 0 0 0 0.07 11 1086 16 554 213 1832 
3668 0.4196867337192783 -0.033003239645188094 1.0254926233521804 0 0 0 0.43 2 1759 4 2197 9 1325 19 765 27 1115 127 384 136 310 148 753 162 608 163 129 164 1496 165 633 184 335 196 677 213 1833 235 633 
3669 -0.022520038331447702 -0.02617364332511136 1.0251677171537108 0 0 0 0.37 11 1087 16 555 157 935 176 1005 213 1834 222 454 
3670 -0.004265266384169521 -0.026235846841740823 1.0245367899703293 0 0 0 0.23 11 1088 16 556 176 1006 213 1835 214 474 98 334 187 304 
3671 0.17670146695749658 -0.02855408444775592 1.018015153481842 0 0 0 0.33 11 1089 136 311 213 1836 
3672 -0.15779634336460496 -0.022632471685121943 1.04193114264304 0 0 0 0.21 146 683 157 936 213 1837 
3673 0.0316235835263926 -0.02569461185111344 1.0222867777257005 0 0 0 0.42 4 2198 11 1090 16 557 146 684 157 937 176 1007 200 701 231 239 175 180 187 305 
3674 0.06197972543766433 -0.025460180073207876 1.0204547449584669 0 0 0 0.15 11 1091 148 754 213 1838 
3675 0.13038007035899934 -0.026222194122591712 1.0153133894890392 0 0 0 0.27 4 2199 11 1092 16 558 146 685 164 1497 213 1839 214 475 
3676 -0.11701779769729209 -0.02107659052527882 1.0380585314232436 0 0 0 0.11 11 1093 16 559 146 686 213 1840 28 236 39 168 
3677 0.09805443868160565 -0.024732520634058352 1.0206929548885602 0 0 0 0.36 11 1094 16 560 176 1008 
3678 0.1015662865361903 -0.02487010913144176 1.0188801077162148 0 0 0 0.28 4 2200 11 1095 136 312 194 114 213 1841 
3679 -0.05689426404109613 -0.02155009886615284 1.0245495662656632 0 0 0 0.2 11 1096 146 687 213 1842 224 479 
3680 0.06748803173628896 -0.023529394769538893 1.0189890286889032 0 0 0 0.33 4 2201 11 1097 16 561 146 688 157 938 176 1009 200 702 213 1843 28 237 98 335 112 193 38 101 44 325 187 306 135 130 175 181 234 226 
3681 -0.02059562469285755 -0.021905294124502598 1.0253574656234878 0 0 0 0.15 11 1098 16 562 157 939 176 1010 213 1844 214 476 
3682 0.1254751443542458 -0.024074321267729855 1.0161946332188196 0 0 0 0.18 11 1099 157 940 175 182 176 1011 200 703 213 1845 16 563 
3683 -0.07078343798603812 -0.01981675121711604 1.0278834084492454 0 0 0 0.47 11 1100 16 564 157 941 213 1846 28 238 98 336 176 1012 50 337 187 307 231 240 
3684 0.23954514558645432 -0.02481606408850567 1.0168198607324384 0 0 0 0.22 11 1101 146 689 157 942 200 704 
3685 0.06938171477779842 -0.02204880374748061 1.017892668726565 0 0 0 0.36 4 2202 11 1102 16 565 136 313 157 943 38 102 92 292 98 337 187 308 146 690 175 183 200 705 214 477 234 227 
3686 0.17661692568859055 -0.02344180182521676 1.0158715007577315 0 0 0 0.26 11 1103 175 184 200 706 
3687 0.06315975732995359 -0.021793691331400678 1.0192707098489806 0 0 0 0.27 2 1760 11 1104 19 766 27 1116 148 755 157 944 196 678 200 707 213 1847 28 239 98 338 175 185 176 1013 146 691 187 309 234 228 
3688 0.10298477173566145 -0.022557805307715697 1.017499169419239 0 0 0 0.59 4 2203 11 1105 136 314 175 186 28 240 98 339 187 310 
3689 0.0013625700992495632 -0.01983543723549093 1.020172326417969 0 0 0 0.13 11 1106 157 945 213 1848 
3690 0.08446982460323525 -0.020943523294016435 1.0215320040884766 0 0 0 0.12 11 1107 16 566 213 1849 176 1014 
3691 -0.18250776296631258 -0.015900140975067343 1.047355713614687 0 0 0 0.31 127 385 146 692 148 756 176 1015 44 326 158 460 
3692 -0.05050713697178518 -0.01859485015504439 1.023392780583493 0 0 0 0.13 11 1108 128 451 159 553 
3693 0.0997469729866559 -0.020712970332157517 1.0188184303224714 0 0 0 0.14 11 1109 16 567 175 187 231 241 39 169 112 194 124 475 213 1850 
3694 0.04160905996872689 -0.019586484734030872 1.0183855475633596 0 0 0 0.28 11 1110 27 1117 148 757 
3695 -0.11716331495083206 -0.016389207448190425 1.036069755655958 0 0 0 0.16 11 1111 16 568 176 1016 
3696 0.016698667383719567 -0.018073962376937213 1.0211808778246192 0 0 0 0.31 11 1112 127 386 159 554 213 1851 
3697 -0.2278597612350999 -0.01401253196613383 1.052703749894602 0 0 0 0.09 4 2204 157 946 213 1852 
3698 -0.1938829605844438 -0.014218409363214324 1.04798723115649 0 0 0 0.25 146 693 157 947 213 1853 
3699 -0.09407011252884862 -0.016069524447749024 1.0320092554339146 0 0 0 0.39 11 1113 16 569 146 694 157 948 176 1017 213 1854 28 241 38 103 98 340 187 311 
3700 -0.14939690801072747 -0.014540887020195573 1.0392915677875063 0 0 0 0.1 4 2205 11 1114 136 315 146 695 157 949 159 555 164 1498 176 1018 204 650 213 1855 
3701 -0.10114162041263304 -0.015605774126932172 1.0346977244692566 0 0 0 0.37 11 1115 16 570 213 1856 
3702 -0.0708805025157893 -0.01577437850803431 1.0273978200477518 0 0 0 0.27 11 1116 146 696 157 950 176 1019 
3703 0.1595169927581661 -0.019209039266461687 1.0142932837192755 0 0 0 0.3 11 1117 176 1020 185 389 213 1857 
3704 0.36250076367746326 -0.020813201021343236 1.0106149015807286 0 0 0 0.5 2 1761 4 2206 11 1118 27 1118 164 1499 165 634 213 1858 
3705 0.1671034657871538 -0.017364026807920305 1.0146592122571305 0 0 0 0.51 2 1762 9 1326 11 1119 148 758 185 390 213 1859 214 478 201 162 223 328 
3706 0.08204107064317764 -0.016567703860638477 1.0187162926333166 0 0 0 0.33 11 1120 159 556 176 1021 185 391 223 329 
3707 0.09377784452091091 -0.016421998819283204 1.0181493024039607 0 0 0 0.21 11 1121 136 316 146 697 176 1022 213 1860 4 2207 
3708 -0.18279654921486044 -0.011544081575292376 1.04609916772497 0 0 0 0.44 146 698 159 557 176 1023 213 1861 
3709 0.031752827217868936 -0.015384915104978927 1.0204609884357025 0 0 0 0.21 11 1122 146 699 213 1862 39 170 124 476 157 951 175 188 187 312 
3710 0.037559807436367526 -0.014739793991882189 1.0180767463888785 0 0 0 0.17 4 2208 11 1123 16 571 136 317 148 759 157 952 158 461 159 558 164 1500 176 1024 213 1863 231 242 27 1119 128 452 214 479 13 367 92 293 109 118 60 98 112 195 44 327 98 341 33 223 187 313 175 189 234 229 
3711 0.23982495913323373 -0.017511660783457925 1.013881593765463 0 0 0 0.62 9 1327 11 1124 19 767 127 387 148 760 165 635 176 1025 213 1864 223 330 235 634 
3712 0.0953110038200072 -0.015130040683431843 1.0164770773524054 0 0 0 0.15 11 1125 124 477 175 190 
3713 0.11019123019648065 -0.014606754845257442 1.0145672385841416 0 0 0 0.18 4 2209 11 1126 16 572 124 478 136 318 164 1501 175 191 176 1026 200 708 213 1865 223 331 231 243 234 230 27 1120 127 388 146 700 148 761 157 953 159 559 162 609 185 392 196 679 214 480 38 104 44 328 60 99 92 294 98 342 41 30 93 168 112 196 187 314 33 224 50 338 52 20 85 131 91 48 109 119 13 368 201 163 
3714 0.036936436838330526 -0.012637565553485575 1.0175169898344725 0 0 0 0.28 11 1127 16 573 136 319 148 762 157 954 214 481 33 225 112 197 187 315 175 192 
3715 0.4062579662895249 -0.017159803360113666 1.0156846635362586 0 0 0 0.39 164 1502 213 1866 235 635 
3716 0.3896257537667294 -0.01679211581485794 1.0090558028572814 0 0 0 0.41 148 763 162 610 164 1503 165 636 213 1867 
3717 -0.09618815886744471 -0.009564576716377263 1.0334338333968875 0 0 0 0.17 11 1128 146 701 213 1868 
3718 -0.006799928412840926 -0.009790345031375524 1.0242945280460405 0 0 0 0.22 2 1763 4 2210 11 1129 16 574 146 702 158 462 176 1027 200 709 213 1869 231 244 
3719 -0.18069752338722367 -0.006834742716001132 1.0462438608209141 0 0 0 0.19 4 2211 146 703 176 1028 213 1870 
3720 0.03574541346268146 -0.009679657850836161 1.0178306628344962 0 0 0 0.37 11 1130 16 575 146 704 157 955 200 710 213 1871 214 482 13 369 28 242 38 105 109 120 93 169 187 316 175 193 234 231 
3721 0.2542581151809094 -0.0109497733235698 1.0099631239665405 0 0 0 0.16 11 1131 162 611 164 1504 176 1029 213 1872 27 1121 136 320 159 560 165 637 235 636 
3722 -0.21926391861710146 -0.001753769914853568 1.0537277709054482 0 0 0 0.2 4 2212 148 764 159 561 196 680 213 1873 
3723 0.0019778662664722206 -0.0055302530287270465 1.0182187367468576 0 0 0 0.16 11 1132 16 576 136 321 146 705 213 1874 
3724 0.2538841563740011 -0.008555861990533709 1.0091888680635002 0 0 0 0.22 11 1133 157 956 200 711 
3725 0.3163780490930775 -0.007840627880782996 1.009823020917356 0 0 0 0.25 11 1134 159 562 176 1030 200 712 235 637 
3726 0.27634397405655897 -0.0068627071206442 1.0130949616802483 0 0 0 0.16 11 1135 164 1505 184 336 
3727 -0.3104728920381214 0.005067891529528097 1.0620004164401102 0 0 0 0.47 4 2213 148 765 157 957 162 612 213 1875 224 480 
3728 0.24640074100927875 -0.0038990417520569382 1.0135345824480286 0 0 0 0.38 4 2214 11 1136 146 706 157 958 176 1031 235 638 
3729 0.39953316450614124 0.012987470567236769 1.009318762375935 0 0 0 0.43 136 322 164 1506 196 681 213 1876 
3730 -0.1160191343856335 0.01955729484084317 1.0301712247686894 0 0 0 0.48 11 1137 146 707 221 597 
3731 0.40709965797172365 0.015770129776495074 1.0103135011389917 0 0 0 0.18 2 1764 4 2215 17 989 19 768 148 766 165 638 184 337 213 1877 235 639 
3732 0.42903335315915125 0.018115971444759987 1.0205277909204435 0 0 0 0.43 19 769 136 323 164 1507 235 640 
3733 0.40972171627240517 0.020008331192753557 1.0124981623322522 0 0 0 0.1 27 1122 148 767 213 1878 
3734 -0.007106359378785153 0.030685820769533318 1.0192727005897206 0 0 0 0.12 11 1138 16 577 213 1879 39 171 146 708 
3735 -0.15743205277117636 0.039873188610246496 1.0295257636225932 0 0 0 0.19 16 578 27 1123 127 389 146 709 213 1880 
3736 -0.10838936814721474 0.03833324078342745 1.0180201757919392 0 0 0 0.16 11 1139 164 1508 213 1881 
3737 -0.06615077642660029 0.0377045150478174 1.0075813359022379 0 0 0 0.07 11 1140 136 324 157 959 
3738 -0.11527178071529276 0.03936095804742622 1.0209873873205388 0 0 0 0.34 4 2216 11 1141 16 579 27 1124 127 390 157 960 213 1882 
3739 -0.10158647724191575 0.03901628705719523 1.0192804719677384 0 0 0 0.17 2 1765 4 2217 11 1142 16 580 146 710 176 1032 213 1883 
3740 -0.06426163004251904 0.039403105887222636 1.007104597960589 0 0 0 0.29 11 1143 157 961 213 1884 4 2218 16 581 146 711 164 1509 176 1033 44 329 
3741 -0.06757163231563655 0.03959487803379608 1.00540641950893 0 0 0 0.27 4 2219 11 1144 16 582 146 712 157 962 164 1510 213 1885 214 483 
3742 0.20233100487526298 0.03860689261260653 1.009322440260125 0 0 0 0.3 11 1145 146 713 213 1886 
3743 -0.10464839973886343 0.04129003023697224 1.0188915562938552 0 0 0 0.2 11 1146 16 583 146 714 157 963 164 1511 213 1887 
3744 0.07121108820776964 0.04013413132947643 1.0018144842047578 0 0 0 0.18 11 1147 16 584 213 1888 214 484 146 715 185 393 
3745 0.0347149458792057 0.040913794422116664 1.0028017135701797 0 0 0 0.27 4 2220 11 1148 188 22 213 1889 223 332 
3746 0.14484602597477278 0.04082896024544114 0.9958459246878131 0 0 0 0.24 11 1149 148 768 159 563 
3747 0.4476365541410048 0.041645251940564953 1.0253446069308554 0 0 0 0.35 19 770 162 613 165 639 184 338 196 682 
3748 -0.07451884871660765 0.04380067561269516 1.0139634092009084 0 0 0 0.3 11 1150 128 453 146 716 157 964 176 1034 213 1890 204 651 
3749 -0.07297419162056852 0.04390143905379547 1.0085186614799608 0 0 0 0.47 11 1151 127 391 213 1891 
3750 -0.05922729848632581 0.04348362938389629 1.0081658533872633 0 0 0 0.22 11 1152 146 717 213 1892 
3751 0.1412463931360911 0.04325687453270104 0.9996487329670712 0 0 0 0.25 4 2221 11 1153 146 718 164 1512 214 485 
3752 0.2510093049115442 0.04294263999770166 0.9965861508918372 0 0 0 0.35 11 1154 146 719 213 1893 
3753 -0.03969091276107736 0.04599307422220668 1.011622629542034 0 0 0 0.12 11 1155 16 585 146 720 157 965 176 1035 213 1894 
3754 0.21417333384648246 0.043521587050830465 0.9979744275848758 0 0 0 0.22 2 1766 11 1156 146 721 164 1513 165 640 213 1895 
3755 0.02827228144978467 0.04715027479047675 1.0096710743954487 0 0 0 0.2 4 2222 11 1157 16 586 146 722 157 966 176 1036 213 1896 187 317 234 232 
3756 -0.1095538142362101 0.04854061468671827 1.013900429364206 0 0 0 0.16 4 2223 11 1158 16 587 128 454 146 723 157 967 176 1037 213 1897 214 486 200 713 28 243 50 339 38 106 98 343 
3757 -0.03577992552118289 0.04767882258632805 1.0058100613417833 0 0 0 0.25 4 2224 11 1159 128 455 146 724 176 1038 213 1898 214 487 231 245 
3758 0.06415385640667226 0.0470415711580922 1.007118695166748 0 0 0 0.3 2 1767 4 2225 11 1160 16 588 146 725 213 1899 175 194 201 164 
3759 0.21850860498210803 0.04583559607529727 0.9955743886488971 0 0 0 0.15 2 1768 4 2226 11 1161 136 325 164 1514 165 641 185 394 213 1900 235 641 
3760 -0.0976498286909451 0.04982095963516335 1.0206783253972918 0 0 0 0.14 11 1162 16 589 176 1039 213 1901 214 488 
3761 -0.06611214739303412 0.04825168674084379 1.0021235873239327 0 0 0 0.17 11 1163 16 590 157 968 213 1902 176 1040 
3762 -0.18731446081767752 0.051526328472274265 1.0307169247981123 0 0 0 0.03 4 2227 146 726 213 1903 
3763 0.13651704523785596 0.04775175927318731 1.002824279693203 0 0 0 0.31 4 2228 11 1164 16 591 146 727 213 1904 214 489 
3764 -0.108128887303679 0.050430328888698986 1.0135925946730768 0 0 0 0.27 11 1165 16 592 213 1905 28 244 50 340 
3765 0.028257699006992612 0.049676520823061905 1.01026113078343 0 0 0 0.16 4 2229 11 1166 16 593 146 728 176 1041 188 23 213 1906 
3766 -0.24892309672559645 0.05371868276427557 1.045105395423462 0 0 0 0.25 4 2230 128 456 148 769 157 969 164 1515 176 1042 213 1907 219 538 
3767 -0.04501814808786435 0.050287690783638615 1.0122151671932504 0 0 0 0.09 4 2231 11 1167 124 479 213 1908 
3768 -0.25129487761104147 0.054340470779162015 1.0446149399311493 0 0 0 0.14 128 457 200 714 213 1909 
3769 -0.05981146455831392 0.05102629139652463 1.005832598399403 0 0 0 0.11 11 1168 16 594 157 970 213 1910 
3770 -0.03078781364992783 0.05064049498726509 1.0035142539967536 0 0 0 0.32 2 1769 11 1169 16 595 19 771 146 729 148 770 164 1516 200 715 213 1911 224 481 
3771 0.10785679940474789 0.04972388018651336 0.9963912852790293 0 0 0 0.2 11 1170 16 596 213 1912 13 370 146 730 201 165 231 246 
3772 -0.0959501198534746 0.05293577393176863 1.0198624492494124 0 0 0 0.13 11 1171 16 597 213 1913 
3773 -0.07785884642200917 0.052634189003496375 1.017419744249435 0 0 0 0.31 11 1172 16 598 176 1043 
3774 0.08101024913745845 0.05148547549045253 1.0023407666078767 0 0 0 0.35 4 2232 11 1173 16 599 17 990 146 731 157 971 175 195 176 1044 185 395 197 297 213 1914 219 539 223 333 27 1125 127 392 135 131 172 526 204 652 222 455 227 542 13 371 50 341 118 159 124 480 231 247 28 245 98 344 187 318 201 166 
3775 -0.03600419642086148 0.052712888005002234 1.0050892426829205 0 0 0 0.11 11 1174 157 972 213 1915 
3776 0.21682442488587444 0.05100242150806223 0.9934121530892261 0 0 0 0.07 11 1175 165 642 185 396 213 1916 214 490 235 642 
3777 -0.2501007505340949 0.05748847474018538 1.0489451392990239 0 0 0 0.24 4 2233 157 973 213 1917 
3778 -0.0733335885153462 0.053335619997897925 1.0052062928956635 0 0 0 0.27 11 1176 16 600 128 458 157 974 164 1517 176 1045 213 1918 
3779 0.0485599441946943 0.05318694182938601 1.0082079800041854 0 0 0 0.18 4 2234 11 1177 16 601 146 732 159 564 176 1046 213 1919 
3780 -0.1577216016440711 0.05483053393320591 1.017949668452164 0 0 0 0.18 11 1178 128 459 213 1920 
3781 -0.11772690989521503 0.05520619043960918 1.0212467263153004 0 0 0 0.3 4 2235 11 1179 16 602 128 460 146 733 157 975 176 1047 213 1921 28 246 61 261 98 345 
3782 -0.10634616249070775 0.055036163716805815 1.014605264043651 0 0 0 0.27 11 1180 16 603 164 1518 176 1048 28 247 98 346 200 716 
3783 -0.02961099631262558 0.053643421522545566 1.0044064789845604 0 0 0 0.51 4 2236 11 1181 157 976 158 463 176 1049 213 1922 214 491 16 604 27 1126 148 771 185 397 196 683 232 849 28 248 98 347 50 342 77 192 61 262 187 319 223 334 
3784 0.2526330525668706 0.05201502896226439 0.9930994657959609 0 0 0 0.07 11 1182 184 339 213 1923 
3785 0.3611460528410433 0.05188798839508122 0.9924212847135963 0 0 0 0.27 9 1328 27 1127 164 1519 184 340 213 1924 235 643 
3786 -0.1532574425275453 0.05631994459089556 1.0184339161814586 0 0 0 0.09 11 1183 176 1050 213 1925 
3787 -0.10880040374751655 0.056226480298987 1.015257948332099 0 0 0 0.21 11 1184 16 605 146 734 157 977 176 1051 213 1926 
3788 0.0077351944298697265 0.05582559399358489 1.002836771442387 0 0 0 0.21 4 2237 11 1185 16 606 213 1927 
3789 0.06227738018816965 0.056610009496137294 1.00652785902243 0 0 0 0.14 11 1186 16 607 124 481 146 735 157 978 175 196 213 1928 214 492 231 248 187 320 201 167 234 233 
3790 -0.2556907174929257 0.061312707636500076 1.0418883672468224 0 0 0 0.11 9 1329 157 979 176 1052 213 1929 
3791 -0.23389157745144698 0.060524534812636095 1.0338831874405758 0 0 0 0.05 4 2238 176 1053 213 1930 
3792 -0.02465887242444343 0.05736681751711773 1.002922016954307 0 0 0 0.24 11 1187 16 608 213 1931 
3793 -0.21748323002873535 0.06078286027822185 1.0342500851002958 0 0 0 0.25 4 2239 9 1330 164 1520 213 1932 
3794 -0.14803454782026101 0.05924446018612221 1.01922879411843 0 0 0 0.13 11 1188 176 1054 213 1933 
3795 0.13517544101968992 0.058913169333590455 0.9980352697848323 0 0 0 0.25 11 1189 146 736 176 1055 13 372 61 263 50 343 201 168 
3796 0.00942126407817187 0.06005751664930435 1.0032214746783623 0 0 0 0.19 11 1190 16 609 135 132 146 737 200 717 213 1934 
3797 0.017489467431720824 0.06055259920768048 1.0053889244386365 0 0 0 0.43 11 1191 16 610 127 393 146 738 188 24 213 1935 214 493 231 249 44 330 77 193 109 121 187 321 223 335 234 234 
3798 0.04007237182146813 0.059795387386208175 0.9982798994272877 0 0 0 0.49 11 1192 16 611 164 1521 213 1936 
3799 0.06330355972443247 0.059891755191577835 0.9992523326691357 0 0 0 0.18 11 1193 124 482 146 739 
3800 0.05208275381002598 0.06039159259804441 1.002931411048474 0 0 0 0.14 11 1194 16 612 213 1937 
3801 0.09637948781669836 0.06069993332016789 1.0005402610730465 0 0 0 0.12 11 1195 19 772 124 483 200 718 214 494 
3802 0.32717867191738415 0.05872709082143369 0.9915228530453915 0 0 0 0.44 2 1770 11 1196 27 1128 184 341 196 684 213 1938 235 644 
3803 -0.31115266974711164 0.06648520158407932 1.049261578780067 0 0 0 0.34 157 980 164 1522 213 1939 
3804 -0.28264201702057595 0.06674945784942411 1.047775554965727 0 0 0 0.1 2 1771 157 981 213 1940 
3805 -0.23336546430882232 0.06546285126392848 1.0355085680492255 0 0 0 0.13 157 982 200 719 213 1941 176 1056 
3806 -0.21167657102824192 0.06607149397833945 1.0389228532223866 0 0 0 0.12 146 740 176 1057 213 1942 
3807 0.05895290071808575 0.06238629608059295 1.0033503786483393 0 0 0 0.31 4 2240 11 1197 16 613 124 484 157 983 213 1943 214 495 146 741 
3808 -0.1848872647471937 0.06559404182367615 1.0279045130235416 0 0 0 0.18 4 2241 11 1198 17 991 148 772 164 1523 176 1058 213 1944 
3809 -0.12781406724563066 0.06512830054134387 1.0218090732253038 0 0 0 0.12 11 1199 16 614 164 1524 176 1059 213 1945 214 496 
3810 -0.1092080897487907 0.06415433931566805 1.0149786483326177 0 0 0 0.27 11 1200 16 615 135 133 157 984 200 720 213 1946 214 497 2 1772 4 2242 13 373 33 226 44 331 50 344 61 264 92 295 93 170 
3811 0.19288560514375303 0.06174753102634696 0.9967470463121997 0 0 0 0.32 11 1201 176 1060 213 1947 148 773 165 643 235 645 13 374 112 198 201 169 
3812 -0.10216164083859663 0.06435555620318092 1.0142120486458708 0 0 0 0.26 4 2243 11 1202 16 616 27 1129 135 134 136 326 157 985 159 565 200 721 213 1948 
3813 -0.09655091215230355 0.06462012609596407 1.0165505035689648 0 0 0 0.14 4 2244 11 1203 16 617 146 742 176 1061 185 398 213 1949 214 498 38 107 
3814 0.1135815275549182 0.06262393974432882 0.9969220022828106 0 0 0 0.27 2 1773 11 1204 16 618 146 743 176 1062 196 685 213 1950 214 499 13 375 44 332 92 296 38 108 77 194 223 336 197 298 201 170 
3815 0.24048539779096426 0.06280437538647483 0.9966147631280574 0 0 0 0.23 4 2245 11 1205 146 744 148 774 165 644 176 1063 235 646 13 376 214 500 
3816 -0.15605212551772343 0.06647168325325228 1.021918423504538 0 0 0 0.23 146 745 176 1064 213 1951 13 377 124 485 
3817 -0.015157740193262059 0.06493378686556338 1.0090242069159656 0 0 0 0.1 11 1206 16 619 146 746 176 1065 213 1952 
3818 0.18385849223027312 0.06338912206867965 0.9942105112282796 0 0 0 0.22 4 2246 11 1207 148 775 165 645 194 115 214 501 235 647 
3819 -0.10412138278038628 0.06585266895695342 1.0131155065539452 0 0 0 0.12 11 1208 136 327 148 776 176 1066 213 1953 
3820 0.16753561276405174 0.06370978077711101 0.996220291713205 0 0 0 0.41 11 1209 146 747 176 1067 213 1954 
3821 0.33702038842695303 0.0635797716513014 0.9923448133320896 0 0 0 0.55 11 1210 164 1525 176 1068 184 342 213 1955 235 648 
3822 -0.15403318557750967 0.06804742140598 1.0222904294166644 0 0 0 0.55 4 2247 11 1211 146 748 213 1956 9 1331 13 378 33 227 50 345 93 171 109 122 124 486 157 986 
3823 0.231571791170136 0.06520305067246093 0.9985545991331095 0 0 0 0.25 4 2248 11 1212 164 1526 165 646 176 1069 213 1957 235 649 
3824 0.3736980436232854 0.06419155349161772 0.9927858560998872 0 0 0 0.98 2 1774 11 1213 19 773 148 777 164 1527 165 647 196 686 235 650 9 1332 17 992 27 1130 120 310 147 383 162 614 163 130 217 494 227 543 
3825 0.10171667835011355 0.06566403466396416 0.9990496153188159 0 0 0 0.2 11 1214 176 1070 232 850 
3826 0.2390299000431419 0.0649735279484758 0.9982378647300907 0 0 0 0.41 2 1775 11 1215 124 487 146 749 148 778 157 987 176 1071 213 1958 223 337 235 651 9 1333 28 249 33 228 44 333 98 348 
3827 -0.10222386135175655 0.06850435265543557 1.013458170960182 0 0 0 0.24 4 2249 11 1216 16 620 27 1131 128 461 146 750 148 779 164 1528 176 1072 185 399 213 1959 214 502 38 109 50 346 77 195 110 100 113 6 
3828 0.031177148446415323 0.06664946934227711 1.0013013262802515 0 0 0 0.15 11 1217 16 621 146 751 176 1073 194 116 214 503 13 379 200 722 
3829 0.13401811869091934 0.06647713661214567 0.9992334007454458 0 0 0 0.09 4 2250 11 1218 16 622 146 752 213 1960 
3830 0.1750360633531023 0.06605899213130094 0.9949031281803743 0 0 0 0.14 11 1219 165 648 176 1074 194 117 214 504 235 652 
3831 0.3430538600291506 0.06622810629314566 0.9994083004326135 0 0 0 0.61 4 2251 11 1220 27 1132 164 1529 165 649 213 1961 223 338 235 653 
3832 -0.15086425660987235 0.06966918793354256 1.0226279880580997 0 0 0 0.16 2 1776 11 1221 146 753 213 1962 
3833 -0.07380017421337882 0.06749436392148747 1.002881520305823 0 0 0 0.17 11 1222 146 754 213 1963 
3834 0.44850215107440045 0.06870219424334012 1.0216979872408953 0 0 0 0.42 4 2252 136 328 164 1530 165 650 184 343 196 687 235 654 
3835 -0.06291372163948752 0.0684368926576785 1.0042287736434152 0 0 0 0.26 11 1223 16 623 146 755 148 780 176 1075 213 1964 214 505 85 132 
3836 0.227392843591305 0.06703428608589955 0.9941017957187681 0 0 0 0.34 4 2253 11 1224 146 756 157 988 165 651 213 1965 235 655 
3837 0.25498112213054447 0.0673133884852498 0.9934787443044814 0 0 0 0.47 2 1777 4 2254 11 1225 19 774 136 329 148 781 157 989 175 197 176 1076 184 344 194 118 200 723 223 339 13 380 52 21 85 133 124 488 187 322 28 250 201 171 
3838 0.2701566609058962 0.06788544393307219 0.9977712986667684 0 0 0 0.21 4 2255 11 1226 146 757 148 782 157 990 164 1531 165 652 213 1966 235 656 
3839 0.11750197620631864 0.0683254267065239 0.9980805093740235 0 0 0 0.15 4 2256 11 1227 146 758 213 1967 
3840 0.14069870661615103 0.06795248786379458 0.9945481942879908 0 0 0 0.29 11 1228 19 775 200 724 13 381 33 229 93 172 124 489 175 198 44 334 50 347 98 349 91 49 187 323 28 251 201 172 
3841 0.14921181709181522 0.06811272891246417 0.9939891631951749 0 0 0 0.17 11 1229 136 330 176 1077 
3842 0.3233856018619159 0.06735826505627811 0.9898877300077806 0 0 0 0.43 11 1230 148 783 159 566 165 653 235 657 
3843 -0.2329756146338532 0.07249963508079509 1.0344919748728212 0 0 0 0.23 9 1334 27 1133 128 462 157 991 176 1078 213 1968 
3844 -0.11786559973845949 0.07136728385795131 1.0146175166784779 0 0 0 0.32 11 1231 128 463 158 464 
3845 0.0014861004705205658 0.06961781774849303 1.0019770392567613 0 0 0 0.22 11 1232 16 624 213 1969 214 506 146 759 187 324 
3846 0.03747365243903724 0.06997136314631379 1.0013095825906517 0 0 0 0.19 11 1233 16 625 157 992 213 1970 214 507 28 252 98 350 146 760 175 199 124 490 201 173 231 250 187 325 
3847 0.15107708357557287 0.07063563718426759 0.9938046232364126 0 0 0 0.3 4 2257 11 1234 148 784 213 1971 214 508 221 598 223 340 231 251 201 174 234 235 
3848 -0.26455808735266045 0.07575841348586779 1.0397697950233722 0 0 0 0.34 4 2258 157 993 164 1532 176 1079 213 1972 
3849 0.039067533488462196 0.0716154074878694 1.0005075896237283 0 0 0 0.24 4 2259 9 1335 11 1235 16 626 146 761 157 994 213 1973 214 509 38 110 50 348 187 326 234 236 
3850 -0.2330230023166916 0.07612347442709609 1.0342046693736708 0 0 0 0.16 2 1778 157 995 176 1080 200 725 213 1974 
3851 0.11212826115121163 0.07261942527427619 0.9997880230003573 0 0 0 0.35 11 1236 16 627 146 762 213 1975 
3852 0.24851432878243643 0.07200028552497997 0.9932131536814065 0 0 0 0.26 4 2260 11 1237 27 1134 127 394 146 763 148 785 157 996 164 1533 165 654 175 200 185 400 213 1976 28 253 124 491 13 382 214 510 98 351 187 327 201 175 
3853 -0.15601082140231173 0.07748644101601095 1.021251467749069 0 0 0 0.36 11 1238 148 786 213 1977 
3854 0.0013093799380212144 0.07591694058188832 1.0035255174233295 0 0 0 0.38 11 1239 146 764 223 341 
3855 -0.029473881616971922 0.07595850556802543 1.0026254527201937 0 0 0 0.38 4 2261 9 1336 11 1240 16 628 176 1081 213 1978 146 765 
3856 -0.18850299019200406 0.07960066984930955 1.0257973505977043 0 0 0 0.2 146 766 157 997 176 1082 213 1979 
3857 -0.10450945286506363 0.07814699581333145 1.011707645618223 0 0 0 0.23 11 1241 16 629 176 1083 200 726 213 1980 214 511 38 111 98 352 
3858 -0.0007874846694053688 0.07720351058901495 1.001531019154218 0 0 0 0.14 11 1242 146 767 213 1981 4 2262 187 328 
3859 -0.19550751682176057 0.08196389662157466 1.0273280462884795 0 0 0 0.14 2 1779 157 998 176 1084 200 727 
3860 -0.03292572117059962 0.07966341890265367 1.0023809557606391 0 0 0 0.41 11 1243 16 630 146 768 213 1982 214 512 
3861 -0.07713059206012791 0.08167704057864221 1.0076533413676818 0 0 0 0.28 11 1244 16 631 176 1085 
3862 -0.18491783916131552 0.08348153375965836 1.02578837921308 0 0 0 0.39 128 464 157 999 158 465 176 1086 213 1983 2 1780 50 349 
3863 0.07379055542977689 0.08081201196047297 0.9971942712913516 0 0 0 0.36 4 2263 11 1245 16 632 146 769 164 1534 194 119 213 1984 223 342 92 297 187 329 
3864 0.11152330274601165 0.08197339483811873 0.9971938957696228 0 0 0 0.03 11 1246 16 633 213 1985 
3865 -0.11782694716116301 0.08445060200485438 1.0162481870126503 0 0 0 0.27 3 1004 11 1247 16 634 176 1087 219 540 
3866 -0.1562451198823754 0.08554563879699015 1.0187650214994475 0 0 0 0.36 11 1248 157 1000 200 728 213 1986 
3867 -0.029500239326025884 0.0837874515109101 1.0028485573040022 0 0 0 0.34 4 2264 11 1249 16 635 146 770 176 1088 213 1987 38 112 
3868 -0.10452742240142757 0.0845917926642627 1.0112837408123896 0 0 0 0.2 4 2265 11 1250 16 636 146 771 157 1001 176 1089 213 1988 
3869 0.07381232190957794 0.08348974033319623 0.997058071920645 0 0 0 0.32 11 1251 136 331 194 120 214 513 38 113 85 134 146 772 187 330 
3870 -0.23834683740851123 0.08792918125229424 1.0297982483994954 0 0 0 0.13 157 1002 176 1090 213 1989 
3871 -0.09757191630845903 0.08513734989789723 1.004997546014896 0 0 0 0.31 11 1252 16 637 213 1990 
3872 -0.09288405055145917 0.08564167301106941 1.010816507431973 0 0 0 0.14 11 1253 176 1091 213 1991 
3873 -0.09014474320797272 0.08557212801845782 1.0105329919410826 0 0 0 0.19 11 1254 16 638 176 1092 213 1992 
3874 0.09092130797633838 0.0858936002466989 1.0050079272293264 0 0 0 0.16 11 1255 16 639 213 1993 
3875 -0.03309286451167636 0.08682099157885681 1.0013686727893252 0 0 0 0.28 11 1256 176 1093 214 514 
3876 0.012519304442461321 0.08653799885626767 1.0028735286528634 0 0 0 0.3 11 1257 16 640 176 1094 194 121 213 1994 27 1135 
3877 0.02570132449637467 0.0869184177521537 1.003207784306509 0 0 0 0.14 11 1258 16 641 146 773 213 1995 13 383 124 492 175 201 28 254 98 353 187 331 234 237 
3878 0.18833617543372316 0.08614291597826045 0.9898548568826201 0 0 0 0.16 11 1259 165 655 235 658 
3879 0.19287812304505755 0.08662975618857778 0.994451595258564 0 0 0 0.21 11 1260 146 774 213 1996 
3880 0.3195835678938558 0.08654223381282726 0.9884064442292941 0 0 0 0.41 11 1261 27 1136 165 656 
3881 -0.029715714102182683 0.08717329072346018 1.0014061162495096 0 0 0 0.21 4 2266 11 1262 16 642 146 775 176 1095 213 1997 
3882 -0.1046737344229043 0.08832906380122524 1.0088210261253006 0 0 0 0.31 11 1263 16 643 176 1096 200 729 213 1998 135 135 146 776 157 1003 60 100 124 493 
3883 0.2820022094067322 0.08638787142515458 0.9897677944862094 0 0 0 0.27 4 2267 11 1264 136 332 148 787 164 1535 165 657 184 345 194 122 213 1999 223 343 235 659 201 176 
3884 0.29220789848526957 0.08684319383112946 0.9886282278430275 0 0 0 0.15 11 1265 165 658 235 660 
3885 -0.13738765208434656 0.08989328459107208 1.0203514199433157 0 0 0 0.35 11 1266 148 788 164 1536 
3886 0.39852777841041803 0.08793322398303252 0.9962170027095039 0 0 0 0.29 2 1781 27 1137 165 659 184 346 213 2000 235 661 
3887 0.02887951466141785 0.08888294634171193 0.9978926426867344 0 0 0 0.19 11 1267 16 644 146 777 200 730 213 2001 13 384 50 350 
3888 0.09772582534957515 0.08937952573452689 0.9996162683433163 0 0 0 0.41 11 1268 213 2002 214 515 
3889 0.038302723121970965 0.09024426502657364 0.9977046621961878 0 0 0 0.34 11 1269 146 778 223 344 
3890 0.29886044231370645 0.08954853695038846 0.9895710896875253 0 0 0 0.09 11 1270 165 660 235 662 
3891 -0.3006542844087756 0.09563568500607648 1.0384793318888361 0 0 0 0.45 157 1004 176 1097 213 2003 
3892 0.23291518970497793 0.0913527424303634 0.9921070165881555 0 0 0 0.1 2 1782 11 1271 165 661 235 663 
3893 -0.033322042788210486 0.09186348834182344 0.9997649815483055 0 0 0 0.25 4 2268 11 1272 16 645 146 779 164 1537 176 1098 213 2004 214 516 38 114 92 298 
3894 -0.16012373159886487 0.09502124586417962 1.0231950053306769 0 0 0 0.23 11 1273 146 780 176 1099 213 2005 
3895 0.08075353025481992 0.092969496360725 0.9952536313327602 0 0 0 0.2 11 1274 16 646 213 2006 
3896 0.2896470462485719 0.09282991080570523 0.9884595904970642 0 0 0 0.44 11 1275 27 1138 148 789 213 2007 223 345 235 664 77 196 187 332 28 255 201 177 
3897 0.26935085500499456 0.09323589815913855 0.9913413892659341 0 0 0 0.39 4 2269 11 1276 17 993 19 776 27 1139 136 333 146 781 148 790 164 1538 165 662 184 347 194 123 196 688 200 731 213 2008 223 346 13 385 33 230 44 335 85 135 107 25 109 123 124 494 214 517 28 256 175 202 201 178 
3898 0.34785445192858727 0.09332539498956759 0.9855626534853917 0 0 0 0.27 4 2270 136 334 164 1539 196 689 223 347 235 665 
3899 -0.3107507804686824 0.0998470464947504 1.0482567452428828 0 0 0 0.6 4 2271 17 994 157 1005 
3900 0.23395417138879504 0.09397370410374661 0.9941565659480471 0 0 0 0.45 4 2272 11 1277 148 791 164 1540 175 203 194 124 196 690 200 732 213 2009 93 173 110 101 124 495 146 782 187 333 201 179 
3901 0.23865681868472563 0.09418622702127383 0.9946751613237779 0 0 0 0.31 4 2273 11 1278 135 136 146 783 165 663 200 733 213 2010 223 348 234 238 235 666 175 204 28 257 124 496 13 386 98 354 187 334 
3902 -0.23679026704557285 0.09785461753503064 1.0313785071130397 0 0 0 0.25 4 2274 157 1006 213 2011 
3903 0.0005419872399282378 0.09492860871595182 0.9989861229450653 0 0 0 0.28 4 2275 11 1279 16 647 146 784 213 2012 214 518 231 252 157 1007 175 205 187 335 
3904 0.14465843257187458 0.09387712996780312 0.9903416475194444 0 0 0 0.38 11 1280 146 785 148 792 164 1541 223 349 
3905 0.17298866257771714 0.09408148668297207 0.9922467771661352 0 0 0 0.45 11 1281 175 206 213 2013 
3906 -0.20635782653497076 0.09882675660188862 1.0290024518573304 0 0 0 0.22 4 2276 128 465 176 1100 
3907 0.3137481319267245 0.09402249629790074 0.9865956683269346 0 0 0 0.49 2 1783 11 1282 27 1140 136 335 148 793 164 1542 213 2014 223 350 184 348 
3908 0.34664358981460547 0.09529839701041568 0.9875701182984556 0 0 0 0.23 11 1283 164 1543 165 664 184 349 235 667 28 258 201 180 
3909 -0.03337624004172204 0.09562112181126078 0.9997689526687945 0 0 0 0.22 4 2277 11 1284 16 648 146 786 164 1544 176 1101 213 2015 214 519 13 387 93 174 38 115 92 299 
3910 0.18613609446088142 0.09508979503246254 0.9900733148678058 0 0 0 0.38 11 1285 165 665 194 125 223 351 235 668 
3911 -0.10266500516706141 0.09819307000254528 1.0080522440556565 0 0 0 0.25 4 2278 11 1286 146 787 148 794 157 1008 176 1102 213 2016 
3912 0.012741813459249532 0.09823605910226765 1.0022419177727648 0 0 0 0.22 4 2279 11 1287 16 649 146 788 200 734 213 2017 13 388 38 116 44 336 
3913 0.05160271109354667 0.09859778477755332 1.0006994708146124 0 0 0 0.27 11 1288 16 650 194 126 213 2018 214 520 223 352 
3914 0.2818711442115749 0.09777377476739271 0.9876028045681243 0 0 0 0.28 4 2280 11 1289 27 1141 148 795 159 567 164 1545 165 666 184 350 194 127 213 2019 223 353 235 669 
3915 0.3480853650393776 0.09830199499189414 0.9862405295213568 0 0 0 0.64 136 336 148 796 164 1546 165 667 213 2020 223 354 235 670 
3916 -0.03376232037789643 0.09918265388927622 0.9990080373324162 0 0 0 0.36 11 1290 16 651 146 789 148 797 164 1547 176 1103 213 2021 214 521 38 117 92 300 
3917 0.07593782991700743 0.09871288645077973 0.9935241683183583 0 0 0 0.31 4 2281 11 1291 146 790 175 207 176 1104 194 128 214 522 223 355 231 253 
3918 0.21569008646463123 0.09866379414669581 0.9891053497454663 0 0 0 0.25 11 1292 185 401 235 671 4 2282 146 791 148 798 164 1548 165 668 175 208 194 129 213 2022 223 356 13 389 28 259 33 231 60 101 85 136 93 175 110 102 135 137 214 523 187 336 201 181 98 355 124 497 
3919 -0.11106778502497346 0.1005646622358429 1.008701753862229 0 0 0 0.26 11 1293 16 652 146 792 176 1105 213 2023 214 524 
3920 0.07823466412482721 0.09943710674067764 0.993865521302138 0 0 0 0.52 4 2283 11 1294 19 777 27 1142 136 337 148 799 176 1106 194 130 200 735 
3921 0.1860407415190707 0.09950627569018125 0.9879008285637386 0 0 0 0.5 11 1295 164 1549 196 691 223 357 
3922 -0.042831664408332575 0.10096325205054262 1.0018224247360372 0 0 0 0.36 4 2284 11 1296 16 653 124 498 136 338 146 793 200 736 28 260 98 356 2 1784 38 118 
3923 0.06867472393778104 0.10077428419291677 0.9936645880437953 0 0 0 0.09 11 1297 16 654 213 2024 187 337 201 182 
3924 0.2714484463624035 0.10040389255585393 0.9906851430921304 0 0 0 0.66 4 2285 11 1298 19 778 148 800 200 737 213 2025 235 672 91 50 109 124 175 209 201 183 
3925 -0.145436451676414 0.10279934228296714 1.0142238875225649 0 0 0 0.2 4 2286 11 1299 136 339 148 801 213 2026 
3926 -0.03191644350674346 0.10106846246119759 0.9985919037769289 0 0 0 0.21 11 1300 16 655 213 2027 214 525 
3927 -0.009788975653209053 0.10147841722394337 1.0021079616524564 0 0 0 0.44 4 2287 11 1301 16 656 17 995 146 794 164 1550 176 1107 213 2028 214 526 219 541 222 456 38 119 
3928 0.25748128158656397 0.10093259261951958 0.9879434078941467 0 0 0 0.5 11 1302 27 1143 164 1551 184 351 185 402 213 2029 
3929 -0.1546941279215683 0.10313259115125883 1.0160200843146612 0 0 0 0.37 11 1303 135 138 136 340 
3930 0.1460499085741635 0.10074773876923575 0.988849032504701 0 0 0 0.4 11 1304 17 996 146 795 194 131 213 2030 214 527 2 1785 13 390 16 657 38 120 52 22 77 197 93 176 109 125 187 338 28 261 110 103 201 184 223 358 
3931 0.031389194288178816 0.1011182860423383 0.9928800534537202 0 0 0 0.19 11 1305 146 796 213 2031 
3932 0.3863000727165547 0.10229920654465637 0.9880031292264222 0 0 0 0.37 19 779 27 1144 148 802 164 1552 165 669 213 2032 235 673 
3933 -0.17403584729205557 0.10383864845295107 1.0162102639165334 0 0 0 0.24 4 2288 11 1306 146 797 176 1108 213 2033 
3934 0.08247696796714754 0.10252730221098513 0.9961240606341071 0 0 0 0.36 4 2289 11 1307 16 658 146 798 164 1553 176 1109 194 132 200 738 213 2034 223 359 13 391 44 337 124 499 187 339 201 185 
3935 0.14799438976336746 0.10197405683863409 0.988266090202195 0 0 0 0.23 11 1308 213 2035 214 528 223 360 91 51 110 104 187 340 194 133 201 186 234 239 
3936 0.11438563701789002 0.10225845213292428 0.9902227533193231 0 0 0 0.39 11 1309 15 391 27 1145 146 799 175 210 194 134 196 692 200 739 222 457 13 392 28 262 110 105 124 500 187 341 
3937 0.15491673313507862 0.10297725039422104 0.9915292942541943 0 0 0 0.41 4 2290 11 1310 146 800 164 1554 194 135 200 740 213 2036 222 458 223 361 
3938 0.06673371617796955 0.10370078951314993 0.9934936372519091 0 0 0 0.42 4 2291 11 1311 146 801 164 1555 213 2037 
3939 0.10338622370668998 0.10277424592680046 0.9916069432264774 0 0 0 0.41 4 2292 11 1312 16 659 27 1146 146 802 164 1556 194 136 213 2038 214 529 13 393 28 263 93 177 38 121 52 23 110 106 187 342 201 187 136 341 
3940 0.21729783986075105 0.10351758045063146 0.9880139454630412 0 0 0 0.34 2 1786 11 1313 146 803 213 2039 
3941 -0.11112079280745679 0.10570278358983413 1.008521493939194 0 0 0 0.37 2 1787 4 2293 11 1314 146 804 148 803 157 1009 164 1557 176 1110 213 2040 214 530 16 660 38 122 
3942 0.22524339122432852 0.10418281869556104 0.9870976487037939 0 0 0 0.37 11 1315 146 805 165 670 175 211 213 2041 235 674 44 338 124 501 13 394 187 343 
3943 0.0687650238071094 0.1047439718100935 0.9930768249646393 0 0 0 0.55 11 1316 27 1147 136 342 164 1558 196 693 213 2042 2 1788 146 806 13 395 36 110 92 301 187 344 
3944 -0.11634982991609093 0.10643026336573404 1.0083747034909474 0 0 0 0.15 4 2294 11 1317 128 466 136 343 146 807 176 1111 
3945 -0.03414578519552853 0.10568027928838573 0.9980650428184816 0 0 0 0.09 11 1318 16 661 146 808 176 1112 213 2043 214 531 110 107 
3946 -0.15978748650102453 0.10793008926486303 1.0148971089688303 0 0 0 0.2 2 1789 11 1319 148 804 213 2044 44 339 135 139 
3947 -0.22298557289468274 0.10849877919415667 1.024219432452105 0 0 0 0.25 2 1790 4 2295 157 1010 176 1113 200 741 213 2045 
3948 0.14407213618310957 0.10647715748442463 0.9874516268819615 0 0 0 0.19 11 1320 164 1559 194 137 214 532 
3949 0.06668446556669153 0.10716058711294231 0.9938467482951067 0 0 0 0.13 11 1321 16 662 146 809 
3950 0.278223280316937 0.10688169509087701 0.9831695423547124 0 0 0 0.18 11 1322 164 1560 235 675 
3951 0.27072321713821984 0.10711758319044386 0.9833795841745376 0 0 0 0.36 4 2296 11 1323 146 810 164 1561 165 671 184 352 185 403 197 299 200 742 213 2046 223 362 235 676 
3952 0.10319102237785592 0.1078927524501932 0.9906466647296216 0 0 0 0.2 4 2297 11 1324 16 663 146 811 164 1562 194 138 213 2047 187 345 
3953 0.3958110467477531 0.1091330082411238 0.9941463185875371 0 0 0 0.66 27 1148 148 805 213 2048 
3954 0.1795341235696283 0.10876436374389145 0.9877019990279036 0 0 0 0.2 11 1325 146 812 194 139 214 533 
3955 -0.18963109688439864 0.11147378957936735 1.0230875126635364 0 0 0 0.08 4 2298 176 1114 213 2049 
3956 -0.10276144796033358 0.10995407704896891 1.0065812203461681 0 0 0 0.13 4 2299 11 1326 146 813 176 1115 
3957 0.2676045146006568 0.10895404179843472 0.9819277949940622 0 0 0 0.3 11 1327 136 344 213 2050 
3958 0.3517533432590748 0.1102829977823656 0.9831638840045269 0 0 0 0.45 4 2300 11 1328 27 1149 148 806 164 1563 165 672 213 2051 223 363 235 677 
3959 0.1773083217587101 0.11006535550210189 0.9871964575719555 0 0 0 0.25 4 2301 11 1329 146 814 148 807 165 673 235 678 
3960 0.22812433687433503 0.1104123977647046 0.9846672425397158 0 0 0 0.58 4 2302 11 1330 146 815 175 212 213 2052 124 502 200 743 19 780 148 808 165 674 194 140 235 679 77 198 98 357 187 346 
3961 0.23505711063615164 0.11079321188628005 0.985806186722025 0 0 0 0.37 11 1331 148 809 158 466 213 2053 
3962 0.40212843309307394 0.11190199045075289 0.9918376757980288 0 0 0 0.35 19 781 148 810 164 1564 
3963 -0.03257182269839786 0.11162847631771787 0.9965266087372411 0 0 0 0.24 11 1332 16 664 146 816 176 1116 213 2054 214 534 92 302 
3964 0.17921986762454598 0.11204953600692329 0.9871026908105182 0 0 0 0.35 4 2303 11 1333 148 811 164 1565 165 675 194 141 213 2055 214 535 223 364 235 680 
3965 0.212253302875594 0.11148183383423699 0.9870074458127919 0 0 0 0.29 2 1791 11 1334 124 503 146 817 165 676 175 213 194 142 235 681 13 396 40 31 44 340 109 126 
3966 -0.10801297588503468 0.1140148169680899 1.0064878487626103 0 0 0 0.28 4 2304 11 1335 146 818 176 1117 213 2056 16 665 38 123 113 7 
3967 0.14604639846405873 0.11258472533960977 0.9871005954258055 0 0 0 0.32 4 2305 11 1336 146 819 148 812 164 1566 196 694 213 2057 223 365 13 397 
3968 0.2325935752899488 0.1129182650042226 0.9840092870769095 0 0 0 0.38 2 1792 4 2306 11 1337 19 782 146 820 164 1567 165 677 175 214 194 143 196 695 213 2058 223 366 235 682 
3969 0.2700150433892452 0.11361924016447972 0.9835656962142778 0 0 0 0.44 2 1793 11 1338 19 783 27 1150 136 345 148 813 163 131 164 1568 165 678 194 144 213 2059 223 367 235 683 
3970 0.017361720595715217 0.11420832496528244 0.9913557386417017 0 0 0 0.23 4 2307 11 1339 16 666 146 821 213 2060 214 536 38 124 92 303 187 347 234 240 
3971 0.22150352043983002 0.1146542465244632 0.9852854739650463 0 0 0 0.43 2 1794 11 1340 27 1151 146 822 175 215 213 2061 223 368 235 684 19 784 124 504 135 140 163 132 164 1569 165 679 194 145 200 744 13 398 28 264 33 232 60 102 77 199 91 52 107 26 187 348 98 358 158 467 
3972 0.2241700368885227 0.11457937864067805 0.9862566510801972 0 0 0 0.62 11 1341 213 2062 223 369 
3973 -0.10718979254005576 0.11613264436804942 1.0048429251243476 0 0 0 0.18 11 1342 16 667 146 823 176 1118 213 2063 214 537 
3974 0.14589197136084164 0.11589309557044047 0.9862983005500563 0 0 0 0.37 11 1343 146 824 148 814 194 146 196 696 223 370 13 399 33 233 50 351 
3975 0.45541442576953733 0.12117771470872514 1.0170847415601374 0 0 0 0.59 19 785 164 1570 165 680 184 353 235 685 
3976 0.025885219957715387 0.11735102573058481 0.9904515249239926 0 0 0 0.52 11 1344 17 997 124 505 146 825 172 527 28 265 98 359 213 2064 50 352 61 265 187 349 234 241 
3977 0.1791292305728229 0.11720296369572072 0.9864039491663902 0 0 0 0.44 11 1345 27 1152 146 826 148 815 164 1571 194 147 213 2065 214 538 13 400 33 234 44 341 50 353 60 103 
3978 0.398027121274602 0.1200858924457834 0.9926468068629016 0 0 0 0.56 17 998 27 1153 164 1572 165 681 184 354 213 2066 221 599 223 371 235 686 
