# 3D point list with one line of data per point:
#   POINT3D_ID, X, Y, Z, R, G, B, ERROR, TRACK[] as (IMAGE_ID, POINT2D_IDX)
# Number of points: 251, mean track length: 12.92
520 -0.5590121288918795 -0.0719633849787825 0.5924586840093804 126 117 117 0.65 46 166 47 171 48 174 49 175 50 170 51 165 52 151 53 120 54 103 57 110 59 58 61 44 63 100 64 98 65 98 66 113 67 127 68 130 69 101 70 105 71 87 
521 -0.8421431201082589 0.041777410126592036 1.1278780381836857 166 162 160 0.39 46 167 47 172 48 175 49 176 50 171 51 166 52 152 53 121 54 104 57 111 58 105 59 59 60 89 62 100 63 101 64 99 65 99 66 114 67 128 68 131 69 102 70 106 71 88 
522 -0.7990824937226252 0.1966101983173278 1.0309115524616128 122 114 113 0.35 47 173 48 176 49 177 50 172 51 167 52 153 53 122 54 105 57 112 58 106 59 60 60 90 61 45 62 101 63 102 64 100 65 100 66 115 67 129 68 132 69 103 70 107 
523 -0.9777912152186555 0.3072098157406533 0.7434467556275878 98 94 102 1.68 59 61 62 102 64 101 66 116 
524 -0.6403009151292924 0.118490306393619 0.7346895324940478 72 62 70 0.5 46 168 47 174 48 177 49 178 50 173 51 168 52 154 53 123 54 106 57 113 58 107 59 62 60 91 61 46 62 103 63 103 64 102 65 101 66 117 67 130 72 55 
525 -0.6684913043892888 -0.16097910886131503 0.8043011395638422 153 159 165 0.31 46 169 47 175 48 178 49 179 50 174 51 169 52 155 53 124 54 107 57 114 58 108 59 63 60 92 61 47 62 104 63 104 64 103 65 102 66 118 67 131 68 133 69 104 70 108 71 89 72 56 
526 -0.6380626818766012 -0.15780460467494392 0.7463611949148105 77 73 85 0.4 46 170 47 176 48 179 49 180 50 175 51 170 52 156 53 125 54 108 57 115 58 109 59 64 60 93 61 48 62 105 63 105 64 104 65 103 66 119 67 132 68 134 69 105 70 109 71 90 72 57 
527 -0.6161854488197194 -0.28426171724319105 0.7099553974471716 127 123 127 0.57 46 171 47 177 48 180 49 181 50 176 51 171 53 126 54 109 57 116 58 110 59 65 60 94 61 49 63 106 67 133 71 91 
528 -0.5648599503429459 -0.10756498340600108 0.6066764084396438 92 61 67 0.69 46 172 47 178 48 181 49 182 50 177 51 172 52 157 53 127 54 110 57 117 59 66 61 50 62 106 63 107 64 105 65 104 66 120 67 134 68 135 69 106 70 110 71 92 
529 -0.6746703580997775 0.06032361423059139 0.8117023503090135 73 61 68 0.4 46 173 47 179 48 182 49 183 50 178 51 173 52 158 53 128 54 111 57 118 58 111 59 67 60 95 61 51 62 107 63 108 64 106 65 105 66 121 67 135 68 136 72 58 
530 -0.6881033058586943 -0.19161527579594084 0.8462523214390373 181 183 181 0.34 46 174 47 180 48 183 49 184 50 179 51 174 52 159 53 129 54 112 57 119 58 112 59 68 60 96 61 52 62 108 63 109 64 107 65 106 66 122 67 136 68 137 69 107 70 111 71 93 72 59 
531 -0.5427050846643265 -0.3021135495641883 0.5712992181644941 70 70 66 0.6 46 175 47 181 48 184 49 185 50 180 51 175 52 160 53 130 54 113 57 120 59 69 61 53 63 110 
532 -0.9214402362838654 0.09824798663143045 1.2834548427790047 130 126 134 0.76 46 176 47 182 48 185 49 186 50 181 51 176 52 161 53 131 54 114 57 121 58 113 59 70 60 97 62 109 63 111 64 108 65 107 66 123 67 137 68 138 69 108 70 112 71 94 
533 -0.7962640176970381 0.26860749830442066 1.0175604533393763 80 64 68 0.39 47 183 48 186 49 187 50 182 51 177 52 162 53 132 54 115 57 122 58 114 59 71 61 54 62 110 63 112 64 109 65 108 66 124 67 138 68 139 69 109 
534 -0.6835961592105506 -0.01580724567327771 0.8228105573239786 143 134 135 0.29 46 177 47 184 48 187 49 188 50 183 51 178 52 163 53 133 54 116 57 123 58 115 59 72 60 98 61 55 62 111 63 113 64 110 65 109 66 125 67 139 68 140 69 110 70 113 71 95 72 60 
535 -0.6652280772506766 -0.016522811947416498 0.7874353644884727 73 81 95 0.33 46 178 47 185 48 188 49 189 50 184 51 179 52 164 53 134 54 117 57 124 58 116 59 73 60 99 61 56 62 112 63 114 64 111 65 110 66 126 67 140 68 141 69 111 70 114 71 96 72 61 
536 -0.719309015236987 0.031983385545846205 0.8877165864935554 103 71 76 0.43 46 179 47 186 48 189 49 190 50 185 51 180 52 165 53 135 54 118 57 125 58 117 59 74 60 100 61 57 62 113 63 115 64 112 65 111 66 127 67 141 68 142 69 112 70 115 72 62 
537 -0.6753419738988037 -0.14256024200688777 0.8162071240579019 177 174 171 0.29 46 180 47 187 48 190 49 191 50 186 51 181 52 166 53 136 54 119 57 126 58 118 59 75 60 101 61 58 62 114 63 116 64 113 65 112 66 128 67 142 68 143 69 113 70 116 71 97 72 63 
538 -0.7179995005636923 0.14098713991237324 0.875229980301242 122 116 116 0.3 46 181 47 188 48 191 49 192 50 187 51 182 52 167 53 137 54 120 57 127 58 119 59 76 60 102 61 59 62 115 63 117 64 114 65 113 66 129 67 143 68 144 69 114 
539 -0.9432044143807417 -0.042754174614585846 1.3354187852142223 139 136 137 0.58 46 182 47 189 48 192 49 193 50 188 51 183 52 168 53 138 54 121 57 128 58 120 59 77 60 103 62 116 63 118 64 115 65 114 66 130 67 144 68 145 69 115 70 117 71 98 
540 -0.6752075570028031 0.18824373320508356 0.8046728424006653 65 50 61 0.4 46 183 47 190 48 193 49 194 50 189 51 184 52 169 53 139 54 122 57 129 58 121 59 78 60 104 61 60 62 117 63 119 64 116 65 115 66 131 67 145 68 146 
541 -0.8254978450594129 0.2948141263809737 1.092666248266338 41 28 33 0.45 50 190 51 185 52 170 53 140 54 123 57 130 58 122 59 79 62 118 63 120 64 117 65 116 66 132 67 146 68 147 69 116 70 118 
542 -0.5529563064993109 -0.03004753353586314 0.5696946201351557 184 184 182 0.61 46 184 47 191 48 194 49 195 50 191 51 186 52 171 53 141 54 124 57 131 59 80 61 61 63 121 64 118 65 117 66 133 67 147 68 148 69 117 70 119 71 99 72 64 
543 -0.5568702345747031 -0.023676603314202304 0.5772169742929633 176 183 182 0.91 46 185 47 192 48 195 49 196 50 192 51 187 52 172 53 142 54 125 57 132 59 81 61 62 63 122 64 119 65 118 66 134 67 148 68 149 69 118 70 120 71 100 72 65 
544 -0.8914225956115934 0.05239506795913956 1.227280764600776 74 84 99 0.65 46 186 47 193 48 196 49 197 50 193 51 188 52 173 53 143 54 126 57 133 58 123 59 82 60 105 62 119 63 123 64 120 65 119 66 135 67 149 68 150 69 119 70 121 71 101 
545 -0.876147598571868 0.22147221818521157 1.1830644151255887 69 64 69 0.37 53 144 54 127 57 134 58 124 59 83 60 106 62 120 63 124 64 121 65 120 66 136 67 150 68 151 69 120 70 122 
546 -0.7208113677262871 0.09559345393084404 0.8867499492539951 148 148 149 0.28 46 187 47 194 48 197 49 198 50 194 51 189 52 174 53 145 54 128 57 135 58 125 59 84 60 107 61 63 62 121 63 125 64 122 65 121 66 137 67 151 68 152 69 121 
547 -0.6098177638470159 -0.14480438609710988 0.6903460298369959 88 91 102 0.48 46 188 47 195 48 198 49 199 50 195 51 190 52 175 53 146 54 129 57 136 58 126 59 85 60 108 61 64 62 122 63 126 64 123 65 122 66 138 67 152 68 153 69 122 70 123 71 102 72 66 
548 -0.571287646891283 0.23163820296918103 0.49020583573521037 49 46 46 1.54 46 189 48 199 49 200 50 196 51 191 52 176 53 147 59 86 63 127 64 124 65 123 66 139 67 153 68 154 
549 -0.6147740357846062 -0.1702318859341503 0.7027986531651628 170 170 168 0.54 46 190 47 196 48 200 49 201 50 197 51 192 52 177 53 148 54 130 57 137 58 127 59 87 60 109 61 65 62 123 63 128 64 125 65 124 66 140 67 154 68 155 69 123 70 124 71 103 72 67 
550 -0.6409196031304502 0.0004531337699250372 0.7400239426939974 149 147 145 0.4 46 191 47 197 48 201 49 202 50 198 51 193 52 178 53 149 54 131 57 138 58 128 59 88 60 110 61 66 62 124 63 129 64 126 65 125 66 141 67 155 68 156 71 104 72 68 
551 -0.5654613830419287 -0.10284570395265527 0.6060344222247124 185 181 179 0.69 46 192 47 198 48 202 49 203 50 199 51 194 52 179 53 150 54 132 57 139 59 89 61 67 62 125 63 130 64 127 65 126 66 142 67 156 68 157 69 124 70 125 71 105 72 69 
552 -0.7719282519299732 0.3184988796292649 0.8668171977153953 126 133 136 0.7 47 199 48 203 49 204 50 200 51 195 52 180 53 151 54 133 57 140 58 129 59 90 62 126 63 131 64 128 65 127 66 143 67 157 68 158 69 125 
553 -0.6740355907053994 0.07189274524685578 0.5377971294008984 138 147 149 0.97 48 204 49 205 50 201 52 181 59 91 61 68 63 132 64 129 65 128 66 144 69 126 
554 -0.6567093211851576 0.011135337003640484 0.7692818717738215 115 97 95 0.42 46 193 47 200 48 205 49 206 50 202 51 196 52 182 53 152 54 134 57 141 58 130 59 92 60 111 61 69 62 127 63 133 64 130 65 129 66 145 67 158 68 159 69 127 71 106 72 70 
555 -0.5575100426990015 -0.29851325105637727 0.6004389367129404 65 54 52 0.61 46 194 47 201 48 206 49 207 50 203 51 197 52 183 53 153 54 135 57 142 59 93 61 70 63 134 
556 -0.616245364626567 -0.004836838870788205 0.6934369058956138 172 168 167 0.69 46 195 47 202 48 207 49 208 50 204 51 198 52 184 53 154 54 136 57 143 58 131 59 94 60 112 61 71 62 128 63 135 64 131 65 130 66 146 67 159 69 128 70 126 71 107 72 71 
557 -0.6705571232246528 -0.018098929746714475 0.7982358544049668 174 177 179 0.29 46 196 47 203 48 208 49 209 50 205 51 199 52 185 53 155 54 137 57 144 58 132 59 95 60 113 61 72 62 129 63 136 64 132 65 131 66 147 67 160 68 160 69 129 70 127 71 108 72 72 
558 -0.7154741980077006 -0.05347445582985591 0.8870446977272012 105 97 103 0.37 46 197 47 204 48 209 49 210 50 206 51 200 52 186 53 156 54 138 57 145 58 133 59 96 60 114 61 73 62 130 63 137 64 133 65 132 66 148 67 161 68 161 69 130 70 128 71 109 72 73 
559 -0.7023596649465429 0.29560731645061483 0.835969039459602 72 69 62 0.49 46 198 47 205 48 210 49 211 50 207 51 201 52 187 53 157 54 139 57 146 58 134 59 97 62 131 63 138 64 134 65 133 66 149 67 162 68 162 72 74 
560 -0.5684331168930447 -0.21904318837739647 0.6205670892537883 99 89 93 0.71 46 199 47 206 48 211 49 212 50 208 51 202 52 188 53 158 54 140 57 147 59 98 60 115 61 74 62 132 63 139 64 135 65 134 66 150 67 163 68 163 69 131 70 129 71 110 72 75 
561 -0.6652065944285989 0.2605790700355898 0.7822966656449726 69 50 53 0.56 46 200 47 207 48 212 49 213 50 209 51 203 52 189 53 159 54 141 57 148 58 135 59 99 62 133 63 140 64 136 65 135 66 151 67 164 68 164 72 76 
562 -0.7457850907725239 -0.052479183054279926 0.9459298833924249 102 96 103 0.39 46 201 47 208 48 213 49 214 50 210 51 204 52 190 53 160 54 142 57 149 58 136 59 100 60 116 61 75 62 134 63 141 64 137 65 136 66 152 67 165 68 165 69 132 70 130 71 111 72 77 
563 -0.9663201853195516 0.19879815205097476 1.212451345545464 124 127 130 0.64 54 143 57 150 58 137 59 101 60 117 62 135 63 142 64 138 65 137 66 153 67 166 68 166 70 131 71 112 
564 -0.8385132877132029 0.2631149589471756 1.1226224502357354 47 29 33 0.52 51 205 52 191 53 161 54 144 57 151 58 138 59 102 60 118 62 136 63 143 64 139 65 138 66 154 67 167 68 167 69 133 70 132 
565 -0.637215580412327 0.2812972118223845 0.7096479065933778 81 91 98 0.64 46 202 47 209 48 214 49 215 50 211 51 206 52 192 53 162 54 145 57 152 58 139 59 103 62 137 63 144 64 140 65 139 66 155 67 168 68 168 70 133 71 113 72 78 
566 -0.8381897159517212 -0.021444426331577567 1.1243717124240955 167 165 165 0.58 46 203 47 210 48 215 49 216 50 212 51 207 52 193 53 163 54 146 57 153 58 140 59 104 60 119 61 76 62 138 63 145 64 141 65 140 66 156 67 169 68 169 69 134 70 134 71 114 72 79 
567 -0.8220833673642225 0.03264839808575206 1.0874976973154344 94 78 79 0.5 46 204 47 211 48 216 49 217 50 213 51 208 52 194 53 164 54 147 57 154 58 141 59 105 60 120 61 77 62 139 63 146 64 142 65 141 66 157 67 170 68 170 69 135 70 135 71 115 
568 -0.7915753768779771 0.19352704188385525 1.0175350119059494 169 172 173 0.31 47 212 48 217 49 218 50 214 51 209 52 195 53 165 54 148 57 155 58 142 59 106 60 121 61 78 62 140 63 147 64 143 65 142 66 158 67 171 68 171 69 136 70 136 
569 -0.75400838717673 -0.02903222523764975 0.9608659702104876 80 74 81 0.39 46 205 47 213 48 218 49 219 50 215 51 210 52 196 53 166 54 149 57 156 58 143 59 107 60 122 61 79 62 141 63 148 64 144 65 143 66 159 67 172 68 172 69 137 70 137 71 116 72 80 
570 -0.5376528818087328 -0.3306347470289604 0.5523172317084976 214 238 251 0.94 46 206 47 214 48 219 49 220 50 216 51 211 52 197 53 167 54 150 57 157 59 108 61 80 
571 -0.5346425032111168 -0.32442964102392385 0.5520086285596494 19 19 19 0.87 46 207 47 215 48 220 49 221 50 217 51 212 52 198 53 168 54 151 57 158 59 109 61 81 
572 -0.6453857046566994 0.047623584451229876 0.7609657295473146 52 38 41 0.49 46 208 47 216 48 221 49 222 50 218 51 213 52 199 53 169 54 152 57 159 58 144 59 110 60 123 61 82 62 142 63 149 64 145 65 144 66 160 67 173 68 173 72 81 
573 -0.7401995365535439 -0.08587937172753084 0.936776636091929 88 89 100 0.32 46 209 47 217 48 222 49 223 50 219 51 214 52 200 53 170 54 153 57 160 58 145 59 111 60 124 61 83 62 143 63 150 64 146 65 145 66 161 67 174 68 174 69 138 70 138 71 117 72 82 
574 -1.0004709605939346 0.3178020370703088 0.7988725388991064 101 89 96 1.22 52 201 59 112 62 144 64 147 65 146 66 162 67 175 
575 -0.5420580848394657 -0.17027754907953735 0.565029259151796 98 90 94 0.85 46 210 47 218 48 223 49 224 50 220 51 215 52 202 53 171 54 154 57 161 59 113 61 84 63 151 64 148 65 147 66 163 67 176 68 175 69 139 70 139 71 118 73 41 74 196 
576 -0.6683054329265841 0.2763125872359996 0.6519007313820028 79 79 84 0.83 46 211 47 219 48 224 49 225 50 221 51 216 52 203 53 172 54 155 57 162 58 146 59 114 62 145 63 152 64 149 65 148 66 164 67 177 68 176 70 140 
577 -0.8452655138172583 0.10919649485008112 1.1305414696723561 25 20 21 0.42 46 212 47 220 48 225 49 226 50 222 51 217 52 204 53 173 54 156 57 163 58 147 59 115 60 125 62 146 63 153 64 150 65 149 66 165 67 178 68 177 69 140 70 141 
578 -0.8882501267760434 0.21105813088201925 1.2012493553518098 144 142 140 0.62 53 174 54 157 57 164 58 148 59 116 60 126 62 147 63 154 64 151 65 150 66 166 67 179 68 178 69 141 70 142 
579 -0.8029937400979169 0.227507615323738 1.0382317544966093 113 111 114 0.42 47 221 48 226 49 227 50 223 51 218 52 205 53 175 54 158 57 165 58 149 59 117 60 127 61 85 62 148 63 155 64 152 65 151 66 167 67 180 68 179 69 142 70 143 
580 -0.5997574944146514 -0.07166496027825224 0.6640061884672454 75 79 94 0.74 46 213 47 222 48 227 49 228 50 224 51 219 52 206 53 176 54 159 57 166 58 150 59 118 60 128 61 86 62 149 63 156 64 153 65 152 66 168 67 181 68 180 69 143 70 144 71 119 72 83 
581 -0.651146989284396 -0.11143756022593343 0.767554078296265 117 113 115 0.44 46 214 47 223 48 228 49 229 50 225 51 220 52 207 53 177 54 160 57 167 58 151 59 119 60 129 61 87 62 150 63 157 64 154 65 153 66 169 67 182 68 181 69 144 70 145 71 120 72 84 
582 -0.679092332736752 0.07059874697069343 0.5594853982348695 130 133 136 1.25 46 215 48 229 49 230 50 226 51 221 52 208 53 178 59 120 61 88 63 158 64 155 65 154 66 170 67 183 68 182 69 145 70 146 72 85 
583 -0.6735288265762072 0.09877390850448194 0.8093712834727786 66 44 51 0.38 46 216 47 224 48 230 49 231 50 227 51 222 52 209 53 179 54 161 57 168 58 152 59 121 60 130 61 89 62 151 63 159 64 156 65 155 66 171 67 184 68 183 
584 -0.5273559298218117 -0.08700415701983193 0.5349181969798066 96 95 90 0.78 46 217 47 225 48 231 49 232 50 228 51 223 52 210 53 180 54 162 59 122 61 90 63 160 64 157 65 156 66 172 67 185 68 184 69 146 70 147 71 121 
585 -0.7426475733058661 0.1584831981769395 0.9220950090252429 69 65 69 0.29 46 218 47 226 48 232 49 233 50 229 51 224 52 211 53 181 54 163 57 169 58 153 59 123 60 131 61 91 62 152 63 161 64 158 65 157 66 173 67 186 68 185 69 147 
586 -0.7375227834978989 0.1857222450220956 0.9100565247524731 136 130 131 0.35 46 219 47 227 48 233 49 234 50 230 51 225 52 212 53 182 54 164 57 170 58 154 59 124 60 132 61 92 62 153 63 162 64 159 65 158 66 174 67 187 68 186 69 148 
587 -0.8762977764621757 0.2788608364272745 1.1786591634728674 90 73 66 0.5 54 165 57 171 58 155 59 125 60 133 62 154 63 163 64 160 65 159 66 175 67 188 68 187 69 149 70 148 
588 -0.9488942035299417 -0.02655787847730798 1.339608475499093 159 153 157 0.62 46 220 47 228 48 234 49 235 50 231 51 226 52 213 53 183 54 166 57 172 58 156 59 126 60 134 62 155 63 164 64 161 65 160 66 176 67 189 68 188 69 150 70 149 71 122 
589 -0.8267477953585701 0.2752711565902803 1.0947265723785884 65 53 66 0.41 50 232 51 227 52 214 53 184 54 167 57 173 58 157 59 127 62 156 63 165 64 162 65 161 66 177 67 190 68 189 69 151 70 150 
590 -0.8667348321709647 0.3562416373613313 1.160672783706897 43 44 48 0.62 49 236 52 215 53 185 54 168 57 174 58 158 59 128 62 157 63 166 64 163 65 162 66 178 67 191 68 190 69 152 70 151 
591 -0.688903720637043 0.07760552046898159 0.8362800086503336 46 35 40 0.44 46 221 47 229 48 235 49 237 50 233 51 228 52 216 53 186 54 169 57 175 58 159 59 129 60 135 61 93 62 158 63 167 64 164 65 163 66 179 67 192 68 191 69 153 
592 -0.6254623918257707 -0.1385915457238079 0.721539886114856 116 121 125 0.57 46 222 47 230 48 236 49 238 50 234 51 229 52 217 53 187 54 170 57 176 58 160 59 130 60 136 61 94 62 159 63 168 64 165 65 164 66 180 67 193 68 192 69 154 70 152 71 123 72 86 
593 -0.6729852844263736 0.2210798285575735 0.7990787971087668 64 48 58 0.46 46 223 47 231 48 237 49 239 50 235 51 230 52 218 53 188 54 171 57 177 58 161 59 131 61 95 62 160 63 169 64 166 65 165 66 181 67 194 68 193 
594 -0.7988238679264966 0.328978749668366 0.9326721269889098 27 24 24 0.78 46 224 47 232 48 238 49 240 50 236 51 231 52 219 53 189 54 172 57 178 58 162 59 132 62 161 63 170 64 167 65 166 66 182 67 195 68 194 69 155 70 153 
595 -0.8286030882576372 0.34127728951005654 0.9816458679254596 105 109 116 0.62 46 225 47 233 48 239 49 241 50 237 51 232 52 220 53 190 54 173 57 179 58 163 59 133 62 162 63 171 64 168 65 167 66 183 67 196 68 195 69 156 70 154 
596 -0.8553782800437105 -0.02704272868031849 1.156529556908136 135 127 132 0.55 46 226 47 234 48 240 49 242 50 238 51 233 52 221 53 191 54 174 57 180 58 164 59 134 60 137 62 163 63 172 64 169 65 168 66 184 67 197 68 196 69 157 70 155 71 124 
597 -0.6117952257771682 -0.05794802818744194 0.6878387288574929 79 72 80 0.7 46 227 47 235 48 241 49 243 50 239 51 234 52 222 53 192 54 175 57 181 58 165 59 135 60 138 61 96 62 164 63 173 64 170 65 169 66 185 67 198 68 197 69 158 70 156 71 125 72 87 
598 -0.7140932435375955 0.06180579223753918 0.873801841031287 56 50 53 0.41 46 228 47 236 48 242 49 244 50 240 51 235 52 223 53 193 54 176 57 182 58 166 59 136 60 139 61 97 62 165 63 174 64 171 65 170 66 186 67 199 68 198 69 159 72 88 
599 -0.7590155412965855 0.2348453768448511 0.9506053988799493 144 136 135 0.35 46 229 47 237 48 243 49 245 50 241 51 236 52 224 53 194 54 177 57 183 58 167 59 137 60 140 61 98 62 166 63 175 64 172 65 171 66 187 67 200 68 199 69 160 
600 -0.782130103234878 -0.1427818744269811 1.0244691731687041 167 170 165 0.44 46 230 47 238 48 244 49 246 50 242 51 237 52 225 53 195 54 178 57 184 58 168 59 138 60 141 61 99 62 167 63 176 64 173 65 172 66 188 67 201 68 200 69 161 70 157 71 126 72 89 
601 -0.63618112062404 0.26119560034412603 0.6205950807306803 71 66 66 1.05 46 231 47 239 48 245 49 247 50 243 51 238 52 226 53 196 54 179 57 185 59 139 62 168 63 177 64 174 65 173 66 189 67 202 72 90 
602 -0.7859301938886224 0.14696855216542098 1.0084436611591743 161 162 166 0.23 46 232 47 240 48 246 49 248 50 244 51 239 52 227 53 197 54 180 57 186 58 169 59 140 60 142 61 100 62 169 63 178 64 175 65 174 66 190 67 203 68 201 69 162 70 158 
603 -0.7176848743556571 0.21851672191985552 0.8700286993666054 154 149 145 0.36 46 233 47 241 48 247 49 249 50 245 51 240 52 228 53 198 54 181 57 187 58 170 59 141 60 143 61 101 62 170 63 179 64 176 65 175 66 191 67 204 68 202 
604 -0.6352508772956933 0.061441911658694844 0.723753622410909 184 183 180 0.5 46 234 47 242 48 248 49 250 50 246 51 241 52 229 53 199 54 182 57 188 58 171 59 142 60 144 61 102 62 171 63 180 64 177 65 176 66 192 67 205 71 127 72 91 
605 -0.7831142484406631 -0.12774127569575208 1.0240013789717066 193 192 188 0.42 46 235 47 243 48 249 49 251 50 247 51 242 52 230 53 200 54 183 57 189 58 172 59 143 60 145 61 103 62 172 63 181 64 178 65 177 66 193 67 206 68 203 69 163 70 159 71 128 72 92 
606 -0.5744364638572343 -0.18669235581043592 0.6312940772681589 116 95 102 0.61 46 236 47 244 48 250 49 252 50 248 51 243 52 231 53 201 54 184 57 190 59 144 60 146 61 104 62 173 63 182 64 179 65 178 66 194 67 207 68 204 69 164 70 160 71 129 72 93 
607 -0.6127228125191229 -0.2150374977333644 0.7046598840370712 107 110 117 0.61 46 237 47 245 48 251 49 253 50 249 51 244 52 232 53 202 54 185 57 191 58 173 59 145 60 147 61 105 62 174 63 183 64 180 65 179 66 195 67 208 68 205 69 165 70 161 71 130 72 94 
608 -0.6590593150652816 -0.04749094430759707 0.7779106811073815 152 161 171 0.41 46 238 47 246 48 252 49 254 50 250 51 245 52 233 53 203 54 186 57 192 58 174 59 146 60 148 61 106 62 175 63 184 64 181 65 180 66 196 67 209 68 206 69 166 70 162 71 131 72 95 
609 -0.7056691204601522 0.017562300884711394 0.862530420253553 153 154 153 0.34 46 239 47 247 48 253 49 255 50 251 51 246 52 234 53 204 54 187 57 193 58 175 59 147 60 149 61 107 62 176 63 185 64 182 65 181 66 197 67 210 68 207 69 167 72 96 
610 -0.8859086462905275 0.14339356985377988 1.2064361837119173 60 48 56 0.42 49 256 50 252 51 247 52 235 53 205 54 188 57 194 58 176 59 148 60 150 62 177 63 186 64 183 65 182 66 198 67 211 68 208 69 168 70 163 
611 -0.7563322220106261 0.31514508551004605 0.8385130171530053 107 110 116 0.8 47 248 48 254 49 257 50 253 51 248 52 236 53 206 54 189 57 195 58 177 59 149 62 178 63 187 64 184 65 183 66 199 67 212 68 209 69 169 
612 -0.7933703160457659 0.16690397217197633 1.0224924228846335 167 165 165 0.34 46 240 47 249 48 255 49 258 50 254 51 249 52 237 53 207 54 190 57 196 58 178 59 150 60 151 61 108 62 179 63 188 64 185 65 184 66 200 67 213 68 210 69 170 70 164 
613 -0.6275621378718599 0.26816033015453145 0.696648368942132 66 58 59 0.55 46 241 47 250 48 256 49 259 50 255 51 250 52 238 53 208 54 191 57 197 58 179 59 151 62 180 63 189 64 186 65 185 66 201 67 214 71 132 72 97 
614 -0.5959043755320859 -0.2276723742678187 0.6696221617016438 160 159 159 0.57 46 242 47 251 48 257 49 260 50 256 51 251 52 239 53 209 54 192 57 198 58 180 59 152 60 152 61 109 62 181 63 190 64 187 65 186 66 202 67 215 68 211 69 171 70 165 71 133 72 98 
615 -0.8304892196710575 0.040440400918846035 1.1041215285074133 157 154 154 0.43 46 243 47 252 48 258 49 261 50 257 51 252 52 240 53 210 54 193 57 199 58 181 59 153 60 153 61 110 62 182 63 191 64 188 65 187 66 203 67 216 68 212 69 172 70 166 71 134 
616 -0.7980525272184971 0.32904097737633203 0.9396137804382179 157 169 171 0.69 47 253 48 259 49 262 50 258 51 253 52 241 53 211 54 194 57 200 58 182 59 154 62 183 63 192 64 189 65 188 66 204 67 217 68 213 69 173 70 167 
617 -0.6895262357413873 -0.20998997617964882 0.850953644654716 95 93 101 0.38 46 244 47 254 48 260 49 263 50 259 51 254 52 242 53 212 54 195 57 201 58 183 59 155 60 154 61 111 62 184 63 193 64 190 65 189 66 205 67 218 68 214 69 174 70 168 71 135 72 99 
618 -0.7619709235769475 0.31534117300130743 0.868776572851651 31 36 32 0.72 47 255 48 261 49 264 50 260 51 255 52 243 53 213 54 196 57 202 58 184 59 156 62 185 63 194 64 191 65 190 66 206 67 219 68 215 69 175 
619 -0.6798489286538104 -0.16342065031679312 0.8263088518782232 159 162 165 0.32 46 245 47 256 48 262 49 265 50 261 51 256 52 244 53 214 54 197 57 203 58 185 59 157 60 155 61 112 62 186 63 195 64 192 65 191 66 207 67 220 68 216 69 176 70 169 71 136 72 100 
620 -0.6328221676846884 0.21431363246876645 0.7070093458387292 155 149 147 0.59 46 246 47 257 48 263 49 266 50 262 51 257 52 245 53 215 54 198 57 204 58 186 59 158 61 113 62 187 63 196 64 193 65 192 66 208 72 101 
621 -0.6631484793387947 -0.17806677408816907 0.7958147662695763 138 137 140 0.31 46 247 47 258 48 264 49 267 50 263 51 258 52 246 53 216 54 199 57 205 58 187 59 159 60 156 61 114 62 188 63 197 64 194 65 193 66 209 67 221 68 217 69 177 70 170 71 137 72 102 
622 -0.807289521250837 0.247713539496487 1.0475826216519364 49 31 38 0.53 48 265 49 268 50 264 51 259 52 247 53 217 54 200 57 206 58 188 59 160 60 157 61 115 62 189 63 198 64 195 65 194 66 210 67 222 68 218 69 178 70 171 
623 -0.6342695754119788 -0.04279317773521455 0.7298255534023275 68 65 74 0.64 46 248 47 259 48 266 49 269 50 265 51 260 52 248 53 218 54 201 57 207 58 189 59 161 60 158 61 116 62 190 63 199 64 196 65 195 66 211 67 223 68 219 69 179 70 172 71 138 72 103 
624 -0.8136159301383155 -0.006999183864583924 1.0726403082498976 172 175 177 0.5 46 249 47 260 48 267 49 270 50 266 51 261 52 249 53 219 54 202 57 208 58 190 59 162 60 159 61 117 62 191 63 200 64 197 65 196 66 212 67 224 68 220 69 180 70 173 71 139 72 104 
625 -0.6300696844124001 0.2732437439356674 0.6790748427972694 57 54 53 0.69 46 250 47 261 48 268 49 271 50 267 51 262 52 250 53 220 54 203 57 209 58 191 59 163 62 192 63 201 64 198 65 197 66 213 67 225 70 174 71 140 72 105 
626 -0.5743707691432508 -0.2733815610776701 0.6340578041110043 81 66 78 0.46 46 251 47 262 48 269 49 272 50 268 51 263 52 251 53 221 54 204 57 210 59 164 60 160 61 118 63 202 67 226 
627 -0.9615142203635791 0.3128341748614498 0.7854595427297048 89 78 87 1.58 50 269 52 252 53 222 57 211 58 192 59 165 62 193 63 203 64 199 65 198 66 214 67 227 
628 -0.6718549071954467 -0.23986255831919773 0.8183746025807062 125 123 134 0.62 46 252 47 263 48 270 49 273 50 270 51 264 52 253 53 223 54 205 57 212 58 193 59 166 60 161 61 119 62 194 63 204 64 200 65 199 66 215 67 228 68 221 69 181 70 175 71 141 72 106 
629 -0.7282773814266204 0.24492571254143 0.8904155999961169 84 54 56 0.46 46 253 47 264 48 271 49 274 50 271 51 265 52 254 53 224 54 206 57 213 58 194 59 167 61 120 62 195 63 205 64 201 65 200 66 216 67 229 68 222 69 182 
630 -0.5326872174132705 -0.19538972798007156 0.5553527994331628 81 67 75 0.72 46 254 47 265 48 272 49 275 50 272 51 266 52 255 53 225 54 207 57 214 59 168 61 121 63 206 64 202 65 201 66 217 67 230 68 223 69 183 70 176 71 142 
631 -0.7223509818165325 0.1982455683065553 0.880064264256077 140 133 133 0.38 46 255 47 266 48 273 49 276 50 273 51 267 52 256 53 226 54 208 57 215 58 195 59 169 60 162 61 122 62 196 63 207 64 203 65 202 66 218 67 231 68 224 69 184 
632 -0.6511032314208397 0.062167036243304136 0.7673555170966868 57 41 47 0.5 46 256 47 267 48 274 49 277 50 274 51 268 52 257 53 227 54 209 57 216 58 196 59 170 60 163 61 123 62 197 63 208 64 204 65 203 66 219 67 232 68 225 72 107 
633 -0.6577218662752372 0.2835712428250715 0.7062946804126102 137 162 187 0.63 46 257 47 268 48 275 49 278 50 275 51 269 52 258 53 228 54 210 57 217 58 197 59 171 62 198 63 209 64 205 65 204 66 220 67 233 68 226 71 143 72 108 
634 -0.7618964793857845 0.00033403019745059 0.9734976418217125 158 160 161 0.44 46 258 47 269 48 276 49 279 50 276 51 270 52 259 53 229 54 211 57 218 58 198 59 172 60 164 61 124 62 199 63 210 64 206 65 205 66 221 67 234 68 227 69 185 70 177 71 144 72 109 
635 -0.644521416241217 -0.25292472417532574 0.7669998522586426 167 169 170 0.58 46 259 47 270 48 277 49 280 50 277 51 271 53 230 54 212 57 219 58 199 59 173 60 165 61 125 63 211 64 207 65 206 66 222 67 235 68 228 69 186 70 178 71 145 72 110 
636 -0.7384509949488521 -0.026072002853512206 0.9296216440274901 183 181 176 0.38 46 260 47 271 48 278 49 281 50 278 51 272 52 260 53 231 54 213 57 220 58 200 59 174 60 166 61 126 62 200 63 212 64 208 65 207 66 223 67 236 68 229 69 187 70 179 71 146 72 111 
637 -0.8446422007790894 -0.04201781845892134 1.1386383649176433 157 156 158 0.63 46 261 47 272 48 279 49 282 50 279 51 273 52 261 53 232 54 214 57 221 58 201 59 175 60 167 61 127 62 201 63 213 64 209 65 208 66 224 67 237 68 230 69 188 70 180 71 147 72 112 
638 -0.5813794565261334 -0.29989050752608043 0.6456763990162186 182 183 176 0.57 46 262 47 273 48 280 49 283 50 280 51 274 52 262 53 233 54 215 57 222 59 176 60 168 61 128 63 214 
639 -0.9715391185758786 0.1785233281375737 1.2254661725412035 32 50 49 0.88 52 263 53 234 54 216 57 223 58 202 59 177 60 169 62 202 63 215 64 210 65 209 66 225 67 238 68 231 70 181 71 148 
640 -0.7200473400039122 0.0025480248394248346 0.8911087707677089 114 118 129 0.32 46 263 47 274 48 281 49 284 50 281 51 275 52 264 53 235 54 217 57 224 58 203 59 178 60 170 61 129 62 203 63 216 64 211 65 210 66 226 67 239 68 232 69 189 70 182 72 113 
641 -0.8681748901569628 -0.13968882542007632 1.193756348761954 165 154 152 0.5 46 264 47 275 48 282 49 285 50 282 51 276 52 265 53 236 57 225 58 204 59 179 60 171 62 204 63 217 64 212 65 211 66 227 67 240 68 233 69 190 70 183 71 149 
642 -0.9019881634592919 -0.09328692476405966 1.2605726443430123 162 155 149 0.49 46 265 47 276 48 283 49 286 50 283 51 277 52 266 53 237 54 218 57 226 58 205 59 180 60 172 62 205 63 218 64 213 65 212 66 228 67 241 68 234 69 191 70 184 71 150 
643 -0.6810578076266789 0.129547566571119 0.5089693695751181 9 13 10 1.51 49 287 50 284 52 267 59 181 61 130 63 219 64 214 
644 0.3104673817202947 0.11158503636743886 0.9701433329882027 52 58 54 0.6 79 184 80 179 81 180 82 157 83 166 84 155 85 159 
645 0.21214811378763118 0.1373229137312827 0.8937357228904186 57 37 38 0.34 79 185 80 180 81 181 82 158 83 167 84 156 85 160 86 159 
646 0.028745669545646956 0.013630583212538442 0.811517207717901 56 59 59 0.14 79 186 80 181 81 182 82 159 83 168 
647 0.003902747179703301 -0.27265390357954844 0.8585576321270441 124 104 100 0.51 79 187 80 182 81 183 82 160 83 169 85 161 86 160 87 161 88 197 89 200 90 17 91 16 92 15 93 17 94 16 95 15 96 13 
648 0.2876198384519512 -0.20208857816208692 1.0139026004974625 138 158 180 0.44 79 188 80 183 81 184 82 161 83 170 84 157 85 162 86 161 87 162 88 198 89 201 90 18 91 17 92 16 93 18 94 17 95 16 96 14 
649 0.17825837199690173 -0.06647853969700607 0.9139852336076117 119 105 101 0.58 79 189 80 184 81 185 82 162 83 171 84 158 85 163 90 19 91 18 92 17 93 19 94 18 95 17 
650 0.03759349763485414 0.07600966133308987 0.5814001859523299 132 153 83 0.6 79 190 82 163 83 172 
651 0.46558684836444236 -0.1318645051419147 1.102945717038793 58 64 77 0.7 79 191 80 185 81 186 84 159 85 164 86 162 87 163 88 199 89 202 90 20 91 19 92 18 93 20 94 19 95 18 96 15 
652 0.1181434698064233 0.1132688002211046 0.8587456223437487 143 150 166 0.57 79 192 80 186 81 187 82 164 83 173 84 160 85 165 86 163 87 164 
653 0.7672451656770755 -0.2763235642056134 1.2911332481380184 84 71 65 0.78 79 193 80 187 81 188 84 161 85 166 86 164 87 165 88 200 89 203 90 21 91 20 92 19 93 21 94 20 
654 0.1899495174628321 -0.06888458907022071 0.9210331182652366 155 150 149 0.65 79 194 80 188 81 189 82 165 83 174 84 162 85 167 89 204 90 22 91 21 92 20 93 22 94 21 95 19 
655 0.05317438840962557 -0.18554447104344063 0.8744700961948586 156 157 158 0.6 79 195 80 189 81 190 82 166 83 175 84 163 85 168 86 165 87 166 88 201 89 205 90 23 91 22 92 21 93 23 94 22 95 20 96 16 
656 -0.06334831833084455 0.09134726845474138 0.7608165648083187 51 47 50 0.92 79 196 80 190 82 167 83 176 88 202 89 206 90 24 
657 0.36323528825039414 -0.01115601175965762 1.010948798678262 77 71 80 0.84 79 197 80 191 81 191 87 167 88 203 89 207 90 25 91 23 92 22 93 24 94 23 95 21 96 17 
658 -0.06472006164262945 0.06010732724005496 0.7671671644411355 124 136 158 0.32 79 198 80 192 82 168 83 177 88 204 
659 -0.07563014621745208 -0.09093797104200663 0.7796451838539099 49 50 45 1.25 79 199 80 193 82 169 83 178 93 25 94 24 95 22 96 18 
660 0.28739248307421644 0.017256556879517226 0.9568856255042313 86 88 98 1.14 79 200 80 194 81 192 82 170 83 179 84 164 88 205 89 208 90 26 91 24 
661 0.11387032772478956 0.12083515369143118 0.8431081960483464 99 86 84 0.71 79 201 80 195 81 193 82 171 83 180 84 165 85 169 86 166 87 168 88 206 
662 0.021635102813543042 -0.12572422724467475 0.8372069241579445 153 149 147 0.67 79 202 80 196 81 194 82 172 83 181 85 170 86 167 87 169 88 207 89 209 90 27 91 25 92 23 93 26 94 25 95 23 96 19 
663 0.4718574259735182 0.02225421460870132 0.7575015256139963 76 85 49 1.19 79 203 80 197 81 195 83 182 84 166 85 171 86 168 87 170 88 208 89 210 90 28 91 26 
664 -0.005630235881670871 -0.1879751444716758 0.8439156987311239 109 126 150 0.9 79 204 80 198 81 196 82 173 83 183 85 172 86 169 87 171 88 209 89 211 90 29 91 27 92 24 93 27 95 24 96 20 
665 0.1437107109840345 0.004116815487898783 0.8805396998333326 125 117 118 0.64 79 205 80 199 81 197 82 174 83 184 84 167 85 173 86 170 91 28 
666 0.43301946965905425 0.05115695066450227 0.7715871526336885 91 98 79 1.32 79 206 80 200 81 198 82 175 83 185 84 168 85 174 87 172 89 212 91 29 94 26 
667 0.4918392789730779 -0.001770424695742783 0.7528355802486718 74 90 46 1.53 79 207 80 201 81 199 83 186 85 175 87 173 88 210 89 213 90 30 91 30 
668 0.10445599212072078 -0.017198861626793623 0.8627549311793622 86 73 76 0.61 79 208 80 202 81 200 82 176 83 187 84 169 85 176 86 171 93 28 
669 0.1272438392492248 0.01831023069586382 0.888071324019342 61 70 65 0.6 79 209 80 203 81 201 82 177 83 188 84 170 85 177 86 172 91 31 
670 -0.08799887209597826 -0.23263571503316538 0.7950920455470954 140 140 140 0.93 79 210 80 204 82 178 83 189 88 211 89 214 90 31 91 32 92 25 93 29 94 27 95 25 96 21 
671 0.13949872328787308 0.14577831601471716 0.8724747993012656 121 135 145 0.69 79 211 80 205 81 202 82 179 83 190 84 171 85 178 86 173 87 174 
672 0.11623219719205925 -0.2742406255687942 0.9252777471052801 107 89 82 0.65 79 212 80 206 81 203 82 180 83 191 84 172 85 179 86 174 87 175 88 212 89 215 90 32 91 33 92 26 93 30 94 28 95 26 96 22 
673 0.07112712035271489 -0.15243614354881452 0.8772354131693126 151 146 145 0.43 79 213 80 207 81 204 82 181 83 192 84 173 85 180 86 175 87 176 88 213 89 216 90 33 91 34 92 27 93 31 94 29 95 27 96 23 
674 0.09352480332230263 -0.17953143775529593 0.893815287478734 166 166 166 0.45 79 214 80 208 81 205 82 182 83 193 84 174 85 181 86 176 87 177 88 214 89 217 90 34 91 35 92 28 93 32 94 30 95 28 96 24 
675 0.4435863463820505 0.04835162276476696 0.769988510640891 56 70 52 1.1 79 215 80 209 81 206 82 183 83 194 84 175 85 182 87 178 91 36 
676 0.05142104050312359 0.1444956735602776 0.581188529412146 61 68 34 0.81 79 216 82 184 83 195 
677 0.11213725072239938 -0.08042265898161328 0.8760107968418372 54 43 34 0.54 79 217 80 210 81 207 82 185 83 196 84 176 85 183 86 177 88 215 90 35 91 37 92 29 93 33 94 31 95 29 
678 -0.005990822024301665 -0.0005926133542887427 0.7956916829678451 26 22 15 0.28 79 218 80 211 81 208 82 186 83 197 
679 0.14784345404492236 -0.1544953234430811 0.9296752649448607 63 65 67 0.56 79 219 80 212 81 209 82 187 83 198 84 177 85 184 86 178 87 179 88 216 89 218 90 36 91 38 92 30 93 34 94 32 95 30 96 25 
680 0.0015822300776324695 -0.09913766480386169 0.8270891310571743 42 34 43 1.1 79 220 80 213 81 210 82 188 83 199 88 217 89 219 90 37 91 39 92 31 93 35 94 33 95 31 96 26 
681 0.39090249991114573 0.055197764295587516 0.7936643562363498 45 56 28 1.21 80 214 81 211 82 189 83 200 84 178 85 185 87 180 88 218 91 40 
682 0.10500989654609558 -0.1557827976089897 0.8991658815187465 102 103 116 0.45 79 221 80 215 81 212 82 190 83 201 84 179 85 186 86 179 87 181 88 219 89 220 90 38 91 41 92 32 93 36 94 34 95 32 96 27 
683 0.18241063098279683 0.12749504384210747 0.8976253053822149 140 151 164 0.31 79 222 80 216 81 213 82 191 83 202 84 180 85 187 86 180 
684 -0.12634888533873256 -0.23301065095732773 0.7735176806854892 125 116 106 1.05 79 223 82 192 83 203 88 220 89 221 90 39 91 42 92 33 93 37 94 35 95 33 96 28 
685 0.4492511435215825 -0.22401325754843276 1.1112161057278387 168 156 150 0.55 79 224 80 217 81 214 84 181 85 188 86 181 87 182 88 221 89 222 90 40 91 43 92 34 93 38 94 36 95 34 96 29 
686 -0.05212408754227609 -0.009432517049218169 0.7777017526642945 133 131 130 0.47 79 225 80 218 82 193 83 204 
687 0.2920987006359751 -0.11890587349962156 0.9976640617257678 133 144 160 0.5 79 226 80 219 81 215 82 194 83 205 84 182 85 189 86 182 87 183 88 222 89 223 90 41 91 44 92 35 93 39 94 37 95 35 96 30 
688 0.0494875158147005 -0.1497667185141261 0.8621137308354148 44 43 58 0.74 79 227 80 220 81 216 82 195 83 206 84 183 85 190 86 183 87 184 88 223 89 224 90 42 91 45 92 36 93 40 94 38 95 36 96 31 
689 0.38141244711755623 0.051558155662488586 1.0104253098253277 140 142 142 1.15 79 228 80 221 81 217 87 185 88 224 89 225 
690 0.1621527598957685 0.1444833479413694 0.8830264717722018 133 145 160 0.57 79 229 80 222 81 218 82 196 83 207 84 184 85 191 86 184 87 186 
691 0.12489000910818106 0.13620031334517407 0.8456022107638138 140 164 185 0.62 79 230 80 223 81 219 82 197 83 208 84 185 85 192 86 185 87 187 88 225 
692 0.1761080900366322 -0.250217656312697 0.9545222008834715 115 90 92 0.46 79 231 80 224 81 220 82 198 83 209 84 186 85 193 86 186 87 188 88 226 89 226 90 43 91 46 92 37 93 41 94 39 95 37 96 32 
693 0.1090880066171693 0.13372245911830882 0.833151800194378 121 116 118 0.83 79 232 80 225 81 221 82 199 83 210 84 187 85 194 86 187 87 189 89 227 
694 -0.06849949112789154 -0.134778219651235 0.8029280326019572 72 111 140 1.08 79 233 80 226 82 200 83 211 88 227 89 228 91 47 92 38 93 42 94 40 95 38 96 33 
695 0.43623441747311487 0.03400737002653986 0.800044200053885 118 125 101 0.95 79 234 80 227 81 222 82 201 83 212 84 188 85 195 87 190 91 48 
696 0.059604532210556796 -0.23349688175379787 0.8867802329104083 154 148 144 0.64 79 235 80 228 81 223 82 202 83 213 84 189 85 196 86 188 87 191 88 228 89 229 90 44 91 49 92 39 93 43 94 41 95 39 96 34 
697 0.28307780464354715 0.12218384571685903 0.6631587359562902 18 22 14 0.39 79 236 80 229 81 224 82 203 83 214 
698 0.411289569399666 0.06453702125942597 0.7822818417374628 62 72 41 1.32 79 237 80 230 81 225 82 204 83 215 84 190 85 197 87 192 88 229 92 40 
699 0.11494739014720298 0.02061724089186726 0.5247630576547637 108 120 54 1.11 79 238 82 205 83 216 
700 0.2161677711895799 -0.17284742104758105 0.959881228117119 171 171 171 0.55 79 239 80 231 81 226 82 206 83 217 84 191 85 198 86 189 87 193 88 230 89 230 90 45 91 50 92 41 93 44 94 42 95 40 96 35 
701 0.37254810701317403 -0.07093141613653282 1.0281917479557978 100 102 111 0.81 79 240 80 232 81 227 82 207 85 199 86 190 87 194 88 231 89 231 90 46 91 51 92 42 93 45 94 43 95 41 96 36 
702 0.10027843793752213 -0.24683696693221835 0.9130413979271595 58 60 64 0.53 79 241 80 233 81 228 82 208 83 218 84 192 85 200 86 191 87 195 88 232 89 232 90 47 91 52 92 43 93 46 94 44 95 42 96 37 
703 0.36484620193791595 0.11720608255069094 0.9975449642810279 132 140 152 0.94 79 242 80 234 81 229 82 209 83 219 84 193 87 196 
704 0.009007335983055876 -0.016703760007449053 0.8066752348398498 143 144 147 0.34 79 243 80 235 81 230 82 210 83 220 
705 -0.018505591752999984 0.10790446260590693 0.7903645027293325 122 141 158 0.91 79 244 80 236 81 231 82 211 83 221 88 233 89 233 
706 0.10227829370805039 0.14567677295465 0.8118411051509675 128 131 122 1.11 79 245 80 237 81 232 82 212 83 222 84 194 85 201 86 192 88 234 
707 0.6329951341604257 0.09378892532533707 0.9032197052250102 33 45 25 1.59 80 238 81 233 84 195 86 193 87 197 88 235 89 234 90 48 
708 0.5935788396253264 0.13899062139360818 0.8152652841775258 63 89 55 1.58 80 239 81 234 84 196 85 202 89 235 90 49 
709 -0.07612322759755807 -0.2243954947347587 0.8036895422855829 48 48 52 0.57 79 246 80 240 82 213 83 223 88 236 89 236 90 50 91 53 92 44 93 47 94 45 95 43 96 38 
710 -0.06209458799095861 0.11663947169344833 0.766146729406728 115 142 168 0.57 79 247 80 241 82 214 83 224 88 237 89 237 90 51 
711 0.11323790113310628 -0.09304787554196543 0.8822575318828594 94 95 112 0.63 79 248 80 242 81 235 82 215 83 225 84 197 85 203 86 194 89 238 90 52 91 54 92 45 93 48 94 46 95 44 96 39 
712 0.47423619149804797 0.06201906075274528 0.7686246311611951 52 51 44 1.13 79 249 80 243 81 236 83 226 84 198 85 204 86 195 88 238 89 239 90 53 91 55 
713 0.4281644188531252 0.08044620897109431 0.821638016448115 96 93 84 1.35 79 250 80 244 81 237 82 216 83 227 85 205 87 198 88 239 89 240 90 54 91 56 92 46 
714 0.07239702585686568 -0.03741777739764368 0.5478414845275363 74 97 56 1.23 79 251 82 217 83 228 
715 -0.10138897066635265 -0.15522292088390682 0.7795201994847372 57 54 62 1.65 79 252 82 218 83 229 88 240 89 241 90 55 91 57 92 47 93 49 94 47 95 45 96 40 
716 0.5006944379935254 0.12285352486536633 0.8207238264292042 36 39 33 1.18 79 253 80 245 81 238 83 230 84 199 86 196 87 199 88 241 
717 0.4065733527461744 0.16081692274675158 0.677055994580637 43 56 55 1.78 79 254 80 246 81 239 82 219 83 231 
718 0.342129248968956 0.14855221669845142 0.9951002571464235 114 126 139 0.74 79 255 80 247 81 240 82 220 83 232 84 200 85 206 86 197 
719 0.06704636689422067 -0.03805544857647716 0.8446511651192805 147 143 139 0.33 79 256 80 248 81 241 82 221 83 233 84 201 85 207 86 198 93 50 
720 0.3181303064286064 0.01990154127337465 0.9859435718328453 44 40 34 0.88 79 257 80 249 81 242 82 222 87 200 88 242 89 242 90 56 92 48 
721 0.1887493137379535 -0.08035267592476954 0.9198576986823414 114 115 121 0.72 79 258 80 250 81 243 82 223 83 234 84 202 85 208 87 201 88 243 89 243 90 57 91 58 92 49 93 51 94 48 95 46 96 41 
722 0.16174371118618017 0.11405025298178972 0.8896360541760928 129 149 162 0.42 79 259 80 251 81 244 82 224 83 235 84 203 85 209 86 199 87 202 
723 0.7210503709921803 -0.2261692780973404 1.277361200802003 87 74 78 0.32 79 260 80 252 81 245 84 204 85 210 86 200 87 203 88 244 89 244 90 58 91 59 92 50 93 52 94 49 95 47 96 42 
724 0.9043195591330576 0.1777907639354195 1.061566084138864 43 55 39 0.89 88 245 89 245 90 59 91 60 92 51 93 53 94 50 95 48 96 43 
725 0.8085024500469576 0.03329742233246528 1.2733049547207278 125 125 131 0.71 80 253 81 246 84 205 85 211 86 201 87 204 88 246 89 246 90 60 91 61 92 52 93 54 94 51 95 49 96 44 97 4 99 2 
726 0.7064012782211722 0.18515009688175174 0.8040434703840229 26 36 26 0.07 89 247 90 61 91 62 
727 0.5731006145094062 -0.22788003029017925 1.186922591209917 152 154 155 0.34 79 261 80 254 81 247 84 206 85 212 86 202 87 205 88 247 89 248 90 62 91 63 92 53 93 55 94 52 95 50 96 45 
728 0.46852883923393535 -0.14346474020431696 1.1167143619261504 49 46 54 0.4 79 262 80 255 81 248 84 207 85 213 86 203 87 206 88 248 89 249 90 63 91 64 92 54 93 56 94 53 95 51 96 46 97 5 
729 0.7832096610832506 -0.15414322927857774 1.6223302380733529 83 93 76 1.54 87 207 88 249 89 250 90 64 92 55 93 57 
730 0.7891754607803048 -0.006355487703135538 1.2682428636425809 127 123 121 0.59 79 263 80 256 81 249 84 208 85 214 86 204 87 208 88 250 89 251 90 65 91 65 92 56 93 58 94 54 95 52 96 47 97 6 99 3 
731 0.7403031122950162 0.09506311602359611 1.2205090828525553 111 126 149 0.43 88 251 89 252 90 66 91 66 92 57 93 59 94 55 95 53 
732 0.619049665229538 0.13210317211799866 0.8245237561633175 32 44 29 1.15 85 215 86 205 87 209 88 252 89 253 90 67 91 67 
733 0.8137504634820024 -0.00037939682379356933 1.2841662444950688 133 130 129 0.55 79 264 80 257 81 250 84 209 85 216 86 206 87 210 88 253 89 254 90 68 91 68 92 58 93 60 94 56 95 54 96 48 97 7 99 4 
734 0.9151241077102312 0.16762116165718108 1.0272178952388975 29 36 26 0.72 87 211 88 254 89 255 90 69 91 69 92 59 93 61 94 57 
735 -0.07708380845670185 -0.1665559731835968 0.801849141452191 84 75 83 0.86 79 265 80 258 82 225 83 236 88 255 89 256 90 70 91 70 92 60 93 62 94 58 95 55 96 49 
736 0.8557504691765337 0.10616557696612955 0.9624997003215018 27 34 33 0.55 87 212 88 256 89 257 90 71 91 71 92 61 93 63 94 59 
737 0.7761161919107405 -0.16866631778071398 1.2983710207472066 145 141 139 0.34 79 266 80 259 81 251 84 210 85 217 86 207 87 213 88 257 89 258 90 72 91 72 92 62 93 64 94 60 95 56 96 50 
738 0.7597865201103814 -0.0877695063413259 1.2705650308080487 97 95 102 0.33 79 267 80 260 81 252 84 211 85 218 86 208 87 214 88 258 89 259 90 73 91 73 92 63 93 65 94 61 95 57 96 51 
739 0.4297540956602362 -0.12623433129093872 1.0726533220502408 49 52 66 0.5 79 268 80 261 81 253 83 237 84 212 85 219 86 209 87 215 88 259 89 260 90 74 91 74 92 64 93 66 94 62 95 58 96 52 97 8 
740 0.5742009891742259 0.04878982619663062 0.8622596190287636 95 105 71 0.89 84 213 85 220 86 210 87 216 88 260 89 261 90 75 91 75 92 65 93 67 94 63 
741 0.6175381930785742 0.024520334147642132 1.1597811068112218 123 114 112 0.78 81 254 84 214 85 221 86 211 87 217 88 261 89 262 90 76 91 76 92 66 93 68 94 64 95 59 96 53 
742 0.29431132211141475 -0.08834462366401047 0.9975485027118565 103 104 116 0.71 79 269 80 262 81 255 82 226 83 238 84 215 85 222 86 212 87 218 88 262 89 263 90 77 91 77 92 67 93 69 94 65 95 60 96 54 
743 0.26990009042460766 -0.2803950534894381 1.0150528511080037 62 56 55 0.4 79 270 80 263 81 256 82 227 84 216 85 223 86 213 87 219 88 263 89 264 90 78 91 78 92 68 93 70 94 66 95 61 
744 0.7554859832158219 0.11583166805584887 1.4036555500859262 151 157 134 1.04 88 264 89 265 90 79 91 79 
745 -0.42493166024113166 -0.3132825824332965 0.6011290002377586 110 112 100 1.3 82 228 83 239 89 266 90 80 91 80 92 69 93 71 94 67 95 62 
746 0.616140912429185 0.15843832434789412 0.7914849520494005 58 85 54 1.32 88 265 89 267 90 81 91 81 
747 0.9340234903547906 0.17744772312815862 1.22922685855571 85 94 92 1.1 89 268 90 82 91 82 92 70 93 72 94 68 95 63 96 55 
748 0.9329288807748879 0.20270712306490413 1.0771992356695623 24 34 24 0.81 88 266 89 269 90 83 91 83 92 71 93 73 94 69 95 64 96 56 
749 0.5419723376432516 -0.1359172660614243 1.1531744362861522 100 105 115 0.27 79 271 80 264 81 257 84 217 85 224 86 214 87 220 88 267 89 270 90 84 91 84 92 72 93 74 94 70 95 65 96 57 
750 0.9157219160706306 0.17658431114123166 1.0950082530715572 36 46 29 0.75 88 268 89 271 90 85 91 85 92 73 93 75 94 71 95 66 96 58 
751 0.3615929422503124 -0.14155508296940159 1.0435471512720849 139 139 140 0.54 79 272 80 265 81 258 82 229 83 240 84 218 85 225 86 215 87 221 88 269 89 272 90 86 91 86 92 74 93 76 94 72 95 67 96 59 97 9 
752 0.5685148894025587 -0.09795359511648934 1.156854668340795 166 167 166 0.38 80 266 81 259 84 219 85 226 86 216 87 222 88 270 89 273 90 87 91 87 92 75 93 77 94 73 95 68 96 60 
753 0.8932347470727177 0.17772099553262574 1.000338936061794 26 28 23 0.53 87 223 88 271 89 274 90 88 91 88 92 76 93 78 94 74 
754 0.7275810298158963 -0.24443201284945323 1.2835218767401013 103 71 68 0.38 79 273 80 267 81 260 84 220 85 227 86 217 87 224 88 272 89 275 90 89 91 89 92 77 93 79 94 75 95 69 
755 0.7893221234216105 -0.2489245170098341 1.3771043728720829 105 124 132 0.72 87 225 88 273 89 276 90 90 91 90 92 78 93 80 
756 0.7500637885988076 -0.1362694337569466 1.2758916427111882 154 153 153 0.35 79 274 80 268 81 261 84 221 85 228 86 218 87 226 88 274 89 277 90 91 91 91 92 79 93 81 94 76 95 70 96 61 
757 0.5473857388998683 0.06408274581592982 0.8013809580267263 146 151 150 1.24 79 275 80 269 84 222 85 229 86 219 87 227 88 275 89 278 90 92 91 92 92 80 93 82 
758 -0.25187409126524474 -0.26509978407686274 0.7087587050224476 66 69 73 1.06 82 230 83 241 88 276 89 279 90 93 91 93 92 81 93 83 94 77 95 71 96 62 
759 0.46671236691345214 -0.1392730421602073 1.109485053441882 84 84 91 0.39 79 276 80 270 81 262 84 223 85 230 86 220 87 228 88 277 89 280 90 94 91 94 92 82 93 84 94 78 95 72 96 63 97 10 
760 0.4787653710325752 -0.08062732567144143 1.103059486688516 65 60 70 0.51 79 277 84 224 85 231 86 221 87 229 88 278 89 281 90 95 91 95 92 83 93 85 94 79 95 73 96 64 97 11 
761 0.884945029171125 0.1985241038006879 0.9734387158204978 61 87 41 1.22 89 282 90 96 91 96 92 84 93 86 94 80 
762 0.5891958031269583 -0.22327015432401465 1.193828251263897 148 145 145 0.26 79 278 80 271 81 263 84 225 85 232 86 222 87 230 88 279 89 283 90 97 91 97 92 85 93 87 94 81 95 74 96 65 
763 0.4509078205738451 -0.16090576374661084 1.0995488136180103 154 159 159 0.49 79 279 80 272 81 264 83 242 84 226 85 233 86 223 87 231 88 280 89 284 90 98 91 98 92 86 93 88 94 82 95 75 96 66 97 12 
764 -0.35706854672989835 -0.2641738915004126 0.6459207303818187 30 24 24 0.89 82 231 83 243 88 281 89 285 90 99 91 99 92 87 93 89 94 83 95 76 
765 0.8221561367209751 0.09268137412295008 1.0777543027108 26 39 21 0.4 87 232 88 282 89 286 90 100 91 100 92 88 93 90 94 84 95 77 96 67 97 13 
766 0.745038129041986 0.17891861752098945 0.855041345640384 20 34 27 0.7 88 283 89 287 90 101 91 101 92 89 
767 0.9344143133713073 0.21012940784898224 1.173551368160054 41 54 42 0.85 89 288 90 102 91 102 92 90 93 91 94 85 95 78 96 68 97 14 
768 0.8539687124112718 -0.18342805075870022 1.5036050045612577 178 191 203 1.64 86 224 87 233 88 284 89 289 91 103 92 91 93 92 
769 0.3633024435583257 -0.0881834889530992 1.033689782115123 148 152 155 0.56 79 280 80 273 81 265 82 232 84 227 85 234 86 225 87 234 88 285 89 290 90 103 91 104 92 92 93 93 94 86 95 79 96 69 
770 0.7775227117081506 -0.08590801423521699 1.2810281086076702 94 88 96 0.58 79 281 80 274 81 266 84 228 85 235 86 226 87 235 88 286 89 291 90 104 91 105 92 93 93 94 94 87 95 80 96 70 97 15 99 5 
