# 3D point list with one line of data per point:
#   POINT3D_ID, X, Y, Z, R, G, B, ERROR, TRACK[] as (IMAGE_ID, POINT2D_IDX)
# Number of points: 321, mean track length: 10.58
3733 -0.20299455624970916 0.052249080616164165 0.6938718211341912 0 0 0 0.35 24 1659 57 1287 59 1208 94 789 116 1189 125 1177 143 791 166 1164 167 569 178 583 202 856 225 441 228 1116 
3734 -0.3273646308038076 0.04425651273743475 0.5519518889719508 0 0 0 0.07 24 1660 125 1178 139 738 
3735 -0.2983672360267817 0.07567046036729906 0.7006266787826436 0 0 0 0.21 24 1661 48 102 131 753 
3736 -0.3470404425341881 0.04736191048957306 0.5359276070900975 0 0 0 0.38 24 1662 58 587 119 725 125 1179 139 739 167 570 178 584 189 728 191 736 211 753 218 1268 228 1117 
3737 -0.3427943154541736 0.04912522908615349 0.5418205069740869 0 0 0 0.48 24 1663 58 588 59 1209 139 740 154 786 167 571 202 857 211 754 
3738 -0.3467715062484279 0.05182978453894519 0.5335655369171158 0 0 0 0.26 24 1664 58 589 119 726 125 1180 139 741 189 729 211 755 228 1118 
3739 -0.27663084614729005 0.06776238369905055 0.6381167637054519 0 0 0 0.37 24 1665 125 1181 166 1165 180 1163 
3740 -0.2012836455963688 0.07073273479017449 0.6882582672914037 0 0 0 0.36 7 525 8 2337 18 748 24 1666 34 774 51 200 57 1288 58 590 59 1210 94 790 116 1190 125 1182 144 1167 151 1215 166 1166 171 543 191 737 193 1082 202 858 211 756 216 895 218 1269 225 442 228 1119 
3741 -0.11938237227306966 0.07575545666864471 0.7464740056687539 0 0 0 0.38 24 1667 59 1211 180 1164 225 443 
3742 -0.21912075354495444 0.07377185430079422 0.6830115311325642 0 0 0 0.27 24 1668 143 792 153 348 173 1108 168 205 
3743 0.6695958759399762 0.11350083398879804 1.1458747362680268 0 0 0 0.57 24 1669 31 1124 55 794 59 1212 72 891 86 879 99 765 102 834 115 366 122 287 131 754 133 286 137 506 139 742 140 976 144 1168 150 451 166 1167 177 961 178 585 180 1165 189 730 202 859 205 484 212 644 216 896 228 1120 233 508 23 1391 106 930 
3744 -0.3551764543571183 0.06892536500769708 0.5180782333701153 0 0 0 0.25 24 1670 191 738 218 1270 
3745 -0.18610357177767048 0.09301818415260771 0.6876852779799765 0 0 0 0.3 24 1671 171 544 211 757 
3746 -0.2063595492890567 0.09597496042601582 0.6759392094387144 0 0 0 0.49 24 1672 59 1213 125 1183 143 793 173 1109 
3747 -0.33806435649547334 0.07441578960055512 0.5323219272901706 0 0 0 0.42 24 1673 58 591 119 727 191 739 211 758 
3748 -0.13916291998700014 0.10241344241907116 0.7190812819792005 0 0 0 0.33 24 1674 37 536 59 1214 86 880 143 794 144 1169 153 349 166 1168 167 572 191 740 211 759 218 1271 
3749 -0.29916911073111496 0.11322294904847488 0.6766999082650919 0 0 0 0.26 24 1675 167 573 189 731 228 1121 
3750 0.3213595666320724 0.14936890210748976 1.0279969851856232 0 0 0 0.25 24 1676 34 775 59 1215 94 791 99 766 116 1191 117 193 145 647 151 1216 161 460 177 962 183 472 218 1272 
3751 -0.2741228933098126 0.1020199225427755 0.6168560953768865 0 0 0 0.35 24 1677 180 1166 202 860 
3752 0.4504707597198684 0.1666500105318028 1.1138303652535042 0 0 0 0.34 24 1678 119 728 210 373 
3753 0.8595724872368108 0.06721349822387966 0.8900888308307293 0 0 0 0.34 24 1679 57 1289 177 963 
3754 -0.25466403100473284 0.09927020605707239 0.6093216506051321 0 0 0 0.43 24 1680 125 1184 151 1217 171 545 
3755 0.22124084770453778 0.13738821283123642 0.9204308144762388 0 0 0 0.37 24 1681 30 561 31 1125 55 795 57 1290 119 729 140 977 145 648 151 1218 154 787 161 461 173 1110 183 473 189 732 191 741 193 1083 205 485 210 374 18 749 106 931 143 795 72 892 
3756 0.36537791235369677 0.1624098163085701 1.0546219527750043 0 0 0 0.25 24 1682 57 1291 102 835 154 788 178 586 168 206 
3757 0.4109496106153456 0.17049938070378165 1.0799677807457029 0 0 0 0.21 24 1683 86 881 94 792 99 767 178 587 
3758 -0.2546554049733027 0.10596189839528163 0.6062605632199106 0 0 0 0.27 24 1684 145 649 193 1084 212 645 
3759 0.4267607430115879 0.17693291088597757 1.090324272541209 0 0 0 0.4 24 1685 57 1292 72 893 86 882 94 793 115 367 116 1192 131 755 144 1170 177 964 178 588 215 550 102 836 218 1273 117 194 145 650 151 1219 173 1111 
3760 0.6670692574216845 0.16723723671559662 1.136570052983695 0 0 0 0.3 8 2338 24 1686 31 1126 57 1293 59 1216 99 768 102 837 116 1193 119 730 131 756 137 507 140 978 143 796 144 1171 150 452 161 462 177 965 178 589 180 1167 189 733 191 742 193 1085 216 897 225 444 228 1122 233 509 23 1392 55 796 106 932 68 340 202 861 
3761 0.6601912228116468 0.1694856841712784 1.1404746191738924 0 0 0 0.46 24 1687 31 1127 57 1294 59 1217 140 979 150 453 166 1169 178 590 189 734 233 510 106 933 193 1086 
3762 0.6790015135621881 0.15804008040663442 1.1112155787768527 0 0 0 0.44 8 2339 24 1688 31 1128 57 1295 59 1218 99 769 115 368 116 1194 119 731 137 508 139 743 144 1172 145 651 150 454 178 591 180 1168 189 735 202 862 210 375 212 646 216 898 225 445 228 1123 161 463 233 511 23 1393 55 797 102 838 106 934 131 757 177 966 
3763 0.4953041544703599 0.1792863630591788 1.1105997417185933 0 0 0 0.5 24 1689 34 776 59 1219 94 794 99 770 140 980 144 1173 150 455 180 1169 193 1087 202 863 215 551 216 899 218 1274 233 512 102 839 106 935 137 509 151 1220 177 967 178 592 212 647 
3764 0.5057250414989563 0.17844524124771313 1.1149751880466086 0 0 0 0.27 24 1690 180 1170 210 376 
3765 0.3621609154144478 0.17683644916356506 1.0503637440341071 0 0 0 0.34 24 1691 99 771 121 120 144 1174 210 377 212 648 
3766 -0.2945446264398607 0.13084139561870062 0.6696345660319583 0 0 0 0.46 24 1692 48 103 180 1171 
3767 0.8882701505593529 0.07418211635826728 0.833502183088089 0 0 0 0.22 24 1693 31 1129 150 456 106 936 
3768 -0.3651838280175065 0.091203612132012 0.5008852804699852 0 0 0 0.74 24 1694 125 1185 191 743 228 1124 58 592 59 1220 167 574 
3769 -0.14076024094991807 0.13020343142663307 0.7054412518771431 0 0 0 0.37 24 1695 131 758 153 350 173 1112 180 1172 218 1275 226 683 
3770 0.7207824410664672 0.14153235176057888 1.0172099288501428 0 0 0 0.39 24 1696 57 1296 145 652 161 464 180 1173 55 798 72 894 106 937 119 732 137 510 216 900 233 513 139 744 140 981 150 457 189 736 68 341 102 840 
3771 0.17670768855528443 0.15056891646904516 0.8777339592396033 0 0 0 0.41 24 1697 94 795 99 772 121 121 131 759 180 1174 210 378 106 938 144 1175 154 789 205 486 212 649 215 552 
3772 0.6327941819863783 0.19844532649198213 1.1785211721247968 0 0 0 0.43 24 1698 57 1297 59 1221 86 883 99 773 115 369 119 733 122 288 137 511 139 745 144 1176 150 458 166 1170 180 1175 186 203 189 737 191 744 202 864 211 760 212 650 228 1125 233 514 
3773 0.22064375543888365 0.15880742242370366 0.9096315687691795 0 0 0 0.18 24 1699 99 774 119 734 140 982 180 1176 
3774 0.627124418492635 0.20679644524850127 1.196476445326099 0 0 0 0.34 24 1700 31 1130 125 1186 186 204 202 865 
3775 0.8641126762687638 0.09412624529378429 0.86796606441742 0 0 0 0.14 24 1701 57 1298 189 738 
3776 0.9476216640054025 0.06523226150236404 0.7897995018912846 0 0 0 0.45 24 1702 31 1131 191 745 
3777 -0.29752382981154807 0.13768534600471374 0.6667833651393392 0 0 0 0.17 24 1703 48 104 59 1222 167 575 173 1113 180 1177 
3778 0.7124364798173239 0.15297600798929445 1.0191354359382256 0 0 0 0.31 24 1704 59 1223 144 1177 145 653 150 459 180 1178 233 515 
3779 0.6026514329312636 0.2156240201939833 1.1929555894333737 0 0 0 0.72 24 1705 57 1299 115 370 137 512 144 1178 212 651 215 553 228 1126 
3780 0.6370456643204505 0.21274951063895456 1.1664755361124548 0 0 0 0.37 24 1706 31 1132 57 1300 86 884 99 775 115 371 119 735 122 289 137 513 139 746 144 1179 150 460 166 1171 186 205 191 746 202 866 210 379 211 761 212 652 228 1127 
3781 0.6104729214478589 0.2333405379238541 1.2139151470592409 0 0 0 0.48 24 1707 46 489 57 1301 59 1224 121 122 122 290 137 514 139 747 144 1180 166 1172 178 593 180 1179 186 206 210 380 228 1128 68 342 151 1221 212 653 115 372 168 207 
3782 -0.00830271878552836 0.15921476063703963 0.7891107296495513 0 0 0 0.31 24 1708 59 1225 86 885 99 776 131 760 140 983 144 1181 149 708 153 351 173 1114 177 968 183 474 225 446 226 684 7 526 34 777 46 490 58 593 90 196 116 1195 132 264 145 654 167 576 174 231 189 739 202 867 212 654 218 1276 
3783 0.8277546171588943 0.12540069766592968 0.9026315629680225 0 0 0 0.57 8 2340 24 1709 99 777 150 461 191 747 68 343 31 1133 55 799 78 107 80 42 
3784 0.9514541529363032 0.07925837375239411 0.7740342810330082 0 0 0 0.13 24 1710 189 740 191 748 
3785 0.9943112697466351 0.06605002261899423 0.726427406174011 0 0 0 0.64 24 1711 30 562 150 462 106 939 
3786 -0.2522927258346915 0.1255328931788343 0.5963736803291929 0 0 0 0.23 24 1712 59 1226 139 748 151 1222 228 1129 
3787 0.953847569617332 0.08778036826058436 0.7805852503828294 0 0 0 0.22 24 1713 140 984 189 741 191 749 
3788 0.6036809460590433 0.24524406500443527 1.2113089779630364 0 0 0 0.45 24 1714 31 1134 46 491 57 1302 59 1227 86 886 99 778 119 736 122 291 125 1187 131 761 137 515 139 749 143 797 144 1182 150 463 151 1223 166 1173 186 207 202 868 211 762 215 554 216 901 233 516 68 344 
3789 0.2730163404346404 0.19890922501593603 0.973325540488412 0 0 0 0.34 24 1715 31 1135 99 779 116 1196 149 709 154 790 177 969 178 594 215 555 218 1277 225 447 72 895 191 750 37 537 55 800 106 940 119 737 137 516 145 655 183 475 216 902 
3790 1.0469210204931434 0.050762121480911575 0.6705134255436681 0 0 0 0.39 24 1716 31 1136 177 970 150 464 189 742 106 941 
3791 1.0614644955361616 0.048228531057190424 0.6678558497747185 0 0 0 0.67 24 1717 177 971 189 743 57 1303 31 1137 55 801 106 942 
3792 0.7542438196205835 0.1664331620831767 0.9747042200226916 0 0 0 0.21 24 1718 30 563 99 780 
3793 0.37769905493855316 0.2186930950366861 1.0466373041611747 0 0 0 0.47 8 2341 24 1719 57 1304 72 896 86 887 94 796 115 373 116 1197 121 123 131 762 143 798 149 710 154 791 166 1174 177 972 193 1088 215 556 216 903 218 1278 226 685 34 778 55 802 59 1228 106 943 122 292 140 985 151 1224 173 1115 225 448 
3794 0.6070890515477748 0.24925910831530795 1.2052470117792655 0 0 0 0.53 8 2342 24 1720 31 1138 46 492 57 1305 59 1229 86 888 99 781 119 738 122 293 125 1188 131 763 137 517 139 750 144 1183 150 465 151 1225 166 1175 178 595 180 1180 186 208 189 744 202 869 211 763 212 655 215 557 216 904 228 1130 233 517 55 803 102 841 106 944 140 986 173 1116 177 973 193 1089 117 195 218 1279 68 345 30 564 154 792 174 232 
3795 0.9680596268725795 0.08322530138061708 0.7484636459112723 0 0 0 0.46 24 1721 30 565 31 1139 57 1306 150 466 189 745 23 1394 55 804 106 945 177 974 78 108 
3796 0.4044789223874142 0.22222482500552104 1.0657137942305754 0 0 0 0.52 24 1722 102 842 180 1181 34 779 106 946 151 1226 178 596 191 751 215 558 228 1131 
3797 0.15397191455612622 0.18361126706533645 0.8536881639404774 0 0 0 0.43 24 1723 121 124 139 751 151 1227 178 597 215 559 
3798 0.9843292433460644 0.08759916116983621 0.7303179611397319 0 0 0 0.28 24 1724 150 467 177 975 57 1307 78 109 
3799 1.0166104694804636 0.07752108260133002 0.701987378743546 0 0 0 0.41 24 1725 55 805 57 1308 
3800 0.3011322058941023 0.21833778282082375 0.9860124405930665 0 0 0 0.41 24 1726 30 566 34 780 59 1230 99 782 116 1198 140 987 173 1117 177 976 178 598 180 1182 183 476 189 746 202 870 218 1280 228 1132 72 897 106 947 139 752 143 799 149 711 226 686 
3801 0.8182418288263597 0.15655857335164383 0.9003993751316296 0 0 0 0.48 24 1727 191 752 202 871 
3802 0.6295580891631984 0.2526414084939496 1.1583822399578931 0 0 0 0.42 24 1728 59 1231 99 783 115 374 119 739 122 294 131 764 144 1184 171 546 180 1183 189 747 191 753 202 872 210 381 212 656 233 518 106 948 137 518 140 988 173 1118 193 1090 68 346 166 1176 228 1133 
3803 0.5997456052519705 0.2683490964400846 1.1948594600693596 0 0 0 0.46 24 1729 125 1189 137 519 150 468 228 1134 233 519 23 1395 106 949 140 989 173 1119 193 1091 215 560 68 347 
3804 -0.33785967684060214 0.12022749105279917 0.5127932865087574 0 0 0 0.3 8 2343 24 1730 51 201 59 1232 125 1190 139 753 191 754 202 873 
3805 0.9339643794422988 0.11586814102433583 0.7778679434266543 0 0 0 0.29 24 1731 189 748 191 755 
3806 0.7552515757399049 0.18850452919254193 0.9606021217474852 0 0 0 0.28 24 1732 31 1140 59 1233 72 898 99 784 140 990 180 1184 202 874 233 520 80 43 
3807 0.6283870312842855 0.25490045326229127 1.1410479555587645 0 0 0 0.42 24 1733 59 1234 115 375 119 740 139 754 140 991 144 1185 189 749 191 756 202 875 212 657 228 1135 116 1199 137 520 216 905 68 348 
3808 0.7182003498449008 0.20661460850534896 1.0076358516255122 0 0 0 0.44 24 1734 99 785 140 992 228 1136 119 741 72 899 78 110 
3809 0.8077979894396481 0.1755066779441981 0.9047681868292357 0 0 0 0.39 24 1735 57 1309 177 977 189 750 191 757 78 111 
3810 0.7524169354539232 0.1965925774383662 0.9529267990357518 0 0 0 0.5 24 1736 30 567 115 376 150 469 180 1185 191 758 202 876 23 1396 59 1235 106 950 57 1310 68 349 233 521 55 806 140 993 168 208 
3811 0.5059503599890679 0.2565438673045851 1.0849750764607111 0 0 0 0.17 24 1737 131 765 166 1177 
3812 0.7105407845061206 0.21948467349273407 1.0105284312291793 0 0 0 0.59 24 1738 31 1141 99 786 115 377 119 742 137 521 139 755 140 994 150 470 154 793 161 465 180 1186 189 751 216 906 225 449 233 522 106 951 55 807 68 350 228 1137 
3813 0.7310659682295948 0.20819426669325775 0.9820195623210881 0 0 0 0.32 24 1739 140 995 180 1187 233 523 106 952 137 522 150 471 72 900 171 547 68 351 143 800 168 209 191 759 
3814 0.772805102829301 0.1916162507783452 0.9368144009961791 0 0 0 0.62 24 1740 31 1142 189 752 191 760 202 877 216 907 30 568 106 953 140 996 150 472 225 450 143 801 
3815 -0.11307836038044537 0.1777779916869371 0.713288268985043 0 0 0 0.28 24 1741 58 594 140 997 180 1188 202 878 218 1281 
3816 0.8979028211332601 0.14820828401929434 0.8147087765370302 0 0 0 0.43 24 1742 115 378 140 998 189 753 202 879 
3817 0.6960093680291315 0.23509212015004344 1.0271840189539347 0 0 0 0.39 24 1743 59 1236 140 999 150 473 180 1189 202 880 189 754 
3818 0.8273438822148461 0.17984741031493467 0.8812644682329162 0 0 0 0.28 24 1744 189 755 202 881 106 954 
3819 0.9035656409950702 0.15141975614649505 0.8086457919419406 0 0 0 0.47 24 1745 115 379 140 1000 202 882 
3820 0.7109448691783581 0.22840196717144318 1.004298061205124 0 0 0 0.38 24 1746 30 569 55 808 59 1237 140 1001 57 1311 106 955 68 352 150 474 228 1138 
3821 0.7132131882338645 0.2294483963621048 0.9948957848972951 0 0 0 0.22 24 1747 30 570 57 1312 144 1186 
3822 -0.0773746029782994 0.1925311441792543 0.7345179820224731 0 0 0 0.28 24 1748 143 802 153 352 171 548 173 1120 216 908 226 687 
3823 0.7320125019426387 0.2251676774533627 0.9734455879761279 0 0 0 0.5 24 1749 119 743 137 523 140 1002 150 475 189 756 78 112 
3824 -0.27077512212438193 0.15646034775916548 0.5871762786396428 0 0 0 0.47 24 1750 191 761 202 883 
3825 0.3288396826385615 0.25299008593657235 0.9804431929092244 0 0 0 0.92 24 1751 99 787 121 125 
3826 0.6327585222142273 0.2931294690619143 1.1331535391374554 0 0 0 0.34 24 1752 59 1238 139 756 150 476 193 1092 202 884 57 1313 99 788 102 843 119 744 131 766 137 524 144 1187 177 978 178 599 180 1190 186 209 189 757 191 762 210 382 212 658 216 909 226 688 30 571 68 353 
3827 0.6082107612763541 0.3120567071037247 1.1774825121281016 0 0 0 0.36 24 1753 57 1314 59 1239 122 295 150 477 186 210 189 758 191 763 202 885 233 524 30 572 68 354 99 789 139 757 143 803 212 659 226 689 
3828 1.0451280827166605 0.11497042672276953 0.6653134514984065 0 0 0 0.43 24 1754 30 573 57 1315 189 759 23 1397 55 809 106 956 
3829 1.0590988526185503 0.10974916616340366 0.6528050908478393 0 0 0 0.47 24 1755 30 574 31 1143 57 1316 189 760 106 957 
3830 1.056797852132391 0.10530062927895688 0.6406783053060582 0 0 0 0.78 24 1756 57 1317 189 761 30 575 106 958 78 113 
3831 1.0244388071560628 0.12278030384645135 0.6840473286573612 0 0 0 0.46 24 1757 30 576 57 1318 23 1398 106 959 
3832 1.0390716757425706 0.1179252898973458 0.6723841411026997 0 0 0 0.34 24 1758 30 577 31 1144 
3833 -0.1437471326597613 0.18987351011083115 0.6850036094900869 0 0 0 0.19 24 1759 48 105 51 202 58 595 153 353 
3834 0.6231459126849525 0.3078373874506518 1.1462579550759209 0 0 0 0.29 24 1760 30 578 31 1145 59 1240 99 790 119 745 122 296 137 525 140 1003 143 804 150 478 154 794 171 549 177 979 178 600 180 1191 186 211 189 762 191 764 193 1093 202 886 210 383 212 660 226 690 106 960 173 1121 68 355 72 901 
3835 0.6167007311163158 0.314076392344102 1.1605105596664347 0 0 0 0.38 24 1761 59 1241 99 791 119 746 143 805 171 550 215 561 137 526 191 765 228 1139 
3836 1.0467559212529411 0.11618808613112068 0.6510373054485442 0 0 0 0.49 24 1762 30 579 31 1146 177 980 55 810 106 961 
3837 1.071379777846713 0.11783338320987616 0.6584493857209738 0 0 0 0.47 24 1763 30 580 55 811 57 1319 189 763 
3838 1.0371474713285083 0.11946351392638363 0.657298669512737 0 0 0 0.54 24 1764 30 581 31 1147 55 812 189 764 23 1399 106 962 78 114 
3839 -0.33032407294722704 0.14153955295701964 0.5043120292831299 0 0 0 0.16 24 1765 125 1191 202 887 228 1140 
3840 0.8210315607572937 0.20402712726299804 0.8494687189928486 0 0 0 0.65 24 1766 99 792 115 380 
3841 0.8551348749765552 0.19630563232302636 0.8361332535680194 0 0 0 0.23 24 1767 140 1004 177 981 68 356 
3842 0.9461564733057521 0.16494952129637525 0.7477348904250913 0 0 0 0.51 24 1768 31 1148 55 813 57 1320 115 381 177 982 189 765 106 963 
3843 -0.22778810063349716 0.16988100297280906 0.5859986081207114 0 0 0 0.22 24 1769 57 1321 125 1192 191 766 
3844 -0.1723747629183902 0.1781578420637928 0.6152547103987579 0 0 0 0.24 24 1770 153 354 173 1122 180 1192 
3845 0.6509718641309808 0.3077643068980104 1.0978207195840868 0 0 0 0.44 8 2344 24 1771 57 1322 59 1242 72 902 102 844 121 126 139 758 144 1188 177 983 178 601 180 1193 189 766 191 767 211 764 212 661 23 1400 68 357 
3846 0.889225331383985 0.19147550611357203 0.7974394863766622 0 0 0 0.29 24 1772 99 793 189 767 202 888 140 1005 106 964 
3847 0.8797930604049902 0.19501780813560396 0.8037421346558935 0 0 0 0.24 24 1773 99 794 140 1006 189 768 191 768 
3848 0.9303977581885873 0.1813035574497359 0.7684246766547562 0 0 0 0.31 24 1774 30 582 115 382 
3849 -0.13097150872041374 0.2026014207892087 0.6820975316675901 0 0 0 0.72 24 1775 59 1243 173 1123 
3850 0.6943217542783551 0.28115419445415185 1.013474004601042 0 0 0 0.51 8 2345 24 1776 30 583 31 1149 57 1323 59 1244 99 795 102 845 115 383 119 747 139 759 140 1007 144 1189 145 656 150 479 154 795 161 466 177 984 180 1194 189 769 191 769 212 662 216 910 23 1401 106 965 143 806 168 210 
3851 0.36868599407262204 0.2964222958774109 1.0078478677670255 0 0 0 0.76 24 1777 59 1245 99 796 140 1008 166 1178 178 602 210 384 23 1402 34 781 55 814 72 903 94 797 106 966 116 1200 143 807 177 985 193 1094 215 562 226 691 8 2346 117 196 151 1228 
3852 -0.27561826702510017 0.1803592502631749 0.5892209422342704 0 0 0 0.43 24 1778 46 493 59 1246 125 1193 151 1229 166 1179 191 770 211 765 
3853 0.936300076020804 0.18486358550657703 0.7517851609816214 0 0 0 0.33 24 1779 57 1324 191 771 
3854 0.9437563847141022 0.18031860398747182 0.7390029748200502 0 0 0 0.5 23 1403 24 1780 55 815 57 1325 
3855 0.880883215091909 0.20801523438111613 0.7997688056151397 0 0 0 0.57 24 1781 57 1326 202 889 99 797 115 384 140 1009 189 770 191 772 
3856 -0.24771215135464572 0.17264189008619213 0.5625414693854873 0 0 0 0.33 24 1782 58 596 173 1124 212 663 
3857 0.6324083919771873 0.33310798574664835 1.1141766909871178 0 0 0 0.3 24 1783 30 584 31 1150 57 1327 59 1247 99 798 116 1201 119 748 139 760 140 1010 144 1190 150 480 154 796 177 986 178 603 180 1195 193 1095 216 911 72 904 137 527 143 808 186 212 189 771 191 773 212 664 228 1141 106 967 173 1125 68 358 202 890 226 692 
3858 -0.3505624039824254 0.14872071906820783 0.48344523471951395 0 0 0 0.38 24 1784 48 106 125 1194 167 577 191 774 228 1142 
3859 0.15032647325166218 0.251652592689625 0.8284140336588018 0 0 0 0.54 24 1785 59 1248 99 799 166 1180 171 551 178 604 180 1196 211 766 55 816 106 968 140 1011 177 987 193 1096 212 665 233 525 31 1151 37 538 46 494 68 359 90 197 122 297 183 477 186 213 
3860 0.643516786640951 0.32570387969411163 1.0929771609857055 0 0 0 0.34 24 1786 31 1152 57 1328 59 1249 99 800 137 528 139 761 143 809 144 1191 177 988 189 772 191 775 193 1097 228 1143 68 360 72 905 150 481 216 912 
3861 0.6842315069217326 0.31123481352907745 1.0462214219470063 0 0 0 0.18 24 1787 99 801 150 482 
3862 1.0152928594979334 0.17086205420382414 0.6920268399306785 0 0 0 0.3 24 1788 57 1329 177 989 
3863 0.7614771484619509 0.27257625644456646 0.9313527300988008 0 0 0 0.31 24 1789 59 1250 99 802 140 1012 150 483 57 1330 78 115 
3864 0.8989441614139464 0.21318931881117628 0.778869252599355 0 0 0 0.8 24 1790 57 1331 115 385 
3865 -0.27977257791072146 0.18941438812066702 0.5811145432022851 0 0 0 0.41 24 1791 153 355 180 1197 
3866 0.9004094370651562 0.2174209515115254 0.7729755047381963 0 0 0 0.3 24 1792 31 1153 99 803 140 1013 202 891 78 116 
3867 -0.22166799442809812 0.18837019320244638 0.5811278419968291 0 0 0 0.17 24 1793 125 1195 166 1181 
3868 0.8512517431951909 0.2373205033341358 0.8208294715192757 0 0 0 0.31 24 1794 99 804 202 892 106 969 
3869 -0.2700157372373801 0.1881960777362979 0.5706701082283245 0 0 0 0.35 24 1795 59 1251 151 1230 
3870 0.1116076544103566 0.2587620061236951 0.7931264107489431 0 0 0 0.59 24 1796 55 817 57 1332 
3871 0.8467990954231267 0.24642898851087394 0.8246275439612827 0 0 0 0.18 24 1797 99 805 202 893 106 970 177 990 
3872 0.8274110428648719 0.25809639477174684 0.85063246875328 0 0 0 0.24 24 1798 57 1333 189 773 191 776 
3873 0.8598428592256306 0.2464881327883033 0.809479635056295 0 0 0 0.2 24 1799 99 806 202 894 
3874 -0.32399808227561144 0.1692164312664751 0.4991943600947119 0 0 0 0.69 24 1800 125 1196 211 767 
3875 0.9153847039914172 0.22672798456055954 0.7518516913055918 0 0 0 0.33 24 1801 31 1154 189 774 
3876 -0.20593530495886836 0.20070309305217301 0.5842999838965215 0 0 0 0.32 24 1802 72 906 115 386 119 749 143 810 191 777 226 693 
3877 -0.22884836205608988 0.19816237778978077 0.5695596267292448 0 0 0 0.34 24 1803 46 495 119 750 143 811 151 1231 191 778 
3878 -0.18479159146745525 0.2126607864018007 0.5952098479746201 0 0 0 0.62 24 1804 125 1197 139 762 144 1192 151 1232 180 1198 202 895 218 1282 228 1144 
3879 -0.21341301613323366 0.20507289018388286 0.5745209703692566 0 0 0 0.3 24 1805 37 539 57 1334 59 1252 116 1202 119 751 125 1198 143 812 144 1193 166 1182 171 552 180 1199 218 1283 
3880 0.6499600124988817 0.37903745677077516 1.065677558031357 0 0 0 0.41 24 1806 30 585 31 1155 57 1335 59 1253 99 807 102 846 121 127 131 767 137 529 139 763 143 813 150 484 189 775 191 779 212 666 228 1145 
3881 0.6266103994129929 0.3942556450287365 1.0747040772802738 0 0 0 0.44 24 1807 59 1254 186 214 202 896 
3882 0.6587751922498849 0.3845111221405911 1.0521031300733676 0 0 0 0.44 24 1808 59 1255 99 808 137 530 228 1146 68 361 191 780 
3883 0.7048131132952454 0.34453561384510617 0.9548248361209752 0 0 0 0.3 24 1809 57 1336 119 752 139 764 189 776 
3884 0.11109532831458371 0.29814205742018096 0.7807448594711734 0 0 0 0.59 24 1810 139 765 143 814 68 362 
3885 0.8679544916537406 0.28665741727795613 0.783323799771961 0 0 0 0.38 24 1811 57 1337 99 809 202 897 23 1404 106 971 68 363 55 818 78 117 
3886 0.36077490382943656 0.3636893149660305 0.945472489573779 0 0 0 0.44 59 1256 131 768 166 1183 8 2347 168 211 
3887 0.6597983249771854 0.40005752769186576 1.0299213265723717 0 0 0 0.31 24 1812 59 1257 99 810 143 815 189 777 191 781 202 898 228 1147 119 753 
3888 0.6973261097760195 0.3783212915130181 0.9716046421029836 0 0 0 0.3 24 1813 99 811 228 1148 119 754 150 485 191 782 
3889 -0.00438310029280027 0.2889449155237306 0.7271481675475593 0 0 0 0.23 24 1814 153 356 173 1126 180 1200 
3890 -0.31030610708305323 -0.16247330294276288 0.8625973353875569 0 0 0 0.67 24 1815 59 1258 180 1201 212 667 
3891 0.1660632388181327 -0.23691993922404028 1.0449214134374196 0 0 0 0.23 24 1816 102 847 177 991 
3892 -0.346149968698302 -0.11330718179207519 0.9092025857547562 0 0 0 0.3 24 1817 153 357 173 1127 
3893 -0.2610584869630204 -0.12414946292154172 0.7057325619893843 0 0 0 0.49 8 2348 24 1818 59 1259 144 1194 178 605 
3894 0.14844858530518779 -0.1808618445541344 1.032163675098099 0 0 0 0.2 24 1819 178 606 180 1202 
3895 -0.17987586748249168 -0.10788472199203092 0.9107012097143744 0 0 0 0.47 24 1820 57 1338 166 1184 167 578 
3896 -0.2642283824911671 -0.09571763658293192 0.6945399683774492 0 0 0 0.43 8 2349 24 1821 46 496 57 1339 58 597 86 889 94 798 125 1199 131 769 144 1195 145 657 153 358 166 1185 167 579 180 1203 186 215 189 778 211 768 228 1149 
3897 -0.30901626033786933 -0.07078170085289459 0.8181623228149687 0 0 0 0.71 24 1822 154 797 167 580 202 899 
3898 -0.32875212728667663 -0.04333719709368358 0.8623133685642865 0 0 0 0.46 24 1823 48 107 180 1204 
3899 0.15989354838206654 -0.12015348435846458 0.9854687139705607 0 0 0 0.66 7 527 8 2350 24 1824 30 586 34 782 57 1340 59 1260 94 799 116 1203 125 1200 131 770 139 766 140 1014 144 1196 145 658 149 712 150 486 151 1233 161 467 173 1128 178 607 180 1205 189 779 202 900 205 487 210 385 211 769 216 913 218 1284 225 451 23 1405 72 907 102 848 106 972 119 755 137 531 183 478 193 1098 215 563 226 694 166 1186 
3900 -0.2996717801377105 -0.04155858548083981 0.7792876424143766 0 0 0 0.25 24 1825 125 1201 178 608 189 780 
3901 -0.31236957788555575 -0.03399823268806523 0.803093203711559 0 0 0 0.87 24 1826 86 890 125 1202 153 359 202 901 
3902 -0.27830324871775 -0.04523255081894371 0.6715910061351879 0 0 0 0.11 24 1827 153 360 173 1129 
3903 -0.2748456826589121 -0.04462520335170367 0.6598314704656729 0 0 0 0.44 24 1828 178 609 225 452 
3904 -0.2740634218170172 -0.034228573390327144 0.6636047179857113 0 0 0 0.32 24 1829 51 203 86 891 167 581 59 1261 166 1187 
3905 -0.26544185162077105 -0.03608170036989345 0.6593937996685401 0 0 0 0.31 24 1830 51 204 59 1262 228 1150 
3906 -0.2616260383066378 -0.03165360766079448 0.6566315346269082 0 0 0 0.36 24 1831 59 1263 86 892 139 767 167 582 180 1206 202 902 225 453 
3907 -0.3502453840737443 -0.0002595026440604514 0.5545712210591593 0 0 0 0.36 24 1832 59 1264 86 893 212 668 225 454 
3908 -0.3570330681936192 0.0022458327638461167 0.5471303090513514 0 0 0 0.56 24 1833 59 1265 119 756 125 1203 139 768 167 583 225 455 228 1151 
3909 -0.28244994617335917 0.016693769092470286 0.6703875379212434 0 0 0 0.14 24 1834 131 771 180 1207 202 903 
3910 -0.35377624038443706 0.00810105046378856 0.547512579245623 0 0 0 0.27 24 1835 59 1266 125 1204 167 584 
3911 -0.2549093212866537 0.022862501088739915 0.6385125726987719 0 0 0 0.52 24 1836 34 783 48 108 51 205 55 819 58 598 59 1267 102 849 119 757 125 1205 137 532 139 769 144 1197 145 659 153 361 154 798 161 468 167 585 171 553 178 610 180 1208 193 1099 211 770 212 669 216 914 
3912 -0.16663900365258597 0.03802073970562719 0.7188241173508113 0 0 0 0.26 24 1837 102 850 143 816 
3913 -0.3337709003252291 0.02960173692723474 0.5537545958486305 0 0 0 0.76 24 1838 125 1206 154 799 166 1188 211 771 225 456 
3914 -0.36789079175002914 0.029167457272725964 0.526712786410183 0 0 0 0.54 24 1839 48 109 119 758 228 1152 
3915 -0.24517963391142436 0.06140641422469645 0.6337067604097444 0 0 0 1.07 24 1840 115 387 125 1207 144 1198 145 660 225 457 
3916 -0.3604117938813412 0.05242709507605235 0.5198831285742022 0 0 0 0.31 24 1841 59 1268 125 1208 139 770 167 586 
3917 0.4501069010088436 0.10641405604666024 1.1647072237099965 0 0 0 0.25 24 1842 173 1130 218 1285 34 784 106 973 131 772 177 992 46 497 211 772 233 526 
3918 0.49509098603916885 0.10269964962025514 1.1480128876475106 0 0 0 0.33 24 1843 34 785 37 540 55 820 57 1341 94 800 99 812 115 388 122 298 131 773 133 287 144 1199 151 1234 166 1189 173 1131 177 993 178 611 180 1209 215 564 216 915 218 1286 233 527 106 974 68 364 
3919 -0.24257065257933316 0.06910637839573593 0.6262402794978272 0 0 0 0.16 24 1844 34 786 48 110 154 800 
3920 1.0010409506623514 -0.020434564884366485 0.7766595772559686 0 0 0 0.36 24 1845 57 1342 150 487 189 781 78 118 
3921 -0.20144423027703276 0.0871944422500164 0.6818018331834564 0 0 0 0.93 8 2351 24 1846 57 1343 72 908 94 801 102 851 115 389 144 1200 145 661 166 1190 189 782 202 904 218 1287 225 458 119 759 168 212 
3922 0.9983856306866182 -0.008705464634945693 0.7690314886979727 0 0 0 0.45 24 1847 30 587 57 1344 189 783 
3923 0.624843082936532 0.15121628615268834 1.2230387635753095 0 0 0 0.77 24 1848 189 784 202 905 119 760 166 1191 171 554 191 783 211 773 31 1156 99 813 115 390 144 1201 228 1153 57 1345 59 1269 116 1204 125 1209 137 533 174 233 215 565 216 916 225 459 
3924 0.6711207973041741 0.1408636468599468 1.1278296038057503 0 0 0 0.63 8 2352 24 1849 31 1157 55 821 57 1346 59 1270 86 894 99 814 115 391 116 1205 131 774 137 534 139 771 140 1015 144 1202 166 1192 171 555 178 612 180 1210 189 785 202 906 205 488 212 670 216 917 225 460 228 1154 233 528 23 1406 106 975 68 365 143 817 168 213 177 994 
3925 -0.1967135813230583 0.11195077911198681 0.6785357166351234 0 0 0 0.82 24 1850 59 1271 225 461 
3926 0.7792642801590342 0.10434978450460758 0.9986682771066752 0 0 0 0.22 24 1851 31 1158 180 1211 
3927 -0.16439613743330192 0.1171183722897469 0.6878275947142506 0 0 0 0.64 24 1852 94 802 115 392 151 1235 166 1193 180 1212 191 784 193 1100 212 671 225 462 57 1347 144 1203 174 234 228 1155 
3928 0.3976314455890342 0.17278010247696107 1.068073735289575 0 0 0 0.3 8 2353 24 1853 31 1159 37 541 57 1348 59 1272 86 895 94 803 99 815 115 393 119 761 125 1210 149 713 150 488 151 1236 166 1194 178 613 180 1213 189 786 191 785 193 1101 202 907 210 386 211 774 212 672 216 918 233 529 30 588 34 787 72 909 122 299 133 288 137 535 173 1132 215 566 226 695 168 214 106 976 131 775 140 1016 143 818 144 1204 177 995 218 1288 225 463 68 366 117 197 228 1156 
3929 0.7007486739968998 0.13888118185516976 1.0451208248521273 0 0 0 0.66 24 1854 180 1214 233 530 
3930 1.0338059593736806 0.03467933339016383 0.7379492844333262 0 0 0 0.11 24 1855 31 1160 189 787 
3931 -0.1058834213299194 0.13289883926716617 0.7287514067872286 0 0 0 0.72 8 2354 24 1856 55 822 58 599 116 1206 143 819 153 362 154 801 161 469 215 567 226 696 
3932 0.7304704090467827 0.13976219712921636 1.0099258660890962 0 0 0 0.63 24 1857 55 823 57 1349 59 1273 99 816 115 394 119 762 144 1205 150 489 161 470 171 556 180 1215 189 788 233 531 133 289 140 1017 143 820 106 977 168 215 
3933 0.6289654017094007 0.20701503777712355 1.182939599960027 0 0 0 0.53 24 1858 31 1161 57 1350 86 896 99 817 115 395 119 763 122 300 125 1211 131 776 144 1206 150 490 166 1195 171 557 178 614 180 1216 186 216 189 789 191 786 202 908 211 775 215 568 216 919 228 1157 233 532 68 367 
3934 0.7351947321422388 0.14738488175375258 0.9973912105226881 0 0 0 0.29 24 1859 57 1351 177 996 
3935 0.11885426560814326 0.15569760988809628 0.8374548102446998 0 0 0 0.67 24 1860 59 1274 115 396 119 764 202 909 211 776 228 1158 
3936 0.6415101361620653 0.20365035295376793 1.157882935773337 0 0 0 0.45 8 2355 24 1861 30 589 31 1162 57 1352 59 1275 86 897 99 818 115 397 116 1207 119 765 122 301 131 777 137 536 139 772 140 1018 144 1207 166 1196 171 558 178 615 180 1217 186 217 189 790 191 787 193 1102 202 910 210 387 211 777 212 673 216 920 225 464 228 1159 233 533 106 978 173 1133 68 368 174 235 
3937 0.6472665024101207 0.20088648503069592 1.1485281703873533 0 0 0 0.59 24 1862 57 1353 86 898 99 819 119 766 122 302 131 778 144 1208 166 1197 171 559 178 616 180 1218 191 788 202 911 210 388 211 778 216 921 228 1160 8 2356 31 1163 55 824 59 1276 102 852 115 398 116 1208 133 290 137 537 139 773 140 1019 177 997 189 791 193 1103 212 674 225 465 233 534 106 979 173 1134 30 590 154 802 174 236 
3938 1.0528006453817467 0.03976660391210226 0.6898963876556922 0 0 0 0.5 24 1863 57 1354 189 792 
3939 1.0265804370377076 0.046273051939249396 0.7041484197635713 0 0 0 0.67 24 1864 30 591 57 1355 150 491 
3940 0.7787868771730084 0.14590932008198573 0.950258004681888 0 0 0 0.45 24 1865 150 492 177 998 191 789 202 912 
3941 0.9902464874442332 0.061990141443696474 0.7129230331270345 0 0 0 0.24 24 1866 31 1164 57 1356 150 493 106 980 
3942 0.8742167028254023 0.11305556230684924 0.843110648475922 0 0 0 0.23 24 1867 99 820 189 793 191 790 
3943 0.8598658867643723 0.12122456443222666 0.86268271652079 0 0 0 0.56 24 1868 57 1357 99 821 189 794 191 791 202 913 55 825 106 981 225 466 68 369 30 592 72 910 80 44 168 216 
3944 0.9149437538236465 0.09998686962743164 0.8021627613024868 0 0 0 0.49 24 1869 31 1165 55 826 140 1020 177 999 202 914 78 119 99 822 189 795 
3945 -0.11001698197958182 0.15364999684552422 0.719048328746977 0 0 0 0.04 24 1870 144 1209 151 1237 
3946 0.41490207064581286 0.2191141411940609 1.0695340997261455 0 0 0 0.17 24 1871 99 823 102 853 
3947 0.9484831576120925 0.09152444161849255 0.7696848082644483 0 0 0 0.43 24 1872 31 1166 57 1358 55 827 106 982 78 120 168 217 191 792 
3948 0.776105201180377 0.16330226975782347 0.951893786967941 0 0 0 0.34 24 1873 31 1167 57 1359 137 538 150 494 171 560 106 983 
3949 -0.183989922436233 0.15106702139835956 0.6726164241726887 0 0 0 0.22 24 1874 166 1198 171 561 180 1219 
3950 1.0355418537876422 0.06920856172202318 0.6928558516574619 0 0 0 0.21 24 1875 57 1360 189 796 
3951 -0.33315171064533294 0.11597509791390026 0.5197986236635584 0 0 0 0.37 24 1876 59 1277 119 767 167 587 189 797 202 915 
3952 -0.11668672230908415 0.16474710551961064 0.7225763943768521 0 0 0 0.1 24 1877 171 562 180 1220 
3953 0.6611973564742585 0.2247701509751812 1.0971862348630883 0 0 0 0.81 24 1878 31 1168 57 1361 59 1278 99 824 119 768 121 128 131 779 144 1210 150 495 178 617 180 1221 202 916 216 922 106 984 140 1021 212 675 68 370 154 803 
3954 0.6645296998328499 0.21277962665585953 1.0612684327329918 0 0 0 0.38 24 1879 137 539 189 798 202 917 
3955 0.6365981443590275 0.24503707056164803 1.1403236933241945 0 0 0 0.51 24 1880 99 825 122 303 210 389 31 1169 115 399 140 1022 150 496 178 618 186 218 193 1104 68 371 
3956 0.898952724929837 0.12555587305789653 0.8087911089157233 0 0 0 0.29 24 1881 55 828 57 1362 140 1023 
3957 0.7544785401500065 0.19623634060036796 0.9831631817397838 0 0 0 0.72 24 1882 57 1363 115 400 150 497 177 1000 189 799 233 535 23 1407 106 985 137 540 55 829 68 372 
3958 0.7262586849698854 0.2012001745673798 0.9896440998758252 0 0 0 0.51 24 1883 31 1170 57 1364 59 1279 72 911 115 401 119 769 137 541 140 1024 150 498 177 1001 180 1222 189 800 233 536 106 986 68 373 
3959 -0.25568139819542396 0.14200791172430444 0.5916218833053564 0 0 0 0.25 24 1884 59 1280 102 854 139 774 151 1238 212 676 
3960 0.616430470455374 0.2722437623954388 1.183149640466598 0 0 0 0.38 24 1885 31 1171 119 770 171 563 178 619 228 1161 99 826 
3961 0.6282663672172603 0.2648120520466778 1.1619309889633576 0 0 0 0.41 24 1886 122 304 180 1223 210 390 
3962 1.0700908309432513 0.07738027519709392 0.6608223436333608 0 0 0 0.34 24 1887 55 830 177 1002 
3963 1.0182882830751097 0.09777417641907729 0.7050907745360843 0 0 0 0.08 24 1888 177 1003 189 801 
3964 0.9796323938537198 0.11209584454534531 0.7415202750973429 0 0 0 0.15 24 1889 57 1365 177 1004 189 802 
3965 0.9237299605902511 0.13005104048087332 0.7800996150030881 0 0 0 0.57 24 1890 177 1005 189 803 202 918 78 121 
3966 0.9493735183585006 0.12411671519167256 0.7672587975537882 0 0 0 0.16 24 1891 177 1006 189 804 191 793 
3967 0.7208492751331588 0.21318305551508232 0.9942812563410555 0 0 0 0.36 24 1892 59 1281 72 912 115 402 119 771 137 542 139 775 140 1025 144 1211 150 499 154 804 161 471 180 1224 189 805 216 923 233 537 106 987 
3968 0.6225298623183826 0.2897937513208859 1.1633630208568602 0 0 0 0.51 24 1893 59 1282 115 403 119 772 121 129 131 780 137 543 140 1026 150 500 166 1199 177 1007 178 620 180 1225 186 219 189 806 193 1105 210 391 212 677 215 569 233 538 171 564 68 374 144 1212 168 218 191 794 
3969 0.6782092920728133 0.26217348001579727 1.058340090412669 0 0 0 0.23 24 1894 99 827 139 776 171 565 
3970 0.9510335159778275 0.1457503450558661 0.7597900817735183 0 0 0 0.16 24 1895 177 1008 189 807 
3971 0.9271516170145626 0.1530908286713735 0.7745871661522382 0 0 0 0.78 8 2357 24 1896 55 831 57 1366 115 404 140 1027 177 1009 202 919 189 808 191 795 106 988 72 913 
3972 -0.23874392224292043 0.15723999823553225 0.585476719487988 0 0 0 0.44 24 1897 51 206 166 1200 178 621 180 1226 
3973 0.7125251664037664 0.24387069940600148 0.9852157528271663 0 0 0 0.46 24 1898 72 914 115 405 180 1227 189 809 212 678 233 539 8 2358 31 1172 57 1367 119 773 137 544 139 777 140 1028 144 1213 161 472 177 1010 216 924 106 989 168 219 
3974 0.39455546764467525 0.27970625334706256 1.0290771859717411 0 0 0 0.31 24 1899 99 828 121 130 
3975 0.5004976450956047 0.2859341746989358 1.065429951718551 0 0 0 0.33 24 1900 99 829 122 305 171 566 180 1228 
3976 0.7754473099149906 0.22455773343906257 0.9268180886813977 0 0 0 0.63 24 1901 30 593 55 832 57 1368 99 830 115 406 143 821 171 567 189 810 191 796 78 122 150 501 168 220 216 925 
3977 0.48892449521987563 0.2899130272346007 1.0708031961036844 0 0 0 0.68 24 1902 37 542 46 498 72 915 94 804 99 831 115 407 122 306 125 1212 143 822 166 1201 171 568 178 622 191 797 210 392 211 779 212 679 215 570 168 221 
3978 0.9087754403333025 0.17184762987672036 0.7872991307217321 0 0 0 0.38 24 1903 189 811 202 920 
3979 -0.3061418548097653 0.20355990022093515 0.6803709623478662 0 0 0 0.74 24 1904 59 1283 180 1229 202 921 
3980 -0.29881703870186727 0.1949295275771603 0.6570003363188622 0 0 0 0.57 24 1905 48 111 166 1202 180 1230 
3981 0.6194845720961694 0.3183108743807702 1.1478920727240556 0 0 0 0.52 24 1906 31 1173 57 1369 59 1284 99 832 137 545 140 1029 143 823 177 1011 180 1231 186 220 189 812 191 798 202 922 210 393 215 571 228 1162 168 222 173 1135 
3982 1.0520660253565772 0.12002951786226627 0.6354404065497806 0 0 0 0.7 24 1907 177 1012 189 813 55 833 106 990 78 123 
3983 -0.19857355349382028 0.1824983211213011 0.630528243268971 0 0 0 0.63 8 2359 24 1908 59 1285 115 408 143 824 166 1203 167 588 218 1289 
3984 0.7154550621737102 0.2586852283461194 0.9821977635125108 0 0 0 0.28 24 1909 57 1370 99 833 119 774 144 1214 154 805 
3985 0.8615722710542363 0.19894769105966975 0.830170806107428 0 0 0 0.35 24 1910 30 594 99 834 191 799 
3986 0.6912560832162087 0.26963741996101276 1.0074240853665206 0 0 0 0.42 8 2360 24 1911 30 595 57 1371 59 1286 99 835 115 409 119 775 131 781 133 291 137 546 139 778 140 1030 144 1215 145 662 150 502 154 806 161 473 177 1013 180 1232 191 800 205 489 212 680 216 926 228 1163 31 1174 168 223 
3987 1.0623764944004572 0.13356093857898477 0.6318009445338666 0 0 0 0.74 24 1912 177 1014 189 814 55 834 106 991 
3988 -0.07791532661050372 0.20378598188736258 0.6799024452708684 0 0 0 0.26 24 1913 153 363 180 1233 
3989 1.0623375526132628 0.14657105014052854 0.6652336702030996 0 0 0 0.2 24 1914 57 1372 177 1015 
3990 1.0639432723041067 0.14033106473795726 0.6478947540551129 0 0 0 0.52 24 1915 57 1373 177 1016 189 815 
3991 0.7466338747758712 0.26154750904127255 0.9417898087527194 0 0 0 0.54 24 1916 57 1374 59 1287 99 836 150 503 233 540 68 375 72 916 78 124 140 1031 
3992 1.0183837144701204 0.15426015983267202 0.6813697964519828 0 0 0 0.37 24 1917 177 1017 189 816 
3993 1.0586500471795088 0.1436405481301198 0.6524804432834488 0 0 0 0.3 24 1918 30 596 57 1375 177 1018 55 835 
3994 0.7034182727368017 0.27993847546175277 0.9866704236042725 0 0 0 0.7 24 1919 31 1175 57 1376 99 837 115 410 119 776 137 547 140 1032 150 504 177 1019 180 1234 189 817 228 1164 68 376 
3995 -0.3391763652434317 0.15174659728237755 0.4901914118364485 0 0 0 0.16 24 1920 58 600 59 1288 
3996 0.734846503775345 0.2906550183623207 0.9636625060484785 0 0 0 0.22 24 1921 31 1176 57 1377 59 1289 99 838 102 855 
3997 0.7046284335108118 0.30351744726845814 0.9944736664183881 0 0 0 0.57 24 1922 99 839 115 411 133 292 139 779 144 1216 212 681 228 1165 
3998 -0.14481548705738032 0.20226352712990248 0.6275405060640274 0 0 0 0.17 24 1923 125 1213 166 1204 
3999 0.8582852689917377 0.25058316105702605 0.8188439439551402 0 0 0 0.22 24 1924 177 1020 202 923 
4000 0.12637617945359733 0.2646569021679129 0.7906766172780011 0 0 0 0.3 24 1925 102 856 180 1235 
4001 0.19963126077865026 0.2867875907076205 0.843083579920785 0 0 0 0.37 24 1926 34 788 57 1378 151 1239 212 682 
4002 0.7552164450148037 0.31901633946064767 0.9501596155332079 0 0 0 0.33 24 1927 99 840 177 1021 
4003 0.45283444054305494 0.3575196162969519 0.9944557474645055 0 0 0 0.26 24 1928 99 841 154 807 23 1408 106 992 193 1106 216 927 218 1290 226 697 
4004 0.6770961804287287 0.3742787208796246 1.0084441047450665 0 0 0 0.31 24 1929 57 1379 137 548 189 818 216 928 228 1166 
4005 0.7070733254643726 0.3323338876867072 0.9042554379384485 0 0 0 0.67 24 1930 31 1177 55 836 57 1380 59 1290 189 819 191 801 216 929 
4006 0.7335022453461751 0.34096930373747153 0.9163012997585683 0 0 0 0.44 24 1931 31 1178 59 1291 171 569 180 1236 189 820 
4007 0.858569249478294 0.2890022014029543 0.7913498814493538 0 0 0 0.4 24 1932 55 837 57 1381 99 842 
4008 0.8733438010314577 0.2812017780379106 0.7724744642845651 0 0 0 0.15 24 1933 57 1382 99 843 
4009 0.7054160442123738 0.3676353905516066 0.9695371462526141 0 0 0 0.42 24 1934 31 1179 59 1292 99 844 150 505 216 930 68 377 140 1033 
4010 0.7493578394459699 0.34465240524144036 0.9147005998893754 0 0 0 0.56 24 1935 30 597 55 838 59 1293 99 845 150 506 72 917 106 993 57 1383 78 125 140 1034 143 825 168 224 
4011 -0.27053679198155933 0.22933120873143406 0.5767056642804609 0 0 0 0.56 24 1936 59 1294 171 570 
4012 0.6452904197359447 0.4158580020197176 1.0544685494009234 0 0 0 0.76 24 1937 31 1180 57 1384 59 1295 99 846 119 777 121 131 137 549 180 1237 202 924 168 225 
4013 0.6288550923322003 0.4356544699317714 1.0951718227679952 0 0 0 0.59 24 1938 57 1385 99 847 191 802 202 925 
4014 0.7531245581250088 0.3512474241209659 0.8872307619502378 0 0 0 0.35 24 1939 31 1181 143 826 202 926 
4015 0.6785748779943308 0.4035880225728287 1.0001410703436773 0 0 0 0.37 24 1940 31 1182 99 848 119 778 137 550 140 1035 150 507 228 1167 171 571 
4016 -0.2509208502793517 -0.16872885264888238 0.7341184118649707 0 0 0 1.04 24 1941 102 857 225 467 
4017 -0.367114492193101 -0.11821685657854979 0.9110029556133773 0 0 0 1.21 8 2361 24 1942 48 112 58 601 125 1214 139 780 144 1217 166 1205 
4018 0.2354690778495965 -0.2012280093742704 1.0616199819024434 0 0 0 0.44 24 1943 131 782 212 683 
4019 0.20901898716214887 -0.09760927829507693 1.0070052960568465 0 0 0 0.27 24 1944 145 663 151 1240 212 684 
4020 -0.2734475792859855 -0.02700747848520462 0.6578103941766176 0 0 0 0.36 24 1945 48 113 51 207 59 1296 86 899 139 781 144 1218 151 1241 154 808 166 1206 167 589 180 1238 186 221 211 780 212 685 228 1168 
4021 -0.35179758038645065 -0.011372231377763687 0.5473083740151351 0 0 0 0.54 24 1946 59 1297 225 468 
4022 -0.313126092347696 0.015411325222400171 0.7515016319206362 0 0 0 0.44 24 1947 51 208 59 1298 86 900 180 1239 
4023 -0.2555511215226921 -0.00109511841178005 0.652073450004851 0 0 0 0.49 24 1948 48 114 51 209 57 1386 59 1299 102 858 125 1215 137 551 139 782 153 364 154 809 166 1207 167 590 193 1107 202 927 211 781 212 686 228 1169 131 783 168 226 183 479 
4024 -0.3579723946192638 0.011316920117467658 0.542300236696113 0 0 0 0.44 8 2362 24 1949 59 1300 119 779 125 1216 191 803 
4025 0.4999274699872504 0.018056612343587613 1.1799426113666014 0 0 0 0.44 24 1950 31 1183 55 839 
4026 0.4722460807988815 0.03615750889505503 1.1908920290740483 0 0 0 0.36 24 1951 116 1209 122 307 145 664 154 810 212 687 216 931 23 1409 34 789 106 994 131 784 144 1219 173 1136 180 1240 7 528 37 543 68 378 151 1242 166 1208 86 901 174 237 
4027 0.470903250839509 0.06160066953442839 1.2035638344902848 0 0 0 0.74 24 1952 55 840 57 1387 94 805 116 1210 144 1220 151 1243 212 688 216 932 225 469 145 665 149 714 173 1137 180 1241 23 1410 106 995 102 859 7 529 34 790 68 379 174 238 
4028 0.5054592548458298 0.0906262611513607 1.1497209114230338 0 0 0 0.26 24 1953 31 1184 55 841 133 293 191 804 
4029 0.45157049723410486 0.11327395467404042 1.1453259681715275 0 0 0 0.66 24 1954 31 1185 46 499 55 842 59 1301 86 902 119 780 122 308 125 1217 131 785 144 1221 150 508 151 1244 177 1022 178 623 186 222 191 805 218 1291 233 541 166 1209 
4030 0.6647715184907764 0.12775742856409808 1.1575504009759114 0 0 0 0.97 24 1955 31 1186 86 903 99 849 115 412 131 786 171 572 178 624 216 933 55 843 102 860 177 1023 189 821 150 509 228 1170 233 542 
4031 1.0145857084651095 0.020271635297945696 0.7483291290059055 0 0 0 0.59 24 1956 31 1187 57 1388 78 126 150 510 189 822 30 598 177 1024 
4032 -0.0314304208626577 0.13713242289211489 0.7723133693704151 0 0 0 0.23 24 1957 154 811 171 573 180 1242 
4033 -0.2886868898329747 0.13250436648779168 0.6478543523513962 0 0 0 0.45 24 1958 59 1302 86 904 180 1243 
4034 0.6520259362095036 0.1956923256595205 1.1349237750684056 0 0 0 0.49 24 1959 30 599 31 1188 57 1389 59 1303 86 905 99 850 115 413 131 787 137 552 139 783 140 1036 144 1222 150 511 166 1210 171 574 177 1025 178 625 180 1244 189 823 191 806 202 928 211 782 212 689 216 934 225 470 228 1171 233 543 106 996 210 394 68 380 154 812 174 239 
4035 0.9311595896328467 0.0671287786007774 0.7611007640793409 0 0 0 0.52 24 1960 31 1189 55 844 
4036 -0.34879453546996997 0.1009428641812305 0.5098133295885076 0 0 0 0.76 8 2363 24 1961 51 210 58 602 59 1304 74 25 119 781 125 1218 139 784 154 813 167 591 191 807 202 929 228 1172 
4037 0.9741295899122872 0.0651698818300093 0.7439616746701212 0 0 0 0.6 24 1962 57 1390 189 824 
4038 -0.26772232541947316 0.1236093104764204 0.600347258173497 0 0 0 0.26 24 1963 51 211 119 782 
4039 0.7690513633325629 0.14801441330411513 0.9659602860005919 0 0 0 0.37 24 1964 31 1190 99 851 202 930 216 935 
4040 0.7840298922000313 0.14238376129223695 0.9378632618822884 0 0 0 0.21 24 1965 57 1391 140 1037 150 512 
4041 0.23109932515907192 0.18828870310379836 0.9066787873451909 0 0 0 0.49 24 1966 102 861 180 1245 18 750 59 1305 94 806 115 414 116 1211 140 1038 144 1223 145 666 151 1245 166 1211 178 626 193 1108 212 690 218 1292 37 544 57 1392 86 906 119 783 125 1219 132 265 133 294 137 553 173 1138 183 480 189 825 202 931 211 783 72 918 143 827 177 1026 106 997 168 227 191 808 
4042 -0.3531370769418292 0.11399794886971985 0.5043380443381251 0 0 0 0.5 24 1967 139 785 180 1246 191 809 58 603 125 1220 178 627 228 1173 
4043 0.09946353645451621 0.1930311329950478 0.8490290388794967 0 0 0 0.65 23 1411 24 1968 30 600 31 1191 34 791 59 1306 72 919 86 907 94 807 99 852 102 862 115 415 116 1212 121 132 125 1221 132 266 140 1039 144 1224 145 667 149 715 151 1246 154 814 161 474 173 1139 177 1027 178 628 193 1109 210 395 211 784 212 691 215 572 216 936 218 1293 226 698 228 1174 119 784 133 295 139 786 7 530 55 845 57 1393 137 554 143 828 68 381 183 481 205 490 106 998 
4044 0.4962376876434487 0.23726309521347727 1.0826104254775948 0 0 0 0.22 24 1969 173 1140 180 1247 
4045 0.6683970661823655 0.23175921287448084 1.079162258070779 0 0 0 0.5 24 1970 30 601 57 1394 59 1307 99 853 115 416 121 133 131 788 154 815 178 629 216 937 139 787 68 382 
4046 0.9409267538148592 0.1192515637862822 0.7723343547523935 0 0 0 0.11 24 1971 189 826 191 810 
4047 -0.14843885203790644 0.1690492826011107 0.6936631727888479 0 0 0 0.35 24 1972 153 365 173 1141 180 1248 23 1412 72 920 168 228 102 863 131 789 
4048 0.6193405650145309 0.267778698745699 1.162019532574309 0 0 0 0.54 24 1973 121 134 122 309 137 555 180 1249 191 811 228 1175 
4049 0.6794810275776775 0.2354932174151499 1.0717340117151235 0 0 0 0.44 24 1974 99 854 139 788 171 575 8 2364 119 785 228 1176 68 383 154 816 205 491 
4050 1.0113535611136713 0.10199066371699736 0.7086638244832532 0 0 0 0.33 24 1975 30 602 57 1395 189 827 
4051 0.6298502889076651 0.27533689411761403 1.1572915233228442 0 0 0 0.6 24 1976 180 1250 189 828 212 692 23 1413 59 1308 106 999 131 790 137 556 150 513 191 812 202 932 228 1177 144 1225 173 1142 68 384 99 855 193 1110 210 396 
4052 0.5920010993944539 0.28600268619620295 1.1798397932298306 0 0 0 1.15 24 1977 115 417 180 1251 
4053 1.0519637043251981 0.09950881352748236 0.6657807187344829 0 0 0 0.25 24 1978 177 1028 189 829 
