# 3D point list with one line of data per point:
#   POINT3D_ID, X, Y, Z, R, G, B, ERROR, TRACK[] as (IMAGE_ID, POINT2D_IDX)
# Number of points: 413, mean track length: 5.25
1841 0.12188763617237373 0.1997039226494952 0.8946923626610676 0 0 0 0.11 42 283 194 195 196 206 
1842 0.06945567491459992 0.20571546550116937 0.8837776133831489 0 0 0 0.55 13 542 42 284 146 721 164 265 194 196 213 728 214 481 
1843 0.029604309695809242 0.20376458574714618 0.8768685358327114 0 0 0 0.54 42 285 148 238 158 157 196 207 
1844 0.18574920248522805 0.21907280770717352 0.901174680431293 0 0 0 0.34 42 286 194 197 196 208 234 427 
1845 0.23578825811135515 0.22438242054610893 0.9115711421555659 0 0 0 0.33 13 543 42 287 194 198 196 209 
1846 0.40250226778873655 0.2410074910018247 0.94413464209311 0 0 0 0.09 42 288 148 239 194 199 196 210 
1847 0.4263443728270551 -0.16093071959419847 1.0720402891362715 0 0 0 0.16 42 289 126 27 136 129 
1848 0.26818005610690393 -0.20412237920930446 1.0543504211549004 0 0 0 0.19 42 290 159 113 196 211 
1849 0.6248806172927132 -0.07082541825973608 1.1376610319033833 0 0 0 0.21 42 291 136 130 184 14 235 43 
1850 0.5283518708297744 -0.08202229081844754 1.077436304336681 0 0 0 0.44 42 292 146 722 148 240 158 158 162 20 163 15 164 266 165 31 184 15 196 212 200 388 213 729 235 44 
1851 0.5437491607924357 -0.07632104803224025 1.078012385087077 0 0 0 0.27 42 293 136 131 146 723 148 241 164 267 165 32 184 16 196 213 213 730 235 45 
1852 0.5518703649117825 -0.072557023507736 1.0784904400568522 0 0 0 0.06 42 294 165 33 220 60 
1853 0.4472558432123695 -0.10350178657516551 1.058338398289203 0 0 0 0.14 42 295 146 724 235 46 
1854 0.16675987085791788 -0.18807871068886237 1.0289649027842254 0 0 0 0.1 42 296 135 100 220 61 
1855 0.5237950933632777 -0.07839747031184113 1.0734136762081492 0 0 0 0.22 42 297 158 159 162 21 163 16 165 34 235 47 
1856 0.5349246959663807 -0.0734170971083883 1.0747539535581985 0 0 0 0.2 42 298 136 132 148 242 184 17 235 48 
1857 0.5116800753534299 -0.07948618478025128 1.0691707637990953 0 0 0 0.28 42 299 126 28 136 133 148 243 162 22 163 17 196 214 220 62 
1858 0.5282410363033994 -0.07381596630152297 1.0728181522363531 0 0 0 0.19 42 300 136 134 148 244 162 23 165 35 184 18 
1859 0.5281480965448788 -0.07382459725397833 1.073296798020348 0 0 0 0.19 42 301 136 135 146 725 148 245 162 24 165 36 184 19 197 62 
1860 0.25219172988262184 -0.15273530636209284 1.0366063791538982 0 0 0 0.4 42 302 126 29 135 101 
1861 0.440795655673807 -0.09608432924072448 1.0582463975498688 0 0 0 0.13 42 303 176 465 196 215 213 731 
1862 0.5082489813489505 -0.0762064958577897 1.0682104509152313 0 0 0 0.34 42 304 126 30 127 26 136 136 148 246 162 25 164 268 220 63 
1863 0.5121401324282879 -0.07148982510318165 1.0650499403794405 0 0 0 0.17 42 305 126 31 220 64 
1864 0.48381999364497585 -0.0777247679525528 1.06171779793229 0 0 0 0.4 42 306 127 27 162 26 165 37 172 116 176 466 196 216 204 219 213 732 232 199 235 49 
1865 0.48423373174677137 -0.07761433465996015 1.061137816879951 0 0 0 0.27 42 307 127 28 136 137 162 27 172 117 176 467 196 217 213 733 
1866 0.46418047214337743 -0.08310053788547796 1.0586673496597845 0 0 0 0.2 42 308 165 38 176 468 235 50 
1867 0.5431032366100612 -0.05940432620623914 1.074050026936997 0 0 0 0.16 42 309 136 138 146 726 
1868 0.10117770627677701 -0.1861644866268949 1.0015417183884536 0 0 0 0.4 42 310 159 114 196 218 200 389 214 482 234 428 
1869 0.44989534170042067 -0.08383619479635893 1.0563053117253025 0 0 0 0.41 13 544 42 311 146 727 163 18 165 39 196 219 204 220 213 734 227 105 235 51 
1870 0.11756108898034635 -0.1783162522617725 1.016347242453867 0 0 0 0.89 42 312 159 115 185 115 196 220 220 65 227 106 
1871 0.13600536667009436 -0.17098224346212526 1.0030784029312412 0 0 0 0.44 42 313 135 102 164 269 196 221 214 483 217 4 220 66 
1872 0.4522462398677678 -0.079836960753201 1.0563383814956953 0 0 0 0.25 42 314 136 139 146 728 148 247 164 270 165 40 176 469 196 222 213 735 
1873 0.41902016087104194 -0.08555723786046 1.0495863359743283 0 0 0 0.22 13 545 42 315 146 729 163 19 164 271 176 470 196 223 213 736 
1874 0.40921547151578747 -0.08616929558081299 1.0484611694003503 0 0 0 0.45 13 546 42 316 127 29 136 140 172 118 176 471 196 224 200 390 204 221 213 737 221 75 222 91 
1875 0.4235284570526031 -0.0816376413807205 1.0514828218476526 0 0 0 0.26 42 317 136 141 146 730 163 20 164 272 165 41 196 225 213 738 
1876 0.4430592132637402 -0.07601302966599018 1.0517344013963386 0 0 0 0.47 42 318 146 731 164 273 194 200 196 226 222 92 
1877 0.34207211048984776 -0.10221879270820415 1.03796793734194 0 0 0 0.42 42 319 148 248 157 315 162 28 165 42 213 739 220 67 
1878 0.4027088304163721 -0.08267831970932067 1.0447621454705474 0 0 0 0.38 13 547 42 320 146 732 200 391 213 740 222 93 
1879 0.3249840443935162 -0.10286356769823683 1.0358049963896112 0 0 0 0.59 42 321 146 733 157 316 158 160 213 741 220 68 
1880 0.03405148951178709 -0.1837573301223161 0.999233163630699 0 0 0 0.72 13 548 42 322 162 29 185 116 214 484 
1881 0.3941757813346745 -0.08317918726624543 1.0430900738079572 0 0 0 0.14 42 323 146 734 148 249 
1882 0.39417578133467435 -0.08317918726624554 1.0430900738079587 0 0 0 0.14 42 324 146 735 148 250 
1883 0.367143142792855 -0.08871898120523272 1.0409613113162226 0 0 0 0.14 42 325 164 274 172 119 
1884 0.38580908152211096 -0.08388394529299202 1.0416480398839676 0 0 0 0.25 42 326 148 251 194 201 204 222 
1885 0.38580908152210946 -0.08388394529299216 1.0416480398839727 0 0 0 0.25 42 327 148 252 194 202 204 223 
1886 0.12726009660058654 -0.15278312814321296 1.0062050572960355 0 0 0 0.55 42 328 148 253 162 30 164 275 213 742 220 69 
1887 0.3762028044936443 -0.08441290366922764 1.0389796981778863 0 0 0 0.47 42 329 126 32 136 142 159 116 176 472 204 224 
1888 0.3761640149263853 -0.08446595368070274 1.0388941721547031 0 0 0 0.45 42 330 126 33 136 143 148 254 159 117 176 473 204 225 
1889 0.39212144534386995 -0.07913339594547775 1.042235464992362 0 0 0 0.37 42 331 159 118 165 43 172 120 176 474 
1890 0.34046490809141156 -0.09068218483571754 1.0367863564547806 0 0 0 0.39 42 332 147 87 158 161 159 119 164 276 185 117 222 94 227 107 
1891 0.3328163447760169 -0.09114291377129251 1.0331881055070995 0 0 0 0.23 42 333 194 203 196 227 197 63 213 743 
1892 0.6227316990937478 -0.010214740043810639 1.1171973386392742 0 0 0 0.41 42 334 136 144 162 31 220 70 235 52 
1893 0.3750542965468468 -0.07757309064987455 1.0398946804630749 0 0 0 0.2 42 335 159 120 185 118 194 204 
1894 0.30262447857090774 -0.09255780407564915 1.027698241415234 0 0 0 0.29 13 549 42 336 126 34 148 255 159 121 164 277 185 119 194 205 196 228 200 392 213 744 214 485 220 71 
1895 0.20156635638979123 -0.11877684151680575 1.007447680874256 0 0 0 0.25 42 337 148 256 164 278 196 229 214 486 234 429 
1896 -0.0641311400392766 -0.19029678191889488 0.971114757077778 0 0 0 0.1 42 338 159 122 176 475 
1897 0.19434596565364212 -0.11978020787639784 1.0047509197478595 0 0 0 0.17 42 339 148 257 234 430 
1898 0.27972346871933745 -0.09431791878037982 1.0257281545697647 0 0 0 0.38 42 340 197 64 213 745 214 487 
1899 0.04927755455031632 -0.15245305888151095 0.9949833675548135 0 0 0 0.37 42 341 159 123 196 230 220 72 
1900 0.04871850603332884 -0.15245836509538138 0.9952426625034252 0 0 0 0.23 42 342 126 35 159 124 
1901 0.2647720970452059 -0.09112244935965545 1.0193241985574124 0 0 0 0.39 42 343 148 258 162 32 196 231 214 488 
1902 0.4056058450642475 -0.04858606491120261 1.0374311777763123 0 0 0 0.21 42 344 126 36 148 259 164 279 165 44 184 20 185 120 196 232 235 53 
1903 0.20897397083368482 -0.08754532762385726 1.00819822732809 0 0 0 0.26 42 345 148 260 162 33 196 233 213 746 214 489 
1904 0.1797898818253922 -0.09304991594981242 0.9990261038127127 0 0 0 0.23 13 550 42 346 135 103 148 261 194 206 196 234 197 65 214 490 219 120 232 200 
1905 0.24200247096074176 -0.07648616496016822 1.0104979961616192 0 0 0 0.24 42 347 126 37 162 34 
1906 0.5898007256118525 0.016944013107724157 1.086690021340953 0 0 0 0.17 42 348 165 45 220 73 
1907 0.1250322371413458 -0.09743307936190206 0.9911872154920555 0 0 0 0.13 42 349 126 38 159 125 185 121 
1908 0.016834156396472656 -0.12366484216210982 0.9779502948382208 0 0 0 0.41 42 350 126 39 148 262 158 162 220 74 224 75 
1909 0.015812606732354784 -0.12392978868607196 0.9790647937695923 0 0 0 0.56 13 551 42 351 126 40 127 30 135 104 136 145 146 736 157 317 158 163 159 126 162 35 164 280 176 476 185 122 196 235 200 393 204 226 213 747 214 491 217 5 220 75 222 95 232 201 
1910 -0.11510375036017491 -0.14466628448522986 0.9561769886283625 0 0 0 0.67 42 352 172 121 176 477 200 394 
1911 0.4734141463592311 0.00265189395749728 1.039356509812365 0 0 0 0.11 42 353 194 207 196 236 
1912 0.5536570047621933 0.027334039970426754 1.048036045259385 0 0 0 0.33 42 354 148 263 162 36 
1913 0.5495329930322803 0.028526454628007694 1.0475135375454414 0 0 0 0.52 42 355 136 146 163 21 213 748 
1914 0.013570127592939785 -0.09677112494512934 0.9674320175180565 0 0 0 0.15 42 356 159 127 164 281 185 123 196 237 
1915 -0.032550987834741245 -0.10531042478733761 0.9619370915904268 0 0 0 0.21 42 357 136 147 148 264 159 128 172 122 194 208 222 96 
1916 0.5145773704625162 0.024517355077932828 1.0424541719514113 0 0 0 0.18 42 358 148 265 196 238 
1917 -0.13151896932631055 -0.12489047985748215 0.9502413440623378 0 0 0 0.29 28 1400 42 359 126 41 127 31 128 138 136 148 146 737 148 266 158 164 159 129 162 37 164 282 185 124 196 239 200 395 213 749 214 492 220 76 
1918 0.4819907045307755 0.02180178592921501 1.0362462984687977 0 0 0 0.17 42 360 148 267 196 240 
1919 0.47275976400393316 0.020953338640197175 1.0348041879057654 0 0 0 0.28 42 361 159 130 164 283 
1920 0.4686343625438174 0.020858060333242872 1.0326110498206986 0 0 0 0.28 42 362 148 268 194 209 196 241 235 54 
1921 -0.5941751328457816 -0.21611051233686956 0.9569015563634012 0 0 0 0.36 42 363 126 42 148 269 
1922 0.07806137304430469 -0.06842718185316188 0.9734811480775016 0 0 0 0.25 42 364 148 270 214 493 
1923 0.33280279442743665 -0.004386450320639565 1.0112193454126717 0 0 0 0.24 42 365 126 43 162 38 163 22 196 242 
1924 0.32001815462945143 -0.006071188483142769 1.0129809281567115 0 0 0 0.36 42 366 148 271 194 210 
1925 0.5688431446019336 0.05447817962128619 1.053178385330076 0 0 0 0.22 42 367 164 284 165 46 184 21 
1926 0.32004618653086964 0.0014449348522636712 1.0061374566613477 0 0 0 0.11 42 368 194 211 214 494 
1927 0.32045638648028224 0.0013500584650487245 1.0046909506375412 0 0 0 0.45 13 552 28 1401 42 369 126 44 135 105 146 738 148 272 157 318 175 351 196 243 200 396 214 495 235 55 
1928 0.422253709598191 0.026315800815658964 1.0263644225516533 0 0 0 0.07 42 370 184 22 235 56 
1929 0.3700956467373412 0.015275373803401967 1.015133204868491 0 0 0 0.14 42 371 148 273 165 47 235 57 
1930 0.62992274110981 0.0817686007948546 1.0964480863181858 0 0 0 0.21 42 372 136 149 235 58 
1931 0.5979495863262251 0.07405958492273075 1.072313251048068 0 0 0 0.26 42 373 136 150 165 48 
1932 0.6029865456646277 0.07530997150100989 1.0746999786505138 0 0 0 0.42 42 374 127 32 136 151 164 285 235 59 
1933 0.3047245845373692 0.008805686532220929 1.000129504454079 0 0 0 0.22 42 375 127 33 159 131 
1934 0.36840913790798124 0.022940769111869024 1.015455702415688 0 0 0 0.06 42 376 165 49 235 60 
1935 0.5734367775661231 0.06838051872223948 1.05479312965656 0 0 0 0.21 42 377 136 152 148 274 
1936 0.6147435619679037 0.08464441922719579 1.0836900217119512 0 0 0 0.23 42 378 136 153 184 23 
1937 0.6147435619679041 0.08464441922719561 1.0836900217119474 0 0 0 0.23 42 379 136 154 184 24 
1938 0.26946098884070446 0.008039562169763809 0.9943443192664363 0 0 0 0.17 42 380 126 45 176 478 
1939 0.6044271960791682 0.08187196936403839 1.076037505095316 0 0 0 0.43 42 381 136 155 164 286 
1940 0.2647134037329643 0.00785057220792943 0.9938131907091643 0 0 0 0.05 42 382 126 46 176 479 204 227 232 202 
1941 0.1582425100574468 -0.010204859239286518 0.9723382489065551 0 0 0 0.15 42 383 126 47 159 132 164 287 196 244 200 397 
1942 0.15827620524225972 -0.010177435127375612 0.9717966850830759 0 0 0 0.27 28 1402 42 384 126 48 136 156 146 739 148 275 158 165 159 133 162 39 163 23 164 288 175 352 200 398 214 496 219 121 220 77 221 76 234 431 
1943 0.5898385832667304 0.0962261025017424 1.061439321754978 0 0 0 0.45 42 385 126 49 184 25 
1944 0.28098126088001846 0.03217046766163799 0.9876869241124162 0 0 0 0.29 42 386 126 50 159 134 194 212 
1945 0.5516783079604313 0.08745671596166948 1.030764563323786 0 0 0 0.15 42 387 136 157 148 276 196 245 
1946 0.255093046409124 0.03502383475091425 0.9897626424560683 0 0 0 0.35 42 388 136 158 194 213 
1947 0.5941827498658516 0.10383331375528664 1.0619819669035846 0 0 0 0.3 42 389 127 34 136 159 164 289 184 26 194 214 
1948 0.627825505979169 0.11305148469080296 1.0856782518256765 0 0 0 0.3 42 390 136 160 164 290 184 27 
1949 0.22853529572978976 0.028687585598622924 0.9755640436031189 0 0 0 0.37 42 391 159 135 196 246 
1950 0.5900238994036432 0.10416996619603634 1.058004658229988 0 0 0 0.16 42 392 136 161 148 277 184 28 
1951 -0.1185631749667966 -0.016758849421270063 0.9194705424232161 0 0 0 0.33 42 393 196 247 224 76 
1952 0.5922378985963284 0.12390705380933419 1.0515210154864754 0 0 0 0.25 42 394 136 162 184 29 
1953 0.49158500121812726 0.10453569649725505 1.0053886593270471 0 0 0 0.36 42 395 127 35 148 278 159 136 194 215 
1954 0.5045538295809959 0.11160242625264828 1.0022326674552644 0 0 0 0.24 42 396 148 279 196 248 
1955 0.5419549623770192 0.1275135303480961 1.0152217060833175 0 0 0 0.25 42 397 164 291 165 50 235 61 
1956 0.4044013360767934 0.1078608376725137 0.9812644526440621 0 0 0 0.34 42 398 148 280 196 249 
1957 0.6292318141359244 0.153675518972069 1.0740005360537122 0 0 0 0.39 42 399 136 163 164 292 165 51 235 62 
1958 0.4539984519743324 0.11570538229922682 0.985323036947088 0 0 0 0.22 42 400 148 281 194 216 
1959 0.5393523629935502 0.13259190957928177 1.0128610180948234 0 0 0 0.25 42 401 148 282 162 40 164 293 165 52 235 63 
1960 0.5887874247734819 0.14520369083624476 1.0456579466419016 0 0 0 0.17 42 402 136 164 148 283 164 294 165 53 
1961 0.46368486032660017 0.12094878031527907 0.9926253091287347 0 0 0 0.38 42 403 196 250 213 750 
1962 0.3541208380129191 0.10538320130216193 0.9722967515701969 0 0 0 0.16 42 404 148 284 196 251 
1963 0.5291526771093785 0.13499672868954274 1.0041952325998902 0 0 0 0.43 42 405 148 285 164 295 165 54 
1964 0.38904028460333256 0.11317102497270075 0.9794483313852311 0 0 0 0.12 42 406 165 55 232 203 
1965 0.5255153126270719 0.1392090062037005 1.0069925080066031 0 0 0 0.28 42 407 148 286 213 751 
1966 0.2552151735060327 0.0966607530785252 0.9611196302876464 0 0 0 0.17 42 408 148 287 196 252 
1967 0.4950785504333528 0.13491772159000218 0.994239410819073 0 0 0 0.28 28 1403 42 409 146 740 159 137 164 296 165 56 175 353 194 217 196 253 213 752 235 64 
1968 0.5926661772998092 0.15711721212722157 1.0427935325100344 0 0 0 0.41 42 410 136 165 148 288 164 297 196 254 
1969 0.5103007737220282 0.13999961375401837 0.9965942760458191 0 0 0 0.21 42 411 196 255 220 78 
1970 0.4487273081241257 0.1317703346973211 0.9846004166518151 0 0 0 0.16 42 412 148 289 164 298 194 218 213 753 
1971 0.44882301977507355 0.13170731504824382 0.9844236647232782 0 0 0 0.14 42 413 148 290 194 219 213 754 
1972 0.19230003339770202 0.0952713651626299 0.9381388003025073 0 0 0 0.17 42 414 126 51 148 291 196 256 
1973 0.37740528649064975 0.12520087345787356 0.9735869617491081 0 0 0 0.22 42 415 148 292 194 220 
1974 0.39974227581776606 0.12936690278465016 0.9748524731924196 0 0 0 0.23 42 416 164 299 194 221 196 257 
1975 0.3920399485101283 0.1286134246766265 0.9743379302179215 0 0 0 0.09 42 417 148 293 194 222 
1976 0.3920399485101283 0.1286134246766265 0.9743379302179215 0 0 0 0.09 42 418 148 294 194 223 
1977 0.5479689763318639 0.1553698374234611 1.0073491903681098 0 0 0 0.16 42 419 136 166 148 295 184 30 196 258 
1978 0.37242474107925105 0.12872642874703166 0.9755355247603779 0 0 0 0.39 42 420 148 296 185 125 194 224 196 259 235 65 
1979 0.34179019250494697 0.12573419811402364 0.9631748547503053 0 0 0 0.35 42 421 148 297 163 24 164 300 
1980 0.08335821140311644 0.08821120955132998 0.9197234378154544 0 0 0 0.22 42 422 126 52 148 298 196 260 
1981 0.2894989245128696 0.1185958029766112 0.9521944952413546 0 0 0 0.11 42 423 126 53 148 299 176 480 
1982 0.08708818842919323 0.09171654506313184 0.9210101974629294 0 0 0 0.11 42 424 126 54 196 261 
1983 0.3055703808203083 0.1250782871723093 0.9594808289191222 0 0 0 0.14 42 425 148 300 196 262 
1984 0.08978175061005461 0.09396273225228388 0.9254428267903483 0 0 0 0.21 42 426 136 167 185 126 196 263 
1985 0.2890332383875424 0.12601801411888208 0.9534956869759724 0 0 0 0.12 42 427 185 127 197 66 213 755 
1986 0.40776158970759674 0.14769647503451216 0.9728591197493991 0 0 0 0.04 42 428 165 57 235 66 
1987 0.1909345577720217 0.12001414301709322 0.9309967541488483 0 0 0 0.19 28 1404 42 429 136 168 148 301 164 301 194 225 197 67 204 228 213 756 234 432 
1988 0.07679242683197121 0.10845756222712283 0.9133645479193838 0 0 0 0.35 28 1405 42 430 126 55 147 88 148 302 175 354 176 481 188 34 196 264 204 229 213 757 219 122 222 97 232 204 234 433 
1989 0.07689347732665727 0.10849120279074834 0.9128159370595452 0 0 0 0.26 42 431 164 302 194 226 196 265 
1990 0.08691738717371834 0.113564463695142 0.9144955232180629 0 0 0 0.4 42 432 148 303 194 227 196 266 232 205 
1991 0.49701089006208604 0.17470021297438396 0.9870180028496399 0 0 0 0.47 42 433 148 304 194 228 
1992 0.5888229023003658 0.19749820349143699 1.0283914464186679 0 0 0 0.29 42 434 136 169 148 305 164 303 
1993 0.5993944492136547 0.19972602411456036 1.0353909966853754 0 0 0 0.15 42 435 162 41 194 229 
1994 0.5537946608722873 0.18957148856752745 1.0030343526910703 0 0 0 0.14 42 436 136 170 148 306 196 267 
1995 0.5620169834653554 0.19163707152185286 1.0097974083484735 0 0 0 0.25 42 437 127 36 136 171 148 307 164 304 196 268 213 758 235 67 
1996 0.5478155510021819 0.18867331089241393 0.998457347278431 0 0 0 0.1 42 438 148 308 165 58 213 759 
1997 0.49143438331189376 0.18294750132878673 0.9806981967616978 0 0 0 0.41 42 439 136 172 148 309 213 760 
1998 0.5510266049890269 0.19162376476090032 0.9963052012208605 0 0 0 0.41 42 440 136 173 148 310 164 305 196 269 
1999 0.5148428328909997 0.1864830686173772 0.9780127472166769 0 0 0 0.22 42 441 194 230 196 270 
2000 0.41036270659278046 0.17515214949242267 0.9654682090363123 0 0 0 0.31 42 442 148 311 194 231 
2001 -0.2689058421364638 0.0932284379250025 0.8711616916857199 0 0 0 0.31 42 443 126 56 148 312 
2002 0.3425117058887436 0.1685723506633901 0.9531987892140588 0 0 0 0.34 42 444 148 313 164 306 213 761 
2003 0.3466252791284231 0.1704931328542165 0.954205037772109 0 0 0 0.19 13 553 42 445 146 741 148 314 196 271 213 762 235 68 
2004 0.343722269270133 0.17321225883349564 0.9512832833690686 0 0 0 0.23 42 446 164 307 194 232 
2005 -0.20807734629180452 0.10854047670528125 0.8724816093055434 0 0 0 0.18 42 447 126 57 159 138 
2006 0.29007259303211075 0.16819587511626835 0.9415577018449123 0 0 0 0.35 42 448 146 742 148 315 164 308 194 233 196 272 213 763 
2007 0.43632488969688754 0.18749278034516895 0.9690145047703544 0 0 0 0.36 42 449 148 316 194 234 196 273 235 69 
2008 0.49796778338561143 0.19729888400048934 0.9776320371133171 0 0 0 0.24 42 450 164 309 213 764 
2009 0.35605500282079955 0.18111767458095054 0.9518344430549011 0 0 0 0.34 42 451 148 317 194 235 196 274 
2010 0.5400605392787097 0.2057201114478377 0.992286023025123 0 0 0 0.32 42 452 136 174 148 318 196 275 
2011 0.3858802612984044 0.18619225892865274 0.9565412353873758 0 0 0 0.43 42 453 136 175 148 319 164 310 184 31 194 236 196 276 222 98 232 206 235 70 
2012 0.40654309226953056 0.18895316426589856 0.9616020537884765 0 0 0 0.36 42 454 148 320 196 277 
2013 0.12201291868946917 0.15619132909296876 0.9082164123632811 0 0 0 0.33 42 455 172 123 196 278 
2014 0.3708770648166483 0.19010797729802245 0.9491196675384816 0 0 0 0.16 42 456 148 321 194 237 196 279 
2015 0.34738266610353996 0.18670687867860697 0.9424885231208546 0 0 0 0.14 42 457 148 322 194 238 196 280 
2016 0.5664025175233217 0.2185309692518062 0.9988817397824469 0 0 0 0.22 42 458 148 323 164 311 220 79 
2017 0.20218964370193235 0.17578659914762326 0.9222789893483295 0 0 0 0.22 42 459 164 312 196 281 
2018 -0.12700120160659772 0.13909641735239062 0.8654209049566206 0 0 0 0.39 42 460 148 324 196 282 
2019 0.5244999321411762 0.2184038837826378 0.9795755373116533 0 0 0 0.27 42 461 127 37 136 176 184 32 
2020 0.3207400889980559 0.19577939089694596 0.9341281473728549 0 0 0 0.24 42 462 194 239 196 283 
2021 0.30858543722065296 0.19524671346518402 0.9346919359174248 0 0 0 0.35 13 554 42 463 135 106 162 42 194 240 200 399 213 765 
2022 0.3492101737485984 0.20275846921009608 0.9434463352384033 0 0 0 0.32 42 464 194 241 196 284 
2023 -0.12565981696460166 0.15236968565009404 0.8594540796155137 0 0 0 0.24 42 465 126 58 148 325 196 285 
2024 -0.036313036077601384 0.1671563477455355 0.8763070721646882 0 0 0 0.31 28 1406 42 466 146 743 164 313 172 124 188 35 196 286 204 230 213 766 214 497 232 207 
2025 0.5422759878778041 0.23012392085412342 0.9807740579717262 0 0 0 0.35 42 467 148 326 164 314 165 59 184 33 235 71 
2026 0.23946511279182428 0.19867749698305454 0.9201301248649113 0 0 0 0.26 42 468 164 315 213 767 214 498 
2027 0.5656468980214546 0.23733499713771614 0.9955796765185672 0 0 0 0.2 42 469 148 327 165 60 235 72 
2028 0.5516700516345323 0.237434949183678 0.9849863765920127 0 0 0 0.13 42 470 148 328 164 316 213 768 
2029 0.07449540362915377 0.188569043271569 0.8881996441464282 0 0 0 0.29 42 471 148 329 164 317 196 287 220 80 
2030 -0.32707380989519674 0.1566207594503739 0.8459303902181716 0 0 0 0.37 42 472 148 330 196 288 
2031 0.23963392820004042 0.20684134864659795 0.9174642127477616 0 0 0 0.26 42 473 146 744 148 331 158 166 164 318 194 242 213 769 214 499 
2032 -0.12678303134960123 0.17341488036880157 0.8536079453025291 0 0 0 0.36 42 474 164 319 196 289 224 77 
2033 0.23958450967104103 0.2128578902404228 0.9158378091143854 0 0 0 0.22 42 475 146 745 164 320 213 770 214 500 
2034 0.40200424483293234 0.23648040264661055 0.9457797316281648 0 0 0 0.16 42 476 148 332 194 243 
2035 0.46210427802003856 0.252319726847941 0.9554456666441135 0 0 0 0.39 42 477 164 321 194 244 
2036 0.4507982978204164 0.2538800179803171 0.9493144925235709 0 0 0 0.36 42 478 148 333 159 139 163 25 164 322 184 34 194 245 196 290 
2037 0.6338702382275384 -0.10313637568205515 1.1581670676863902 0 0 0 0.08 42 479 165 61 235 73 
2038 0.4240655816780592 -0.15182804554074922 1.0723540913290739 0 0 0 0.15 42 480 148 334 164 323 
2039 0.6126921180886037 -0.08994199915668095 1.1287319156045983 0 0 0 0.51 42 481 126 59 136 177 
2040 0.4181256791012609 -0.15073794873478832 1.068976004343248 0 0 0 0.37 42 482 159 140 184 35 
2041 0.5060650250409965 -0.08560730458243244 1.0704280130638668 0 0 0 0.2 28 1407 42 483 126 60 148 335 162 43 163 26 165 62 172 125 220 81 234 434 235 74 
2042 0.5003261916610625 -0.08138560853372766 1.0667266883348847 0 0 0 0.31 42 484 159 141 165 63 197 68 213 771 220 82 235 75 
2043 0.4741476816792746 -0.08702408967249908 1.0658099722109253 0 0 0 0.29 42 485 164 324 196 291 213 772 
2044 -0.13398779916493886 -0.2575613458138177 0.9982766108177752 0 0 0 0.3 28 1408 42 486 146 746 159 142 185 128 196 292 200 400 214 501 224 78 
2045 -0.13892651771398862 -0.25178374309769175 0.9932986293694243 0 0 0 0.36 42 487 159 143 196 293 
2046 0.4145149363622557 -0.09142263409533319 1.0516445142688964 0 0 0 0.02 42 488 165 64 235 76 
2047 0.458278537615345 -0.07475751507992483 1.0535063080247573 0 0 0 0.42 28 1409 42 489 136 178 146 747 147 89 148 336 164 325 165 65 172 126 175 355 176 482 197 69 204 231 213 773 232 208 234 435 235 77 
2048 0.043045348148696955 -0.1812399150514926 0.9996588238618922 0 0 0 0.47 13 555 42 490 126 61 135 107 162 44 164 326 196 294 200 401 204 232 220 83 
2049 0.33074368259206544 -0.09705152799599032 1.0365798183139938 0 0 0 0.5 13 556 42 491 146 748 148 337 159 144 162 45 184 36 200 402 213 774 227 108 232 209 
2050 0.6219327198933527 -0.014716033196585225 1.1132609629607422 0 0 0 0.24 42 492 136 179 220 84 
2051 0.32135475488336596 -0.09723235134950664 1.034951638415745 0 0 0 0.38 42 493 126 62 146 749 148 338 159 145 162 46 163 27 165 66 172 127 185 129 196 295 213 775 220 85 222 99 232 210 235 78 
2052 0.03671525469731687 -0.1746063610077165 0.9958175134715482 0 0 0 0.28 42 494 126 63 136 180 148 339 196 296 
2053 0.1420337805466614 -0.1415627267557894 1.0093677186824876 0 0 0 0.83 42 495 148 340 162 47 164 327 172 128 196 297 
2054 0.1594755813738019 -0.13318978818485794 1.0093284226563284 0 0 0 0.33 42 496 148 341 159 146 162 48 172 129 194 246 196 298 
2055 0.6407337914408915 -0.0012273032563061494 1.1311252152253137 0 0 0 0.53 42 497 164 328 220 86 
2056 0.622419136438266 -0.00604094451178355 1.1129187416722768 0 0 0 0.45 42 498 136 181 164 329 220 87 235 79 
2057 0.26782227022043653 -0.10049442100544907 1.0242070755128971 0 0 0 0.32 13 557 42 499 147 90 164 330 185 130 194 247 197 70 204 233 219 123 227 109 
2058 0.23886081634421605 -0.10261353904656038 1.0188208232689102 0 0 0 0.4 28 1410 42 500 136 182 146 750 147 91 148 342 164 331 176 483 185 131 194 248 213 776 214 502 222 100 227 110 234 436 
2059 0.22640081172347992 -0.10324871591675876 1.016295475924112 0 0 0 0.44 28 1411 42 501 126 64 146 751 147 92 148 343 159 147 162 49 176 484 185 132 194 249 196 299 204 234 219 124 227 111 
2060 0.619922727098539 0.011236474698411903 1.1055039981842618 0 0 0 0.41 42 502 136 183 162 50 
2061 0.6387516664226587 0.020472046247179774 1.1222471882154839 0 0 0 0.28 42 503 165 67 220 88 
2062 0.5865003001589588 0.013014970389688244 1.0846342507098046 0 0 0 0.2 42 504 136 184 165 68 220 89 
2063 0.1952102074085464 -0.08486950644063661 0.9996181388738388 0 0 0 0.38 42 505 126 65 136 185 148 344 162 51 163 28 213 777 217 6 220 90 222 101 227 112 
2064 -0.0974736229741975 -0.14982782672065767 0.9656043463453517 0 0 0 0.39 42 506 127 38 136 186 220 91 
2065 -0.05735772757465608 -0.1364608733908522 0.9683455079264146 0 0 0 0.35 28 1412 42 507 146 752 147 93 148 345 158 167 164 332 176 485 200 403 221 77 222 102 232 211 
2066 -0.058285816757036986 -0.13738740708142097 0.9699485671950807 0 0 0 0.39 42 508 162 52 200 404 
2067 -0.06601003395219046 -0.1333784653655967 0.966023868801865 0 0 0 0.49 28 1413 42 509 135 108 146 753 147 94 148 346 158 168 159 148 200 405 217 7 220 92 221 78 224 79 232 212 
2068 -0.14107785221249997 -0.13058293070428598 0.9516030732072877 0 0 0 0.23 28 1414 42 510 147 95 196 300 214 503 
2069 0.538723137197102 0.029573442058113526 1.044107695142863 0 0 0 0.17 42 511 136 187 148 347 220 93 
2070 0.6290531836433111 0.059545508171224455 1.1029304533720774 0 0 0 0.41 42 512 136 188 164 333 165 69 
2071 0.48760307984584056 0.026276569515444183 1.035120911199924 0 0 0 0.18 42 513 148 348 196 301 235 80 
2072 0.4631288863848832 0.024650134441616338 1.0294348644758424 0 0 0 0.2 42 514 147 96 148 349 196 302 222 103 232 213 
2073 0.5902075925957238 0.07654658766564165 1.0662240498250728 0 0 0 0.45 42 515 127 39 148 350 162 53 164 334 184 37 235 81 
2074 0.6386677232694709 0.08947126557601534 1.1022526871986646 0 0 0 0.23 42 516 163 29 164 335 165 70 235 82 
2075 0.6242660494386946 0.08728717228428248 1.0913857198195083 0 0 0 0.4 42 517 136 189 163 30 164 336 
2076 0.6052175057333367 0.099835046109189 1.068225412722163 0 0 0 0.36 42 518 126 66 136 190 
2077 -0.5461932648958308 -0.12480324838081086 0.9308516713221705 0 0 0 0.24 42 519 159 149 196 303 
2078 0.6321560531666285 0.1126395558386241 1.0899841660857152 0 0 0 0.41 42 520 136 191 162 54 164 337 
2079 0.4955890424365946 0.09925371958776989 1.005036838754505 0 0 0 0.37 42 521 126 67 136 192 194 250 196 304 
2080 0.5098478060526805 0.11641949536689454 1.0057579409116775 0 0 0 0.18 42 522 136 193 148 351 196 305 
2081 0.4557768778597198 0.11237917030655165 0.9904721559239605 0 0 0 0.39 42 523 127 40 148 352 163 31 196 306 
2082 0.5043562892822006 0.12090285497122848 0.9963809053299107 0 0 0 0.57 42 524 127 41 136 194 148 353 
2083 0.5541607285111119 0.1361661349525928 1.0161401987755019 0 0 0 0.48 42 525 127 42 136 195 148 354 196 307 
2084 0.5356030260192004 0.1357586934507136 1.0070965407861459 0 0 0 0.54 42 526 148 355 162 55 164 338 213 778 
2085 0.5450581780394386 0.14044678475769262 1.0096081715873504 0 0 0 0.18 42 527 136 196 148 356 164 339 165 71 184 38 235 83 
2086 0.5019949128768547 0.1350040517792603 0.9940905220627531 0 0 0 0.18 42 528 148 357 165 72 184 39 194 251 213 779 235 84 
2087 0.5624959430098952 0.14820359960734467 1.0189272115267924 0 0 0 0.16 42 529 162 56 164 340 
2088 0.25226028089368224 0.10162474416441096 0.9587824887686375 0 0 0 0.27 42 530 148 358 185 133 196 308 
2089 0.280199171617157 0.11524390026988307 0.9562272454996933 0 0 0 0.24 42 531 148 359 164 341 194 252 196 309 217 8 
2090 0.3602410030469248 0.12865035898685925 0.9704274344296253 0 0 0 0.21 42 532 148 360 194 253 196 310 235 85 
2091 0.2833640082603431 0.12228274506500104 0.9529050422255563 0 0 0 0.08 42 533 126 68 148 361 
2092 0.28225422996871685 0.12245386659266154 0.9542959385817419 0 0 0 0.17 42 534 194 254 196 311 
2093 0.2521421039775664 0.12158942060016144 0.9495312834750497 0 0 0 0.24 42 535 126 69 148 362 
2094 0.3577401536559012 0.13713347223642033 0.9633829966834089 0 0 0 0.29 42 536 194 255 196 312 
2095 0.4979821543837622 0.15794340104966698 0.9896790480280117 0 0 0 0.33 42 537 136 197 165 73 235 86 
2096 0.547314392938762 0.16654500466885497 1.0050845208428911 0 0 0 0.28 42 538 136 198 163 32 
2097 0.5026056851800043 0.1678527868961666 0.9871166389829626 0 0 0 0.22 42 539 136 199 164 342 184 40 
2098 0.5027419299044862 0.17533870419935055 0.9844255038519002 0 0 0 0.27 42 540 148 363 194 256 
2099 0.502741929904247 0.17533870419955297 0.9844255038524649 0 0 0 0.27 42 541 148 364 194 257 
2100 0.29392461614544835 0.1491451699486577 0.9489516305617053 0 0 0 0.33 13 558 42 542 146 754 148 365 164 343 172 130 194 258 196 313 200 406 213 780 
2101 -0.06660335147795353 0.1027152353421578 0.8905693142980241 0 0 0 0.24 42 543 148 366 196 314 217 9 
2102 0.5785745586330404 0.20133841902603977 1.0163608435300535 0 0 0 0.19 42 544 136 200 148 367 
2103 -0.43418841192347335 0.07766239336227111 0.8673084044493953 0 0 0 0.47 42 545 164 344 196 315 
2104 0.4979654408630581 0.18933691610076447 0.9804739436844669 0 0 0 0.29 42 546 136 201 164 345 165 74 194 259 213 781 235 87 
2105 0.3977261703268 0.1771048367327079 0.962014023762186 0 0 0 0.26 28 1415 42 547 136 202 146 755 148 368 159 150 164 346 165 75 172 131 194 260 196 316 197 71 213 782 232 214 234 437 235 88 
2106 0.46161124321561187 0.1854991114684205 0.9749496632443647 0 0 0 0.21 42 548 148 369 194 261 
2107 0.5179266861243063 0.1967445290398799 0.9855025931353889 0 0 0 0.12 42 549 136 203 148 370 220 94 
2108 0.38936844129406506 0.1824648396520889 0.9586349317067488 0 0 0 0.23 13 559 42 550 136 204 147 97 148 371 194 262 196 317 197 72 200 407 213 783 220 95 222 104 232 215 235 89 
2109 0.5632663828412428 0.20825275538672647 1.0042962712582435 0 0 0 0.2 42 551 148 372 162 57 163 33 
2110 0.594823576044 0.21648878077928402 1.0283740084797965 0 0 0 0.4 42 552 127 43 136 205 162 58 
2111 0.5208901097037051 0.20078029378717752 0.9789787568779784 0 0 0 0.31 42 553 148 373 162 59 
2112 0.5017347702319096 0.20029313011632563 0.9777538705620411 0 0 0 0.16 42 554 136 206 148 374 213 784 
2113 0.5019295292411725 0.20016588920316414 0.9770746717630161 0 0 0 0.17 42 555 136 207 146 756 148 375 196 318 213 785 235 90 
2114 0.5507209334773224 0.20900944444573957 0.9905338762902924 0 0 0 0.34 42 556 127 44 136 208 148 376 162 60 164 347 165 76 196 319 235 91 
2115 0.3811590316674824 0.1888212974785504 0.9538794549149261 0 0 0 0.53 42 557 127 45 136 209 148 377 184 41 194 263 196 320 220 96 
2116 0.5842774594774304 0.2247233478778043 1.0205441036863998 0 0 0 0.17 42 558 136 210 148 378 220 97 
2117 0.33583733547610045 0.19008576527754895 0.9418632445789117 0 0 0 0.18 42 559 196 321 220 98 
2118 0.5408734725580472 0.2177702573353606 0.9864483397898678 0 0 0 0.3 42 560 148 379 165 77 196 322 197 73 235 92 
2119 0.3847194753419792 0.19881500662547213 0.9468329961655358 0 0 0 0.08 42 561 162 61 220 99 
2120 -0.3341473220163285 0.12766005209820647 0.8591952256576211 0 0 0 0.34 42 562 148 380 196 323 214 504 
2121 -0.016779584677969903 0.15763085300642826 0.8878390712149778 0 0 0 0.26 42 563 148 381 162 62 194 264 196 324 220 100 
2122 0.5165781564675559 0.22088731771966857 0.9738815462898234 0 0 0 0.3 42 564 136 211 148 382 162 63 184 42 194 265 220 101 222 105 
2123 0.5656422853727813 0.23143216149715531 0.9986904610300122 0 0 0 0.19 42 565 148 383 165 78 235 93 
2124 0.497015147383601 0.22921454469489683 0.9682541036948734 0 0 0 0.48 42 566 127 46 213 786 
2125 0.020110170005315543 0.19054865642671626 0.8767570006816143 0 0 0 0.13 42 567 126 70 194 266 196 325 
2126 0.39877919303166415 0.23164975990038172 0.9474991011452735 0 0 0 0.2 42 568 148 384 194 267 
2127 0.5022492277140007 0.24501857491827833 0.9642594125814167 0 0 0 0.24 42 569 162 64 220 102 
2128 0.4979075624998844 0.24622235091543754 0.9619661843999034 0 0 0 0.21 42 570 163 34 164 348 
2129 0.5596453707882335 0.2658308014542344 0.9817634547447024 0 0 0 0.15 42 571 148 385 164 349 
2130 0.43065884137606364 -0.15741786658016027 1.0747110464580336 0 0 0 0.42 42 572 136 212 148 386 162 65 163 35 164 350 
2131 0.5105516264435407 -0.09104464977153848 1.0737513679864419 0 0 0 0.15 42 573 148 387 162 66 172 132 
2132 0.5104953861640731 -0.091013217414922 1.0736293034380775 0 0 0 0.16 42 574 126 71 148 388 162 67 172 133 220 103 
2133 0.510785173813461 -0.06515294639547804 1.0616646709102933 0 0 0 0.31 42 575 126 72 136 213 148 389 
2134 0.16953662772909053 -0.154328858502049 1.0184741775082742 0 0 0 0.43 42 576 126 73 164 351 196 326 198 3 220 104 
2135 0.3789213854662421 -0.09395524613428673 1.0441316791528514 0 0 0 0.29 42 577 146 757 148 390 220 105 227 113 
2136 0.36376582286118864 -0.09456432102205849 1.0418106385214485 0 0 0 0.5 13 560 42 578 146 758 148 391 157 319 159 151 164 352 172 134 176 486 185 134 196 327 197 74 200 408 204 235 213 787 214 505 220 106 221 79 227 114 235 94 
2137 0.4604606822289381 -0.06849920636455477 1.0504693854742215 0 0 0 0.46 42 579 126 74 136 214 148 392 159 152 164 353 204 236 
2138 0.17130417316255536 -0.14703611022427704 1.0072328953726952 0 0 0 0.19 42 580 196 328 220 107 
2139 0.09032942419637109 -0.1668340218363879 1.0084413170304731 0 0 0 0.3 42 581 147 98 148 393 159 153 162 68 164 354 176 487 185 135 227 115 232 216 
2140 0.40825279048658836 -0.07177269052066611 1.041057944322094 0 0 0 0.26 42 582 148 394 165 79 204 237 
2141 0.39173041608515125 -0.0722662177043692 1.0404130544167398 0 0 0 0.27 42 583 126 75 172 135 
2142 0.007011036310224443 -0.1660095428651793 0.989974471966983 0 0 0 0.31 42 584 126 76 196 329 200 409 224 80 
2143 0.007954173980376096 -0.16616221659390423 0.9885840251069701 0 0 0 0.24 42 585 126 77 148 395 196 330 217 10 220 108 224 81 
2144 0.45116476800813127 -0.04632735699863456 1.0468748020621843 0 0 0 0.51 42 586 126 78 194 268 196 331 198 4 
2145 0.06138818042658417 -0.1409184211216241 0.9925595988271452 0 0 0 0.41 42 587 200 410 214 506 
2146 0.06119838274015172 -0.1415926671767169 0.9928047889589281 0 0 0 0.36 42 588 162 69 196 332 200 411 
2147 0.6031832941500934 0.010237154688623988 1.0975652089771575 0 0 0 0.45 42 589 126 79 136 215 
2148 0.5376081235025623 0.0005977199150648626 1.0552479301891984 0 0 0 0.28 42 590 162 70 198 5 220 109 222 106 227 116 232 217 
2149 0.564293732612449 0.016117225305311005 1.0622954595483192 0 0 0 0.31 42 591 126 80 136 216 148 396 220 110 
2150 -0.0868463081553851 -0.14319589070422123 0.9639087190278423 0 0 0 0.6 42 592 127 47 136 217 146 759 148 397 159 154 162 71 185 136 196 333 200 412 217 11 224 82 
2151 -0.08656246868766203 -0.14317703884579225 0.9641663921694158 0 0 0 0.29 42 593 217 12 224 83 
2152 0.571969259816874 0.02485139234224695 1.0668232523335546 0 0 0 0.32 42 594 126 81 136 218 148 398 164 355 
2153 0.1988913050948015 -0.060178335585382055 1.0036436144208483 0 0 0 0.23 42 595 126 82 162 72 
2154 0.4871038850591703 0.00903959659767859 1.0411795314682113 0 0 0 0.25 42 596 147 99 148 399 164 356 213 788 
2155 0.0537638370767663 -0.09189283111688921 0.9791347812511481 0 0 0 0.3 42 597 126 83 148 400 220 111 
2156 -0.11946840552216037 -0.13205119052347183 0.954253445364564 0 0 0 0.3 28 1416 42 598 126 84 135 109 136 219 146 760 147 100 148 401 152 45 157 320 159 155 164 357 172 136 185 137 190 92 196 334 200 413 204 238 213 789 214 507 222 107 224 84 232 218 
2157 0.5855297331194446 0.04645171281464689 1.0728307698998503 0 0 0 0.47 42 599 127 48 136 220 148 402 162 73 163 36 164 358 198 6 220 112 
2158 0.5717049330692956 0.04905542711381325 1.0557993207506153 0 0 0 0.37 42 600 126 85 148 403 164 359 213 790 220 113 
2159 0.584560415434733 0.056871854560304 1.0628724577815607 0 0 0 0.79 42 601 136 221 163 37 
2160 0.2795418365087413 -0.0038231357494796833 0.9996360966925064 0 0 0 0.19 42 602 136 222 148 404 214 508 
2161 0.2539695399110408 -0.0055073452998718325 0.9964022513268221 0 0 0 0.29 42 603 126 86 136 223 148 405 159 156 162 74 163 38 196 335 217 13 220 114 
2162 0.6357487019291602 0.08321894562672932 1.1007411229242572 0 0 0 0.32 42 604 162 75 163 39 164 360 165 80 184 43 235 95 
2163 0.5647597663747002 0.06659725665227281 1.0480189329940226 0 0 0 0.21 42 605 164 361 165 81 222 108 235 96 
2164 0.5649691399248643 0.06686030482758501 1.0485490219673321 0 0 0 0.34 42 606 136 224 148 406 162 76 163 40 164 362 165 82 235 97 
2165 0.6010530647435671 0.08342934206178372 1.0731987164424253 0 0 0 0.36 42 607 127 49 136 225 162 77 163 41 164 363 235 98 
2166 -0.41744460089369434 -0.1172157247388845 0.9296569767363714 0 0 0 0.44 42 608 148 407 159 157 196 336 
2167 0.5613257739799963 0.12094847538317152 1.030538982903118 0 0 0 0.32 42 609 136 226 213 791 
2168 0.25911395180082414 0.07790352030503991 0.9732805327482943 0 0 0 0.39 42 610 126 87 194 269 220 115 
2169 0.5142564340019976 0.13785514012429823 0.9995046898990716 0 0 0 0.13 42 611 148 408 196 337 
2170 0.6000356613594001 0.15581584226678383 1.0442487941577216 0 0 0 0.46 42 612 164 364 194 270 
2171 0.22585293385089028 0.09915585528027755 0.9486852680881823 0 0 0 0.27 42 613 126 88 136 227 223 61 
2172 0.5855030814648894 0.16201708498362039 1.0333422106160517 0 0 0 0.38 42 614 164 365 222 109 
2173 0.5527921338101479 0.15589205930803254 1.0094510337172438 0 0 0 0.54 42 615 127 50 136 228 148 409 162 78 184 44 196 338 
2174 -0.20389323049137006 0.057150595342165454 0.8887661530452498 0 0 0 0.43 42 616 126 89 159 158 
2175 0.5515166934086053 0.176087577086854 1.003961324711952 0 0 0 0.4 42 617 164 366 165 83 
2176 0.045463045311531496 0.10317525345222875 0.9116493966144572 0 0 0 0.36 28 1417 42 618 146 761 148 410 213 792 234 438 
2177 0.5470335337715957 0.18137874972924617 0.9993788332195717 0 0 0 0.32 42 619 164 367 165 84 213 793 235 99 
2178 0.5512561834274021 0.18416763286685625 1.000795679322839 0 0 0 0.29 42 620 136 229 148 411 162 79 164 368 165 85 184 45 235 100 
2179 0.3976045822495255 0.16555761987643197 0.9658854990113271 0 0 0 0.29 42 621 147 101 148 412 172 137 194 271 235 101 
2180 0.5082185861187491 0.18092593275462338 0.9838904821142705 0 0 0 0.32 42 622 148 413 196 339 
2181 0.6002334442569823 0.20839122788361308 1.032760605537278 0 0 0 0.33 42 623 162 80 164 369 165 86 222 110 235 102 
2182 0.38399728372994446 0.17626963817449443 0.9619387651583933 0 0 0 0.41 13 561 28 1418 42 624 127 51 146 762 190 93 196 340 197 75 200 414 213 794 214 509 221 80 222 111 227 117 232 219 234 439 235 103 
2183 0.06985953690988549 0.13685130868078707 0.904620898694456 0 0 0 0.36 42 625 126 90 164 370 198 7 
2184 0.5719094096236083 0.2046274113230968 1.0096309372799896 0 0 0 0.24 42 626 136 230 148 414 
2185 0.5719239901118127 0.20460220009293606 1.0092595663336001 0 0 0 0.33 42 627 136 231 148 415 162 81 164 371 165 87 220 116 
2186 0.5022420490013 0.19353629693006058 0.9786902009147181 0 0 0 0.47 42 628 136 232 148 416 196 341 
2187 0.3605246018222129 0.17694472394214716 0.955165198504829 0 0 0 0.31 42 629 147 102 148 417 162 82 163 42 164 372 172 138 184 46 185 138 194 272 196 342 198 8 220 117 235 104 
2188 0.3006351581909982 0.17452690522355227 0.9422559302272804 0 0 0 0.58 42 630 185 139 194 273 196 343 222 112 
2189 0.33263908541670467 0.17908017736974763 0.9485511634057947 0 0 0 0.32 42 631 194 274 220 118 
2190 0.19512252035208805 0.16395290024161932 0.9183033825677374 0 0 0 0.43 42 632 135 110 162 83 220 119 
2191 0.08456121893561203 0.1527147828219536 0.9022453282352975 0 0 0 0.15 42 633 127 52 196 344 
2192 0.36593076425573406 0.1873210995029791 0.9530888050544706 0 0 0 0.37 42 634 196 345 220 120 
2193 0.3656824546464339 0.18784263759068498 0.9537521481412832 0 0 0 0.71 42 635 185 140 227 118 
2194 0.5974634924726563 0.2215871642095756 1.027455581738726 0 0 0 0.37 42 636 164 373 184 47 
2195 0.3985177434263756 0.19571215790933402 0.9548780046048269 0 0 0 0.37 42 637 136 233 148 418 162 84 164 374 165 88 184 48 235 105 
2196 0.5087992634959795 0.20875531627705987 0.9750273649861559 0 0 0 0.34 42 638 136 234 163 43 164 375 165 89 213 795 235 106 
2197 0.3072865112816682 0.18739629823484014 0.9390945236488294 0 0 0 0.12 42 639 162 85 194 275 217 14 220 121 
2198 0.3070025433908288 0.1872137351556169 0.9390373558097147 0 0 0 0.43 42 640 147 103 162 86 194 276 200 415 214 510 220 122 222 113 
2199 0.32684225277392553 0.18827090964034393 0.9410282939271637 0 0 0 0.36 42 641 148 419 162 87 163 44 194 277 220 123 
2200 0.32684225277392553 0.18827090964034393 0.9410282939271637 0 0 0 0.36 42 642 148 420 162 88 163 45 194 278 220 124 
2201 0.5024947440628532 0.21049534440627626 0.9739697321071629 0 0 0 0.46 42 643 136 235 146 763 148 421 162 89 163 46 164 376 165 90 172 139 196 346 213 796 220 125 
2202 0.5895180533584143 0.22620249837613826 1.0197994160305972 0 0 0 0.38 42 644 127 53 136 236 164 377 165 91 
2203 0.34493083267560315 0.19246120916047818 0.9421198686701354 0 0 0 0.24 42 645 148 422 162 90 163 47 194 279 196 347 220 126 
2204 0.3840515005872642 0.19930542528740205 0.9513077280631852 0 0 0 0.27 13 562 42 646 163 48 184 49 214 511 222 114 
2205 0.3613188321441192 0.1978149780303015 0.9460402608515918 0 0 0 0.46 42 647 127 54 148 423 162 91 164 378 165 92 184 50 194 280 196 348 222 115 235 107 
2206 0.5363241453479614 0.21955904797720727 0.9867403471843887 0 0 0 0.33 42 648 197 76 235 108 
2207 0.5308029535491905 0.22570862547032364 0.9747937685942772 0 0 0 0.58 42 649 127 55 162 92 217 15 220 127 222 116 
2208 0.5575714770111948 0.23481091294304332 0.993368044781627 0 0 0 0.1 42 650 148 424 165 93 235 109 
2209 0.02703387277831851 0.19849864883585677 0.8739828596336566 0 0 0 0.28 42 651 148 425 196 349 
2210 0.45708653726030124 0.24719244769949011 0.9540482099153443 0 0 0 0.2 42 652 165 94 235 110 
2211 0.549386341911424 0.258867184632455 0.9777541328090006 0 0 0 0.32 42 653 148 426 164 379 213 797 220 128 
2212 0.5498978557809131 0.2585098499850477 0.9765293232745436 0 0 0 0.16 42 654 148 427 164 380 
2213 0.4119459784600546 -0.13427640033209812 1.0673273202816205 0 0 0 0.31 42 655 126 91 136 237 159 159 
2214 0.554322279708668 -0.08466652402410421 1.0866744535371153 0 0 0 0.48 42 656 127 56 136 238 
2215 0.23117520166179786 -0.1429917976731602 1.028910403909088 0 0 0 0.39 42 657 126 92 127 57 136 239 148 428 159 160 162 93 163 49 164 381 185 141 196 350 198 9 220 129 222 117 227 119 
2216 0.6257695703683831 -0.011240896382852684 1.1203304308410182 0 0 0 0.43 42 658 136 240 162 94 163 50 164 382 220 130 
2217 0.08676702881958348 -0.14772575272344085 0.9985029426603476 0 0 0 0.59 42 659 200 416 222 118 
2218 0.41072575385532517 -0.023466039250853922 1.038437136507351 0 0 0 0.07 42 660 136 241 148 429 
2219 0.10258796158633106 -0.09821486838146855 0.9763959596209603 0 0 0 1.13 42 661 159 161 196 351 
2220 0.5577187306147668 0.03925975308000307 1.0511701979706687 0 0 0 0.37 42 662 127 58 136 242 148 430 162 95 163 51 165 95 184 51 235 111 
2221 0.6350013656159983 0.06454933779678593 1.1062037355192282 0 0 0 0.33 42 663 136 243 164 383 
2222 -0.5953883627549149 -0.21089934541622668 0.9658433885666907 0 0 0 0.74 42 664 127 59 196 352 224 85 
2223 -0.5903504744023559 -0.20980227848846983 0.9618484656114943 0 0 0 0.38 42 665 196 353 224 86 
2224 0.6228969744973065 0.07130500664141229 1.0949559115326353 0 0 0 0.22 42 666 136 244 163 52 165 96 184 52 
2225 0.5582719915482013 0.057504739185929396 1.0467040942876904 0 0 0 0.21 42 667 127 60 136 245 148 431 
2226 0.5547973464106102 0.06356834928602481 1.038544900203864 0 0 0 0.29 42 668 126 93 127 61 136 246 163 53 164 384 165 97 213 798 222 119 235 112 
2227 0.6381399039344391 0.09571857928874074 1.098108762311127 0 0 0 0.2 42 669 162 96 232 220 235 113 
2228 0.5610894698482505 0.12942114105806052 1.0273839684502621 0 0 0 0.31 42 670 148 432 165 98 213 799 235 114 
2229 0.596514111615837 0.14484913596820262 1.0504115194346346 0 0 0 0.43 42 671 127 62 136 247 194 281 
2230 0.35276967292639677 0.17857576174688392 0.953281190146623 0 0 0 0.3 42 672 148 433 164 385 165 99 185 142 194 282 196 354 220 131 235 115 
2231 0.5146031099176976 0.2151332356489166 0.9740753322120267 0 0 0 0.19 42 673 162 97 163 54 194 283 220 132 
2232 0.1691257571820713 0.17853181048817385 0.9106198501116108 0 0 0 0.2 42 674 172 140 196 355 
2233 -0.5194895444677312 0.12418954604473498 0.8430110805486911 0 0 0 0.2 42 675 159 162 224 87 
2234 0.08415779670371243 0.1776719039209438 0.8969414163568719 0 0 0 0.41 42 676 164 386 196 356 198 10 213 800 
2235 0.29900499039958706 0.19442307760400337 0.8969515673614997 0 0 0 2.02 42 677 196 357 227 120 
2236 0.5457556232415245 -0.055713886826473255 1.075116801201124 0 0 0 0.18 42 678 126 94 148 434 220 133 
2237 0.20071246862267086 -0.14466921780346612 1.0273958643633139 0 0 0 0.31 42 679 126 95 159 163 220 134 
2238 0.45174252975189516 -0.05566573878879697 1.049032703782698 0 0 0 0.26 28 1419 42 680 128 139 146 764 148 435 165 100 176 488 204 239 234 440 235 116 
2239 0.6120497118144546 -0.005874153664071566 1.1163526874295346 0 0 0 0.24 42 681 162 98 163 55 
2240 0.2149079033858316 -0.0918200222559863 1.0063133765595773 0 0 0 0.49 42 682 136 248 147 104 148 436 159 164 162 99 172 141 185 143 194 284 204 240 217 16 220 135 
2241 0.3619231172286435 -0.04909716870040979 1.0304979181637806 0 0 0 0.41 42 683 162 100 176 489 
2242 -0.14312881764483085 -0.1362574261804406 0.9542166577356568 0 0 0 0.37 42 684 159 165 196 358 
2243 0.5645188474927819 0.03096276849706915 1.058060727718291 0 0 0 0.17 42 685 136 249 163 56 220 136 222 120 
2244 0.5646070244154371 0.030873499930399964 1.0570196690189433 0 0 0 0.28 42 686 136 250 148 437 162 101 163 57 
2245 0.5917473813750552 0.05497311210557606 1.0749272738290379 0 0 0 0.61 42 687 127 63 147 105 163 58 198 11 
2246 0.5554956972546664 0.046145451944776865 1.0433906947410019 0 0 0 0.26 42 688 126 96 147 106 164 387 213 801 
2247 0.5553896685427221 0.04607014439063584 1.0438156121284594 0 0 0 0.34 42 689 126 97 127 64 136 251 147 107 163 59 165 101 184 53 213 802 222 121 232 221 235 117 
2248 0.5841316893913965 0.07990983770993365 1.0615251923807638 0 0 0 0.42 42 690 136 252 162 102 165 102 235 118 
2249 0.5589357869272175 0.07534199902447826 1.0442270109802414 0 0 0 0.52 42 691 127 65 163 60 
2250 0.5852508482825637 0.09158445496102367 1.0538129240392766 0 0 0 0.4 42 692 126 98 136 253 
2251 0.26702690750584074 0.025416264819238095 0.987446936986999 0 0 0 0.61 42 693 126 99 200 417 217 17 
2252 0.4504634513712119 0.10592869450376076 0.9945831312518693 0 0 0 0.27 42 694 127 66 148 438 196 359 
2253 0.5257818102302828 0.19525079742347534 0.9787785257585438 0 0 0 0.35 42 695 127 67 163 61 220 137 
