# 3D point list with one line of data per point:
#   POINT3D_ID, X, Y, Z, R, G, B, ERROR, TRACK[] as (IMAGE_ID, POINT2D_IDX)
# Number of points: 366, mean track length: 8.57
8692 0.014460776087007753 -0.19896741728949957 0.884797268440378 0 0 0 0.3 34 2971 37 3496 45 1110 47 1117 57 2541 59 1935 86 2266 90 948 94 2434 116 2893 125 2910 139 1350 140 2072 143 1243 144 2210 145 1307 149 1548 151 3331 154 1986 161 1347 166 2199 183 1384 191 1537 193 2535 202 1537 205 1247 211 2303 212 1776 216 1919 228 2548 233 1144 
8693 -0.4425549848264791 -0.08984988614165684 0.8629355280529994 0 0 0 0.28 57 2542 58 1372 116 2894 151 3332 228 2549 
8694 -0.445912992024048 -0.09009241091931713 0.8573610383555665 0 0 0 0.17 57 2543 58 1373 116 2895 
8695 -0.4181627076027242 -0.06509858804381617 1.0117212858039888 0 0 0 1.23 57 2544 183 1385 218 2249 228 2550 
8696 -0.4052940362517473 -0.09175859598255018 0.8696753219655027 0 0 0 0.24 46 3938 57 2545 58 1374 94 2435 125 2911 151 3333 
8697 -0.6174242881650515 -0.004971946616898337 1.054794063277207 0 0 0 0.72 57 2546 58 1375 59 1936 125 2912 202 1538 
8698 -0.4159127116106197 -0.09001944994321362 0.8604126854111844 0 0 0 0.24 57 2547 58 1376 116 2896 125 2913 
8699 -0.35680712959609445 -0.0970440578844044 0.8868852607102755 0 0 0 0.32 57 2548 59 1937 202 1539 212 1777 228 2551 
8700 -0.4376255776480369 -0.0780742814849 0.8775776040732627 0 0 0 0.25 57 2549 58 1377 211 2304 
8701 -0.39790655665351576 -0.08927220645251799 0.8728392944791625 0 0 0 0.42 57 2550 116 2897 125 2914 
8702 0.07783235218861248 -0.1991769639100199 0.8879084656537498 0 0 0 0.27 37 3497 57 2551 125 2915 140 2073 166 2200 
8703 -0.6110380422649199 -0.0019226288694193469 1.0425261030158193 0 0 0 0.26 37 3498 46 3939 57 2552 191 1538 212 1778 228 2552 
8704 -0.5367445223870158 -0.056006215963628446 0.8529786502734173 0 0 0 0.41 57 2553 58 1378 125 2916 161 1348 166 2201 183 1386 189 1914 226 1395 
8705 -0.430563353509657 -0.08232374094204796 0.8493034780794443 0 0 0 0.23 57 2554 58 1379 94 2436 
8706 -0.6020670225445641 0.03004164259553593 1.2181601325556657 0 0 0 0.52 57 2555 58 1380 228 2553 
8707 -0.42911184887900516 -0.07681850481587772 0.874589766470039 0 0 0 0.27 57 2556 116 2898 211 2305 
8708 -0.42841066444650466 -0.07452789847322969 0.8657445220225741 0 0 0 0.15 57 2557 125 2917 153 479 228 2554 
8709 -0.41024762349708543 -0.07676162336914014 0.8733154251424123 0 0 0 0.36 37 3499 57 2558 94 2437 116 2899 125 2918 143 1244 151 3334 154 1987 189 1915 211 2306 
8710 -0.4102591831999647 -0.07653114314485987 0.8729601339099363 0 0 0 0.19 57 2559 94 2438 125 2919 151 3335 154 1988 
8711 -0.5940492782491366 0.010592886839963402 1.089924269500712 0 0 0 0.36 57 2560 58 1381 228 2555 
8712 -0.3406486773315371 -0.09217741582329089 0.8731753117308316 0 0 0 0.23 57 2561 86 2267 94 2439 116 2900 151 3336 193 2536 218 2250 
8713 -0.34346659313084293 -0.09241709266381334 0.8687502293056492 0 0 0 0.22 57 2562 86 2268 94 2440 116 2901 
8714 -0.4320074391644702 -0.0699490125795747 0.8670182771810487 0 0 0 0.13 57 2563 132 98 205 1248 212 1779 
8715 -0.06972876712690898 -0.1595665072880434 0.842533597403687 0 0 0 0.09 57 2564 211 2307 228 2556 
8716 -0.45201182179208105 -0.06475629969356746 0.8660165077116858 0 0 0 0.12 57 2565 145 1308 154 1989 183 1387 
8717 -0.38732393263609954 -0.0762528442832967 0.8795847966964893 0 0 0 0.21 57 2566 132 99 211 2308 228 2557 
8718 -0.3826696584323424 -0.0783223686561437 0.8716711220435741 0 0 0 0.07 57 2567 58 1382 228 2558 
8719 -0.19012491251434321 -0.11345336057161655 0.929122600500372 0 0 0 0.19 55 2653 57 2568 58 1383 116 2902 145 1309 151 3337 183 1388 
8720 -0.4118984217610084 -0.07164436872574534 0.8608633673680064 0 0 0 0.24 57 2569 140 2074 154 1990 193 2537 
8721 -0.5989347110892828 0.038552977123389315 1.192488723151791 0 0 0 0.49 37 3500 57 2570 58 1384 154 1991 211 2309 228 2559 
8722 -0.4128027534318501 -0.06994749502045992 0.8663030961523176 0 0 0 0.28 57 2571 94 2441 132 100 153 480 211 2310 228 2560 
8723 -0.2696679240930707 -0.09064948457237372 0.8916103341428633 0 0 0 0.34 57 2572 116 2903 228 2561 
8724 -0.4763988051605247 -0.046755578202034145 0.8515398186621345 0 0 0 0.3 57 2573 94 2442 143 1245 154 1992 
8725 -0.5308713893277444 -0.03405451486884776 0.8517311231593059 0 0 0 0.3 57 2574 116 2904 143 1246 
8726 -0.29408575475723187 -0.08271029808448657 0.8670729822104594 0 0 0 0.29 57 2575 94 2443 228 2562 
8727 -0.23687515975806145 -0.09176334162472885 0.8843922168693759 0 0 0 0.35 57 2576 149 1549 218 2251 
8728 -0.6165908592292435 -0.020310278660498563 0.7998101846876622 0 0 0 0.31 57 2577 58 1385 86 2269 116 2905 145 1310 151 3338 154 1993 161 1349 166 2202 228 2563 
8729 -0.4636533839594585 -0.04388529558435101 0.849139769380236 0 0 0 0.19 57 2578 149 1550 189 1916 
8730 -0.5130867621725775 -0.03058340874865322 0.8425088012738781 0 0 0 0.15 57 2579 116 2906 154 1994 
8731 -0.26986587516831306 -0.07742878810995449 0.8723561666022179 0 0 0 0.3 57 2580 94 2444 139 1351 228 2564 
8732 -0.17668210256345898 -0.09205864692264426 0.8791570860709097 0 0 0 0.26 46 3940 57 2581 116 2907 132 101 
8733 -0.26679970410176457 -0.07095635711263011 0.8743616947930536 0 0 0 0.37 46 3941 57 2582 58 1386 86 2270 116 2908 139 1352 140 2075 153 481 177 1544 183 1389 193 2538 205 1249 218 2252 228 2565 
8734 -0.4151003706513308 -0.039089129249669875 0.8508360578625508 0 0 0 0.25 57 2583 116 2909 125 2920 
8735 -0.5733156421603621 -0.011731945919530964 0.8179133558473658 0 0 0 0.3 37 3501 57 2584 125 2921 145 1311 211 2311 228 2566 
8736 -0.16595369525317358 -0.0824826980969395 0.8758664910252166 0 0 0 0.24 46 3942 57 2585 58 1387 86 2271 116 2910 125 2922 132 102 144 2211 151 3339 154 1995 177 1545 211 2312 218 2253 228 2567 
8737 -0.1937048040997067 -0.07154239165534433 0.875176588251318 0 0 0 0.09 57 2586 132 103 233 1145 
8738 0.3163224124238419 -0.1561725095526968 0.9668212920915706 0 0 0 0.41 57 2587 151 3340 216 1920 
8739 -0.4053363338403265 -0.030691398564296393 0.8516116630841878 0 0 0 0.2 55 2654 57 2588 151 3341 161 1350 
8740 -0.5122993209164244 -0.009087791994258021 0.8400505462976163 0 0 0 0.19 57 2589 154 1996 161 1351 183 1390 
8741 -0.6138495727915501 0.05037840711350048 1.0095489754653821 0 0 0 0.29 34 2972 46 3943 57 2590 86 2272 151 3342 154 1997 166 2203 189 1917 191 1539 
8742 -0.1407281765454265 -0.07130081137467913 0.8743671967923172 0 0 0 0.31 37 3502 46 3944 57 2591 58 1388 86 2273 94 2445 116 2911 125 2923 132 104 140 2076 151 3343 154 1998 177 1546 193 2539 216 1921 218 2254 
8743 0.4249127191846553 -0.15890977808159376 1.0012428880059359 0 0 0 0.5 57 2592 151 3344 218 2255 228 2568 
8744 0.5756529035206429 -0.20435673963878662 0.9026394497896654 0 0 0 0.19 57 2593 119 1392 149 1551 
8745 -0.490976414520017 -0.0018006494882998514 0.8492940437714952 0 0 0 0.29 34 2973 48 483 57 2594 58 1389 116 2912 119 1393 144 2212 153 482 189 1918 191 1540 216 1922 218 2256 226 1396 
8746 -0.61598610023147 0.050521762387631626 0.9491444873726448 0 0 0 0.28 57 2595 58 1390 211 2313 212 1780 
8747 -0.18784105380303728 -0.052376113081575415 0.870846296776352 0 0 0 0.25 37 3503 57 2596 58 1391 94 2446 116 2913 119 1394 125 2924 140 2077 143 1247 144 2213 145 1312 151 3345 166 2204 177 1547 183 1391 189 1919 191 1541 210 457 218 2257 226 1397 228 2569 
8748 -0.5830016496431076 0.012512820195580438 0.7962459396983296 0 0 0 0.37 55 2655 57 2597 119 1395 145 1313 161 1352 211 2314 228 2570 
8749 -0.43522544833100407 -0.003537973315391351 0.8508214101033867 0 0 0 0.14 57 2598 125 2925 226 1398 
8750 -0.15846379292243956 -0.05140151338660322 0.8683612973334545 0 0 0 0.3 46 3945 57 2599 86 2274 94 2447 116 2914 139 1353 154 1999 191 1542 211 2315 218 2258 228 2571 
8751 0.23403014993293475 -0.1223086984200979 0.8896713754538937 0 0 0 0.27 57 2600 145 1314 189 1920 
8752 -0.4197267922768748 -0.0018341319857625431 0.8519695739054525 0 0 0 0.26 57 2601 139 1354 189 1921 
8753 -0.4084784609741645 -0.0011754750637214591 0.8411631638203423 0 0 0 0.25 57 2602 86 2275 125 2926 226 1399 
8754 -0.38810047776927153 -0.0037445722042874796 0.8516798106566094 0 0 0 0.35 37 3504 55 2656 57 2603 94 2448 125 2927 140 2078 154 2000 166 2205 183 1392 193 2540 216 1923 228 2572 
8755 0.020578690979440012 -0.0836606577720455 0.8320648262877439 0 0 0 0.46 57 2604 140 2079 218 2259 
8756 0.2462286708757473 -0.11270756301766308 0.8946201116926843 0 0 0 0.3 57 2605 59 1938 166 2206 193 2541 
8757 -0.6226516970498861 0.06360865822305117 0.9404296418197459 0 0 0 0.36 37 3505 46 3946 57 2606 58 1392 59 1939 86 2276 151 3346 154 2001 166 2207 193 2542 228 2573 
8758 0.2349778871775791 -0.10494114184847031 0.9078998260329685 0 0 0 0.63 57 2607 94 2449 125 2928 145 1315 151 3347 189 1922 
8759 -0.5019817659783412 0.018824778101601294 0.840600061644092 0 0 0 0.28 57 2608 58 1393 151 3348 
8760 -0.6264625799441264 0.05404841951899916 0.8827722166182338 0 0 0 0.22 57 2609 58 1394 216 1924 
8761 -0.6136886106547859 0.09052001930490504 1.0392484704957936 0 0 0 0.38 57 2610 58 1395 125 2929 139 1355 151 3349 154 2002 191 1543 228 2574 
8762 -0.3825537085409739 0.004956071150542102 0.8567945432054319 0 0 0 0.23 57 2611 119 1396 151 3350 212 1781 228 2575 
8763 0.4545579303661745 -0.13308382001395075 0.9269715151694632 0 0 0 0.23 57 2612 116 2915 140 2080 
8764 0.753008375168167 -0.21697119119914002 0.7898743796919129 0 0 0 0.43 57 2613 59 1940 116 2916 144 2214 145 1316 154 2003 161 1353 212 1782 216 1925 228 2576 233 1146 
8765 0.7649847399133495 -0.22404563351523735 0.7589851029966167 0 0 0 0.38 57 2614 59 1941 137 1009 139 1356 154 2004 189 1923 202 1540 216 1926 228 2577 233 1147 
8766 0.018030187875590256 -0.06894537827597688 0.8317438025634397 0 0 0 0.97 47 1118 57 2615 59 1942 116 2917 137 1010 140 2081 149 1552 151 3351 193 2543 205 1250 211 2316 228 2578 
8767 -0.01309732632749039 -0.056596802176169775 0.8261750129519293 0 0 0 0.21 57 2616 59 1943 116 2918 125 2930 144 2215 154 2005 
8768 -0.6257681313169435 0.06077923801509476 0.8548241367586877 0 0 0 0.33 57 2617 58 1396 228 2579 
8769 -0.2636293083243511 -0.007150631417108886 0.8404424527326507 0 0 0 0.18 37 3506 57 2618 58 1397 86 2277 94 2450 116 2919 125 2931 149 1553 151 3352 177 1548 193 2544 210 458 216 1927 218 2260 228 2580 
8770 -0.26372225474506983 -0.007124743729043086 0.8402557283096124 0 0 0 0.19 57 2619 116 2920 149 1554 210 459 226 1400 
8771 -0.25325565632713387 -0.004286785838051269 0.8378118388360355 0 0 0 0.15 57 2620 58 1398 86 2278 116 2921 125 2932 140 2082 151 3353 177 1549 193 2545 218 2261 
8772 -0.2705081126676879 0.004267194194491122 0.850125036160189 0 0 0 0.44 37 3507 46 3947 57 2621 86 2279 116 2922 140 2083 166 2208 193 2546 202 1541 226 1401 
8773 -0.6098352892001203 0.1061985502065639 1.0182382475868388 0 0 0 0.48 57 2622 58 1399 154 2006 228 2581 
8774 -0.3693480496552006 0.0174851086669009 0.8268953629908191 0 0 0 0.49 57 2623 58 1400 125 2933 154 2007 210 460 228 2582 
8775 -0.41524807292690374 0.026385230778908864 0.8267832100676054 0 0 0 0.4 55 2657 57 2624 58 1401 86 2280 94 2451 116 2923 119 1397 125 2934 139 1357 143 1248 145 1317 149 1555 151 3354 193 2547 226 1402 
8776 -0.2400881537009692 -0.0005024492839487486 0.8460358034445778 0 0 0 0.71 34 2974 37 3508 57 2625 58 1402 86 2281 94 2452 116 2924 137 1011 140 2084 144 2216 145 1318 151 3355 154 2008 183 1393 189 1924 191 1544 193 2548 218 2262 226 1403 
8777 -0.6123838857983296 0.07994487456993624 0.9011347335045707 0 0 0 0.29 57 2626 58 1403 119 1398 
8778 -0.6123619098371142 0.05062817800677597 0.7792999557866062 0 0 0 0.31 34 2975 46 3948 57 2627 58 1404 86 2282 94 2453 125 2935 151 3356 154 2009 193 2549 218 2263 228 2583 
8779 -0.33982296648969584 0.022387748916681934 0.8477236459872907 0 0 0 0.19 57 2628 119 1399 228 2584 
8780 0.7699367049748246 -0.21043668782222688 0.6524941990877726 0 0 0 0.28 57 2629 137 1012 161 1354 216 1928 228 2585 
8781 -0.597465661143215 0.13401405687241216 1.0845483251724182 0 0 0 0.32 57 2630 211 2317 228 2586 
8782 0.7656939365113857 -0.2038856604125027 0.6462877290333798 0 0 0 0.69 57 2631 119 1400 137 1013 139 1358 145 1319 161 1355 205 1251 216 1929 
8783 -0.36789775794177265 0.03170144415720626 0.8283010717529105 0 0 0 0.24 57 2632 86 2283 216 1930 228 2587 
8784 -0.4888729944938809 0.05381176782608978 0.8248017117321226 0 0 0 0.16 57 2633 139 1359 145 1320 151 3357 
8785 0.7448244708152663 -0.20606522603391067 0.6007737592505266 0 0 0 0.31 57 2634 140 2085 145 1321 189 1925 
8786 0.7882677903044356 -0.12891648839460143 0.8949071052292793 0 0 0 0.5 57 2635 119 1401 139 1360 154 2010 166 2209 211 2318 216 1931 
8787 0.25168897813115493 -0.045915648466000165 0.8795078953992294 0 0 0 0.28 57 2636 143 1249 145 1322 161 1356 189 1926 193 2550 205 1252 218 2264 
8788 0.0904002448658406 -0.030561270379243576 0.822543393404979 0 0 0 0.4 57 2637 119 1402 151 3358 161 1357 191 1545 211 2319 226 1404 233 1148 
8789 0.08560013172575867 -0.034787804497069745 0.7922440708040641 0 0 0 0.45 57 2638 125 2936 228 2588 
8790 -0.30875070429763574 0.037940175296026106 0.8290828590563112 0 0 0 0.33 57 2639 149 1556 161 1358 183 1394 210 461 216 1932 228 2589 
8791 0.22687262453606905 -0.03459375040233398 0.8737772330312292 0 0 0 0.43 57 2640 166 2210 191 1546 
8792 -0.10508848796343648 0.011324789043879731 0.8473810005488206 0 0 0 0.29 37 3509 57 2641 94 2454 140 2086 145 1323 149 1557 151 3359 154 2011 177 1550 183 1395 193 2551 216 1933 218 2265 226 1405 
8793 0.3239804035705034 -0.047021827427499156 0.876134006782085 0 0 0 0.19 57 2642 59 1944 119 1403 154 2012 177 1551 
8794 -0.2092399369011034 0.03399845330136171 0.8657508391986931 0 0 0 0.14 57 2643 125 2937 151 3360 216 1934 
8795 0.4120837968253725 -0.05663059246955273 0.8794249450614937 0 0 0 0.29 57 2644 122 494 166 2211 
8796 -0.620306457031179 0.11042312188032764 0.900950934435059 0 0 0 0.31 46 3949 57 2645 58 1405 59 1945 86 2284 125 2938 139 1361 154 2013 166 2212 228 2590 
8797 0.358018750013569 -0.04888638216302832 0.8694269349875482 0 0 0 0.24 57 2646 116 2925 143 1250 
8798 0.39951083265215837 -0.04810324601013271 0.8873277339811053 0 0 0 0.29 57 2647 94 2455 218 2266 
8799 0.7708824754909281 -0.11213005211825901 0.8634531206224736 0 0 0 0.56 57 2648 139 1362 151 3361 216 1935 228 2591 
8800 0.7569948559325518 -0.14467237291362114 0.720453228279469 0 0 0 0.26 57 2649 137 1014 139 1363 140 2087 143 1251 145 1324 154 2014 212 1783 216 1936 228 2592 233 1149 
8801 0.7603986674927488 -0.14462710471263068 0.7224119017908689 0 0 0 0.32 57 2650 212 1784 216 1937 228 2593 
8802 0.09962767894867668 -0.014560458360194902 0.8162654101711299 0 0 0 0.68 57 2651 86 2285 137 1015 154 2015 193 2552 
8803 0.13658694871428242 -0.023066823171567115 0.81429860841768 0 0 0 0.21 57 2652 116 2926 149 1558 
8804 -0.3139341081107862 0.05101967539991836 0.8310635336294984 0 0 0 0.26 57 2653 125 2939 151 3362 166 2213 189 1927 
8805 0.7409532130131725 -0.2101695320541778 0.4479703171441367 0 0 0 0.24 57 2654 139 1364 177 1552 
8806 -0.2265380180194582 0.04202902519014076 0.8391108483497411 0 0 0 0.27 57 2655 86 2286 94 2456 116 2927 125 2940 151 3363 154 2016 218 2267 228 2594 
8807 -0.22781956841691453 0.04168580405542217 0.8374601628969837 0 0 0 0.33 57 2656 94 2457 116 2928 125 2941 151 3364 228 2595 
8808 0.5362296647505673 -0.059616191687157656 0.8777003079355639 0 0 0 0.48 34 2976 57 2657 90 949 125 2942 140 2088 151 3365 166 2214 177 1553 228 2596 
8809 -0.10357259047699821 0.026701988707601588 0.8433582677571076 0 0 0 0.3 55 2658 57 2658 86 2287 119 1404 149 1559 151 3366 154 2017 177 1554 193 2553 210 462 216 1938 226 1406 228 2597 233 1150 
8810 0.7566869107353017 -0.14396848150868036 0.6820197694336338 0 0 0 0.3 55 2659 57 2659 59 1946 137 1016 140 2089 143 1252 144 2217 145 1325 177 1555 189 1928 202 1542 205 1253 212 1785 216 1939 228 2598 
8811 0.76269701782803 -0.11694055452632768 0.7803006902446518 0 0 0 0.31 57 2660 86 2288 119 1405 139 1365 144 2218 154 2018 161 1359 191 1547 205 1254 212 1786 228 2599 
8812 -0.014446220108021076 0.005050941108938739 0.803267632675328 0 0 0 0.43 57 2661 86 2289 116 2929 166 2215 
8813 0.7781805111905575 -0.0868582428727731 0.8796733448652543 0 0 0 0.14 57 2662 191 1548 211 2320 
8814 -0.6224622229919047 0.11707648736690894 0.8731355178893315 0 0 0 0.45 57 2663 193 2554 202 1543 228 2600 
8815 -0.16794699686741865 0.04414317462797778 0.8532764540846733 0 0 0 0.33 57 2664 58 1406 205 1255 
8816 -0.10231940712266563 0.032447139087959015 0.8414673150261395 0 0 0 0.28 57 2665 94 2458 125 2943 177 1556 193 2555 210 463 211 2321 216 1940 218 2268 228 2601 
8817 -0.40441167598699324 0.07088521403156549 0.8102835156030465 0 0 0 0.21 57 2666 140 2090 183 1396 
8818 0.3850810869745586 -0.026541119313093418 0.8722874921507883 0 0 0 0.16 57 2667 137 1017 211 2322 212 1787 
8819 0.7788941721923073 -0.09603197850444523 0.8237609965115278 0 0 0 0.35 57 2668 86 2290 119 1406 144 2219 212 1788 216 1941 
8820 0.755477380590462 -0.10533786962274541 0.7759761006235406 0 0 0 0.48 55 2660 57 2669 59 1947 119 1407 143 1253 166 2216 177 1557 189 1929 193 2556 233 1151 
8821 0.3642753569514927 -0.01649657026874922 0.8841909779507953 0 0 0 0.42 46 3950 55 2661 57 2670 86 2291 94 2459 116 2930 119 1408 125 2944 140 2091 143 1254 151 3367 177 1558 183 1397 189 1930 202 1544 212 1789 
8822 0.8036872814168855 -0.2014318196232524 0.43316550362293416 0 0 0 0.19 57 2671 140 2092 202 1545 
8823 0.7619567201332669 -0.18900779899595932 0.4485549299664118 0 0 0 0.19 57 2672 139 1366 189 1931 
8824 0.7648076880995635 -0.08631758925542167 0.8011376242626987 0 0 0 0.64 57 2673 86 2292 166 2217 211 2323 212 1790 
8825 0.7679000832863708 -0.08328929584106233 0.8121156338772045 0 0 0 0.29 57 2674 86 2293 144 2220 166 2218 189 1932 212 1791 216 1942 228 2602 233 1152 
8826 0.732976519690508 -0.14970116596797445 0.5538763238498721 0 0 0 0.52 57 2675 119 1409 140 2093 177 1559 191 1549 
8827 0.7170529341490868 -0.1534690948843987 0.5347644213580063 0 0 0 0.41 57 2676 59 1948 189 1933 191 1550 
8828 -0.277928301172703 0.06709627955648689 0.8231610436740345 0 0 0 0.29 57 2677 59 1949 191 1551 
8829 -0.12404573463074696 0.049204803882575 0.8365465902233498 0 0 0 0.31 57 2678 86 2294 94 2460 116 2931 140 2094 149 1560 151 3368 161 1360 177 1560 189 1934 191 1552 202 1546 211 2324 212 1792 228 2603 
8830 0.7556489867231553 -0.11448913864632355 0.6831848875687373 0 0 0 0.61 57 2679 145 1326 161 1361 205 1256 212 1793 228 2604 
8831 0.31807934972062113 -0.0011538729909144028 0.8659265530492183 0 0 0 0.3 57 2680 145 1327 149 1561 161 1362 205 1257 211 2325 
8832 0.7774088553568849 -0.043711363269780826 0.9425016665414743 0 0 0 0.39 57 2681 189 1935 211 2326 212 1794 233 1153 
8833 -0.402475251894729 0.08370446853056926 0.8126611529614709 0 0 0 0.2 57 2682 59 1950 119 1410 218 2269 
8834 0.4653971341914845 -0.015587068353583419 0.8704645449950177 0 0 0 0.37 34 2977 47 1119 55 2662 57 2683 86 2295 94 2461 116 2932 125 2945 140 2095 144 2221 145 1328 151 3369 154 2019 166 2219 177 1561 193 2557 216 1943 218 2270 226 1407 228 2605 
8835 -0.10831318873288899 0.05219325316602635 0.8262504010683398 0 0 0 0.23 57 2684 119 1411 149 1562 189 1936 202 1547 212 1795 226 1408 
8836 0.7091275836254698 -0.12026411433253405 0.6048413102354661 0 0 0 0.27 57 2685 59 1951 145 1329 
8837 0.7436251331871259 -0.1099915644889336 0.6500454339853107 0 0 0 0.2 57 2686 59 1952 139 1367 161 1363 
8838 -0.037653967055997106 0.04591301724697902 0.8311233462788433 0 0 0 1.0 57 2687 177 1562 210 464 216 1944 
8839 0.7996484494425729 -0.19825246697345977 0.3483156615773591 0 0 0 0.27 57 2688 189 1937 191 1553 
8840 -0.18186846586169422 0.06439927412416359 0.8158168140790016 0 0 0 0.35 57 2689 149 1563 211 2327 
8841 0.7496230541346404 -0.054872491284052055 0.8237141879727051 0 0 0 0.37 57 2690 86 2296 139 1368 144 2222 216 1945 228 2606 
8842 0.7452067020224437 -0.09205262808687932 0.6959629334944646 0 0 0 0.41 57 2691 59 1953 116 2933 119 1412 139 1369 161 1364 191 1554 205 1258 233 1154 
8843 -0.5333501285057035 0.1071104605536685 0.7955541186825194 0 0 0 0.27 46 3951 57 2692 58 1407 86 2297 94 2462 116 2934 145 1330 151 3370 153 483 154 2020 193 2558 211 2328 216 1946 218 2271 228 2607 
8844 -0.16519870294600297 0.0661433860614321 0.8232672647615452 0 0 0 0.3 37 3510 57 2693 86 2298 90 950 116 2935 189 1938 210 465 
8845 0.8163622747708782 -0.1470848828049413 0.5119072391988488 0 0 0 0.41 57 2694 140 2096 191 1555 216 1947 
8846 0.7334659426168447 -0.09878167816362957 0.6375195556153566 0 0 0 0.31 57 2695 59 1954 139 1370 144 2223 216 1948 
8847 -0.6160387281936026 0.17684983266821483 0.9804350131409267 0 0 0 0.63 37 3511 57 2696 58 1408 139 1371 151 3371 189 1939 191 1556 211 2329 216 1949 228 2608 
8848 0.03223607485479911 0.044157811141418445 0.7957706237772849 0 0 0 0.27 57 2697 139 1372 140 2097 211 2330 226 1409 228 2609 
8849 -0.31226180311386614 0.09090339554919967 0.8034026041812606 0 0 0 0.17 57 2698 193 2559 205 1259 218 2272 226 1410 
8850 -0.19531122113404498 0.08116402790030743 0.8182254522332693 0 0 0 0.23 46 3952 57 2699 154 2021 183 1398 
8851 0.7184725295025242 -0.07145540560811613 0.6750927116059926 0 0 0 0.24 57 2700 116 2936 145 1331 161 1365 228 2610 
8852 -0.48379866900519125 0.11454137716111118 0.7976235160826225 0 0 0 0.22 57 2701 125 2946 143 1255 166 2220 
8853 -0.35813268549864447 0.09809527446593531 0.7952658785785033 0 0 0 0.24 57 2702 154 2022 228 2611 
8854 -0.010488511009550764 0.05233376062753646 0.7827457751365346 0 0 0 0.19 57 2703 211 2331 228 2612 
8855 0.760667507035787 -0.10613943530073355 0.5642995483563081 0 0 0 0.39 57 2704 59 1955 137 1018 144 2224 216 1950 
8856 -0.05043792583373646 0.060849501396441436 0.7883034756742361 0 0 0 0.1 57 2705 154 2023 191 1557 
8857 -0.052041815502057547 0.06042010765683672 0.7873062922570281 0 0 0 0.22 57 2706 86 2299 116 2937 125 2947 145 1332 154 2024 193 2560 
8858 -0.4709882843732806 0.11265628623666993 0.7893402824498492 0 0 0 0.23 55 2663 57 2707 125 2948 154 2025 161 1366 205 1260 
8859 -0.16845363576761568 0.08753294181541654 0.8259377825562776 0 0 0 0.35 57 2708 116 2938 125 2949 
8860 0.8153613075345728 -0.1738644957252991 0.32699299403889226 0 0 0 0.49 57 2709 140 2098 177 1563 189 1940 202 1548 
8861 0.7453349406434309 -0.06090625568770051 0.6825598227612483 0 0 0 0.33 57 2710 116 2939 154 2026 161 1367 205 1261 228 2613 233 1155 
8862 0.7610010054591234 -0.06029354778286515 0.6918833855185508 0 0 0 0.2 57 2711 161 1368 205 1262 
8863 0.8087002470030742 -0.1563940154897406 0.37847361719788153 0 0 0 0.3 57 2712 140 2099 177 1564 189 1941 191 1558 202 1549 
8864 0.19072191857208187 0.04730332054020336 0.8236317374723802 0 0 0 0.91 46 3953 57 2713 86 2300 119 1413 125 2950 149 1564 151 3372 166 2221 177 1565 211 2332 
8865 0.7388804372618061 -0.04900029515246879 0.712592781348473 0 0 0 0.3 57 2714 116 2940 205 1263 210 466 212 1796 
8866 -0.6209081589125542 0.15538661239078216 0.8534166357493406 0 0 0 0.31 57 2715 58 1409 151 3373 211 2333 216 1951 
8867 -0.26357929399375346 0.0949981098555098 0.7935332604915969 0 0 0 0.34 57 2716 116 2941 212 1797 
8868 -0.2628548868481864 0.0950386275424112 0.7943918509549164 0 0 0 0.23 57 2717 116 2942 191 1559 218 2273 
8869 -0.05460305335796714 0.06738197548240525 0.7816194933186597 0 0 0 0.39 57 2718 144 2225 145 1333 154 2027 189 1942 212 1798 
8870 0.7416710826143504 -0.05657243242644682 0.6727194400368484 0 0 0 0.41 57 2719 59 1956 116 2943 119 1414 143 1256 144 2226 145 1334 154 2028 161 1369 177 1566 191 1560 202 1550 205 1264 216 1952 228 2614 233 1156 
8871 -0.40232376037638756 0.11496589890379516 0.799875566765601 0 0 0 0.24 57 2720 153 484 226 1411 
8872 -0.07054653498318215 0.08291077394879583 0.8181670222088318 0 0 0 0.74 34 2978 57 2721 94 2463 137 1019 144 2227 145 1335 191 1561 205 1265 210 467 
8873 0.742290488531678 -0.061176547230895266 0.6455015914203334 0 0 0 0.35 57 2722 59 1957 119 1415 137 1020 139 1373 140 2100 144 2228 145 1336 161 1370 202 1551 205 1266 212 1799 216 1953 228 2615 
8874 0.7257308760667937 -0.09791841346285086 0.5156246104995735 0 0 0 0.2 57 2723 139 1374 191 1562 
8875 0.7864802897826689 -0.08593765240076817 0.5740115130610104 0 0 0 0.25 57 2724 59 1958 144 2229 189 1943 216 1954 
8876 -0.6344764593517779 0.14142859008043887 0.7857998217127338 0 0 0 0.28 57 2725 58 1410 154 2029 
8877 0.739434325235353 -0.04542862760294653 0.6824555817933041 0 0 0 0.69 57 2726 59 1959 161 1371 216 1955 
8878 0.7740580583759993 -0.11160735972548884 0.46895313883304335 0 0 0 0.5 57 2727 137 1021 139 1375 140 2101 216 1956 
8879 0.1638048890674816 0.0586125588828373 0.8034560013582138 0 0 0 0.26 57 2728 137 1022 161 1372 205 1267 
8880 -0.3660790595343258 0.12305560093501464 0.8100866667910263 0 0 0 0.23 57 2729 143 1257 151 3374 191 1563 
8881 -0.08174032452706351 0.09184260433515991 0.7952170973972137 0 0 0 0.2 57 2730 59 1960 191 1564 
8882 -0.6270704148042335 0.15707816044298226 0.8108516728525345 0 0 0 0.34 57 2731 58 1411 119 1416 
8883 0.49952661906836077 0.04749455200841899 0.8489188977521945 0 0 0 0.04 57 2732 140 2102 154 2030 166 2222 
8884 -0.6204318912717769 0.1973144669319469 0.9358161748834282 0 0 0 0.43 57 2733 58 1412 228 2616 
8885 -0.4139437572641146 0.13285288345334126 0.7866848665645039 0 0 0 0.29 46 3954 57 2734 166 2223 183 1399 216 1957 218 2274 
8886 0.25525067291731673 0.07558176117193119 0.8321463794814365 0 0 0 0.23 37 3512 46 3955 57 2735 86 2301 90 951 94 2464 116 2944 122 495 125 2951 140 2103 149 1565 161 1373 166 2224 183 1400 193 2561 205 1268 211 2334 216 1958 228 2617 233 1157 
8887 -0.2093497779816141 0.12154636426988728 0.8107728185525639 0 0 0 0.16 57 2736 59 1961 139 1376 
8888 -0.10705409059339072 0.11024888170704268 0.8120027881441211 0 0 0 0.41 34 2979 55 2664 57 2737 86 2302 94 2465 116 2945 119 1417 122 496 125 2952 139 1377 140 2104 143 1258 144 2230 145 1337 149 1566 151 3375 154 2031 161 1374 166 2225 177 1567 183 1401 189 1944 191 1565 193 2562 205 1269 210 468 211 2335 212 1800 216 1959 218 2275 226 1412 233 1158 
8889 -0.3689348959376749 0.1296317804143638 0.7823347585629844 0 0 0 0.17 57 2738 183 1402 218 2276 
8890 -0.11771183575577784 0.11683475452476554 0.8194408571828414 0 0 0 0.15 57 2739 145 1338 151 3376 
8891 0.07657320280147295 0.08769572773430531 0.7793374467141825 0 0 0 0.31 57 2740 116 2946 145 1339 
8892 0.5033970522672979 0.06350185454252161 0.8409737707359796 0 0 0 0.59 37 3513 46 3956 57 2741 86 2303 94 2466 122 497 140 2105 143 1259 144 2231 149 1567 151 3377 211 2336 
8893 -0.6245762000192052 0.20404941012166733 0.9181982175134153 0 0 0 0.13 57 2742 58 1413 228 2618 
8894 0.4973658098725399 0.06772824046937377 0.8440987336948138 0 0 0 0.16 57 2743 59 1962 119 1418 139 1378 140 2106 151 3378 166 2226 191 1566 202 1552 
8895 0.7166310780275958 0.013848692722828713 0.7315145650834068 0 0 0 0.41 57 2744 59 1963 86 2304 191 1567 193 2563 202 1553 228 2619 
8896 0.0998590292705069 0.09221788603664602 0.7771397450219303 0 0 0 0.36 57 2745 116 2947 166 2227 177 1568 193 2564 
8897 0.5295516527745128 0.059914031893516496 0.8111332732541305 0 0 0 0.35 55 2665 57 2746 86 2305 116 2948 151 3379 177 1569 189 1945 191 1568 212 1801 
8898 -0.15885396268249868 0.1288301699174076 0.8131375870174652 0 0 0 0.27 57 2747 116 2949 151 3380 191 1569 218 2277 
8899 0.5692388582140487 0.05722216149235569 0.8119492468052394 0 0 0 0.41 34 2980 37 3514 45 1111 46 3957 57 2748 86 2306 94 2467 116 2950 125 2953 139 1379 140 2107 144 2232 151 3381 154 2032 191 1570 193 2565 210 469 211 2337 212 1802 216 1960 228 2620 233 1159 
8900 0.02380407842544269 0.09975091454432941 0.7743018746932421 0 0 0 0.23 55 2666 57 2749 119 1419 137 1023 216 1961 226 1413 
8901 -0.3836808998358383 0.14834325615451735 0.7978496610260618 0 0 0 0.23 57 2750 143 1260 212 1803 
8902 0.6179508543635529 0.06265596242684013 0.834326370139368 0 0 0 0.46 57 2751 86 2307 144 2233 166 2228 189 1946 193 2566 216 1962 
8903 0.8051300867218625 -0.08660643486851867 0.4087558983514501 0 0 0 0.17 57 2752 140 2108 202 1554 
8904 0.7890267962524306 -0.10181623783685854 0.3576345977462019 0 0 0 0.07 57 2753 140 2109 189 1947 
8905 0.20653025849839263 0.09944054495410277 0.8196411063467584 0 0 0 0.28 57 2754 86 2308 144 2234 145 1340 151 3382 183 1403 189 1948 
8906 0.1558017184014704 0.09381570132357797 0.7832700161095204 0 0 0 0.26 57 2755 145 1341 151 3383 193 2567 202 1555 228 2621 
8907 0.4858851293258069 0.07830173266886732 0.8272627067461806 0 0 0 0.21 57 2756 116 2951 119 1420 166 2229 191 1571 216 1963 233 1160 
8908 0.7509862869194998 -0.03366460387250181 0.542236936461862 0 0 0 0.37 57 2757 137 1024 139 1380 140 2110 233 1161 
8909 0.8006110069866639 -0.08274154634393474 0.4005723850876756 0 0 0 0.08 57 2758 177 1570 189 1949 
8910 0.10791325396717989 0.10227782871320025 0.7802799330805444 0 0 0 0.12 57 2759 86 2309 145 1342 183 1404 
8911 0.2769110727709248 0.10167557517513875 0.8278915504139052 0 0 0 0.46 57 2760 119 1421 140 2111 154 2033 
8912 0.5606734949291182 0.0694940759369607 0.8075374050354045 0 0 0 0.17 57 2761 177 1571 191 1572 
8913 -0.006900833306647441 0.11098089067681975 0.7706293189289024 0 0 0 0.35 45 1112 55 2667 57 2762 143 1261 166 2230 177 1572 183 1405 216 1964 218 2278 226 1414 
8914 -0.020571464711851988 0.10830645548095501 0.7575863471839147 0 0 0 0.28 57 2763 216 1965 226 1415 
8915 -0.3166436545484364 0.14820934298615973 0.7817826066760826 0 0 0 0.45 57 2764 119 1422 161 1375 
8916 0.7369714079380072 -0.0010011303311690018 0.6177016831060768 0 0 0 0.4 57 2765 139 1381 154 2034 205 1270 212 1804 228 2622 
8917 0.8183756846293867 -0.13283148540525835 0.22437089215609396 0 0 0 0.16 57 2766 140 2112 177 1573 191 1573 
8918 0.11114505180848629 0.10901286492911014 0.7819449436466555 0 0 0 0.33 57 2767 59 1964 119 1423 144 2235 212 1805 
8919 0.876068432051927 -0.1263553954798248 0.25399811892357693 0 0 0 0.39 57 2768 140 2113 191 1574 202 1556 
8920 0.8973995857846666 -0.1337625175488916 0.23625294346911238 0 0 0 0.55 57 2769 140 2114 202 1557 
8921 0.5588318877376938 0.07759118175882375 0.8033482046162636 0 0 0 0.39 57 2770 86 2310 143 1262 144 2236 151 3384 177 1574 216 1966 228 2623 
8922 0.8502357746951114 -0.1106124662449166 0.2904531543785699 0 0 0 0.52 57 2771 191 1575 202 1558 
8923 -0.023422270422218866 0.11427767591661601 0.7546563491911591 0 0 0 0.46 57 2772 140 2115 145 1343 151 3385 
8924 -0.17594072967787586 0.1450981286985433 0.8040973813328729 0 0 0 0.18 57 2773 177 1575 189 1950 218 2279 
8925 0.2724155803064765 0.11448285078202396 0.8268473279059624 0 0 0 0.33 46 3958 57 2774 119 1424 143 1263 151 3386 161 1376 166 2231 205 1271 211 2338 233 1162 
8926 0.2553411476457983 0.11667524038834086 0.8276088247932073 0 0 0 0.39 37 3515 46 3959 57 2775 94 2468 116 2952 119 1425 140 2116 143 1264 166 2232 191 1576 193 2568 212 1806 216 1967 218 2280 226 1416 228 2624 
8927 0.765041051139985 0.06189314586477745 0.798377468594982 0 0 0 0.41 57 2776 119 1426 177 1576 216 1968 
8928 0.7407023759540583 -0.038381951127212835 0.4737900495624182 0 0 0 0.28 57 2777 137 1025 189 1951 
8929 0.32105728242530546 0.1174369402876252 0.8226325356074661 0 0 0 0.8 57 2778 59 1965 116 2953 154 2035 166 2233 
8930 0.2633428402728501 0.12566257933526329 0.8340021987067113 0 0 0 0.54 57 2779 145 1344 212 1807 
8931 0.333056683838115 0.1043706240190995 0.7812968961500774 0 0 0 0.14 57 2780 119 1427 189 1952 
8932 0.40402409103547027 0.09004836746294416 0.7575228679290293 0 0 0 1.98 45 1113 57 2781 218 2281 228 2625 
8933 0.5459556253011956 0.10026270941859622 0.8106150864612115 0 0 0 0.17 34 2981 57 2782 140 2117 151 3387 177 1577 193 2569 228 2626 
8934 0.7447587134589712 0.02202903040562763 0.61709242125018 0 0 0 0.35 57 2783 59 1966 119 1428 137 1026 139 1382 140 2118 143 1265 144 2237 145 1345 154 2036 161 1377 177 1578 189 1953 205 1272 216 1969 228 2627 
8935 0.7647012774466936 0.0598513325788558 0.7351866312684083 0 0 0 0.31 57 2784 139 1383 140 2119 143 1266 154 2037 189 1954 202 1559 228 2628 
8936 -0.46040443671106324 0.17232977078934814 0.7693302989330381 0 0 0 0.21 57 2785 58 1414 116 2954 125 2954 143 1267 151 3388 
8937 0.272562173921243 0.13378077063861335 0.8200477511248263 0 0 0 0.31 37 3516 46 3960 57 2786 116 2955 119 1429 122 498 140 2120 166 2234 177 1579 191 1577 193 2570 211 2339 212 1808 216 1970 218 2282 233 1163 
8938 0.7654339163638473 0.08856361088248754 0.7998308414819247 0 0 0 0.34 57 2787 59 1967 119 1430 122 499 143 1268 144 2238 154 2038 166 2235 177 1580 189 1955 191 1578 212 1809 228 2629 
8939 0.7590166530822123 0.09731907357349046 0.8219305561675215 0 0 0 0.52 57 2788 59 1968 119 1431 137 1027 189 1956 191 1579 
8940 0.10031578564412595 0.12990341164788033 0.7556235110141094 0 0 0 0.34 57 2789 116 2956 119 1432 139 1384 151 3389 161 1378 166 2236 228 2630 
8941 0.7371432376697491 0.005472100255013198 0.528254225360617 0 0 0 0.41 57 2790 140 2121 216 1971 
8942 -0.47316102997660275 0.1814808405254607 0.7719750075020932 0 0 0 0.21 57 2791 58 1415 211 2340 
8943 0.787797628349689 0.026390320500868154 0.5988303650762506 0 0 0 0.24 57 2792 145 1346 161 1379 
8944 0.6603943214594301 0.021418938986779365 0.5482577728771993 0 0 0 0.27 57 2793 161 1380 205 1273 
8945 0.6603943214594301 0.021418938986779365 0.5482577728771993 0 0 0 0.27 57 2794 161 1381 205 1274 
8946 -0.6254207208113561 0.17008150772849823 0.6973363922285557 0 0 0 0.3 46 3961 57 2795 58 1416 154 2039 189 1957 191 1580 
8947 0.2189177185833931 0.14057520550036226 0.7982246342522918 0 0 0 0.36 57 2796 137 1028 205 1275 
8948 0.7492639165468278 0.10192811168877526 0.7982711651469903 0 0 0 0.33 57 2797 59 1969 143 1269 177 1581 
8949 0.7409317633412124 0.03422946922516777 0.5874016515958724 0 0 0 0.55 57 2798 137 1029 139 1385 154 2040 212 1810 228 2631 
8950 0.7584065751570122 0.08595567079707263 0.7367432577433518 0 0 0 0.29 57 2799 116 2957 137 1030 140 2122 143 1270 154 2041 177 1582 191 1581 193 2571 216 1972 228 2632 
8951 -0.5776926411517864 0.18189913116999057 0.7263258302815877 0 0 0 0.29 57 2800 58 1417 125 2955 
8952 -0.3009715418911348 0.18226011828185704 0.7849520287366083 0 0 0 0.46 57 2801 119 1433 161 1382 205 1276 228 2633 
8953 -0.5033529312833878 0.18104650790812993 0.7313002613317721 0 0 0 0.22 57 2802 116 2958 154 2042 
8954 -0.6085291907580268 0.1887523250611148 0.7241400473283702 0 0 0 0.29 46 3962 57 2803 191 1582 216 1973 
8955 -0.4866049277527987 0.17549505357960662 0.7083344900190183 0 0 0 0.08 57 2804 58 1418 228 2634 
8956 -0.5917757165282272 0.17890417756801502 0.6966105662297155 0 0 0 0.28 57 2805 189 1958 228 2635 
8957 0.5147644228662182 0.14518350612685657 0.8206670330731664 0 0 0 0.42 57 2806 125 2956 137 1031 143 1271 154 2043 191 1583 
8958 -0.5400314330417666 0.1867040313662935 0.7218007425839366 0 0 0 0.17 57 2807 125 2957 166 2237 211 2341 
8959 -0.3883236075349556 0.1818461004974587 0.7384748377863843 0 0 0 0.25 57 2808 116 2959 125 2958 143 1272 
8960 -0.38293663888986473 0.1800443473793822 0.7344945144092174 0 0 0 0.38 57 2809 58 1419 143 1273 161 1383 
8961 -0.3580542581726618 0.17833361976838646 0.7327436089810755 0 0 0 0.51 37 3517 46 3963 55 2668 57 2810 119 1434 140 2123 151 3390 154 2044 161 1384 191 1584 218 2283 226 1417 228 2636 
8962 -0.15234274859701324 0.1714308586561492 0.753605031849784 0 0 0 0.33 46 3964 57 2811 59 1970 116 2960 119 1435 125 2959 143 1274 144 2239 151 3391 177 1583 193 2572 202 1560 211 2342 212 1811 
8963 -0.5306425316073528 0.1902412186444558 0.7309819129016566 0 0 0 0.17 57 2812 58 1420 116 2961 
8964 -0.25526191040022234 0.17690593146069641 0.7352444653402602 0 0 0 0.38 57 2813 116 2962 125 2960 143 1275 211 2343 
8965 -0.5308222623542159 0.1903990340810263 0.7204039958234624 0 0 0 0.46 34 2982 37 3518 45 1114 46 3965 57 2814 58 1421 90 952 116 2963 144 2240 151 3392 154 2045 218 2284 228 2637 
8966 -0.4404612398182295 0.18545140422551992 0.7211693114827818 0 0 0 0.31 57 2815 58 1422 183 1406 211 2344 
8967 -0.27585955676972196 0.1821571328913194 0.7350812046332801 0 0 0 0.19 55 2669 57 2816 116 2964 228 2638 
8968 0.7514119016064641 0.1227561642614853 0.7490218259847699 0 0 0 0.48 57 2817 59 1971 143 1276 177 1584 191 1585 
8969 -0.5502534756796693 0.193512703309734 0.7159740676538473 0 0 0 0.31 46 3966 57 2818 58 1423 125 2961 144 2241 166 2238 202 1561 211 2345 
8970 -0.376913685410301 0.189636302156668 0.7323412381316897 0 0 0 0.31 57 2819 116 2965 211 2346 
8971 0.7553769934180057 0.13130225384780825 0.7585304146081382 0 0 0 0.19 57 2820 137 1032 139 1386 140 2124 143 1277 154 2046 191 1586 193 2573 212 1812 228 2639 
8972 0.8058138654565002 -0.02292670941272269 0.32013598159671036 0 0 0 0.41 57 2821 140 2125 177 1585 202 1562 
8973 0.37855393378020624 0.17029069010428832 0.8029644137491136 0 0 0 0.15 55 2670 137 1033 140 2126 177 1586 
8974 0.04013792702597912 0.17070066395609446 0.7449957950863877 0 0 0 0.2 57 2822 145 1347 154 2047 
8975 0.7440613784684876 0.12166380241489008 0.7225840207125491 0 0 0 0.25 57 2823 212 1813 216 1974 
8976 -0.5587319108381983 0.19988605841298487 0.7138908601087228 0 0 0 0.1 57 2824 58 1424 125 2962 211 2347 228 2640 
8977 -0.15264570706642303 0.186898053859117 0.7393590416516778 0 0 0 0.17 57 2825 177 1587 218 2285 
8978 -0.10031856163002474 0.18750146468975354 0.7401201387497354 0 0 0 0.37 46 3967 57 2826 90 953 116 2966 177 1588 218 2286 
8979 0.7794967064949789 0.028314746576003507 0.4221126452242189 0 0 0 0.39 57 2827 137 1034 140 2127 143 1278 177 1589 189 1959 
8980 0.7506657178740392 0.15766488798640166 0.7826185904329501 0 0 0 0.38 57 2828 59 1972 137 1035 143 1279 144 2242 189 1960 193 2574 218 2287 228 2641 
8981 0.7739043705512619 0.1616515927919926 0.7967280308948148 0 0 0 0.35 57 2829 59 1973 119 1436 137 1036 143 1280 154 2048 177 1590 189 1961 191 1587 193 2575 216 1975 218 2288 233 1164 
8982 0.748102898379336 0.14529261496004328 0.745580834757911 0 0 0 0.33 57 2830 116 2967 140 2128 144 2243 177 1591 189 1962 191 1588 226 1418 228 2642 
8983 -0.13229656395026715 0.1909751390320757 0.7376791633309204 0 0 0 0.27 34 2983 57 2831 116 2968 140 2129 154 2049 166 2239 205 1277 228 2643 
8984 -0.41677511484490953 0.20150116247829025 0.7253820771141537 0 0 0 0.41 34 2984 57 2832 116 2969 119 1437 151 3393 153 485 191 1589 218 2289 226 1419 228 2644 
8985 -0.5543336566242814 0.20617395093258084 0.7127222685550654 0 0 0 0.02 57 2833 116 2970 166 2240 
8986 -0.366274977562809 0.20030504161821636 0.7258264752042229 0 0 0 0.27 34 2985 57 2834 58 1425 140 2130 153 486 193 2576 228 2645 
8987 -0.08653693207814907 0.1926298235889906 0.7433384199226665 0 0 0 0.21 57 2835 116 2971 212 1814 
8988 0.5022577633364933 0.1743461198329723 0.7803167294166805 0 0 0 0.26 57 2836 137 1037 143 1281 
8989 -0.07648207129060278 0.191977002615019 0.742631357962891 0 0 0 0.37 55 2671 57 2837 116 2972 145 1348 151 3394 
8990 -0.03916761768995472 0.19548916852272333 0.7532519880434027 0 0 0 0.17 57 2838 151 3395 177 1592 193 2577 212 1815 218 2290 
8991 -0.05458100192236413 0.18723169515094112 0.7265985102708796 0 0 0 0.32 57 2839 116 2973 151 3396 212 1816 
8992 -0.025669012859730323 0.1925603038029254 0.7415902561322629 0 0 0 0.53 57 2840 116 2974 139 1387 145 1349 
8993 -0.018645112388166206 0.19475066093247434 0.7480056597432951 0 0 0 0.41 57 2841 116 2975 145 1350 193 2578 
8994 0.13479046863525385 0.1876653484973448 0.7406299990657015 0 0 0 0.26 57 2842 151 3397 228 2646 
8995 0.7503187493159031 0.15672981926613677 0.7391072919907637 0 0 0 0.31 57 2843 137 1038 143 1282 189 1963 193 2579 212 1817 
8996 0.6794980944410663 0.13139300277686858 0.65701611473172 0 0 0 0.1 57 2844 140 2131 193 2580 
8997 0.7651778304953444 0.15124853835169252 0.7047900595156606 0 0 0 0.31 57 2845 119 1438 177 1593 191 1590 212 1818 
8998 0.760178521302388 0.11367772148084924 0.6001946546301181 0 0 0 0.31 57 2846 177 1594 205 1278 212 1819 
8999 -0.5535697208722311 0.2168755128860699 0.7099610956754651 0 0 0 0.3 57 2847 58 1426 125 2963 191 1591 228 2647 
9000 -0.42598912866640104 0.2127388764682922 0.7126651416522601 0 0 0 0.07 57 2848 58 1427 116 2976 
9001 -0.6299973764229873 0.22221152343346146 0.7097185957553754 0 0 0 0.25 57 2849 125 2964 166 2241 191 1592 228 2648 
9002 0.7464221560266717 0.12326870697369793 0.5972513807585944 0 0 0 0.58 57 2850 59 1974 119 1439 137 1039 140 2132 154 2050 177 1595 212 1820 228 2649 
9003 0.14331577644379015 0.20076013632456238 0.7382581932205559 0 0 0 0.27 45 1115 57 2851 211 2348 216 1976 228 2650 
9004 0.7508762262008678 0.1583535464128962 0.6755410626431085 0 0 0 0.38 57 2852 59 1975 116 2977 137 1040 140 2133 143 1283 177 1596 191 1593 202 1563 212 1821 216 1977 228 2651 
9005 0.7468076048754808 0.14301139628873946 0.6340160769625224 0 0 0 0.49 57 2853 59 1976 116 2978 119 1440 137 1041 144 2244 177 1597 216 1978 228 2652 
9006 0.7045325470783153 0.1543043154798479 0.6412163015855616 0 0 0 0.54 57 2854 137 1042 212 1822 
9007 0.7379081283528321 0.14359556066794324 0.593016584371908 0 0 0 0.34 57 2855 59 1977 177 1598 
9008 0.8048417925576926 0.0371213289199085 0.30393795472326024 0 0 0 0.18 57 2856 177 1599 189 1964 191 1594 
9009 -0.022769111317323662 0.2183107814700015 0.7194816158584486 0 0 0 0.28 57 2857 59 1978 116 2979 119 1441 177 1600 228 2653 
9010 0.7453916494843879 0.10777925677264323 0.48208531797039955 0 0 0 0.26 57 2858 177 1601 189 1965 
9011 0.7526192175264673 0.11449647599027771 0.4930029423946149 0 0 0 0.21 57 2859 140 2134 177 1602 189 1966 191 1595 
9012 0.7724642007049379 0.10625519729911805 0.47590725665837147 0 0 0 0.61 57 2860 137 1043 140 2135 143 1284 177 1603 189 1967 191 1596 216 1979 
9013 0.7707503283629435 0.10554813797808915 0.45724581831630867 0 0 0 0.34 57 2861 59 1979 143 1285 177 1604 189 1968 
9014 0.4867889141834201 0.2117671101415428 0.7211594636335569 0 0 0 0.23 57 2862 139 1388 140 2136 191 1597 
9015 0.7749858448103014 0.0959825087531837 0.4129625038444135 0 0 0 0.34 57 2863 140 2137 143 1286 177 1605 
9016 0.7612078338129048 0.09194227390922435 0.38453847008410835 0 0 0 0.31 57 2864 140 2138 191 1598 
9017 -0.02444887764969575 0.23667154170599522 0.7099986276612515 0 0 0 0.5 57 2865 137 1044 144 2245 183 1407 189 1969 191 1599 193 2581 202 1564 228 2654 
9018 0.710747748782888 0.20361275005901125 0.6274625465746958 0 0 0 0.64 57 2866 59 1980 119 1442 137 1045 143 1287 189 1970 191 1600 202 1565 
9019 0.14746678087341722 0.251329314954575 0.7226310183477952 0 0 0 0.33 57 2867 139 1389 166 2242 
9020 0.7719947984827809 0.15501589590204182 0.48071745613310807 0 0 0 0.6 57 2868 119 1443 137 1046 140 2139 177 1606 189 1971 216 1980 
9021 0.008831946494479501 -0.979767747455922 1.211200187446198 0 0 0 0.54 34 2986 37 3519 45 1116 46 3968 57 2869 59 1981 86 2311 90 954 94 2469 116 2980 137 1047 143 1288 144 2246 151 3398 166 2243 183 1408 189 1972 191 1601 205 1279 211 2349 212 1823 218 2291 226 1420 
9022 0.0010468967091343308 -0.8537585500878214 1.1495856427200728 0 0 0 0.27 57 2870 143 1289 189 1973 226 1421 
9023 -0.02482227522111147 -0.8058002215630717 1.13754303981606 0 0 0 0.33 57 2871 86 2312 202 1566 
9024 -0.018074502185218413 -0.7698607571831565 1.1338415045895525 0 0 0 0.34 55 2672 57 2872 59 1982 125 2965 166 2244 202 1567 
9025 -0.016682194882431108 -0.770947697122651 1.135968285979394 0 0 0 0.26 34 2987 37 3520 46 3969 55 2673 57 2873 59 1983 86 2313 94 2470 116 2981 125 2966 143 1290 144 2247 149 1568 166 2245 189 1974 191 1602 202 1568 211 2350 218 2292 226 1422 
9026 -0.013960540400573535 -0.5765151283405734 1.198532616385227 0 0 0 0.12 57 2874 58 1428 161 1385 
9027 -0.04247590375732876 -0.5563886781918234 1.2042820335496807 0 0 0 0.14 57 2875 116 2982 149 1569 
9028 -0.05885454002296357 -0.5537145341901539 1.129049302324034 0 0 0 0.96 57 2876 58 1429 59 1984 86 2314 94 2471 116 2983 125 2967 151 3399 189 1975 193 2582 202 1569 212 1824 
9029 -0.6223651499133488 -0.30075186066930515 0.9504555216990694 0 0 0 0.17 57 2877 58 1430 211 2351 
9030 -0.5992191748205936 -0.2652017139790414 1.0722702661374732 0 0 0 0.18 57 2878 59 1985 151 3400 202 1570 
9031 -0.041028977707079924 -0.4281944179674608 1.0495803778352861 0 0 0 0.5 57 2879 59 1986 143 1291 
9032 -0.609892324395493 -0.1913489178400492 1.1812936363667264 0 0 0 1.12 57 2880 58 1431 59 1987 143 1292 144 2248 161 1386 189 1976 216 1981 
9033 -0.5866566972982687 -0.19565252077768605 1.1732146830297636 0 0 0 0.37 57 2881 153 487 154 2051 189 1977 
9034 -0.5835166699384341 -0.18961530906887772 1.1719728457793037 0 0 0 0.27 57 2882 58 1432 212 1825 218 2293 
9035 0.03301322274310952 -0.4116843664569985 1.0048757797219643 0 0 0 0.14 57 2883 145 1351 216 1982 
9036 -0.5951925288268194 -0.20621520916147207 0.8812685477379205 0 0 0 0.29 57 2884 58 1433 161 1387 
9037 -0.055914546275417074 -0.36607967206542064 1.0298400424882814 0 0 0 0.84 47 1120 55 2674 57 2885 59 1988 86 2315 116 2984 119 1444 144 2249 145 1352 154 2052 189 1978 202 1571 211 2352 
9038 -0.5872921869635307 -0.17537915644373875 1.1012994008457766 0 0 0 0.7 46 3970 51 602 57 2886 58 1434 125 2968 189 1979 191 1603 
9039 -0.040175731940470596 -0.36213559245868027 1.036055653703103 0 0 0 0.28 57 2887 59 1989 86 2316 116 2985 139 1390 151 3401 166 2246 212 1826 
9040 -0.5872066586137059 -0.15888418452012246 1.1960401835643772 0 0 0 0.23 57 2888 125 2969 151 3402 
9041 -0.4140479698335188 -0.23063488245051436 1.0490288782014339 0 0 0 0.35 46 3971 57 2889 58 1435 59 1990 86 2317 94 2472 116 2986 119 1445 125 2970 166 2247 193 2583 202 1572 211 2353 
9042 -0.6299890071236885 -0.17615622231195138 0.879001274534533 0 0 0 0.64 57 2890 116 2987 166 2248 
9043 0.034006786266807774 -0.388131858294574 0.9445067631229228 0 0 0 0.4 55 2675 57 2891 59 1991 86 2318 94 2473 125 2971 137 1048 144 2250 149 1570 161 1388 166 2249 177 1607 189 1980 202 1573 212 1827 
9044 -0.6078729664261822 -0.13813875279724666 1.1467945498683774 0 0 0 0.74 57 2892 58 1436 59 1992 86 2319 139 1391 144 2251 153 488 154 2053 161 1389 166 2250 183 1409 193 2584 202 1574 212 1828 216 1983 218 2294 228 2655 
9045 -0.44605189834321163 -0.18605314609210388 1.0130194321455734 0 0 0 0.43 48 484 55 2676 57 2893 58 1437 59 1993 116 2988 125 2972 144 2252 151 3403 166 2251 193 2585 205 1280 228 2656 
9046 -0.5973385870601187 -0.11738653696004023 1.1400405371352185 0 0 0 0.2 57 2894 58 1438 125 2973 151 3404 
9047 -0.34762761927449637 -0.21033853604934502 1.0239799033956367 0 0 0 0.29 57 2895 58 1439 116 2989 125 2974 218 2295 
9048 -0.5939876318615049 -0.12578495807084417 1.0317872167500994 0 0 0 0.27 34 2988 57 2896 58 1440 86 2320 139 1392 144 2253 151 3405 154 2054 191 1604 202 1575 212 1829 228 2657 
9049 -0.604576498790132 -0.14373438651647577 0.8531442358498893 0 0 0 0.57 57 2897 116 2990 218 2296 
9050 -0.41292049210027515 -0.16412851036603784 0.9694576889202073 0 0 0 0.81 34 2989 47 1121 55 2677 57 2898 59 1994 86 2321 125 2975 144 2254 145 1353 151 3406 161 1390 193 2586 205 1281 215 134 228 2658 
9051 -0.5962893826823754 -0.10075895262081577 1.008170442083183 0 0 0 0.38 57 2899 193 2587 228 2659 
9052 -0.04447833192649644 -0.25051463348592196 1.0573515766512558 0 0 0 0.32 57 2900 58 1441 59 1995 94 2474 116 2991 125 2976 143 1293 144 2255 149 1571 151 3407 154 2055 166 2252 189 1981 191 1605 211 2354 212 1830 228 2660 
9053 -0.19892307804861725 -0.20320729113468747 1.0125343071372495 0 0 0 0.43 57 2901 86 2322 144 2256 
9054 -0.19762809243964347 -0.2034773711714894 1.0142512349786639 0 0 0 0.38 57 2902 59 1996 144 2257 145 1354 
9055 -0.05470052742116894 -0.25063628922891035 0.9427009518587081 0 0 0 0.28 57 2903 94 2475 144 2258 189 1982 212 1831 228 2661 
9056 -0.046954862164589384 -0.24398495004618603 0.8972303456713702 0 0 0 0.1 34 2990 57 2904 59 1997 149 1572 
9057 -0.09558839697591366 -0.20379981095607527 1.0173298488292706 0 0 0 0.3 34 2991 57 2905 86 2323 125 2977 144 2259 
