# 3D point list with one line of data per point:
#   POINT3D_ID, X, Y, Z, R, G, B, ERROR, TRACK[] as (IMAGE_ID, POINT2D_IDX)
# Number of points: 117, mean track length: 4.03
0 0.09788712965018653 0.0645054922369645 1.1111641951609754 0 0 0 0.43 1 0 67 0 95 0 
1 0.1543109069284763 0.15354114022679027 1.285526894036602 0 0 0 0.35 1 1 67 1 95 1 
2 0.4883196604384199 0.23052531692083927 1.341834412555866 0 0 0 0.38 1 2 67 2 95 2 219 0 
3 0.09026868934489876 0.18278557163365583 1.0223838124779265 0 0 0 0.26 1 3 65 0 95 3 
4 0.5149775907420174 0.30220702590916987 1.305951808762384 0 0 0 0.45 1 4 67 3 95 4 
5 0.2489443853215458 0.33019318134064757 1.4237091484256517 0 0 0 0.27 1 5 65 1 67 4 71 0 95 5 219 1 
6 0.27993148097339265 0.43578179947026124 1.384359370216475 0 0 0 0.21 1 6 67 5 95 6 129 0 
7 0.09350666149169347 0.0613396915546348 1.1128579677386234 0 0 0 0.48 1 7 67 6 71 1 95 7 
8 0.10011174004533464 0.16521282608126742 1.0587674340151123 0 0 0 0.08 1 8 26 0 95 8 
9 0.49898553914362015 0.22077105014518986 1.3370822269419085 0 0 0 0.29 1 9 26 1 65 2 67 7 71 2 95 9 111 0 129 1 219 2 
10 0.4868946799915673 0.25062752327408727 1.3295615816328021 0 0 0 0.26 1 10 26 2 67 8 95 10 219 3 
11 0.5007210237297893 0.18155004088425122 1.3319256648056323 0 0 0 0.21 1 11 95 11 129 2 
12 0.23372383073415884 0.32193790834875796 1.4394632447859765 0 0 0 0.24 1 12 65 3 67 9 95 12 111 1 219 4 
13 0.23433399628004614 0.3225295932873509 1.444216488015794 0 0 0 0.37 1 13 65 4 95 13 103 0 219 5 
14 0.46381535594470574 0.24313584586600245 1.3436079322074712 0 0 0 0.61 1 14 26 3 65 5 67 10 95 14 103 1 111 2 129 3 219 6 
15 0.2594740969230908 0.33458088802241115 1.4186264684456398 0 0 0 0.4 1 15 65 6 67 11 71 3 95 15 103 2 111 3 219 7 
16 0.2976950401428546 0.4389339901387942 1.3531895996045475 0 0 0 0.32 1 16 26 4 65 7 67 12 95 16 103 3 129 4 
17 0.279196097211637 0.2326320147532481 1.494099836560601 0 0 0 0.32 1 17 65 8 95 17 219 8 
18 0.4857320502535749 0.2641542578514001 1.3236715502492 0 0 0 0.33 1 18 26 5 71 4 95 18 103 4 129 5 
19 0.47062563545748964 0.2827974442200067 1.3210336839006778 0 0 0 0.49 1 19 67 13 71 5 95 19 103 5 129 6 219 9 
20 0.4699542060106114 0.28205268815472956 1.3193286930048906 0 0 0 0.45 1 20 71 6 95 20 129 7 
21 0.4874419635811265 0.28871882130482246 1.314169358300955 0 0 0 0.28 1 21 26 6 71 7 95 21 103 6 111 4 129 8 219 10 
22 0.4874419635811265 0.28871882130482246 1.314169358300955 0 0 0 0.28 1 22 26 7 71 8 95 22 103 7 111 5 129 9 219 11 
23 0.5154636246055798 0.25921505174779297 1.3103938579449297 0 0 0 0.45 1 23 26 8 65 9 95 23 103 8 129 10 219 12 
24 0.45360219744113944 0.29551677132436927 1.3330201826525319 0 0 0 0.34 1 24 26 9 71 9 95 24 129 11 
25 0.45435750947862985 0.2953510054915919 1.3371997455893703 0 0 0 1.21 1 25 65 10 71 10 95 25 129 12 
26 0.3657811945443442 0.4356157441834045 1.315683597091457 0 0 0 0.39 1 26 95 26 103 9 
27 0.47442230039813527 0.20611862688938393 1.358953651335777 0 0 0 0.85 1 27 26 10 67 14 71 11 95 27 111 6 
28 0.09377760527591748 0.06297078618319403 1.1216177592429082 0 0 0 0.24 20 0 26 11 73 0 199 0 
29 0.12144340328791604 0.1351579545150503 1.1842793647502352 0 0 0 0.2 20 1 26 12 73 1 
30 0.05563307286374227 0.1139695281477791 0.9810205944126029 0 0 0 0.22 20 2 26 13 198 0 
31 0.10917124555279563 0.14915376932668767 1.1360717315808566 0 0 0 0.2 20 3 26 14 198 1 199 1 
32 0.061868707147988436 0.15722498014439779 0.9641338790646462 0 0 0 0.18 20 4 26 15 73 2 199 2 
33 0.08341925854703536 0.2117207922886208 1.0083657798920858 0 0 0 0.11 20 5 26 16 73 3 199 3 
34 0.10937850501710142 0.2508042033305211 1.0525984252092864 0 0 0 0.23 20 6 26 17 181 0 
35 0.1047748502054712 0.24316486581747906 1.0248240514565232 0 0 0 0.23 20 7 26 18 73 4 199 4 
36 0.07447430680480505 0.24030298082787813 0.9920768820597887 0 0 0 0.23 20 8 26 19 199 5 
37 0.17165789331722414 0.3246817534073315 1.2307602231639567 0 0 0 0.08 20 9 73 5 199 6 
38 0.17132321102290127 0.3251224692291289 1.2319916150085883 0 0 0 0.14 20 10 73 6 181 1 
39 0.054289545386295865 0.22404448754969852 0.904513647116787 0 0 0 0.16 20 11 73 7 198 2 
40 0.09394370563708851 0.05730877243046306 1.1086796305114284 0 0 0 0.17 20 12 26 20 199 7 
41 0.09394370563708827 0.05730877243046319 1.1086796305114293 0 0 0 0.17 20 13 26 21 199 8 
42 0.04090433080449082 0.06503707612545377 0.9625655145460997 0 0 0 0.29 20 14 26 22 199 9 
43 0.07582159674731484 0.17919019483881232 0.9958675096493114 0 0 0 0.17 20 15 26 23 73 8 198 3 199 10 
44 0.1321779257035827 0.24821025875307334 1.1560654382277273 0 0 0 0.14 20 16 26 24 181 2 
45 0.17986262213286763 0.33755636702519837 1.2618792745264769 0 0 0 0.12 20 17 26 25 73 9 181 3 
46 0.1796409147733981 0.33802107034781176 1.2635340915118074 0 0 0 0.12 20 18 26 26 73 10 181 4 198 4 199 11 
47 0.06918465850656319 0.2971792200149068 0.9296654276826223 0 0 0 0.07 20 19 26 27 73 11 
48 0.07477138106305369 0.3088258037156685 0.9516640858666094 0 0 0 0.04 20 20 26 28 73 12 
49 0.11354993255303988 0.14845638205029058 1.1512296265129291 0 0 0 0.23 20 21 26 29 198 5 199 12 
50 0.15858096169261754 0.24285853405938732 1.2421313490151622 0 0 0 0.14 20 22 73 13 198 6 199 13 
51 0.10146735385464145 0.20262139974720325 1.0613256334792274 0 0 0 0.19 20 23 73 14 198 7 199 14 
52 0.11185154014134667 0.21614843518482763 1.0919224427329695 0 0 0 0.16 20 24 26 30 73 15 181 5 199 15 
53 0.139368220794736 0.24241102581860813 1.1536851340020948 0 0 0 0.33 20 25 26 31 73 16 199 16 
54 0.14107786812082335 0.25795836491952584 1.1768222276673723 0 0 0 0.13 20 26 26 32 73 17 181 6 198 8 199 17 
55 0.17170323237211038 0.29788349042839973 1.2774935519565032 0 0 0 0.21 20 27 73 18 199 18 
56 0.11923894807221874 0.26052776403529665 1.1156008470226357 0 0 0 0.2 20 28 26 33 73 19 181 7 
57 0.1369543917449235 0.27727016821497047 1.1576059193925672 0 0 0 0.14 20 29 73 20 181 8 198 9 199 19 
58 0.14858499578011403 0.294546615223592 1.184144445251668 0 0 0 0.21 20 30 73 21 198 10 
59 0.1348778885459363 0.2913510717652306 1.1667119794923153 0 0 0 0.4 20 31 73 22 181 9 199 20 
60 0.07415851804748644 0.2322163336549367 0.9734256376632301 0 0 0 0.19 20 32 26 34 73 23 198 11 
61 0.14186867735769065 0.2988254132388482 1.1650681108459489 0 0 0 0.25 20 33 181 10 198 12 
62 0.07451654550568929 0.24132079780042603 0.96836919286634 0 0 0 0.12 20 34 26 35 73 24 199 21 
63 0.11139772198128514 0.28065935722523483 1.0637706632846602 0 0 0 0.09 20 35 26 36 73 25 
64 0.09661776145552091 0.2682462524181591 1.010032029652559 0 0 0 0.18 20 36 73 26 198 13 
65 0.14333150336257677 0.32456834516784977 1.1524888427175886 0 0 0 0.14 20 37 26 37 73 27 181 11 198 14 199 22 
66 0.1430432241105281 0.3250930275158712 1.154211316260529 0 0 0 0.13 20 38 73 28 181 12 199 23 
67 0.13021924987143468 0.3215476855543372 1.1189756790935936 0 0 0 0.26 20 39 73 29 181 13 
68 0.05020750471699828 0.062079114873741514 0.9917230052320639 0 0 0 0.04 20 40 26 38 198 15 
69 0.050444605387461226 0.06195000863947841 0.9906747242824948 0 0 0 0.08 20 41 26 39 198 16 199 24 
70 0.06633668101651007 0.16822659150420752 0.9654306269472169 0 0 0 0.15 20 42 26 40 198 17 199 25 
71 0.06633668101651038 0.1682265915042073 0.9654306269472157 0 0 0 0.15 20 43 26 41 198 18 199 26 
72 0.12144608221272474 0.22654427343930522 1.1139756391609317 0 0 0 0.09 20 44 26 42 199 27 
73 0.12898673205482505 0.23721507399108044 1.1450123475574736 0 0 0 0.21 20 45 26 43 73 30 181 14 198 19 
74 0.11338468616913829 0.23383113288988033 1.109596498235815 0 0 0 0.1 20 46 26 44 181 15 
75 0.14112168766343325 0.272591951286449 1.1705858067629804 0 0 0 0.24 20 47 26 45 73 31 181 16 198 20 199 28 
76 0.10732952798332879 0.2645245806613986 1.0222815423838543 0 0 0 0.17 20 48 26 46 73 32 199 29 
77 0.11826480589752333 0.2896849575308928 1.0918290586824841 0 0 0 0.23 20 49 73 33 181 17 
78 0.13479787719671193 0.30857684146777364 1.1409437087334398 0 0 0 0.29 20 50 73 34 181 18 
79 0.052345064023821095 0.1553748766916176 0.9323376313602731 0 0 0 0.22 20 51 26 47 198 21 199 30 
80 0.3362418806870131 0.4533601489382717 1.3222316389836435 0 0 0 0.42 26 48 65 11 95 28 
81 0.09114380358212755 0.08268707162176371 1.1038476329237246 0 0 0 0.02 26 49 71 12 95 29 
82 0.09114380358212755 0.08268707162176371 1.1038476329237246 0 0 0 0.02 26 50 71 13 95 30 
83 0.4718260193748845 0.24956188197299053 1.328236088980127 0 0 0 0.32 26 51 67 15 71 14 95 31 103 10 111 7 129 13 
84 0.4341495536609924 0.29052211375705445 1.3413175420619388 0 0 0 0.88 26 52 95 32 219 13 
85 0.3970961245084702 0.30148439274070593 1.3602422061719706 0 0 0 0.12 26 53 71 15 95 33 
86 0.26292389729230264 0.4477277081133377 1.3655651158844697 0 0 0 0.21 26 54 67 16 95 34 
87 0.32362825522708416 0.2849594023358949 1.3957428101612537 0 0 0 0.65 26 55 65 12 95 35 
88 0.41670010997542495 0.30349328693887845 1.3480711393105695 0 0 0 0.32 26 56 71 16 95 36 
89 0.41670010997542495 0.30349328693887845 1.3480711393105695 0 0 0 0.32 26 57 71 17 95 37 
90 0.05460154041302805 0.05200773300861228 0.9695204544729772 0 0 0 0.78 65 13 67 17 95 38 
91 0.09732337090701328 0.1754849559693835 1.0567045890124949 0 0 0 0.93 65 14 67 18 95 39 
92 0.5099028650321715 0.16032530148348725 1.2936108560691815 0 0 0 0.64 65 15 95 40 103 11 
93 0.2430994431842278 0.30221264143475984 1.4642560851690598 0 0 0 0.27 65 16 95 41 219 14 
94 0.2430994431842278 0.30221264143475984 1.4642560851690598 0 0 0 0.27 65 17 95 42 219 15 
95 0.511578538546022 0.25757780011948195 1.2988076839661638 0 0 0 0.29 65 18 95 43 103 12 
96 0.29164911079190825 0.41034663514741077 1.4586501912824514 0 0 0 0.79 65 19 95 44 219 16 
97 0.4700474875227965 0.1635847496652617 1.3993367444750897 0 0 0 0.41 67 19 95 45 103 13 129 14 219 17 
98 0.05846885470912387 0.10238605837390526 0.9626032321659574 0 0 0 0.18 67 20 71 18 95 46 
99 0.4948052384770438 0.21289832690260607 1.3458979709124665 0 0 0 0.45 67 21 95 47 103 14 111 8 129 15 219 18 
100 0.27190701621093644 0.2968980299114126 1.422182874852212 0 0 0 0.37 67 22 71 19 95 48 111 9 219 19 
101 0.389845625155572 0.2702696279943817 1.361738525710367 0 0 0 0.7 67 23 95 49 111 10 
102 0.4898114118949512 0.31586677181756057 1.306226037173475 0 0 0 0.67 67 24 95 50 103 15 129 16 
103 0.2327705255080522 0.34083751178573285 1.426945361578158 0 0 0 0.28 71 20 95 51 219 20 
104 0.25967987151850963 0.25821257231443406 1.4812930227276615 0 0 0 0.31 71 21 95 52 111 11 219 21 
105 0.4619268662964296 0.16066816280248486 1.3687782485448936 0 0 0 0.24 95 53 103 16 129 17 
106 0.48838315004500443 0.36571409056673354 1.269977506999219 0 0 0 0.31 95 54 103 17 111 12 
107 0.5211006894407165 0.2830626293893135 1.3137796401138704 0 0 0 0.39 95 55 111 13 129 18 219 22 
108 0.5208036367709771 0.2831387210454559 1.3131158864362082 0 0 0 0.44 95 56 103 18 111 14 129 19 219 23 
109 0.41760666855557466 0.21938833570895855 1.4031035877572482 0 0 0 0.36 95 57 103 19 219 24 
110 0.30717178113581856 0.4166924935583811 1.3303864306279611 0 0 0 0.32 95 58 111 15 129 20 
111 0.5332296997475577 0.2432771569192563 1.3038762488645923 0 0 0 0.14 95 59 111 16 129 21 
112 0.3053848254052531 0.25953401387918323 1.4207236748723449 0 0 0 0.18 95 60 103 20 111 17 
113 0.3053848254052531 0.25953401387918323 1.4207236748723449 0 0 0 0.18 95 61 103 21 111 18 
114 0.3263084547211878 0.3166249728604575 1.3860111726794369 0 0 0 0.43 95 62 111 19 219 25 
115 0.4348344513823837 0.40273545748884104 1.2782377743373659 0 0 0 0.28 95 63 111 20 219 26 
116 0.5219210847732816 0.30764970598090924 1.3016543355543888 0 0 0 0.82 95 64 111 21 219 27 
