# 3D point list with one line of data per point:
#   POINT3D_ID, X, Y, Z, R, G, B, ERROR, TRACK[] as (IMAGE_ID, POINT2D_IDX)
# Number of points: 227, mean track length: 10.97
541 0.21050960724444345 0.009056851697235939 0.542641125874735 0 0 0 0.43 34 514 46 287 57 190 116 300 144 152 149 211 154 237 177 152 189 87 215 94 218 251 131 70 117 42 
542 0.08770484122905049 0.02221259447001692 0.542879003031593 0 0 0 0.32 34 515 37 239 45 120 46 288 55 156 86 235 94 267 116 301 122 92 125 262 137 48 139 132 140 180 144 153 145 150 149 212 151 308 154 238 161 153 177 153 183 133 193 269 205 151 211 224 216 193 218 252 226 172 228 232 233 133 186 138 7 184 31 82 72 149 106 105 150 101 173 207 117 43 47 83 90 101 131 71 180 218 
543 0.18782425945309128 0.012247805676456511 0.545705774803998 0 0 0 0.49 34 516 86 236 122 93 143 109 218 253 226 173 233 134 72 150 99 100 102 118 140 181 173 208 180 219 215 95 228 233 
544 -0.271667135676538 0.05364538175754663 0.5158216147712135 0 0 0 0.51 34 517 45 121 46 289 58 136 90 102 116 302 140 182 151 309 154 239 161 154 183 134 193 270 211 225 233 135 30 97 218 254 7 185 
545 -0.22267174656185315 0.048297678660927976 0.5204237717749337 0 0 0 0.33 34 518 55 157 58 137 94 268 139 133 140 183 145 151 149 213 153 84 154 240 177 154 183 135 193 271 205 152 210 101 216 194 218 255 226 174 233 136 23 162 72 151 99 101 116 303 161 155 171 136 180 220 18 162 7 186 203 63 
546 -0.1965790608084545 0.045472308563320483 0.5173184013148162 0 0 0 0.28 34 519 37 240 86 237 90 103 122 94 125 263 154 241 177 155 132 56 180 221 218 256 167 103 68 37 
547 -0.2021243438330095 0.04774926367741437 0.5210391505823623 0 0 0 0.43 34 520 45 122 55 158 58 138 86 238 90 104 94 269 122 95 125 264 132 57 139 134 140 184 144 154 149 214 151 310 154 242 161 156 177 156 183 136 193 272 211 226 228 234 137 49 143 110 226 175 30 98 102 119 153 85 205 153 215 96 216 195 23 163 99 102 131 72 210 102 225 20 7 187 167 104 116 304 203 64 
548 0.26048585643603434 0.007249072048768402 0.5438956043111264 0 0 0 0.37 34 521 37 241 45 123 46 290 47 84 86 239 94 270 116 305 122 96 125 265 139 135 140 185 149 215 151 311 154 243 166 223 193 273 210 103 211 227 215 97 216 196 218 257 226 176 233 137 23 164 30 99 72 152 99 103 150 102 171 137 173 209 177 157 180 222 186 139 228 235 7 188 18 163 106 106 
549 0.41806177039157494 0.0009607215795424285 0.5807671842266205 0 0 0 0.75 34 522 46 291 125 266 144 155 151 312 193 274 215 98 
550 -0.38250373898063716 0.06511047155518851 0.5133548158388992 0 0 0 0.16 34 523 57 191 94 271 125 267 193 275 
551 -0.23153807017574227 0.05155642687925726 0.5180922814331526 0 0 0 0.39 34 524 37 242 55 159 57 192 59 80 86 240 94 272 125 268 132 58 143 111 144 156 151 313 177 158 183 137 189 88 191 69 205 154 211 228 212 124 215 99 218 258 228 236 23 165 30 100 102 120 167 105 145 152 8 80 
552 -0.47458056855052333 0.07169260706882345 0.49834488451205877 0 0 0 0.51 34 525 37 243 116 306 125 269 144 157 151 314 216 197 228 237 55 160 102 121 119 69 186 140 
553 -0.1352810097211022 0.04434968520608892 0.5263156296400522 0 0 0 0.25 34 526 37 244 140 186 145 153 151 315 228 238 23 166 193 276 
554 -0.08896127263470296 0.03230445960459498 0.49896117161195214 0 0 0 0.27 34 527 37 245 45 124 46 292 55 161 57 193 90 105 116 307 119 70 122 97 125 270 132 59 139 136 140 187 144 158 149 216 151 316 154 244 177 159 193 277 210 104 211 229 215 100 216 198 218 259 226 177 228 239 233 138 143 112 30 101 72 153 99 104 102 122 131 73 145 154 171 138 173 210 18 164 7 189 8 81 31 83 106 107 203 65 
555 -0.010151421698395238 0.026608225716825553 0.5025994579626417 0 0 0 0.37 34 528 37 246 46 293 55 162 90 106 94 273 116 308 122 98 125 271 139 137 140 188 145 155 149 217 151 317 161 157 166 224 177 160 183 138 193 278 210 105 216 199 218 260 226 178 228 240 233 139 47 85 23 167 72 154 99 105 150 103 173 211 180 223 102 123 18 165 7 190 31 84 106 108 203 66 
556 0.03010561444391932 0.025723308146317667 0.5164130789378854 0 0 0 0.62 34 529 46 294 47 86 55 163 57 194 59 81 86 241 94 274 116 309 125 272 139 138 140 189 143 113 144 159 145 156 149 218 151 318 154 245 161 158 166 225 177 161 193 279 211 230 212 125 216 200 228 241 233 140 37 247 119 71 137 50 183 139 189 89 215 101 30 102 150 104 186 141 7 191 
557 0.04613059640148693 0.02621355881386104 0.5232979099690603 0 0 0 0.52 34 530 47 87 140 190 
558 -0.3578712698343842 0.06504295587970375 0.5132725450603878 0 0 0 0.13 34 531 125 273 143 114 228 242 23 168 171 139 226 179 
559 -0.06413150411496367 0.031374372633095136 0.49647338640272837 0 0 0 0.38 34 532 210 106 215 102 102 124 140 191 226 180 203 67 
560 -0.035579957240713424 0.02981676004073589 0.5001342403401348 0 0 0 0.22 34 533 37 248 94 275 116 310 125 274 139 139 145 157 161 159 183 140 205 155 211 231 218 261 72 155 99 106 31 85 143 115 106 109 151 319 226 181 
561 0.10861406151609607 0.023991317124618532 0.531168394152227 0 0 0 0.49 34 534 47 88 149 219 193 280 226 182 31 86 72 156 86 242 94 276 99 107 116 311 177 162 180 224 211 232 218 262 102 125 106 110 131 74 117 44 139 140 
562 -0.06411187006270129 0.03152441742478045 0.49387946959052603 0 0 0 0.22 34 535 140 192 149 220 193 281 218 263 18 166 99 108 226 183 7 192 122 99 203 68 
563 -0.017304329714020183 0.02971819887210075 0.49935138262266077 0 0 0 0.25 34 536 37 249 55 164 94 277 116 312 125 275 140 193 145 158 151 320 154 246 161 160 166 226 177 163 183 141 193 282 205 156 210 107 211 233 216 201 218 264 226 184 228 243 233 141 23 169 47 89 72 157 86 243 99 109 150 105 171 140 173 212 180 225 18 167 7 193 106 111 203 69 
564 -0.5152188932079101 0.10135610564909851 0.5805128212507003 0 0 0 0.76 34 537 46 295 151 321 211 234 171 141 180 226 216 202 18 168 
565 -0.23641225425466203 0.05599701179907979 0.5157552449837961 0 0 0 0.33 34 538 37 250 45 125 46 296 55 165 57 195 58 139 86 244 90 107 94 278 116 313 125 276 140 194 143 116 145 159 149 221 151 322 154 247 161 161 166 227 183 142 193 283 205 157 210 108 211 235 215 103 216 203 218 265 226 185 228 244 233 142 153 86 177 164 23 170 72 158 171 142 180 227 186 142 30 103 99 110 18 169 7 194 167 106 203 70 
566 -0.18351609780335404 0.051658033607813174 0.5173541313943849 0 0 0 0.46 34 539 55 166 116 314 125 277 137 51 140 195 145 160 151 323 153 87 154 248 183 143 193 284 210 109 211 236 226 186 228 245 37 251 46 297 149 222 23 171 72 159 173 213 180 228 203 71 99 111 7 195 233 143 
567 -0.27518356184150944 0.06019939623353982 0.5129022351619795 0 0 0 0.26 34 540 45 126 46 298 55 167 58 140 86 245 90 108 94 279 116 315 125 278 140 196 151 324 154 249 161 162 177 165 183 144 193 285 205 158 218 266 233 144 23 172 30 104 72 160 153 88 180 229 186 143 216 204 226 187 7 196 167 107 174 17 203 72 
568 -0.15796386967261883 0.05173914840079829 0.5189737757195764 0 0 0 0.45 34 541 37 252 46 299 55 168 57 196 86 246 90 109 94 280 116 316 122 100 125 279 139 141 140 197 143 117 145 161 149 223 151 325 177 166 193 286 205 159 210 110 216 205 218 267 226 188 228 246 233 145 137 52 161 163 183 145 215 104 23 173 30 105 72 161 99 112 102 126 131 75 171 143 173 214 180 230 186 144 18 170 7 197 31 87 68 38 203 73 
569 -0.3236363530915672 0.0644006023220034 0.5084884525582691 0 0 0 0.32 34 542 55 169 57 197 
570 -0.31271111459893897 0.0652134556534486 0.513414814542747 0 0 0 0.3 34 543 55 170 139 142 144 160 37 253 45 127 58 141 116 317 140 198 151 326 193 287 215 105 216 206 218 268 228 247 183 146 226 189 23 174 30 106 102 127 153 89 154 250 161 164 171 144 173 215 180 231 72 162 143 118 18 171 149 224 7 198 203 74 210 111 
571 -0.34069108574812923 0.0657963804111982 0.5045182126333452 0 0 0 0.32 34 544 37 254 46 300 58 142 116 318 125 280 149 225 154 251 183 147 193 288 205 160 216 207 226 190 228 248 233 146 23 175 57 198 94 281 102 128 151 327 153 90 161 165 166 228 171 145 211 237 218 269 18 172 72 163 7 199 140 199 8 82 86 247 119 72 174 18 203 75 
572 0.13557082853620264 0.027506208885001878 0.5333927034445101 0 0 0 0.38 34 545 37 255 86 248 116 319 125 281 154 252 166 229 193 289 211 238 218 270 228 249 233 147 7 200 149 226 
573 0.23836883252640295 0.021412286932282483 0.5454603050259763 0 0 0 0.27 34 546 47 90 116 320 140 200 151 328 166 230 193 290 228 250 
574 -0.3668652366557807 0.0706177305328275 0.5104620297560113 0 0 0 0.2 34 547 46 301 58 143 149 227 151 329 189 90 94 282 116 321 125 282 167 108 180 232 193 291 218 271 228 251 
575 -0.24155427820843584 0.060700301419465724 0.5160017828820684 0 0 0 0.31 34 548 46 302 58 144 86 249 94 283 116 322 125 283 132 60 140 201 144 161 145 162 149 228 151 330 153 91 154 253 161 166 166 231 177 167 183 148 193 292 205 161 210 112 211 239 212 126 218 272 228 252 23 176 30 107 72 164 99 113 102 129 131 76 171 146 173 216 180 233 216 208 233 148 18 173 7 201 167 109 203 76 
576 -0.22956118958434657 0.059147222619246514 0.515074363744475 0 0 0 0.43 34 549 86 250 212 127 37 256 45 128 94 284 116 323 140 202 149 229 151 331 154 254 177 168 193 293 210 113 216 209 233 149 30 108 72 165 99 114 131 77 161 167 180 234 186 145 226 191 18 174 171 147 7 202 90 110 205 162 167 110 203 77 8 83 24 60 145 163 225 21 
577 -0.19152870644815428 0.05545319322320503 0.5140248684117332 0 0 0 0.31 34 550 55 171 57 199 116 324 125 284 139 143 140 203 145 164 154 255 183 149 205 163 216 210 226 192 228 253 233 150 72 166 180 235 30 109 94 285 99 115 167 111 68 39 
578 -0.27177428561434364 0.06281705937892566 0.5136726774540024 0 0 0 0.29 34 551 58 145 151 332 30 110 90 111 140 204 149 230 161 168 177 169 193 294 216 211 218 273 228 254 233 151 18 175 99 116 171 148 7 203 116 325 210 114 119 73 183 150 167 112 226 193 154 256 203 78 
579 0.07375533935817241 0.03588009056144149 0.5337161165946828 0 0 0 0.34 34 552 140 205 193 295 30 111 37 257 46 303 55 172 57 200 122 101 131 78 143 119 150 106 151 333 161 169 178 28 183 151 186 146 189 91 205 164 218 274 228 255 7 204 86 251 125 285 139 144 144 162 212 128 233 152 31 88 149 231 166 232 210 115 8 84 177 170 72 167 106 112 119 74 137 53 145 165 154 257 173 217 102 130 116 326 203 79 216 212 
580 -0.1962412089928198 0.05664430847092509 0.5135234675758917 0 0 0 0.23 34 553 37 258 55 173 86 252 90 112 116 327 119 75 125 286 139 145 143 120 144 163 145 166 149 232 151 334 153 92 154 258 161 170 177 171 183 152 193 296 205 165 216 213 218 275 226 194 23 177 72 168 99 117 102 131 131 79 140 206 171 149 180 236 18 176 167 113 8 85 203 80 
581 -0.4342897785664105 0.07864540076630798 0.5072647516098507 0 0 0 0.28 34 554 37 259 161 171 7 205 
582 -0.4223334712321847 0.08035829510881129 0.5176930108965876 0 0 0 0.23 34 555 37 260 139 146 161 172 
583 -0.42511735965571423 0.08137782973595546 0.5177577004575625 0 0 0 0.27 34 556 37 261 161 173 186 147 
584 -0.12889983757334603 0.049392812957324166 0.49918222375710497 0 0 0 0.73 34 557 37 262 46 304 116 328 183 153 193 297 218 276 23 178 125 287 31 89 177 172 30 112 140 207 149 233 205 166 226 195 233 153 18 177 7 206 
585 -0.08309562801513708 0.04385994334915351 0.49410133130203265 0 0 0 0.25 34 558 37 263 46 305 116 329 122 102 140 208 145 167 149 234 151 335 154 259 177 173 193 298 216 214 218 277 228 256 233 154 23 179 55 174 72 169 226 196 18 178 68 40 31 90 106 113 
586 0.20770621406133258 0.027940735326923555 0.5328827189601204 0 0 0 0.33 34 559 57 201 86 253 116 330 119 76 125 288 140 209 143 121 145 168 149 235 154 260 166 233 177 174 212 129 215 106 216 215 218 278 23 180 31 91 72 170 173 218 180 237 106 114 
587 0.15877714040216792 0.03367020537150538 0.5311432209304344 0 0 0 0.33 34 560 116 331 151 336 7 207 86 254 117 45 
588 -0.3836046900258192 0.08034212208513264 0.5140889610904719 0 0 0 0.17 34 561 55 175 205 167 
589 -0.3666830695096377 0.0772036044472157 0.5077331329258543 0 0 0 0.29 34 562 46 306 51 39 125 289 151 337 166 234 211 240 216 216 218 279 228 257 153 93 173 219 
590 0.21982534105155402 0.03163963556578849 0.5369001189901206 0 0 0 0.52 34 563 47 91 94 286 140 210 149 236 7 208 122 103 150 107 
591 -0.3014256888995036 0.07250022029164932 0.5090211516374495 0 0 0 0.3 34 564 119 77 125 290 166 235 218 280 23 181 55 176 72 171 173 220 215 107 216 217 18 179 171 150 
592 -0.3069379154401774 0.0746592561442553 0.5143793700714052 0 0 0 0.44 34 565 161 174 202 57 233 155 30 113 58 146 72 172 140 211 154 261 166 236 171 151 173 221 178 29 180 238 193 299 218 281 226 197 228 258 167 114 203 81 
593 -0.1250960938717707 0.06150529900108773 0.5195155685941034 0 0 0 0.43 34 566 86 255 116 332 177 175 202 58 226 198 215 108 23 182 72 173 99 118 149 237 154 262 171 152 173 222 102 132 180 239 18 180 24 61 203 82 
594 -0.3413133834072802 0.0764239428771079 0.5028379954531254 0 0 0 0.3 34 567 161 175 193 300 23 183 30 114 55 177 58 147 72 174 94 287 102 133 116 333 125 291 140 212 149 238 151 338 153 94 154 263 171 153 173 223 180 240 183 154 216 218 218 282 226 199 18 181 137 54 7 209 233 156 203 83 8 86 57 202 
595 0.11879095947510787 0.0434448528001579 0.5307067557034585 0 0 0 0.22 34 568 37 264 86 256 125 292 140 213 149 239 226 200 228 259 233 157 173 224 
596 -0.15039043565637464 0.06394177714796698 0.5163190151803103 0 0 0 0.38 34 569 37 265 45 129 57 203 86 257 94 288 116 334 119 78 125 293 132 61 139 147 144 164 145 169 149 240 151 339 161 176 177 176 183 155 193 301 205 168 211 241 216 219 218 283 228 260 166 237 173 225 180 241 23 184 72 175 102 134 143 122 178 30 215 109 226 201 18 182 7 210 31 92 68 41 233 158 
597 -0.11077299668782192 0.05167566194396227 0.48617950832428003 0 0 0 0.35 34 570 46 307 94 289 116 335 125 294 140 214 149 241 151 340 161 177 193 302 228 261 233 159 37 266 57 204 86 258 144 165 145 170 177 177 183 156 189 92 211 242 216 220 218 284 226 202 23 185 72 176 99 119 173 226 180 242 210 116 186 148 7 211 8 87 31 93 106 115 68 42 132 62 203 84 
598 -0.009053320316779816 0.04432533088794416 0.49303748722604385 0 0 0 0.57 34 571 37 267 45 130 46 308 57 205 90 113 94 290 116 336 122 104 125 295 137 55 140 215 144 166 145 171 149 242 151 341 154 264 161 178 166 238 177 178 183 157 193 303 205 169 211 243 216 221 226 203 228 262 233 160 18 183 72 177 99 120 180 243 210 117 7 212 23 186 30 115 150 108 171 154 173 227 31 94 106 116 203 85 
599 0.20231660374281946 0.03755801590564124 0.5307977820624472 0 0 0 0.77 34 572 94 291 149 243 177 179 218 285 23 187 72 178 154 265 173 228 180 244 226 204 
600 -0.13797645388871418 0.06524303239292326 0.5209429367222437 0 0 0 0.49 34 573 161 179 205 170 173 229 180 245 233 161 68 43 90 114 
601 -0.12760443414844383 0.05785231434930524 0.4959730852347373 0 0 0 0.22 34 574 37 268 46 309 55 178 86 259 94 292 116 337 125 296 139 148 140 216 143 123 145 172 149 244 151 342 161 180 166 239 177 180 183 158 193 304 205 171 210 118 211 244 215 110 216 222 218 286 226 205 228 263 233 162 23 188 30 116 72 179 99 121 102 135 171 155 173 230 180 246 18 184 7 213 122 105 31 95 121 11 106 117 154 266 203 86 
602 -0.44492506719872155 0.08754169227942155 0.499622341155875 0 0 0 0.61 34 575 37 269 57 206 125 297 144 167 189 93 226 206 55 179 119 79 218 287 102 136 171 156 173 231 193 305 72 180 139 149 8 88 121 12 
603 -0.11536079571163292 0.0535946483149582 0.4853910540338621 0 0 0 0.32 34 576 55 180 86 260 90 115 94 293 116 338 122 106 125 298 139 150 140 217 143 124 145 173 149 245 151 343 161 181 166 240 177 181 183 159 193 306 205 172 211 245 215 111 216 223 218 288 226 207 228 264 233 163 23 189 30 117 72 181 99 122 180 247 210 119 46 310 173 232 7 214 31 96 37 270 68 44 
604 0.28366218500947765 0.027851501203934464 0.515704541062155 0 0 0 0.35 34 577 37 271 46 311 57 207 94 294 125 299 139 151 140 218 151 344 154 267 166 241 177 182 189 94 193 307 211 246 216 224 218 289 228 265 30 118 72 182 99 123 116 339 122 107 150 109 173 233 180 248 210 120 226 208 31 97 18 185 106 118 
605 -0.5147779882209362 0.0892170726217061 0.4838809482653103 0 0 0 0.38 34 578 46 312 55 181 58 148 151 345 154 268 166 242 218 290 228 266 102 137 180 249 8 89 
606 -0.5162911924687945 0.11636453725489238 0.5747245550890911 0 0 0 0.61 34 579 46 313 57 208 58 149 125 300 139 152 151 346 154 269 166 243 211 247 228 267 171 157 180 250 186 149 216 225 18 186 
607 -0.2831960532957646 0.07898418958051674 0.5145738753201038 0 0 0 0.55 34 580 116 340 125 301 218 291 161 182 215 112 23 190 
608 -0.2648811045898493 0.07387370618085348 0.49963200142889735 0 0 0 0.52 34 581 37 272 94 295 119 80 183 160 191 70 212 130 
609 0.23350612122738293 0.040680879965533844 0.5315137942224052 0 0 0 0.32 34 582 154 270 193 308 218 292 140 219 149 246 173 234 180 251 18 187 
610 -0.4117610654156631 0.08627206181390937 0.4963252504454084 0 0 0 0.32 34 583 55 182 57 209 58 150 94 296 116 341 125 302 137 56 143 125 144 168 151 347 154 271 166 244 193 309 211 248 212 131 215 113 218 293 226 209 228 268 37 273 46 314 149 247 216 226 23 191 48 13 72 183 131 80 153 95 183 161 18 188 8 90 7 215 167 115 
611 -0.2466798063110717 0.07713423735292015 0.5137322242601071 0 0 0 0.28 34 584 37 274 46 315 94 297 226 210 
612 -0.15675434306831995 0.06946311186718107 0.5154629338921295 0 0 0 0.32 34 585 90 116 233 164 23 192 46 316 55 183 57 210 72 184 94 298 99 124 102 138 116 342 119 81 125 303 131 81 132 63 137 57 143 126 144 169 145 174 149 248 151 348 154 272 166 245 171 158 173 235 177 183 180 252 183 162 186 150 193 310 205 173 210 121 212 132 218 294 226 211 18 189 7 216 122 108 211 249 8 91 31 98 121 13 68 45 203 87 
613 0.2621669586255749 0.04148390671886386 0.5309445740781933 0 0 0 0.43 34 586 37 275 46 317 57 211 94 299 122 109 125 304 139 153 140 220 149 249 151 349 154 273 166 246 177 184 191 71 193 311 211 250 215 114 218 295 226 212 233 165 23 193 72 185 99 125 116 343 173 236 180 253 210 122 7 217 18 190 31 99 
614 -0.23584070248535816 0.07610352503252728 0.5155616555831046 0 0 0 0.68 34 587 166 247 211 251 23 194 72 186 102 139 119 82 140 221 143 127 151 350 153 96 161 183 178 31 180 254 191 72 215 115 218 296 7 218 
615 -0.1648687377852197 0.07099149943373856 0.5168843575494074 0 0 0 0.29 34 588 37 276 46 318 59 82 116 344 125 305 145 175 183 163 189 95 212 133 226 213 23 195 72 187 143 128 149 250 151 351 177 185 205 174 
616 -0.21117793498752654 0.07724161592655543 0.518141599774563 0 0 0 0.32 34 589 57 212 140 222 
617 -0.18208907862688886 0.07294016203770999 0.5132421300741898 0 0 0 0.55 34 590 37 277 46 319 55 184 57 213 116 345 119 83 125 306 139 154 140 223 143 129 144 170 145 176 149 251 151 352 154 274 161 184 166 248 177 186 183 164 189 96 193 312 205 175 211 252 215 116 216 227 30 119 72 188 131 82 171 159 186 151 228 269 233 166 7 219 167 116 
618 -0.03909538022008298 0.05542987321202625 0.49110310446348693 0 0 0 0.41 34 591 37 278 46 320 55 185 57 214 86 261 94 300 116 346 119 84 122 110 125 307 132 64 140 224 143 130 144 171 145 177 149 252 151 353 166 249 177 187 193 313 211 253 215 117 216 228 218 297 228 270 233 167 23 196 72 189 173 237 99 126 180 255 210 123 226 214 7 220 8 92 31 100 106 119 68 46 203 88 
619 -0.41039926123260617 0.08849635730862848 0.49498147495838113 0 0 0 0.34 34 592 116 347 151 354 166 250 211 254 226 215 228 271 23 197 173 238 216 229 149 253 171 160 180 256 18 191 7 221 58 151 167 117 
620 -0.15310561763123395 0.07282575998355365 0.515060723615102 0 0 0 0.57 34 593 46 321 90 117 122 111 125 308 154 275 205 176 210 124 218 298 72 190 94 301 99 127 183 165 226 216 228 272 7 222 193 314 203 89 
621 -0.12359863121936712 0.06607245241684583 0.49794964065689595 0 0 0 0.41 34 594 55 186 116 348 125 309 139 155 149 254 151 355 191 73 202 59 211 255 216 230 218 299 226 217 228 273 23 198 30 120 102 140 180 257 186 152 18 192 7 223 31 101 
622 -0.4256702957475424 0.0923429231924155 0.5008494661583982 0 0 0 0.15 34 595 51 40 228 274 
623 -0.4377648715386583 0.09374522364907377 0.5000269801581834 0 0 0 0.27 34 596 37 279 46 322 58 152 94 302 116 349 151 356 193 315 216 231 218 300 226 218 228 275 23 199 72 191 143 131 171 161 180 258 167 118 
624 -0.14697245756975197 0.07479247943100095 0.5171925657530865 0 0 0 0.39 34 597 46 323 55 187 57 215 94 303 119 85 125 310 139 156 140 225 144 172 145 178 183 166 191 74 193 316 205 177 216 232 226 219 228 276 7 224 30 121 186 153 233 168 151 357 154 276 173 239 203 90 210 125 218 301 
625 0.14463188940029953 0.0541913114039737 0.528715317180697 0 0 0 0.23 34 598 46 324 55 188 57 216 125 311 143 132 144 173 145 179 166 251 177 188 183 167 189 97 212 134 215 118 218 302 23 200 86 262 116 350 149 255 150 110 151 358 173 240 180 259 226 220 228 277 7 225 117 46 
626 0.27205874815185915 0.04333537171922672 0.5306964781527918 0 0 0 0.78 34 599 37 280 46 325 122 112 140 226 154 277 210 126 218 303 23 201 72 192 102 141 116 351 119 86 150 111 173 241 177 189 180 260 226 221 99 128 7 226 106 120 149 256 
627 -0.24842469741106743 0.08126585115505866 0.5085981806893737 0 0 0 0.27 34 600 57 217 94 304 125 312 
628 -0.05773221425279643 0.05822791696271386 0.4832264487171582 0 0 0 0.32 34 601 37 281 45 131 46 326 90 118 94 305 122 113 125 313 140 227 144 174 145 180 149 257 151 359 166 252 177 190 183 168 211 256 218 304 23 202 72 193 99 129 102 142 116 352 173 242 180 261 210 127 226 222 18 193 7 227 106 121 68 47 203 91 212 135 
629 -0.007830155689796968 0.055790132712512555 0.48895856653286957 0 0 0 0.33 34 602 37 282 45 132 90 119 94 306 122 114 125 314 140 228 149 258 151 360 166 253 193 317 205 178 210 128 218 305 226 223 233 169 23 203 99 130 171 162 180 262 154 278 161 185 183 169 228 278 18 194 7 228 106 122 203 92 
630 -0.5001040151456326 0.09174786909760287 0.4724085126366159 0 0 0 0.28 34 603 46 327 58 153 216 233 
631 -0.12417054950707401 0.07262414618519199 0.5097549858055208 0 0 0 0.47 34 604 37 283 46 328 119 87 140 229 154 279 189 98 191 75 210 129 228 279 233 170 45 133 55 189 59 83 90 120 94 307 116 353 122 115 125 315 137 58 139 157 143 133 144 175 145 181 149 259 161 186 166 254 183 170 202 60 205 179 211 257 215 119 226 224 30 122 180 263 102 143 171 163 173 243 225 22 18 195 203 93 
632 -0.28490685593393017 0.0863243906123409 0.5097975069351497 0 0 0 0.42 34 605 125 316 218 306 58 154 99 131 102 144 116 354 151 361 154 280 166 255 191 76 228 280 167 119 202 61 8 93 131 83 144 176 171 164 
633 -0.01826461032520467 0.060891419350627515 0.4904847810207411 0 0 0 0.35 34 606 37 284 45 134 46 329 55 190 57 218 90 121 94 308 116 355 122 116 125 317 139 158 140 230 143 134 144 177 145 182 149 260 151 362 161 187 166 256 177 191 183 171 193 318 205 180 211 258 215 120 216 234 218 307 226 225 228 281 233 171 23 204 47 92 72 194 99 132 102 145 171 165 180 264 186 154 210 130 18 196 7 229 8 94 31 102 106 123 68 48 203 94 
634 -0.330570917715681 0.08927862726627317 0.4983245237332152 0 0 0 0.25 34 607 37 285 46 330 58 155 125 318 154 281 161 188 205 181 226 226 228 282 233 172 23 205 171 166 167 120 
635 -0.22339724106691042 0.08652642583239901 0.5094729678623312 0 0 0 0.49 34 608 46 331 58 156 119 88 125 319 145 183 151 363 193 319 186 155 7 230 226 227 167 121 216 235 
636 -0.5002133029639868 0.09646830371318499 0.4717720695395069 0 0 0 0.37 34 609 37 286 46 332 51 41 119 89 125 320 143 135 154 282 166 257 211 259 216 236 48 14 131 84 144 178 151 364 153 97 171 167 173 244 180 265 18 197 24 62 
637 0.18635919824819547 0.060470451795522316 0.5271499951387278 0 0 0 0.47 34 610 116 356 122 117 193 320 233 173 23 206 30 123 99 133 149 261 154 283 180 266 191 77 216 237 7 231 150 112 106 124 
638 -0.26955487057389327 0.08879427067021717 0.4981701865134781 0 0 0 0.68 34 611 94 309 144 179 151 365 183 172 218 308 23 207 72 195 193 321 7 232 46 333 90 122 119 90 149 262 233 174 116 357 154 284 167 122 
639 -0.07217841743092435 0.07278202691410522 0.4941143758151285 0 0 0 0.37 34 612 94 310 140 231 145 184 177 192 228 283 72 196 99 134 180 267 23 208 116 358 173 245 210 131 
640 -0.37795525131938273 0.0990020458932001 0.5039747990009389 0 0 0 0.33 34 613 37 287 57 219 58 157 125 321 144 180 151 366 166 258 191 78 212 136 226 228 18 198 23 209 143 136 171 168 178 32 193 322 203 95 
641 0.3005200600776396 0.048299226388800735 0.5052505440843862 0 0 0 0.29 34 614 46 334 57 220 119 91 125 322 151 367 191 79 226 229 23 210 37 288 72 197 99 135 150 113 173 246 180 268 186 156 210 132 211 260 
642 -0.501709847172575 0.09968310010542215 0.47404025763316165 0 0 0 0.35 34 615 37 289 46 335 51 42 58 158 119 92 125 323 143 137 144 181 151 368 153 98 154 285 166 259 191 80 211 261 216 238 186 157 48 15 171 169 173 247 180 269 212 137 121 14 18 199 7 233 218 309 24 63 
643 0.06357957426552903 0.07357700994187423 0.5242813113981769 0 0 0 0.44 34 616 37 290 46 336 122 118 149 263 151 369 193 323 211 262 218 310 233 175 150 114 7 234 
644 0.12502255916193764 0.06835864403412696 0.5229270825794065 0 0 0 0.59 34 617 37 291 46 337 193 324 218 311 228 284 
645 -0.5133657501798872 0.10448706105982716 0.48221869014052915 0 0 0 0.33 34 618 37 292 46 338 58 159 151 370 154 286 216 239 102 146 180 270 173 248 
646 -0.5113558007734489 0.10193890808952305 0.4751950608807881 0 0 0 0.45 34 619 37 293 46 339 55 191 57 221 59 84 151 371 153 99 154 287 166 260 189 99 228 285 51 43 58 160 119 93 125 324 144 182 216 240 48 16 102 147 173 249 180 271 186 158 137 59 171 170 18 200 
647 -0.06781849841224373 0.07195470720027684 0.4833527110776957 0 0 0 0.38 34 620 37 294 57 222 94 311 116 359 125 325 139 159 140 232 144 183 145 185 149 264 218 312 233 176 23 211 72 198 122 119 151 372 173 250 177 193 180 272 210 133 216 241 226 230 228 286 18 201 7 235 31 103 106 125 193 325 203 96 
648 0.21426946265350366 0.06346604634756037 0.5244133544849454 0 0 0 0.31 34 621 140 233 151 373 154 288 177 194 193 326 7 236 125 326 233 177 
649 0.2878189650353392 0.05245726541784 0.5063385029017341 0 0 0 0.35 34 622 116 360 154 289 72 199 99 136 171 171 173 251 180 273 
650 -0.16389097040646622 0.08873264693348204 0.5137077340232077 0 0 0 0.32 34 623 143 138 154 290 177 195 191 81 226 231 233 178 30 124 72 200 151 374 178 33 180 274 210 134 216 242 218 313 
651 0.20225747097104732 0.06420217345027102 0.5193220941367568 0 0 0 0.29 34 624 37 295 46 340 94 312 116 361 122 120 125 327 137 60 140 234 144 184 151 375 177 196 191 82 193 327 218 314 226 232 228 287 30 125 150 115 186 159 106 126 149 265 154 291 117 47 
652 0.13848615355174743 0.06960481923506939 0.5194451738982072 0 0 0 0.24 34 625 46 341 125 328 211 263 226 233 7 237 140 235 151 376 166 261 177 197 193 328 216 243 228 288 23 212 106 127 131 85 149 266 173 252 218 315 
653 0.22271526243687334 0.06549975695818185 0.5256190561357256 0 0 0 0.48 34 626 37 296 46 342 94 313 125 329 139 160 149 267 193 329 228 289 233 179 7 238 216 244 
654 0.2761949454216929 0.060415634897787625 0.5156361779592399 0 0 0 0.47 34 627 151 377 177 198 228 290 72 201 122 121 140 236 173 253 180 275 193 330 218 316 18 202 106 128 
655 -0.4044654423626207 0.10249943077819597 0.49306966874024294 0 0 0 0.4 34 628 37 297 46 343 149 268 161 189 216 245 
656 0.22861449814073193 0.06733731147107826 0.5244986398969192 0 0 0 0.39 34 629 37 298 46 344 122 122 125 330 140 237 151 378 154 292 166 262 211 264 218 317 226 234 228 291 23 213 72 202 99 137 102 148 173 254 180 276 7 239 149 269 31 104 177 199 106 129 
657 0.18837092347240988 0.0704745518202432 0.5247917419269789 0 0 0 0.94 34 630 37 299 45 135 46 345 116 362 119 94 125 331 139 161 161 190 177 200 216 246 226 235 233 180 23 214 173 255 215 121 7 240 30 126 102 149 140 238 151 379 154 293 
658 0.15161347469436698 0.07466056434353473 0.5227197511635049 0 0 0 0.4 34 631 46 346 122 123 125 332 139 162 226 236 233 181 
659 -0.1529930435396862 0.09146711425509738 0.5082216675431303 0 0 0 0.53 34 632 37 300 46 347 94 314 132 65 143 139 149 270 151 380 166 263 177 201 193 331 205 182 210 135 216 247 218 318 226 237 228 292 233 182 7 241 31 105 99 138 68 49 140 239 23 215 72 203 203 97 
660 0.25618792863192136 0.07012102561844911 0.5265346303282573 0 0 0 0.48 34 633 116 363 149 271 154 294 218 319 23 216 31 106 72 204 173 256 180 277 226 238 
661 -0.5128451759915953 0.10374697124368286 0.4624105667841774 0 0 0 0.68 34 634 46 348 51 44 58 161 59 85 119 95 125 333 144 185 151 381 154 295 166 264 211 265 228 293 153 100 171 172 173 257 178 34 180 278 18 203 167 123 24 64 212 138 191 83 
662 -0.13048001744810087 0.09277282842553765 0.5138302119281403 0 0 0 0.56 34 635 116 364 151 382 161 191 193 332 210 136 218 320 72 205 99 139 131 86 180 279 24 65 7 242 
663 -0.08543196228483584 0.08183687600355567 0.48656945522677325 0 0 0 0.63 34 636 46 349 119 96 154 296 72 206 116 365 173 258 180 280 186 160 210 137 106 130 177 202 30 127 68 50 211 266 
664 0.09712323627062479 0.07695149156806483 0.5139206316943674 0 0 0 0.26 34 637 37 301 90 123 94 315 116 366 140 240 149 272 151 383 161 192 166 265 177 203 183 173 193 333 205 183 216 248 218 321 228 294 233 183 7 243 23 217 30 128 99 140 171 173 180 281 18 204 31 107 173 259 210 138 226 239 106 131 150 116 68 51 
665 -0.23058938787266917 0.09720498774209256 0.5030060979736583 0 0 0 0.58 34 638 161 193 226 240 72 207 205 184 210 139 228 295 
666 -0.5065287787678784 0.13414564061567716 0.5592058435349809 0 0 0 0.54 34 639 46 350 57 223 154 297 166 266 202 62 212 139 186 161 228 296 48 17 180 282 18 205 
667 -0.2248853332576207 0.09643685238554477 0.5027286153296404 0 0 0 0.51 34 640 37 302 55 192 57 224 58 162 183 174 211 267 215 122 226 241 7 244 94 316 149 273 233 184 
668 -0.1608143975963177 0.09557377887975056 0.5063930669546572 0 0 0 0.56 34 641 37 303 46 351 218 322 57 225 116 367 137 61 149 274 151 384 177 204 211 268 228 297 72 208 99 141 102 150 68 52 
669 -0.43053758512468043 0.10621220880876334 0.48128748872318566 0 0 0 0.23 34 642 37 304 46 352 58 163 116 368 144 186 211 269 216 249 228 298 
670 -0.3543770846544508 0.10740792079981673 0.5023936792861806 0 0 0 0.46 34 643 37 305 46 353 55 193 57 226 116 369 125 334 140 241 189 100 193 334 211 270 212 140 216 250 228 299 191 84 23 218 72 209 218 323 
671 -0.15607122345502722 0.09521556824599879 0.5066610662436366 0 0 0 0.41 34 644 37 306 46 354 57 227 122 124 132 66 139 163 140 242 143 140 149 275 151 385 161 194 166 267 177 205 216 251 218 324 226 242 228 300 233 185 55 194 90 124 125 335 144 187 145 186 205 185 23 219 30 129 72 210 99 142 116 370 173 260 180 283 183 175 186 162 210 140 7 245 31 108 
672 0.25875995816456915 0.07253019405551234 0.5201669950715448 0 0 0 0.28 34 645 37 307 216 252 46 355 122 125 125 336 154 298 215 123 149 276 151 386 218 325 226 243 99 143 173 261 94 317 106 132 
673 -0.3351818726798344 0.10495467910752729 0.49271195159424913 0 0 0 0.33 34 646 55 195 140 243 149 277 205 186 226 244 233 186 23 220 58 164 72 211 151 387 180 284 7 246 216 253 174 19 203 98 30 130 193 335 
674 -0.24538294266447555 0.10428055969649824 0.5057541282775672 0 0 0 0.42 34 647 116 371 125 337 161 195 193 336 226 245 228 301 140 244 23 221 72 212 99 144 119 97 131 87 173 262 180 285 218 326 
675 -0.1309856414083351 0.09720114886179713 0.5114205308006277 0 0 0 0.58 34 648 46 356 57 228 122 126 125 338 140 245 149 278 177 206 193 337 210 141 215 124 216 254 233 187 30 131 72 213 99 145 102 151 161 196 173 263 7 247 24 66 180 286 203 99 
676 -0.04963381988728543 0.08209326722061701 0.4785398525490119 0 0 0 0.35 34 649 46 357 55 196 57 229 116 372 125 339 137 62 140 246 144 188 145 187 151 388 177 207 183 176 193 338 202 63 212 141 215 125 216 255 218 327 226 246 228 302 131 88 8 95 121 15 106 133 
677 -0.3312924846244881 0.10626621648016281 0.49339639443041305 0 0 0 0.3 34 650 37 308 46 358 58 165 116 373 149 279 151 389 193 339 211 271 216 256 226 247 228 303 30 132 72 214 
678 -0.47855304080710803 0.10650797254354465 0.4613322327164159 0 0 0 0.15 34 651 119 98 143 141 
679 0.09417008527090745 0.08527847415893856 0.5139595004074083 0 0 0 0.41 34 652 55 197 57 230 90 125 119 99 212 142 144 189 178 35 
680 -0.3606229120624802 0.11103587873707489 0.4972599764984678 0 0 0 0.36 34 653 37 309 46 359 51 45 55 198 57 231 183 177 211 272 216 257 228 304 116 374 189 101 191 85 23 222 131 89 153 101 8 96 24 67 186 163 
681 -0.24192644672151034 0.10885650020231567 0.5088266317195448 0 0 0 0.2 34 654 46 360 119 100 125 340 
682 0.045031623324805155 0.09134439429334172 0.5118704336876381 0 0 0 0.34 34 655 37 310 46 361 125 341 139 164 161 197 205 187 216 258 228 305 90 126 122 127 150 117 186 164 233 188 7 248 
683 0.15783904832405538 0.08596012900886796 0.5190466286685537 0 0 0 0.59 34 656 149 280 154 299 193 340 215 126 218 328 226 248 30 133 72 215 99 146 150 118 151 390 161 198 173 264 177 208 180 287 191 86 233 189 7 249 37 311 125 342 106 134 
684 0.2248736492646809 0.08253351494266782 0.521234589171605 0 0 0 0.39 34 657 37 312 90 127 125 343 139 165 193 341 211 273 228 306 233 190 150 119 7 250 
685 -0.06205276922183193 0.08561655646005839 0.47300497946385767 0 0 0 0.28 34 658 37 313 46 362 57 232 90 128 116 375 122 128 125 344 149 281 151 391 177 209 183 178 211 274 216 259 218 329 233 191 23 223 72 216 94 318 99 147 145 188 171 174 173 265 180 288 210 142 226 249 7 251 18 206 193 342 31 109 106 135 68 53 203 100 131 90 
686 0.2524316895010604 0.08112523422510988 0.5203125861710589 0 0 0 0.37 34 659 46 363 125 345 140 247 149 282 154 300 193 343 218 330 226 250 228 307 72 217 99 148 173 266 180 289 31 110 30 134 106 136 
687 -0.08734994285721168 0.09153508227125678 0.4815441381427489 0 0 0 0.79 34 660 37 314 140 248 193 344 215 127 106 137 116 376 218 331 
688 -0.3708953739705843 0.10462775487074409 0.46526980867479534 0 0 0 0.2 34 661 37 315 46 364 57 233 58 166 125 346 144 190 151 392 211 275 216 260 228 308 
689 0.2757620672502435 0.07870899246904267 0.5088707802330034 0 0 0 0.6 34 662 37 316 45 136 57 234 125 347 140 249 151 393 154 301 177 210 216 261 218 332 228 309 23 224 72 218 99 149 116 377 150 120 173 267 180 290 210 143 226 251 31 111 106 138 
690 -0.05899483981918182 0.08992638233946895 0.47566902934001454 0 0 0 0.79 34 663 37 317 46 365 122 129 125 348 140 250 151 394 183 179 193 345 218 333 228 310 23 225 30 135 72 219 99 150 116 378 149 283 173 268 178 36 180 291 7 252 31 112 132 67 203 101 
691 0.26017168782533795 0.08342727023576849 0.5191778839821052 0 0 0 0.77 34 664 37 318 149 284 177 211 228 311 23 226 150 121 151 395 173 269 180 292 218 334 
692 -0.4537890704387653 0.11106809394652639 0.46420424617166617 0 0 0 0.37 34 665 46 366 143 142 218 335 226 252 23 227 137 63 173 270 8 97 72 220 
693 0.09669849655030616 0.09145546956251352 0.5091864384711454 0 0 0 0.4 34 666 37 319 46 367 90 129 116 379 119 101 122 130 125 349 140 251 144 191 149 285 151 396 177 212 189 102 193 346 228 312 233 192 55 199 57 235 216 262 226 253 23 228 72 221 210 144 218 336 94 319 99 151 150 122 171 175 173 271 180 293 211 276 18 207 7 253 31 113 
694 -0.46238584893340695 0.11176663608642437 0.46363780687613226 0 0 0 0.47 34 667 46 368 154 302 218 337 37 320 102 152 173 272 180 294 167 124 
695 -0.02233239595088196 0.09167535367786016 0.4810944392833521 0 0 0 0.23 34 668 37 321 46 369 
696 -0.5113683672767739 0.11445289923676663 0.45963241612817873 0 0 0 0.34 34 669 57 236 125 350 
697 -0.486454977353473 0.11388314134125498 0.4618608571568903 0 0 0 0.4 34 670 151 397 211 277 125 351 143 143 153 102 173 273 180 295 18 208 167 125 
698 0.13410884189953612 0.09268093007002232 0.509978356158249 0 0 0 0.24 34 671 37 322 46 370 94 320 122 131 140 252 149 286 151 398 166 268 193 347 216 263 218 338 228 313 233 193 99 152 210 145 23 229 31 114 72 222 116 380 131 91 143 144 177 213 212 143 106 139 173 274 226 254 68 54 7 254 125 352 
699 -0.3888724679488017 0.10984272549018317 0.4668674649987176 0 0 0 0.33 34 672 55 200 58 167 116 381 193 348 226 255 23 230 72 223 173 275 180 296 8 98 57 237 166 269 45 137 119 102 
700 -0.4548133635183542 0.11298585324829723 0.46226522298374284 0 0 0 0.4 34 673 37 323 154 303 218 339 23 231 173 276 
701 0.2732395482654341 0.08441446563577486 0.5052085679546923 0 0 0 0.43 34 674 37 324 59 86 116 382 122 132 125 353 137 64 140 253 143 145 144 192 151 399 154 304 166 270 177 214 193 349 215 128 218 340 226 256 228 314 23 232 72 224 131 92 150 123 171 176 173 277 180 297 210 146 216 264 24 68 121 16 18 209 106 140 
702 -0.215408690676242 0.11252605873006828 0.5010946824462023 0 0 0 0.4 34 675 140 254 166 271 
703 -0.38550574072258814 0.11051758757524302 0.4668302912846515 0 0 0 0.32 34 676 37 325 116 383 183 180 216 265 46 371 58 168 125 354 154 305 166 272 228 315 23 233 72 225 102 153 153 103 173 278 193 350 226 257 171 177 
704 -0.36612658039607976 0.109813958576512 0.4661550175379376 0 0 0 0.3 34 677 151 400 161 199 193 351 218 341 23 234 72 226 153 104 180 298 226 258 
705 -0.3537289694300535 0.10973257599011307 0.46701485909271184 0 0 0 0.53 34 678 37 326 116 384 143 146 144 193 151 401 46 372 233 194 57 238 58 169 161 200 30 136 154 306 173 279 228 316 7 255 140 255 8 99 119 103 125 355 203 102 167 126 
706 -0.043337326756928106 0.09639171995486522 0.4809933199242362 0 0 0 0.54 34 679 37 327 45 138 46 373 55 201 59 87 90 130 116 385 119 104 122 133 125 356 132 68 137 65 139 166 143 147 144 194 149 287 151 402 177 215 191 87 193 352 211 278 212 144 215 129 216 266 218 342 226 259 228 317 233 195 30 137 72 227 102 154 7 256 31 115 106 141 68 55 186 165 
707 -0.2607870625412899 0.10670074195276716 0.47246928362047025 0 0 0 0.27 34 680 46 374 57 239 58 170 125 357 183 181 
708 -0.4560321245487919 0.11584553082628093 0.46306158796329555 0 0 0 0.36 34 681 37 328 46 375 144 195 151 403 218 343 23 235 171 178 180 299 167 127 228 318 
709 -0.31599356406369045 0.11025119091796853 0.47133385098289765 0 0 0 0.29 34 682 37 329 166 273 211 279 233 196 30 138 
710 -0.3003798885993603 0.10840714819193943 0.4684748095835336 0 0 0 0.41 34 683 144 196 149 288 151 404 211 280 215 130 58 171 125 358 140 256 161 201 166 274 193 353 228 319 
711 -0.25312666549213864 0.10673051522663629 0.4703446672303142 0 0 0 0.23 34 684 46 376 140 257 193 354 
712 -0.507554106386704 0.11672037182860617 0.45688826635814134 0 0 0 0.34 34 685 55 202 57 240 58 172 125 359 151 405 154 307 189 103 216 267 218 344 228 320 
713 -0.49458384565576774 0.11702536805055515 0.4596066706835969 0 0 0 0.5 34 686 37 330 46 377 55 203 57 241 58 173 116 386 125 360 143 148 144 197 151 406 154 308 166 275 189 104 191 88 202 64 211 281 216 268 218 345 228 321 153 105 171 179 173 280 180 300 18 210 74 1 167 128 8 100 24 69 174 20 
714 -0.15787316430104262 0.11215395466659817 0.5003105392550955 0 0 0 0.45 34 687 46 378 140 258 161 202 177 216 228 322 23 236 30 139 72 228 173 281 180 301 
715 -0.1532893964506502 0.1115663429042416 0.500086744288011 0 0 0 0.86 34 688 37 331 177 217 218 346 228 323 46 379 90 131 140 259 233 197 23 237 99 153 173 282 186 166 7 257 149 289 
716 -0.5164852003863197 0.11890790040481806 0.4564374797999028 0 0 0 0.46 34 689 45 139 57 242 119 105 151 407 58 174 144 198 154 309 228 324 121 17 131 93 
717 -0.35037576746646343 0.11287604521659832 0.46662659117772265 0 0 0 0.38 34 690 46 380 119 106 23 238 30 140 45 140 58 175 72 229 140 260 151 408 153 106 154 310 161 203 171 180 173 283 180 302 193 355 216 269 226 260 228 325 18 211 102 155 
718 -0.13199052098407124 0.11146505832406536 0.49761825655985054 0 0 0 0.63 34 691 45 141 125 361 140 261 161 204 193 356 211 282 215 131 8 101 145 189 
719 -0.39775737151155627 0.11517644500509688 0.4646571226018736 0 0 0 0.43 34 692 45 142 46 381 51 46 55 204 57 243 58 176 116 387 144 199 149 290 154 311 166 276 211 283 218 347 228 326 233 198 23 239 48 18 72 230 183 182 216 270 
720 -0.3277995871642045 0.11307626933407304 0.46977045989227306 0 0 0 0.26 34 693 46 382 161 205 216 271 
721 -0.052757473658221 0.10035503962607414 0.4771283442130058 0 0 0 0.18 34 694 45 143 140 262 193 357 
722 -0.4823958614676343 0.1176910612534662 0.4545180378390176 0 0 0 0.21 34 695 154 312 166 277 
723 -0.39125750082438004 0.11608030071829986 0.46508996622668997 0 0 0 0.62 34 696 37 332 151 409 154 313 233 199 171 181 173 284 180 303 72 231 218 348 
724 -0.2281376441698431 0.10925660831782624 0.4714615094268838 0 0 0 0.19 34 697 116 388 151 410 
725 -0.25390009860944884 0.10984104699500795 0.4691240952929139 0 0 0 0.49 34 698 58 177 151 411 23 240 30 141 
726 -0.4182401945771334 0.11782915127952873 0.4623341124335762 0 0 0 0.21 34 699 45 144 46 383 144 200 151 412 216 272 218 349 23 241 48 19 153 107 173 285 180 304 
727 -0.06484343548087233 0.10623379506586446 0.4841195077146159 0 0 0 0.59 34 700 139 167 193 358 211 284 212 145 23 242 30 142 7 258 183 183 68 56 154 314 
728 0.28640429610446677 0.09061127303007578 0.49670760044851336 0 0 0 0.55 34 701 37 333 45 145 116 389 122 134 125 362 139 168 140 263 143 149 151 413 193 359 215 132 216 273 218 350 226 261 228 327 233 200 
729 -0.15146848580309155 0.11164296144491095 0.4862074699006799 0 0 0 0.62 34 702 151 414 177 218 218 351 23 243 72 232 102 156 173 286 7 259 211 285 233 201 
730 -0.407940879557571 0.11635921144472491 0.4575630710358304 0 0 0 0.26 34 703 144 201 151 415 154 315 218 352 226 262 
731 -0.3946520007866621 0.11778027141087358 0.4634686114447812 0 0 0 0.46 34 704 37 334 46 384 51 47 55 205 58 178 116 390 125 363 137 66 143 150 144 202 151 416 154 316 166 278 189 105 211 286 212 146 215 133 216 274 218 353 226 263 228 328 233 202 18 212 171 182 180 305 167 129 8 102 23 244 24 70 72 233 153 108 
732 -0.027446043859907378 0.10321339060274223 0.47569967148289927 0 0 0 0.44 34 705 45 146 116 391 144 203 215 134 228 329 99 154 171 183 140 264 193 360 226 264 233 203 7 260 24 71 106 142 
733 0.06869733396858525 0.10721241827165233 0.5080597098690774 0 0 0 1.27 34 706 125 364 139 169 144 204 212 147 23 245 99 155 145 190 173 287 177 219 180 306 218 354 30 143 72 234 116 392 31 116 
734 -0.5193450681185287 0.14310548495268827 0.5173472322866296 0 0 0 0.51 34 707 37 335 57 244 125 365 189 106 186 167 
735 -0.31105403789569785 0.11641177446391886 0.46729372711733747 0 0 0 0.25 34 708 45 147 55 206 151 417 161 206 183 184 228 330 205 188 23 246 72 235 140 265 153 109 193 361 216 275 
736 -0.0316936802323586 0.10493797636870697 0.47585601381223763 0 0 0 0.42 34 709 45 148 90 132 116 393 119 107 122 135 125 366 140 266 149 291 151 418 193 362 205 189 211 287 218 355 233 204 23 247 30 144 55 207 99 156 173 288 177 220 180 307 216 276 226 265 18 213 7 261 31 117 68 57 203 103 
737 -0.5082917099101971 0.12313007443049385 0.45568620268403526 0 0 0 0.44 34 710 125 367 166 279 
738 0.14117553263186947 0.10868792372009974 0.5085180996470137 0 0 0 0.34 34 711 37 336 55 208 116 394 144 205 151 419 216 277 
739 -0.394678774567627 0.1201658407689466 0.46212882048746373 0 0 0 0.52 34 712 46 385 151 420 226 266 23 248 228 331 59 88 171 184 178 37 180 308 189 107 
740 -0.4414696572425155 0.12103694564969925 0.45581751459784847 0 0 0 0.35 34 713 151 421 226 267 228 332 23 249 102 157 154 317 180 309 218 356 
741 -0.2718993919660417 0.11742258546193128 0.4691070119508457 0 0 0 0.39 34 714 151 422 153 110 161 207 23 250 173 289 180 310 193 363 
742 -0.4116681728176377 0.11859096462111632 0.4519985851505027 0 0 0 0.36 34 715 151 423 154 318 
743 -0.08300689442669223 0.10965083618014959 0.47343138654074224 0 0 0 0.56 34 716 55 209 137 67 140 267 143 151 151 424 193 364 30 145 173 290 180 311 
744 -0.29942814829410525 0.11759018246080967 0.46249036859419485 0 0 0 0.38 34 717 144 206 151 425 193 365 23 251 72 236 99 157 102 158 153 111 154 319 161 208 171 185 173 291 177 221 180 312 216 278 218 357 37 337 58 179 119 108 167 130 125 368 140 268 174 21 8 103 
745 -0.07794523811801675 0.11078934460465174 0.4726862553100198 0 0 0 0.33 34 718 37 338 90 133 151 426 177 222 216 279 218 358 228 333 233 205 45 149 116 395 122 136 140 269 145 191 149 292 23 252 30 146 72 237 102 159 173 292 171 186 183 185 99 158 18 214 7 262 106 143 
746 -0.07105737908672874 0.11128478443588172 0.47350601122532643 0 0 0 0.45 34 719 57 245 144 207 31 118 143 152 106 144 140 270 
747 0.03333051258111855 0.11410270088495407 0.49682693872562594 0 0 0 0.62 34 720 37 339 46 386 55 210 57 246 59 89 116 396 119 109 125 369 137 68 140 271 144 208 145 192 149 293 151 427 161 209 177 223 183 186 191 89 193 366 205 190 211 288 212 148 215 135 216 280 218 359 226 268 228 334 233 206 186 168 7 263 99 159 173 293 180 313 
748 -0.3725482597413089 0.12224828415354178 0.46037153677409115 0 0 0 0.34 34 721 37 340 46 387 125 370 226 269 23 253 171 187 233 207 
749 -0.26419764858958805 0.1178203337902888 0.4631258867205928 0 0 0 0.3 34 722 151 428 218 360 23 254 72 238 153 112 173 294 180 314 8 104 57 247 
750 0.052013924642030224 0.1113574189452824 0.48730080104482426 0 0 0 0.36 34 723 140 272 149 294 177 224 193 367 211 289 218 361 226 270 7 264 30 147 
751 -0.2520183724482282 0.11951457684053367 0.4679226731706261 0 0 0 0.16 34 724 151 429 177 225 
752 -0.19646329022964013 0.11665464134298136 0.4687853210478998 0 0 0 0.36 34 725 140 273 154 320 233 208 46 388 55 211 116 397 137 69 149 295 166 280 215 136 216 281 228 335 30 148 57 248 72 239 99 160 125 371 143 153 144 209 151 430 161 210 171 188 177 226 193 368 205 191 211 290 218 362 18 215 
753 -0.053963636240838865 0.11202232118485969 0.4734721248201618 0 0 0 0.7 34 726 45 150 57 249 116 398 145 193 154 321 183 187 189 108 23 255 30 149 99 161 140 274 151 431 166 281 171 189 173 295 216 282 18 216 211 291 7 265 228 336 31 119 106 145 
754 -0.1676062048077922 0.11675218051047671 0.46915514698673855 0 0 0 0.33 34 727 37 341 90 134 218 363 
755 -0.08027533222393277 0.1134363131862805 0.47085120030815236 0 0 0 0.34 34 728 116 399 144 210 145 194 149 296 151 432 166 282 177 227 183 188 211 292 218 364 23 256 30 150 72 240 102 160 173 296 180 315 186 169 216 283 18 217 31 120 106 146 
756 -0.06939036759016093 0.11160787643603023 0.4691719903953079 0 0 0 0.47 34 729 116 400 151 433 211 293 233 209 186 170 
757 -0.38292399368852686 0.12463352233241597 0.4608837279370346 0 0 0 0.4 34 730 151 434 154 322 183 189 218 365 226 271 228 337 23 257 55 212 58 180 72 241 102 161 116 401 119 110 125 372 131 94 137 70 143 154 153 113 166 283 173 297 180 316 215 137 8 105 144 211 
758 0.005274507702472096 0.11119538876216102 0.4757810230866295 0 0 0 0.6 34 731 37 342 46 389 55 213 90 135 116 402 119 111 125 373 132 69 139 170 144 212 145 195 149 297 151 435 161 211 193 369 205 192 211 294 216 284 186 171 7 266 
759 0.2599124999907877 0.10889900447067717 0.5075608369130846 0 0 0 0.55 34 732 37 343 45 151 46 390 57 250 116 403 119 112 125 374 137 71 139 171 144 213 154 323 166 284 177 228 193 370 211 295 212 149 218 366 226 272 228 338 233 210 8 106 24 72 31 121 99 162 150 124 173 298 23 258 106 147 68 58 117 48 174 22 
760 -0.2676306451126053 0.12017353915030955 0.46284195793904914 0 0 0 0.37 34 733 37 344 177 229 218 367 226 273 23 259 72 242 102 162 140 275 153 114 154 324 161 212 173 299 180 317 193 371 216 285 174 23 
761 0.10564319192844207 0.11091268494607777 0.4866581202309812 0 0 0 0.4 34 734 55 214 57 251 116 404 119 113 125 375 140 276 143 155 151 436 166 285 193 372 216 286 218 368 226 274 228 339 233 211 23 260 72 243 149 298 8 107 106 148 
762 -0.5186882598121155 0.12990312462760592 0.4557881028492086 0 0 0 0.33 34 735 37 345 46 391 57 252 58 181 119 114 125 376 151 437 166 286 211 296 216 287 228 340 48 20 171 190 173 300 180 318 186 172 189 109 218 369 18 218 121 18 8 108 24 73 139 172 167 131 
763 -0.4150963850811762 0.12635488927280472 0.4594169536480187 0 0 0 0.39 34 736 119 115 154 325 58 182 151 438 226 275 228 341 23 261 216 288 7 267 8 109 72 244 144 214 
764 0.040714531679483024 0.11258992130455393 0.4798608043370011 0 0 0 0.29 34 737 46 392 116 405 125 377 140 277 151 439 193 373 228 342 7 268 233 212 
765 -0.5157143173312893 0.1313265286468578 0.4562766369612442 0 0 0 0.43 34 738 46 393 58 183 151 440 211 297 228 343 153 115 173 301 180 319 18 219 
766 -0.4024265899104578 0.12690004305844305 0.45618846748086284 0 0 0 0.23 34 739 58 184 116 406 125 378 211 298 55 215 228 344 
767 -0.04617159862889763 0.11667942700222927 0.4722686954601955 0 0 0 0.84 34 740 45 152 116 407 140 278 143 156 145 196 151 441 193 374 215 138 216 289 218 370 23 262 57 253 72 245 99 163 149 299 171 191 173 302 233 213 18 220 7 269 122 137 106 149 
