# 3D point list with one line of data per point:
#   POINT3D_ID, X, Y, Z, R, G, B, ERROR, TRACK[] as (IMAGE_ID, POINT2D_IDX)
# Number of points: 334, mean track length: 8.55
9560 0.3100858999451973 0.10387338087945448 0.40734240932052884 0 0 0 0.28 72 2772 99 1634 102 1706 119 1135 140 2337 150 1618 154 2328 171 1782 177 1901 180 3217 186 1847 189 1248 191 1195 193 2628 202 1401 211 1248 216 1863 228 2440 
9561 -0.4399971355319956 0.2984701090333792 0.8139721949772591 0 0 0 0.27 137 831 151 2608 153 1266 
9562 -0.4407300818607746 0.29826852323143677 0.8136627986166244 0 0 0 0.28 72 2773 119 1136 137 832 151 2609 153 1267 
9563 -0.2525905390303606 0.25636100974790477 0.7245489977252039 0 0 0 0.42 72 2774 102 1707 143 1170 153 1268 173 2759 180 3218 218 2459 
9564 0.17905498691750213 0.0013354109257956907 0.17459580909080138 0 0 0 0.32 23 3607 30 1928 57 1918 72 2775 99 1635 102 1708 140 2338 177 1902 191 1196 202 1402 
9565 -0.02194551107261822 0.20357210766659853 0.6095475033336911 0 0 0 0.36 72 2776 99 1636 180 3219 
9566 -0.22295786112002794 0.25098315803912646 0.7092394489208966 0 0 0 0.11 72 2777 102 1709 226 1677 
9567 -0.4352162821118175 0.2994718032028715 0.8105644981269841 0 0 0 0.37 143 1171 151 2610 153 1269 173 2760 228 2441 
9568 -0.35166935490819856 0.28132646135998707 0.7716965862387242 0 0 0 0.19 72 2778 153 1270 154 2329 171 1783 173 2761 180 3220 218 2460 
9569 -0.1908608121003434 0.24520107680963588 0.694811164902781 0 0 0 0.31 72 2779 102 1710 143 1172 177 1903 218 2461 
9570 0.32811299017425377 0.11963886464235791 0.42742985105000886 0 0 0 0.18 72 2780 143 1173 226 1678 
9571 -0.3260894060870863 0.2766711474410489 0.7594926814636118 0 0 0 0.74 72 2781 144 1551 151 2611 154 2330 171 1784 173 2762 193 2629 228 2442 
9572 0.0481598997601649 0.20268434224878842 0.6025950301406927 0 0 0 0.4 23 3608 30 1929 34 1662 72 2782 99 1637 116 2363 125 2102 144 1552 173 2763 212 1423 218 2462 
9573 -0.41839019273226624 0.2994245617630216 0.8037888741846702 0 0 0 0.3 131 1331 144 1553 180 3221 
9574 -0.351305669263124 0.2844273773693814 0.7704629140571558 0 0 0 0.55 37 1796 72 2783 151 2612 154 2331 171 1785 173 2764 180 3222 218 2463 
9575 -0.40997140376024066 0.29644646803545893 0.7970309515922156 0 0 0 0.37 72 2784 137 833 226 1679 
9576 -0.4031607536105973 0.29603084489071174 0.7950631697506453 0 0 0 0.2 23 3609 34 1663 37 1797 46 2236 144 1554 151 2613 171 1786 180 3223 218 2464 228 2443 
9577 0.3213295503449234 0.1278842010117719 0.41693461804054793 0 0 0 0.25 30 1930 72 2785 99 1638 119 1137 139 1218 140 2339 143 1174 150 1619 171 1787 177 1904 186 1848 189 1249 191 1197 193 2630 212 1424 226 1680 228 2444 
9578 -0.2772313466607692 0.2700674486580028 0.7273001460481228 0 0 0 0.35 23 3610 72 2786 99 1639 102 1711 151 2614 153 1271 154 2332 161 1276 171 1788 173 2765 177 1905 180 3224 193 2631 216 1864 218 2465 
9579 -0.2548792169473217 0.26780512741486356 0.7202057214539808 0 0 0 0.4 23 3611 34 1664 55 1522 72 2787 102 1712 140 2340 151 2615 153 1272 161 1277 171 1789 173 2766 193 2632 202 1403 216 1865 218 2466 228 2445 
9580 -0.0005756707038191602 0.21313468698095475 0.5994373135432596 0 0 0 0.18 72 2788 173 2767 177 1906 218 2467 
9581 -0.12815095955112593 0.24053432529124394 0.6566728619178112 0 0 0 0.35 23 3612 30 1931 72 2789 125 2103 140 2341 149 1533 151 2616 166 1915 173 2768 177 1907 193 2633 
9582 -0.4208747495406641 0.30475409525685865 0.7989490948391568 0 0 0 0.53 46 2237 102 1713 125 2104 144 1555 151 2617 154 2333 166 1916 171 1790 215 829 
9583 -0.3740392408804695 0.29646575129083225 0.7777404501877235 0 0 0 0.25 23 3613 55 1523 72 2790 102 1714 137 834 144 1556 151 2618 154 2334 171 1791 180 3225 216 1866 218 2468 
9584 -0.3409040891699992 0.28975045356897144 0.7595896678889366 0 0 0 0.26 23 3614 34 1665 72 2791 119 1138 151 2619 153 1273 171 1792 173 2769 218 2469 
9585 -0.2651215514486815 0.2759782623201031 0.7223387936028959 0 0 0 0.21 72 2792 153 1274 154 2335 180 3226 
9586 -0.26490294782503454 0.27600189190296004 0.7223885270705505 0 0 0 0.21 23 3615 72 2793 102 1715 153 1275 173 2770 177 1908 218 2470 
9587 -0.21020566245714326 0.2634762126691589 0.6911576616672317 0 0 0 0.6 72 2794 119 1139 177 1909 215 830 
9588 -0.305780065095393 0.28713264964437624 0.7376812021984057 0 0 0 0.32 72 2795 102 1716 154 2336 171 1793 180 3227 191 1198 
9589 0.05461936540336192 0.21125120607626266 0.5568247442548074 0 0 0 0.48 23 3616 72 2796 131 1332 144 1557 173 2771 177 1910 180 3228 193 2634 215 831 216 1867 226 1681 
9590 -0.44480839851751686 0.32438325517005867 0.8071944302415018 0 0 0 0.41 48 605 58 1249 119 1140 125 2105 143 1175 171 1794 180 3229 191 1199 193 2635 211 1249 218 2471 228 2446 
9591 -0.4312755835748095 0.32132899144988586 0.8004461652320757 0 0 0 0.36 34 1666 48 606 58 1250 119 1141 171 1795 180 3230 211 1250 218 2472 
9592 -0.11888225583440604 0.2663374713287802 0.6291346134554282 0 0 0 0.7 23 3617 72 2797 99 1640 116 2364 171 1796 183 947 186 1849 191 1200 215 832 
9593 -0.2800926473322666 0.31162714399401426 0.7312516618467079 0 0 0 0.54 23 3618 72 2798 131 1333 153 1276 173 2772 180 3231 
9594 -0.22094859509774603 0.2967869946510328 0.683744164582423 0 0 0 0.53 30 1932 72 2799 144 1558 151 2620 154 2337 171 1797 193 2636 211 1251 216 1868 
9595 -0.2516367692496285 0.3174799186686419 0.7319863186326059 0 0 0 0.27 72 2800 153 1277 180 3232 
9596 -0.13022666213975712 0.2821547011184888 0.6375187595273687 0 0 0 0.24 23 3619 72 2801 119 1142 171 1798 177 1911 180 3233 191 1201 211 1252 218 2473 228 2447 
9597 -0.25845210630746124 0.3059461823348171 0.6939274522337057 0 0 0 0.19 72 2802 173 2773 180 3234 
9598 -0.4156546873337696 -0.013101999209857976 0.9734719821655521 0 0 0 0.98 58 1251 72 2803 86 1483 94 1771 137 835 143 1176 153 1278 173 2774 191 1202 218 2474 225 770 
9599 -0.057329238365024696 -0.21445695498473755 0.9091646075898415 0 0 0 0.89 72 2804 102 1717 119 1143 137 836 210 772 215 833 226 1682 
9600 -0.06128897508119098 -0.21037314756757383 0.8959302532518336 0 0 0 0.25 173 2775 216 1869 226 1683 
9601 -0.0017558631217546178 -0.252733879005321 0.8409945025545748 0 0 0 0.25 55 1524 57 1919 72 2805 86 1484 125 2106 131 1334 137 837 139 1219 151 2621 166 1917 183 948 186 1850 193 2637 211 1253 212 1425 218 2475 226 1684 
9602 -0.4192189831435385 -0.001584250979862099 0.9597940236622962 0 0 0 0.76 48 607 72 2806 153 1279 173 2776 212 1426 225 771 
9603 0.0046849482033244775 -0.26333597245089585 0.819269039003097 0 0 0 0.48 34 1667 46 2238 55 1525 57 1920 59 1890 72 2807 86 1485 102 1718 116 2365 119 1144 125 2107 131 1335 132 364 139 1220 143 1177 144 1559 151 2622 154 2338 166 1918 173 2777 177 1912 186 1851 191 1203 205 1065 218 2476 
9604 -0.03731228143800085 -0.18403274877882728 0.9485238772206872 0 0 0 0.44 59 1891 72 2808 86 1486 102 1719 125 2108 143 1178 173 2778 177 1913 180 3235 189 1250 191 1204 193 2638 202 1404 212 1427 218 2477 
9605 -0.06490607334918241 -0.16372447249793817 0.8921042043131849 0 0 0 0.58 23 3620 34 1668 37 1798 46 2239 59 1892 72 2809 86 1487 94 1772 102 1720 116 2366 125 2109 131 1336 139 1221 143 1179 144 1560 149 1534 151 2623 154 2339 161 1278 166 1919 171 1799 173 2779 177 1914 180 3236 186 1852 189 1251 193 2639 211 1254 212 1428 218 2478 225 772 
9606 -0.4232767430384865 0.024882587412434366 0.9579059182198174 0 0 0 0.27 131 1337 145 957 193 2640 212 1429 
9607 -0.03751058783916503 -0.09513354616573086 0.9126838716188173 0 0 0 0.2 72 2810 119 1145 226 1685 
9608 -0.013549245352000474 -0.15957351645019408 0.7826165898790404 0 0 0 0.28 72 2811 116 2367 140 2342 
9609 -0.08386034581837364 -0.08443054358066386 0.8770910946936636 0 0 0 0.27 72 2812 143 1180 226 1686 
9610 -0.04257583990333632 -0.08458169866911819 0.906036331021152 0 0 0 0.4 72 2813 119 1146 143 1181 226 1687 
9611 -0.03806548515058602 -0.13299118585244252 0.780058965473567 0 0 0 0.27 23 3621 72 2814 102 1721 173 2780 180 3237 
9612 -0.08770643022978754 -0.08104475649094259 0.8517570051654801 0 0 0 0.56 23 3622 30 1933 34 1669 37 1799 45 417 46 2240 57 1921 59 1893 72 2815 86 1488 94 1773 116 2368 131 1338 132 365 140 2343 144 1561 145 958 149 1535 151 2624 154 2340 161 1279 166 1920 171 1800 173 2781 177 1915 178 1190 180 3238 186 1853 189 1252 191 1205 193 2641 202 1405 205 1066 210 773 211 1255 212 1430 216 1870 218 2479 225 773 226 1688 
9613 -0.4205882645305706 0.07487857261851477 0.9271960321353141 0 0 0 0.4 48 608 72 2816 86 1489 131 1339 143 1182 153 1280 161 1280 178 1191 212 1431 228 2448 
9614 -0.05879554209755345 -0.06465686671523332 0.886434435201491 0 0 0 0.25 72 2817 191 1206 226 1689 
9615 -0.0197190315883659 -0.1289158889624517 0.7714640391883807 0 0 0 0.29 72 2818 173 2782 177 1916 226 1690 
9616 -0.0869246724701432 -0.09328608396655562 0.7970945618154155 0 0 0 0.36 72 2819 102 1722 143 1183 226 1691 
9617 -0.07962777410513228 -0.061166066732802025 0.8684139122509823 0 0 0 0.71 72 2820 189 1253 226 1692 
9618 6.466983736783994e-05 -0.11852737331499107 0.7500852924352038 0 0 0 0.5 72 2821 177 1917 191 1207 215 834 
9619 -0.0880832660343488 -0.012015068426133813 0.8962506165456722 0 0 0 0.19 72 2822 189 1254 191 1208 226 1693 
9620 -0.10599896428912414 -0.036740961266981516 0.7978268943372107 0 0 0 0.29 72 2823 140 2344 143 1184 218 2480 
9621 -0.44712807442130703 0.12938352265863065 0.9275321178181933 0 0 0 0.47 34 1670 37 1800 46 2241 48 609 57 1922 58 1252 72 2824 139 1222 144 1562 145 959 153 1281 161 1281 173 2783 186 1854 216 1871 228 2449 
9622 -0.43007930149940166 0.1175236294116721 0.9090955150293522 0 0 0 0.36 72 2825 119 1147 143 1185 
9623 -0.11288680244465055 -0.021255284209483694 0.7810050248481015 0 0 0 0.17 72 2826 210 774 226 1694 
9624 -0.027914985678100714 -0.04087999739732154 0.7453913635701672 0 0 0 0.92 72 2827 131 1340 173 2784 177 1918 178 1192 180 3239 218 2481 225 774 
9625 -0.0766047983981164 -0.022266724797368336 0.7486496441300102 0 0 0 0.35 23 3623 72 2828 145 960 154 2341 177 1919 218 2482 
9626 -0.10923386114981487 -0.002672970275960778 0.7737219628373745 0 0 0 0.92 72 2829 143 1186 215 835 
9627 -0.39140173967371517 0.12962628918581975 0.9018991161446572 0 0 0 0.3 37 1801 46 2242 48 610 57 1923 58 1253 72 2830 86 1490 94 1774 116 2369 131 1341 151 2625 153 1282 154 2342 166 1921 173 2785 186 1855 191 1209 193 2642 212 1432 218 2483 226 1695 228 2450 
9628 -0.3835452327862957 0.12858910915056893 0.900023159353923 0 0 0 0.27 72 2831 131 1342 153 1283 154 2343 173 2786 212 1433 218 2484 226 1696 
9629 -0.08207974277809553 -0.010835517103282276 0.7538585595241912 0 0 0 0.21 72 2832 177 1920 226 1697 
9630 -0.037243930191105265 -0.030160567373115336 0.7312859535607283 0 0 0 0.38 23 3624 30 1934 46 2243 72 2833 102 1723 116 2370 145 961 177 1921 180 3240 183 949 216 1872 218 2485 226 1698 
9631 -0.3856302138022016 0.1334535338611214 0.8968350092974412 0 0 0 0.35 72 2834 137 838 153 1284 154 2344 173 2787 180 3241 193 2643 212 1434 218 2486 226 1699 
9632 -0.38603105791067993 0.13351311946720024 0.896603479445262 0 0 0 0.36 72 2835 137 839 153 1285 180 3242 193 2644 226 1700 
9633 -0.3783867860109915 0.1320175246886753 0.8950042185681821 0 0 0 0.21 72 2836 153 1286 173 2788 180 3243 218 2487 
9634 -0.37575791227565625 0.13227530297356266 0.8964374952284109 0 0 0 0.28 86 1491 131 1343 143 1187 154 2345 166 1922 173 2789 193 2645 212 1435 226 1701 
9635 -0.38732932030424905 0.13697673448195732 0.8976462828232427 0 0 0 0.32 37 1802 46 2244 48 611 57 1924 58 1254 72 2837 86 1492 116 2371 144 1563 151 2626 154 2346 166 1923 173 2790 178 1193 183 950 186 1856 193 2646 212 1436 215 836 218 2488 225 775 228 2451 
9636 0.20615479043086316 -0.07208235263218117 0.7300826095872647 0 0 0 0.22 72 2838 143 1188 226 1702 
9637 0.1946556645104279 -0.06364624045056963 0.7356547432503311 0 0 0 0.09 72 2839 143 1189 226 1703 
9638 0.26686886603506615 -0.10048201269492103 0.6498116963547963 0 0 0 0.22 72 2840 143 1190 226 1704 
9639 -0.33153400944400585 0.1351649828491386 0.8666706845012042 0 0 0 0.4 23 3625 55 1526 57 1925 59 1894 72 2841 119 1148 131 1344 143 1191 173 2791 180 3244 183 951 215 837 218 2489 226 1705 
9640 -0.037936518888872166 0.006385357871179539 0.7222762074683948 0 0 0 0.39 23 3626 72 2842 131 1345 154 2347 173 2792 177 1922 178 1194 180 3245 
9641 -0.30293158789081104 0.13002390980609224 0.8536638660408089 0 0 0 0.24 72 2843 143 1192 226 1706 
9642 -0.20430930021037935 0.09110766415942831 0.8105221266803483 0 0 0 0.1 72 2844 191 1210 226 1707 
9643 -0.38022945224633437 0.16746422902346542 0.8804556448552888 0 0 0 0.22 72 2845 151 2627 153 1287 161 1282 
9644 -0.03357253284864462 0.020975476668592997 0.70427324694997 0 0 0 0.4 34 1671 72 2846 144 1564 173 2793 177 1923 178 1195 
9645 -0.21001345905084373 0.11150825916777202 0.8066914466608568 0 0 0 0.43 23 3627 34 1672 72 2847 131 1346 140 2345 153 1288 161 1283 166 1924 173 2794 177 1924 180 3246 183 952 191 1211 215 838 216 1873 218 2490 226 1708 228 2452 233 1332 
9646 -0.32067360526605726 0.15569311765627863 0.8559335349896329 0 0 0 0.47 72 2848 102 1724 153 1289 173 2795 180 3247 215 839 226 1709 
9647 -0.22877995319734973 0.12043895421151941 0.8057183535347866 0 0 0 0.31 57 1926 72 2849 94 1775 116 2372 144 1565 149 1536 178 1196 
9648 -0.39068763710805837 0.18370292752134318 0.8774516055099879 0 0 0 0.34 72 2850 153 1290 173 2796 218 2491 
9649 0.14859998573963326 -0.0031125927602275462 0.67465065077279 0 0 0 0.31 72 2851 143 1193 226 1710 
9650 -0.4230540732815783 0.19126424850485788 0.8655464379183908 0 0 0 0.19 48 612 72 2852 153 1291 173 2797 178 1197 
9651 -0.38833889633561886 0.19007204352489657 0.8762847721122466 0 0 0 0.28 72 2853 131 1347 153 1292 173 2798 180 3248 202 1406 
9652 -0.30318231587599714 0.1586000986377191 0.8415430363896096 0 0 0 0.57 72 2854 102 1725 119 1149 143 1194 145 962 154 2348 189 1255 191 1212 215 840 226 1711 
9653 -0.38106200105186944 0.19024012819736708 0.8711254740467161 0 0 0 0.38 72 2855 153 1293 171 1801 173 2799 180 3249 226 1712 
9654 -0.08821952776082304 0.07554726599951543 0.7140885576971692 0 0 0 0.51 34 1673 45 418 47 543 72 2856 137 840 173 2800 177 1925 216 1874 218 2492 
9655 -0.07081141254277819 0.06587636119390357 0.7016154109822283 0 0 0 0.41 23 3628 30 1935 34 1674 45 419 47 544 57 1927 59 1895 72 2857 90 417 94 1776 99 1641 102 1726 116 2373 122 534 125 2110 132 366 139 1223 140 2346 143 1195 144 1566 145 963 149 1537 150 1620 151 2628 154 2349 161 1284 166 1925 171 1802 173 2801 177 1926 178 1198 180 3250 183 953 193 2647 205 1067 210 775 211 1256 215 841 216 1875 218 2493 226 1713 228 2453 233 1333 
9656 -0.3811514704434758 0.19494475009561246 0.868957045371283 0 0 0 0.31 34 1675 48 613 72 2858 86 1493 153 1294 166 1926 171 1803 173 2802 180 3251 202 1407 218 2494 
9657 0.1374735800263516 -0.22438856440894295 0.10895609850100088 0 0 0 0.48 72 2859 150 1621 189 1256 
9658 -0.3794577052481675 0.1994616236951403 0.8678783764227616 0 0 0 0.34 48 614 72 2860 143 1196 153 1295 171 1804 173 2803 180 3252 193 2648 212 1437 216 1876 218 2495 226 1714 
9659 -0.2343627364801668 0.1515704808183714 0.8055951665210271 0 0 0 0.39 23 3629 72 2861 102 1727 140 2347 143 1197 151 2629 153 1296 166 1927 173 2804 178 1199 180 3253 218 2496 225 776 226 1715 
9660 -0.234389133280624 0.15157981817849084 0.8055692468491966 0 0 0 0.39 23 3630 72 2862 102 1728 140 2348 143 1198 153 1297 173 2805 178 1200 180 3254 218 2497 225 777 
9661 0.16474910027819895 -0.17600528140649682 0.19715774067593206 0 0 0 0.38 72 2863 102 1729 140 2349 150 1622 177 1927 189 1257 191 1213 
9662 0.078565435884408 0.04396771259499096 0.6543254899799016 0 0 0 0.34 72 2864 99 1642 102 1730 125 2111 144 1567 210 776 
9663 0.23776851396934112 -0.006555022962873751 0.5957461503093863 0 0 0 0.2 72 2865 143 1199 226 1716 
9664 -0.23664042982235994 0.157891568241434 0.8019324866385666 0 0 0 0.3 72 2866 102 1731 153 1298 173 2806 178 1201 180 3255 202 1408 218 2498 225 778 
9665 -0.40278120082731605 0.21266180232809195 0.8648094453245787 0 0 0 0.5 72 2867 143 1200 154 2350 173 2807 178 1202 180 3256 191 1214 225 779 
9666 -0.2736854171733933 0.17798355514233205 0.8131752570493262 0 0 0 0.4 72 2868 131 1348 154 2351 166 1928 202 1409 218 2499 
9667 -0.3055614154353619 0.19067045966287277 0.8259697270612597 0 0 0 0.48 23 3631 57 1928 59 1896 72 2869 86 1494 116 2374 131 1349 140 2350 143 1201 151 2630 153 1299 166 1929 171 1805 173 2808 178 1203 180 3257 193 2649 202 1410 212 1438 218 2500 
9668 -0.12486242627964621 0.11529510409641314 0.7102492474254869 0 0 0 0.19 72 2870 143 1202 226 1717 
9669 -0.342275227190692 0.20159173693808277 0.8347520002302546 0 0 0 0.33 23 3632 48 615 86 1495 102 1732 143 1203 153 1300 154 2352 173 2809 178 1204 212 1439 
9670 0.2244235481543863 0.007676683613544913 0.5641614328262894 0 0 0 0.12 72 2871 143 1204 226 1718 
9671 0.31637255329474406 -0.02362583622021449 0.5191432238621115 0 0 0 0.51 72 2872 143 1205 226 1719 
9672 -0.37281160714089506 0.21588497073717242 0.8450602868706835 0 0 0 0.24 51 461 59 1897 72 2873 137 841 173 2810 193 2650 218 2501 
9673 0.2292553483420278 0.012741540114501482 0.5645573709275677 0 0 0 0.28 72 2874 143 1206 226 1720 
9674 0.3387096035063393 -0.028092597020642415 0.4994622132039489 0 0 0 0.22 72 2875 143 1207 186 1857 191 1215 226 1721 
9675 0.3291453447774389 -0.02110910080672206 0.4955489560850853 0 0 0 0.37 72 2876 102 1733 143 1208 226 1722 
9676 -0.24829853064359544 0.18210642468689014 0.7905218711038046 0 0 0 0.4 72 2877 212 1440 226 1723 
9677 -0.3888392871880146 0.22542830837889422 0.8495948465133498 0 0 0 0.35 72 2878 102 1734 143 1209 153 1301 173 2811 
9678 -0.38824599661778486 0.22564368721825778 0.8500136855869789 0 0 0 0.36 72 2879 102 1735 143 1210 218 2502 
9679 -0.2019616340400014 0.1717323765931609 0.7769056249043291 0 0 0 0.22 72 2880 153 1302 178 1205 226 1724 
9680 -0.4295257114628767 0.2322344392038466 0.8509146819432102 0 0 0 0.23 72 2881 102 1736 125 2112 143 1211 153 1303 166 1930 173 2812 180 3258 193 2651 218 2503 
9681 0.1525485711932917 0.05774706927342443 0.6064931575228911 0 0 0 0.2 72 2882 137 842 140 2351 150 1623 173 2813 193 2652 
9682 -0.4417881954951725 0.23853181440813204 0.8545328932255049 0 0 0 0.2 72 2883 143 1212 191 1216 
9683 -0.37446301412247807 0.22882805017836436 0.8441653597007922 0 0 0 0.55 72 2884 102 1737 119 1150 137 843 143 1213 153 1304 173 2814 178 1206 215 842 
9684 -0.3330614919902529 0.21541879711675777 0.8236581656388753 0 0 0 0.15 72 2885 102 1738 143 1214 
9685 0.005145992648855623 0.10018201573659696 0.6487998696272271 0 0 0 0.24 72 2886 173 2815 178 1207 
9686 0.25592229092076313 -0.04245245283066527 0.392901927144305 0 0 0 0.29 72 2887 143 1215 144 1568 189 1258 
9687 0.21338307754406852 -0.08045133113891925 0.2906509815690636 0 0 0 0.24 72 2888 143 1216 189 1259 191 1217 
9688 0.048660762952324334 0.1006280575298013 0.6475454484235172 0 0 0 0.3 59 1898 72 2889 86 1496 99 1643 102 1739 116 2375 131 1350 154 2353 166 1931 177 1928 178 1208 210 777 215 843 218 2504 225 780 226 1725 
9689 0.3777365355132021 0.019072407365323448 0.5324508387548826 0 0 0 0.26 37 1803 46 2245 55 1527 57 1929 59 1899 72 2890 86 1497 119 1151 122 535 125 2113 131 1351 137 844 140 2352 143 1217 150 1624 151 2631 166 1932 173 2816 177 1929 178 1209 180 3259 186 1858 191 1218 193 2653 202 1411 211 1257 212 1441 216 1877 218 2505 226 1726 233 1334 
9690 -0.2695857629213028 0.20258378599849927 0.7889227573606696 0 0 0 0.12 72 2891 102 1740 140 2353 151 2632 211 1258 
9691 -0.3046094661178393 0.2168702034252108 0.8119934537695752 0 0 0 0.2 72 2892 153 1305 173 2817 
9692 0.21151220585598474 0.06090086567389145 0.5752699282373072 0 0 0 0.46 72 2893 86 1498 99 1644 122 536 149 1538 177 1930 180 3260 210 778 218 2506 
9693 0.18540087277673387 -0.09024373252607307 0.2264617850208035 0 0 0 0.16 72 2894 189 1260 191 1219 
9694 0.30194620183521 -0.012013690060244305 0.4239562223291614 0 0 0 0.29 72 2895 119 1152 143 1218 189 1261 
9695 -0.30355616326904783 0.2189589266819682 0.8051249821866066 0 0 0 0.65 34 1676 72 2896 86 1499 131 1352 132 367 153 1306 171 1806 180 3261 186 1859 216 1878 
9696 0.11977740861131006 0.09300030931680489 0.6142672098197939 0 0 0 0.44 72 2897 102 1741 131 1353 178 1210 180 3262 210 779 212 1442 
9697 0.1873024718632752 -0.09266564622301965 0.21494361325214859 0 0 0 0.61 23 3633 30 1936 57 1930 72 2898 99 1645 102 1742 140 2354 177 1931 189 1262 191 1220 202 1412 225 781 
9698 -0.2507631803507364 0.20514562258016936 0.7799359377438729 0 0 0 0.28 72 2899 153 1307 173 2818 180 3263 
9699 -0.39027464835167486 0.24590679062685072 0.8401030794098724 0 0 0 0.7 72 2900 102 1743 137 845 215 844 226 1727 
9700 -0.3204335210811224 0.22670222844136292 0.8084367664579304 0 0 0 0.64 23 3634 48 616 72 2901 102 1744 153 1308 154 2354 173 2819 180 3264 215 845 226 1728 
9701 0.19303105825759248 -0.07120252305290099 0.23689452777566994 0 0 0 0.27 72 2902 99 1646 189 1263 191 1221 
9702 -0.3312679180304996 0.23659052880020967 0.8160304442566281 0 0 0 0.95 72 2903 102 1745 215 846 
9703 -0.3756875187683511 0.2613448011023069 0.8508728494668373 0 0 0 0.43 72 2904 153 1309 173 2820 
9704 -0.31963346550375493 0.23843811872508816 0.8051509111868878 0 0 0 0.31 45 420 48 617 57 1931 58 1255 59 1900 72 2905 86 1500 94 1777 131 1354 143 1219 144 1569 149 1539 153 1310 171 1807 173 2821 178 1211 180 3265 212 1443 
9705 0.2032516827789982 -0.06264248629365834 0.2105704020499624 0 0 0 0.12 72 2906 189 1264 191 1222 
9706 -0.30954787941037815 0.24157033211419165 0.801734336307285 0 0 0 0.5 23 3635 57 1932 72 2907 102 1746 143 1220 151 2633 153 1311 166 1933 173 2822 178 1212 193 2654 218 2507 225 782 
9707 -0.31710155705668736 0.24277453487842296 0.8019096809291851 0 0 0 0.47 23 3636 58 1256 94 1778 102 1747 125 2114 143 1221 151 2634 153 1312 166 1934 173 2823 178 1213 180 3266 191 1223 193 2655 211 1259 218 2508 225 783 226 1729 228 2454 
9708 -0.3931078836252 0.2649964688930014 0.8398704969533954 0 0 0 0.34 72 2908 153 1313 154 2355 
9709 0.16911569021138195 -0.09080253460087334 0.1272689991319837 0 0 0 0.49 23 3637 57 1933 72 2909 140 2355 177 1932 189 1265 191 1224 202 1413 225 784 
9710 -0.15169656630046166 0.20190502837772595 0.7250219941745436 0 0 0 0.45 23 3638 72 2910 102 1748 140 2356 143 1222 173 2824 178 1214 180 3267 193 2656 212 1444 225 785 
9711 0.1903044144845434 -0.04714705098454786 0.20472902796512368 0 0 0 0.14 72 2911 140 2357 177 1933 189 1266 
9712 -0.17520412119016687 0.21809680694098024 0.7392699564086302 0 0 0 0.23 72 2912 143 1223 153 1314 
9713 -0.38393021576247277 0.2705149939840705 0.8284366463942967 0 0 0 0.5 37 1804 48 618 72 2913 119 1153 125 2115 151 2635 153 1315 154 2356 166 1935 171 1808 173 2825 180 3268 189 1267 193 2657 
9714 -0.2323517977461701 0.23861970965195642 0.7699318327976613 0 0 0 0.17 72 2914 102 1749 153 1316 
9715 -0.3830008157113403 0.2763304029656915 0.8316830888219926 0 0 0 0.34 46 2246 58 1257 72 2915 143 1224 153 1317 154 2357 171 1809 180 3269 
9716 0.048507663088162165 0.15951966975706483 0.6198049863780553 0 0 0 0.69 23 3639 72 2916 99 1647 102 1750 143 1225 173 2826 180 3270 225 786 
9717 0.20167479132490268 -0.020713237405715346 0.23765540976750088 0 0 0 0.3 72 2917 99 1648 191 1225 
9718 -0.31164637563002756 0.25683934861863034 0.7941103157790371 0 0 0 0.32 72 2918 102 1751 116 2376 
9719 -0.07905696707417104 0.18212524160277357 0.6533431021351663 0 0 0 0.4 72 2919 94 1779 99 1649 102 1752 119 1154 139 1224 143 1226 145 964 171 1810 173 2827 210 780 211 1260 233 1335 
9720 -0.3554976918922984 0.2725905512145463 0.816631877236286 0 0 0 0.45 23 3640 72 2920 143 1227 151 2636 171 1811 180 3271 189 1268 212 1445 216 1879 228 2455 
9721 0.1283788157219201 0.14373899027234457 0.5782402118310548 0 0 0 0.41 72 2921 99 1650 102 1753 154 2358 173 2828 178 1215 215 847 218 2509 226 1730 
9722 -0.3779990445157882 0.28321778290626565 0.8308856222487475 0 0 0 0.74 72 2922 153 1318 171 1812 180 3272 218 2510 
9723 0.17006411892108136 -0.0411033195669219 0.15840261181321286 0 0 0 0.33 72 2923 99 1651 177 1934 189 1269 191 1226 
9724 0.1768699230878904 -0.03205952774052122 0.17627361526428748 0 0 0 0.35 72 2924 99 1652 189 1270 191 1227 
9725 0.13017843146190786 0.15735869297916685 0.584237281613411 0 0 0 0.55 23 3641 72 2925 99 1653 102 1754 149 1540 180 3273 210 781 
9726 0.1163142358131678 0.1568686754735671 0.5782592961101451 0 0 0 0.22 72 2926 149 1541 202 1414 
9727 -0.17603215865003885 0.23535087047670125 0.7267321661783043 0 0 0 0.44 30 1937 57 1934 72 2927 116 2377 131 1355 139 1225 161 1285 189 1271 193 2658 
9728 0.10533021950893835 0.17098930775609758 0.5810844472625497 0 0 0 0.27 72 2928 99 1654 102 1755 131 1356 149 1542 171 1813 180 3274 210 782 
9729 -0.44307222868549384 0.29259585565961616 0.8198955331927984 0 0 0 0.53 48 619 102 1756 125 2116 131 1357 151 2637 153 1319 166 1936 171 1814 173 2829 178 1216 180 3275 191 1228 211 1261 215 848 218 2511 228 2456 
9730 0.31339338355927804 0.08380566446666297 0.3993074754633407 0 0 0 0.13 72 2929 99 1655 119 1155 178 1217 191 1229 216 1880 
9731 0.13235859113238718 0.16668375991939727 0.5671761149246807 0 0 0 0.28 72 2930 151 2638 193 2659 
9732 -0.4447736931918185 0.29534335380659615 0.8195649509752734 0 0 0 0.31 48 620 58 1258 151 2639 153 1320 178 1218 180 3276 
9733 0.20775904562524558 0.025515637155355445 0.25448267886837317 0 0 0 0.56 72 2931 140 2358 150 1625 177 1935 180 3277 216 1881 233 1336 
9734 -0.4343015102174711 0.29313903394071866 0.8138935802307112 0 0 0 0.14 57 1935 102 1757 119 1156 151 2640 153 1321 173 2830 
9735 0.0771767579664459 0.18217979476472995 0.5896473034577552 0 0 0 0.4 72 2932 102 1758 119 1157 139 1226 150 1626 166 1937 215 849 233 1337 
9736 -0.17755446874218403 0.249675216067912 0.7238827611029051 0 0 0 0.28 72 2933 102 1759 153 1322 
9737 -0.14258258842769203 0.2434433420856144 0.7081465058007068 0 0 0 0.05 72 2934 177 1936 218 2512 
9738 0.3584666782626343 0.12265347822118994 0.4552739698001314 0 0 0 0.33 72 2935 99 1656 119 1158 122 537 137 846 139 1227 143 1228 177 1937 180 3278 186 1860 191 1230 202 1415 212 1446 226 1731 
9739 -0.43443387562273894 0.29687014857058036 0.8121328289304174 0 0 0 0.3 119 1159 137 847 143 1229 151 2641 153 1323 173 2831 180 3279 228 2457 
9740 -0.2529318896810583 0.26744926429642807 0.7525886124551698 0 0 0 0.91 23 3642 90 418 131 1358 153 1324 218 2513 
9741 -0.2603876575393399 0.25444965208982606 0.7186178443509068 0 0 0 0.18 72 2936 99 1657 102 1760 
9742 -0.2025014164953311 0.24708784402308423 0.6991198776110197 0 0 0 0.23 72 2937 102 1761 177 1938 180 3280 
9743 -0.19882429750114858 0.2459605124791286 0.6968802785415078 0 0 0 0.51 23 3643 72 2938 143 1230 166 1938 173 2832 177 1939 193 2660 202 1416 218 2514 
9744 -0.16613108882828526 0.2371858544785006 0.6743078070594186 0 0 0 0.66 46 2247 116 2378 119 1160 186 1861 193 2661 215 850 
9745 -0.17508747359681964 0.24262627824849478 0.6873098260972502 0 0 0 0.49 59 1901 72 2939 102 1762 131 1359 140 2359 143 1231 166 1939 173 2833 178 1219 191 1231 210 783 212 1447 215 851 218 2515 
9746 0.19921880975757608 0.17190979846672838 0.5271256751027674 0 0 0 0.29 23 3644 72 2940 143 1232 173 2834 177 1940 
9747 -0.3165765679474704 0.2811834822734778 0.7476538833123145 0 0 0 0.35 23 3645 59 1902 72 2941 102 1763 140 2360 144 1570 151 2642 153 1325 154 2359 173 2835 180 3281 193 2662 202 1417 216 1882 218 2516 226 1732 228 2458 
9748 0.040558284756574234 0.20248590860711832 0.571557573586684 0 0 0 0.07 72 2942 99 1658 226 1733 
9749 -0.25431998246959775 0.27016765918052466 0.7181305853395523 0 0 0 0.45 23 3646 58 1259 59 1903 72 2943 99 1659 102 1764 116 2379 125 2117 140 2361 143 1233 144 1571 149 1543 151 2643 153 1326 154 2360 161 1286 171 1815 173 2836 177 1941 180 3282 189 1272 191 1232 193 2663 211 1262 215 852 216 1883 233 1338 
9750 -0.1954026579309786 0.2587836112696145 0.6877992430189936 0 0 0 0.42 23 3647 59 1904 72 2944 102 1765 140 2362 144 1572 154 2361 161 1287 177 1942 193 2664 216 1884 218 2517 228 2459 233 1339 
9751 -0.3956269797399839 0.3044128487952842 0.7824772193234004 0 0 0 0.19 171 1816 202 1418 226 1734 
9752 -0.22902128840016409 0.27119361813477505 0.7043680166299688 0 0 0 0.45 72 2945 99 1660 102 1766 116 2380 125 2118 131 1360 143 1234 144 1573 154 2362 166 1940 211 1263 
9753 -0.40078147437602846 0.3128683634013691 0.7790592041532436 0 0 0 0.69 23 3648 48 621 59 1905 121 75 125 2119 139 1228 144 1574 151 2644 154 2363 180 3283 193 2665 202 1419 218 2518 228 2460 
9754 -0.12541034930561235 0.2556843545936557 0.6376871755818466 0 0 0 0.48 34 1677 72 2946 99 1661 102 1767 119 1161 144 1575 166 1941 171 1817 173 2837 177 1943 180 3284 183 954 202 1420 212 1448 218 2519 233 1340 
9755 -0.3117974357893446 0.29534758392571575 0.734094396807802 0 0 0 0.19 72 2947 102 1768 193 2666 
9756 -0.23748094571744485 0.3019212402106374 0.711384511206057 0 0 0 0.72 72 2948 143 1235 153 1327 178 1220 180 3285 193 2667 
9757 -0.31532267803268454 0.3081712921736434 0.7236475352895949 0 0 0 0.21 72 2949 173 2838 180 3286 
9758 -0.055744152785935454 -0.21791706493073149 0.900337302350821 0 0 0 0.32 72 2950 131 1361 154 2364 166 1942 171 1818 218 2520 
9759 -0.04349104244899514 -0.197737458387566 0.9554494036251624 0 0 0 0.18 72 2951 143 1236 226 1735 
9760 -0.06381205334589529 -0.1933308169411169 0.905869285457694 0 0 0 0.68 34 1678 37 1805 55 1528 59 1906 72 2952 86 1501 116 2381 143 1237 145 965 151 2645 173 2839 177 1944 193 2668 212 1449 218 2521 225 787 226 1736 
9761 -0.04836861447116146 -0.22547561585658507 0.848199046902401 0 0 0 0.14 72 2953 143 1238 226 1737 
9762 -0.05184703919400527 -0.18682023128203973 0.8923099636340232 0 0 0 0.54 72 2954 173 2840 178 1221 193 2669 
9763 -0.04228611943597241 -0.11668720252046638 0.9420737453167966 0 0 0 0.1 72 2955 191 1233 226 1738 
9764 -0.07620510447489816 -0.1385424251782582 0.8537247658023014 0 0 0 0.48 72 2956 154 2365 173 2841 180 3287 225 788 
9765 -0.05977571528799617 -0.12719899369018176 0.8629304401537317 0 0 0 0.15 72 2957 143 1239 226 1739 
9766 -0.12127008323239746 -0.09854616420011054 0.817842756177103 0 0 0 0.31 72 2958 171 1819 210 784 226 1740 
9767 -0.11816628099155728 -0.09576396291215168 0.8228066465974527 0 0 0 0.39 72 2959 143 1240 226 1741 
9768 -0.02978000662754087 -0.11154413990486776 0.7695923662920322 0 0 0 0.63 23 3649 30 1938 34 1679 37 1806 45 421 46 2248 55 1529 59 1907 72 2960 86 1502 90 419 116 2382 119 1162 125 2120 132 368 139 1229 140 2363 143 1241 144 1576 149 1544 150 1627 151 2646 154 2366 161 1288 166 1943 173 2842 177 1945 178 1222 180 3288 183 955 186 1862 189 1273 191 1234 193 2670 202 1421 205 1068 211 1264 212 1450 215 853 216 1885 218 2522 225 789 226 1742 
9769 -0.4256898899558393 0.09208976296548393 0.9239585326199026 0 0 0 0.55 55 1530 72 2961 143 1242 145 966 151 2647 193 2671 212 1451 225 790 
9770 -0.03576273807625107 -0.05419690687242551 0.7502884639367351 0 0 0 0.44 23 3650 72 2962 86 1503 116 2383 131 1362 140 2364 154 2367 173 2843 177 1946 178 1223 202 1422 212 1452 218 2523 225 791 
9771 -0.061698804265491805 0.0013690757769526754 0.8576498792982836 0 0 0 0.04 72 2963 191 1235 226 1743 
9772 -0.4231862097533326 0.12555961051133377 0.8935890384646128 0 0 0 0.67 72 2964 144 1577 153 1328 173 2844 225 792 
9773 -0.37759723545147655 0.12194096280688026 0.9119528785451284 0 0 0 0.51 72 2965 153 1329 173 2845 
9774 -0.413317188730161 0.14320619813448413 0.8929090550084028 0 0 0 0.55 37 1807 46 2249 51 462 58 1260 72 2966 102 1769 125 2121 131 1363 143 1243 144 1578 145 967 151 2648 153 1330 154 2368 166 1944 173 2846 178 1224 189 1274 191 1236 193 2672 202 1423 212 1453 215 854 218 2524 228 2461 
9775 0.22621442478527215 -0.08537705623116931 0.7426323957341986 0 0 0 0.14 72 2967 143 1244 226 1744 
9776 -0.3922720132664445 0.1468354538000443 0.8967522984481087 0 0 0 0.35 37 1808 46 2250 48 622 51 463 58 1261 59 1908 72 2968 86 1504 102 1770 116 2384 125 2122 131 1364 137 848 143 1245 144 1579 145 968 151 2649 153 1331 154 2369 166 1945 178 1225 180 3289 183 956 186 1863 189 1275 191 1237 193 2673 202 1424 212 1454 215 855 225 793 226 1745 228 2462 
9777 0.24743233062400824 -0.08063856597968376 0.7161953126461001 0 0 0 0.18 72 2969 143 1246 226 1746 
9778 -0.37768508357560504 0.14963430146679915 0.8896555005192357 0 0 0 0.22 72 2970 102 1771 226 1747 
9779 -0.027094861116690044 -0.0033476025786797524 0.7159663324330057 0 0 0 0.35 23 3651 34 1680 46 2251 55 1531 59 1909 72 2971 86 1505 94 1780 102 1772 116 2385 119 1163 125 2123 131 1365 137 849 140 2365 143 1247 144 1580 150 1628 154 2370 173 2847 177 1947 178 1226 189 1276 193 2674 202 1425 212 1455 215 856 216 1886 228 2463 
9780 -0.3207719075767542 0.13321733300974029 0.8625126418938961 0 0 0 0.34 72 2972 119 1164 178 1227 183 957 193 2675 212 1456 226 1748 
9781 -0.10858844633335522 0.06138571061701289 0.7520261423326481 0 0 0 0.22 72 2973 191 1238 210 785 226 1749 
9782 -0.42787245774209237 0.18325009089548078 0.870981856692619 0 0 0 0.5 59 1910 72 2974 102 1773 143 1248 145 969 151 2650 153 1332 166 1946 173 2848 178 1228 193 2676 218 2525 225 794 
9783 -0.03841671673934654 0.041667866595777384 0.6965019659363082 0 0 0 0.24 72 2975 140 2366 149 1545 212 1457 233 1341 
9784 0.2604843259342795 -0.03784758683636782 0.6257433486922057 0 0 0 0.13 72 2976 143 1249 226 1750 
9785 -0.12183142089319346 0.0778261545486752 0.728487585300837 0 0 0 0.26 72 2977 143 1250 210 786 226 1751 
9786 -0.3145955205182391 0.16660457595303876 0.8382881509299136 0 0 0 0.04 72 2978 153 1333 218 2526 
9787 -0.3009780440855104 0.16262538293817563 0.8333960103284407 0 0 0 0.44 72 2979 153 1334 173 2849 180 3290 218 2527 225 795 
9788 0.236443164578878 -0.03592143803917119 0.583052650956061 0 0 0 0.08 72 2980 143 1251 226 1752 
9789 -0.07517576560759207 0.07303399241469145 0.707727172802748 0 0 0 0.43 23 3652 34 1681 72 2981 102 1774 131 1366 140 2367 161 1289 173 2850 177 1948 178 1229 193 2677 210 787 216 1887 226 1753 
9790 -0.40461943034675674 0.21616097165555592 0.861759651547823 0 0 0 0.65 37 1809 46 2252 48 623 55 1532 57 1936 58 1262 72 2982 86 1506 102 1775 116 2386 119 1165 125 2124 131 1367 137 850 139 1230 143 1252 144 1581 151 2651 154 2371 166 1947 171 1820 173 2851 178 1230 180 3291 186 1864 191 1239 202 1426 211 1265 215 857 216 1888 218 2528 225 796 228 2464 
9791 0.2025883370812807 -0.12772840465199717 0.2769325519275364 0 0 0 0.15 72 2983 189 1277 191 1240 
9792 -0.17235910894300568 0.1485139734228343 0.7619458657833108 0 0 0 0.48 72 2984 137 851 140 2368 145 970 149 1546 161 1290 178 1231 180 3292 183 958 193 2678 226 1754 
9793 0.28502791910351666 -0.06545606154364307 0.4219032722628791 0 0 0 0.29 23 3653 57 1937 59 1911 72 2985 102 1776 131 1368 137 852 140 2369 143 1253 144 1582 150 1629 161 1291 166 1948 177 1949 178 1232 189 1278 191 1241 202 1427 205 1069 212 1458 216 1889 228 2465 233 1342 
9794 0.2965818118325795 -0.05591722086161032 0.43325001759462495 0 0 0 0.34 23 3654 30 1939 55 1533 57 1938 59 1912 72 2986 99 1662 102 1777 116 2387 119 1166 131 1369 137 853 139 1231 140 2370 143 1254 144 1583 145 971 150 1630 154 2372 171 1821 177 1950 178 1233 180 3293 189 1279 191 1242 202 1428 205 1070 212 1459 216 1890 225 797 228 2466 233 1343 
9795 0.34957781905220514 -0.02597304986648076 0.5108047617454372 0 0 0 0.17 72 2987 143 1255 226 1755 
9796 0.07090772195634273 0.07338566525101653 0.649128517182082 0 0 0 0.66 34 1682 37 1810 47 545 72 2988 119 1167 122 538 140 2371 149 1547 150 1631 161 1292 173 2852 183 959 191 1243 205 1071 218 2529 225 798 233 1344 
9797 0.14836001193793424 -0.16439311002555118 0.10271947304575584 0 0 0 0.4 72 2989 140 2372 189 1280 
9798 0.1548818505127646 -0.16037864157054632 0.11041937687379877 0 0 0 0.17 72 2990 189 1281 191 1244 
9799 0.2039777736893684 -0.10358187054093768 0.24444775219558929 0 0 0 0.66 72 2991 140 2373 150 1632 189 1282 191 1245 
9800 0.0829746285811678 0.10119945169377241 0.6295591379317261 0 0 0 0.2 72 2992 102 1778 210 788 
9801 -0.12818345216128216 0.15225992806568853 0.6886823825742044 0 0 0 0.24 72 2993 102 1779 119 1168 
9802 0.2385389800396131 0.05705956910441158 0.5380569384712081 0 0 0 0.65 72 2994 140 2374 166 1949 173 2853 
9803 0.15325397878466837 -0.1266528296576913 0.09591975334705324 0 0 0 0.23 72 2995 189 1283 191 1246 
9804 -0.38424689143157087 0.2527148467531742 0.8362946115094955 0 0 0 0.22 72 2996 178 1234 218 2530 
9805 0.20449333551862955 -0.06018619960521583 0.24724550277118088 0 0 0 0.34 72 2997 140 2375 150 1633 177 1951 189 1284 191 1247 202 1429 
9806 0.16275750911393946 -0.10828107491185603 0.13199510528920128 0 0 0 0.36 72 2998 189 1285 191 1248 
9807 -0.01617745204178204 0.13135569532600636 0.6274915372542823 0 0 0 1.0 45 422 72 2999 116 2388 143 1256 154 2373 166 1950 173 2854 177 1952 178 1235 215 858 218 2531 225 799 
9808 -0.32522357510202954 0.2463463464419698 0.8129667961167303 0 0 0 0.25 72 3000 143 1257 153 1335 166 1951 173 2855 193 2679 
9809 0.3551145032399236 0.05139579811481921 0.48827272297445456 0 0 0 0.63 72 3001 99 1663 121 76 122 539 125 2125 151 2652 166 1952 186 1865 202 1430 210 789 
9810 0.13038132504655686 -0.12213959435162018 0.06082418044340081 0 0 0 0.34 72 3002 177 1953 189 1286 
9811 0.2013186550348181 -0.05336659879322268 0.20642672321859223 0 0 0 0.59 72 3003 177 1954 189 1287 191 1249 202 1431 225 800 
9812 -0.23869252244188136 0.22930654781828422 0.7684650171476192 0 0 0 0.19 72 3004 102 1780 143 1258 153 1336 173 2856 
9813 0.14157720551713424 -0.09636708572736095 0.07182346728535755 0 0 0 0.15 72 3005 177 1955 189 1288 191 1250 
9814 0.15954349882582522 -0.05917356027444426 0.13947794252921314 0 0 0 0.45 23 3655 30 1940 57 1939 72 3006 99 1664 189 1289 225 801 
9815 0.23970342325861319 0.026133634484742204 0.3300919963825334 0 0 0 0.34 72 3007 154 2374 180 3294 189 1290 212 1460 233 1345 
9816 0.21714600844591664 0.010550455762252012 0.2658016172004062 0 0 0 0.34 30 1941 55 1534 57 1940 59 1913 72 3008 137 854 140 2376 150 1634 177 1956 189 1291 191 1251 233 1346 
9817 0.1608237591481901 -0.042920579900412634 0.1429611622754875 0 0 0 0.41 72 3009 99 1665 140 2377 177 1957 189 1292 191 1252 
9818 -0.33094673226707527 0.2764635611229447 0.7969102921866819 0 0 0 0.25 72 3010 153 1337 178 1236 180 3295 
9819 0.18177140130207872 -0.03506822068907082 0.13353869496310067 0 0 0 0.22 72 3011 177 1958 189 1293 191 1253 
9820 -0.11409644228983369 0.2210846479489845 0.6566447036336459 0 0 0 0.6 72 3012 90 420 121 77 131 1370 137 855 139 1232 149 1548 151 2653 212 1461 
9821 0.34335750759774275 0.12276382885306802 0.4469427671737785 0 0 0 0.34 23 3656 72 3013 137 856 143 1259 178 1237 191 1254 202 1432 212 1462 218 2532 226 1756 228 2467 
9822 -0.02113155915390388 0.20865478431224266 0.6085563177331628 0 0 0 0.21 72 3014 143 1260 149 1549 173 2857 
9823 0.16529525675849144 -0.012946415905544717 0.09006007601297666 0 0 0 0.09 72 3015 189 1294 191 1255 
9824 -0.2460330741327208 0.2669704821521557 0.7080858415100149 0 0 0 0.28 23 3657 55 1535 72 3016 116 2389 144 1584 149 1550 153 1338 173 2858 177 1959 178 1238 193 2680 202 1433 216 1891 218 2533 
9825 -0.21486651795262 0.2622703072092409 0.693948479527716 0 0 0 0.53 72 3017 125 2126 166 1953 171 1822 173 2859 218 2534 
9826 0.1642177015817706 -0.011040124348618383 0.07839145789339813 0 0 0 0.23 72 3018 189 1295 191 1256 
9827 0.15748650869674974 0.0010515472932815415 0.07893822861911844 0 0 0 0.52 23 3658 30 1942 72 3019 140 2378 191 1257 202 1434 
9828 0.1576447336327927 0.0009577995717482882 0.07923160644225016 0 0 0 0.35 72 3020 140 2379 191 1258 
9829 -0.21029333020780472 0.3012395820685198 0.6779492869238034 0 0 0 0.35 72 3021 173 2860 180 3296 
9830 -0.04895275661740484 -0.18981868657129253 0.9573655803669464 0 0 0 0.53 72 3022 210 790 226 1757 
9831 -0.0580628294540025 -0.20905015442648325 0.8897561412810284 0 0 0 0.33 72 3023 102 1781 173 2861 178 1239 
9832 -0.015062232037022748 -0.21150477240732532 0.8248726193295401 0 0 0 0.47 23 3659 59 1914 72 3024 102 1782 143 1261 173 2862 178 1240 180 3297 
9833 -0.0076065428726827524 -0.20272171679406878 0.7979088941870497 0 0 0 0.62 72 3025 143 1262 177 1960 
9834 -0.09659711399979891 -0.08016064538135392 0.8370638497822283 0 0 0 0.5 72 3026 143 1263 189 1296 226 1758 
9835 -0.031293401129750625 -0.13054692920836564 0.7746247394492324 0 0 0 0.13 72 3027 102 1783 180 3298 
9836 -0.0033855147972863685 -0.13008585757118285 0.747009142880734 0 0 0 0.45 72 3028 86 1507 119 1169 180 3299 216 1892 
9837 -0.4004649091388789 0.09445757894440343 0.9241590326354631 0 0 0 1.27 48 624 59 1915 72 3029 86 1508 131 1371 153 1339 161 1293 173 2863 178 1241 218 2535 225 802 
9838 -0.1934031966717987 0.036692451174428264 0.8966698891804628 0 0 0 0.48 72 3030 143 1264 226 1759 
9839 -0.28846175177650907 0.07816762019939412 0.9225970986064856 0 0 0 0.27 72 3031 143 1265 226 1760 
9840 -0.4190115249637395 0.11867104047977511 0.8981048919990573 0 0 0 0.38 48 625 59 1916 72 3032 86 1509 131 1372 143 1266 153 1340 173 2864 178 1242 180 3300 212 1463 218 2536 225 803 
9841 0.23195318836877213 -0.11591419967935737 0.6438198184159699 0 0 0 0.46 72 3033 210 791 226 1761 
9842 -0.111503598002484 0.05007728568362654 0.8090039175086036 0 0 0 0.18 72 3034 143 1267 226 1762 
9843 -0.36138157808915883 0.14265749761647414 0.8790947453907418 0 0 0 0.28 72 3035 102 1784 131 1373 143 1268 153 1341 161 1294 173 2865 215 859 226 1763 
9844 -0.10809113480273384 0.03321165589362822 0.7412778675047829 0 0 0 0.27 72 3036 143 1269 226 1764 
9845 -0.38823030729470687 0.16273624291151437 0.8887674486943692 0 0 0 0.16 72 3037 102 1785 153 1342 173 2866 
9846 0.18431088549374522 -0.0350978887721952 0.6889696351802054 0 0 0 0.17 72 3038 143 1270 226 1765 
9847 0.23325697809951085 -0.06858095572425944 0.5837189955495933 0 0 0 0.19 72 3039 143 1271 186 1866 226 1766 
9848 0.2573276376567317 -0.06266738149875951 0.5877393617478356 0 0 0 0.18 72 3040 143 1272 226 1767 
9849 -0.4200019065943932 0.19917800565940744 0.866389069958124 0 0 0 0.64 34 1683 48 626 58 1263 59 1917 72 3041 86 1510 102 1786 116 2390 119 1170 125 2127 131 1374 143 1273 151 2654 153 1343 171 1823 173 2867 178 1243 180 3301 191 1259 193 2681 202 1435 212 1464 215 860 218 2537 225 804 
9850 0.07948885180233618 0.02917440383463042 0.6630765897444786 0 0 0 0.42 72 3042 154 2375 226 1768 
9851 0.07717349679749863 0.02946767671246165 0.6625999220442657 0 0 0 0.45 72 3043 154 2376 178 1244 226 1769 
9852 0.2794351648119742 -0.09798811835608552 0.4366539523569352 0 0 0 0.73 72 3044 131 1375 140 2380 143 1274 177 1961 189 1297 191 1260 202 1436 
9853 -0.37945359556425806 0.20632586760734734 0.8683840437031676 0 0 0 0.33 48 627 72 3045 153 1344 154 2377 173 2868 178 1245 
9854 -0.3801351597530829 0.20645075130182075 0.867954631026712 0 0 0 0.47 37 1811 46 2253 48 628 51 464 72 3046 116 2391 153 1345 154 2378 173 2869 186 1867 189 1298 202 1437 218 2538 225 805 
9855 -0.3079405806100456 0.18833473076568027 0.8322358604571122 0 0 0 0.89 72 3047 178 1246 180 3302 191 1261 
9856 -0.3297038107990248 0.19382481436487387 0.834472098926494 0 0 0 0.34 72 3048 102 1787 131 1376 171 1824 180 3303 218 2539 
9857 -0.12439108484347974 0.1082358329575095 0.7090657954275695 0 0 0 0.24 72 3049 143 1275 226 1770 
9858 -0.04929980364638046 0.09807280318245365 0.6777249263820392 0 0 0 0.49 23 3660 37 1812 57 1941 72 3050 86 1511 102 1788 131 1377 132 369 143 1276 144 1585 173 2870 178 1247 189 1299 212 1465 
9859 0.2053125066485789 -0.11637577323604327 0.2663510772453764 0 0 0 0.47 72 3051 140 2381 150 1635 177 1962 202 1438 
9860 0.35882029844833385 -0.017749067249910537 0.5215461313663922 0 0 0 0.59 72 3052 131 1378 143 1277 180 3304 186 1868 191 1262 211 1266 226 1771 
9861 -0.03881860668839462 0.10425866047833147 0.6726542492609021 0 0 0 0.47 72 3053 99 1666 102 1789 210 792 
9862 -0.013889912657175684 0.10760397328458568 0.6524203237751781 0 0 0 0.22 72 3054 102 1790 154 2379 
9863 0.36591404945843775 0.018923858055015258 0.5367260722905887 0 0 0 0.53 72 3055 122 540 173 2871 178 1248 
9864 0.33304485945851037 0.02153992704051183 0.535564514109087 0 0 0 0.51 72 3056 173 2872 178 1249 
9865 0.2716408144054511 -0.029862243598085664 0.3951853891074731 0 0 0 0.49 57 1942 59 1918 72 3057 99 1667 119 1171 131 1379 137 857 143 1278 144 1586 145 972 150 1636 189 1300 202 1439 205 1072 212 1466 216 1893 225 806 228 2468 233 1347 
9866 0.27444852146910015 -0.020530847124595363 0.40205896283568926 0 0 0 0.41 72 3058 150 1637 189 1301 202 1440 233 1348 
9867 0.16480999793608853 -0.10941910322982693 0.18170131905018538 0 0 0 0.41 72 3059 99 1668 189 1302 
9868 -0.3714924540653482 0.247583823457104 0.833424375075492 0 0 0 0.21 72 3060 153 1346 173 2873 226 1772 
9869 -0.30367117980148406 0.23546519301358695 0.8018579821591614 0 0 0 0.28 72 3061 137 858 153 1347 226 1773 
9870 -0.3574535200564862 0.25256718674851636 0.8290486859296764 0 0 0 0.2 72 3062 143 1279 153 1348 173 2874 218 2540 
9871 0.17127158622084712 -0.1084620507340751 0.10868056759878396 0 0 0 0.79 72 3063 177 1963 189 1303 191 1263 202 1441 225 807 
9872 0.1494727991618173 -0.09972926398212781 0.0828233188581494 0 0 0 0.32 72 3064 177 1964 189 1304 191 1264 
9873 0.21865395710466523 -0.10288935660666305 0.07987927991504129 0 0 0 0.59 57 1943 189 1305 191 1265 225 808 
9874 0.1599174753785043 -0.08966866139862438 0.10290944145153752 0 0 0 0.49 72 3065 177 1965 189 1306 191 1266 225 809 
9875 -0.17513651146124598 0.21360298988141763 0.7211795017689832 0 0 0 0.21 72 3066 99 1669 116 2392 144 1587 171 1825 178 1250 180 3305 
9876 0.22468109346779214 0.12062768639954624 0.5149448981864398 0 0 0 0.62 72 3067 99 1670 122 541 143 1280 171 1826 178 1251 211 1267 212 1467 
9877 0.14839206348482162 -0.04830558871524908 0.08653753270055849 0 0 0 0.66 23 3661 55 1536 72 3068 177 1966 189 1307 
9878 0.32725224233544997 0.11137616191293426 0.4344786671716366 0 0 0 0.51 72 3069 137 859 139 1233 143 1281 144 1588 178 1252 180 3306 228 2469 
9879 -0.39305629501366646 0.28615448854898146 0.7915656534606754 0 0 0 0.5 37 1813 72 3070 102 1791 119 1172 125 2128 143 1282 178 1253 191 1267 212 1468 218 2541 
9880 -0.20364489055540286 0.25195439643029094 0.7268957716441432 0 0 0 0.55 72 3071 102 1792 125 2129 166 1954 178 1254 212 1469 226 1774 
9881 0.1164086399182864 0.18080485150700842 0.573229610362915 0 0 0 0.27 72 3072 99 1671 121 78 226 1775 
9882 0.34988814376807775 0.13308616419552405 0.46875835854921744 0 0 0 0.11 72 3073 154 2380 226 1776 
9883 -0.3357960516010942 0.2754022896884031 0.7619293045646758 0 0 0 0.36 72 3074 153 1349 180 3307 226 1777 
9884 0.21287467494730503 0.15816882451308054 0.48006881135864526 0 0 0 0.66 72 3075 122 542 171 1827 
9885 -0.33768166408631933 0.2838428948075549 0.7530447089697722 0 0 0 0.46 72 3076 102 1793 119 1173 
9886 -0.10665943723859415 0.23690247321402597 0.6470471211660636 0 0 0 0.3 72 3077 137 860 193 2682 
9887 -0.11057597708490952 0.23619889136021321 0.6466672857494979 0 0 0 0.64 23 3662 72 3078 102 1794 137 861 145 973 171 1828 173 2875 177 1967 178 1255 193 2683 218 2542 
9888 0.3498224018808053 0.1536720119285157 0.45420347867814687 0 0 0 0.31 72 3079 143 1283 178 1256 
9889 0.22254277450940557 0.06363391977987595 0.24599852959332327 0 0 0 0.46 23 3663 72 3080 140 2382 143 1284 150 1638 189 1308 191 1268 233 1349 
9890 -0.396217476896739 0.3107916721381715 0.7784489317405999 0 0 0 0.42 23 3664 34 1684 37 1814 59 1919 72 3081 116 2393 119 1174 125 2130 131 1380 144 1589 151 2655 166 1955 171 1829 191 1269 193 2684 202 1442 212 1470 216 1894 218 2543 
9891 0.2196462764419737 0.09580327196988557 0.24316809876185536 0 0 0 0.5 23 3665 59 1920 72 3082 99 1672 137 862 140 2383 150 1639 177 1968 
9892 -0.0644352061743726 -0.21580391884359268 0.8960551183377898 0 0 0 0.35 72 3083 131 1381 143 1285 145 974 177 1969 193 2685 218 2544 226 1778 
9893 -0.09768735262207864 -0.18878307958481844 0.8644391245895386 0 0 0 0.91 72 3084 131 1382 137 863 173 2876 177 1970 215 861 218 2545 226 1779 
