# 3D point list with one line of data per point:
#   POINT3D_ID, X, Y, Z, R, G, B, ERROR, TRACK[] as (IMAGE_ID, POINT2D_IDX)
# Number of points: 430, mean track length: 4.9
510 0.0009362062504871286 0.10699110569118019 0.9846444948842341 0 0 0 0.3 124 510 157 209 231 101 
511 0.1771969686883987 0.10898487133089448 1.010761277618064 0 0 0 0.18 124 511 146 236 175 155 213 130 214 153 
512 -0.15133124138964454 0.10667212728556076 0.9751719394903721 0 0 0 0.17 124 512 157 210 200 257 
513 -0.11349095298034563 0.10711564858356927 0.9749452730014507 0 0 0 0.17 124 513 157 211 200 258 231 102 
514 -0.0005609139945420215 0.10820115668671619 0.9842942680494213 0 0 0 0.12 124 514 157 212 175 156 
515 0.004368296277058052 0.10854616790795515 0.9861965680428805 0 0 0 0.05 124 515 175 157 214 154 
516 -0.049069160662431784 0.10809909300639417 0.9777185221504784 0 0 0 0.14 124 516 146 237 157 213 
517 -0.15011334869738086 0.10792366901794072 0.9751031584590689 0 0 0 0.39 124 517 200 259 231 103 
518 0.1485049297667183 0.11218059997996552 1.005332950183644 0 0 0 0.07 124 518 146 238 175 158 200 260 
519 -0.14771990767282056 0.10926977091852418 0.9747692871665158 0 0 0 0.13 124 519 157 214 231 104 
520 0.004420284488404253 0.11159246851768206 0.9853030484947396 0 0 0 0.1 124 520 175 159 213 131 
521 0.1291178488602676 0.12146371778639288 1.0009186639897751 0 0 0 0.28 124 521 146 239 175 160 
522 0.17087426417256463 0.12347004175819912 1.0110407128891927 0 0 0 0.32 124 522 146 240 164 56 175 161 234 16 
523 0.20177564986091912 0.1242922682608923 1.0151379449243016 0 0 0 0.16 124 523 146 241 175 162 200 261 
524 0.15818408018674437 0.12446423492704037 1.0053283759136116 0 0 0 0.21 124 524 146 242 175 163 200 262 
525 -0.005326326709438643 0.12260900777925714 0.9851301437026291 0 0 0 0.15 124 525 175 164 200 263 
526 0.19439541447918707 0.1264210435871732 1.0115050233442044 0 0 0 0.24 124 526 136 29 146 243 175 165 200 264 213 132 
527 0.004394804069595731 0.1237143175548479 0.982926601745385 0 0 0 0.18 124 527 175 166 200 265 
528 -0.006662627101053816 0.12395521688932502 0.9855593684441569 0 0 0 0.22 124 528 146 244 175 167 200 266 
529 0.19730912483884358 0.12745093493079704 1.0142622441911984 0 0 0 0.07 124 529 175 168 200 267 
530 0.23248610676701317 0.12815049541235057 1.020994567114117 0 0 0 0.19 124 530 175 169 200 268 
531 -0.15085632331769824 0.12225348357236623 0.9721387881858238 0 0 0 0.31 124 531 136 30 146 245 157 215 158 40 200 269 213 133 214 155 231 105 
532 0.16558176499419272 0.1273024072594509 1.0096489565956368 0 0 0 0.33 124 532 146 246 164 57 175 170 213 134 
533 0.16900629471469192 0.1273617467735242 1.0095644507928283 0 0 0 0.16 124 533 135 48 146 247 200 270 213 135 214 156 
534 0.01909892145519332 0.1250997008432781 0.9879271685421834 0 0 0 0.1 124 534 175 171 200 271 
535 0.0859631723982482 0.1263428915284726 0.9923185019471411 0 0 0 0.15 124 535 146 248 175 172 200 272 
536 0.1706377262174658 0.1281308045218641 1.009323736542786 0 0 0 0.31 124 536 135 49 200 273 214 157 
537 0.013293673006075743 0.1265248670907689 0.988569195937819 0 0 0 0.33 124 537 175 173 231 106 
538 -0.1511893236489273 0.12438129464616415 0.9720181575976383 0 0 0 0.23 124 538 157 216 214 158 
539 0.16882602972650976 0.1297432764808495 1.0092902132269985 0 0 0 0.04 124 539 135 50 213 136 
540 0.057768957185754075 0.12835138918155722 0.9883743241904194 0 0 0 0.04 124 540 175 174 200 274 
541 0.08626900197345762 0.12960655041512095 0.9922981428934963 0 0 0 0.25 124 541 175 175 200 275 
542 0.19624897208995945 0.13212148350548156 1.0115187376864874 0 0 0 0.26 124 542 175 176 200 276 213 137 214 159 
543 0.1558614056855302 0.13152392923419828 1.002023228418612 0 0 0 0.21 124 543 146 249 175 177 213 138 
544 -0.12985338984593014 0.1272509776909335 0.9751319706754856 0 0 0 0.22 124 544 157 217 176 130 200 277 213 139 
545 -0.13861918675758642 0.12740808153062697 0.9751472396408765 0 0 0 0.18 124 545 157 218 200 278 
546 0.18382278809072516 0.13342057071587365 1.00767586619198 0 0 0 0.34 124 546 146 250 175 178 200 279 
547 0.047647141133766835 0.13229769212184056 0.9901878340617597 0 0 0 0.28 124 547 175 179 200 280 
548 0.050004483355644266 0.13226295976499453 0.9909598585109655 0 0 0 0.27 124 548 175 180 200 281 231 107 
549 0.08746314808360599 0.133443369347537 0.9902356125654191 0 0 0 0.28 124 549 175 181 200 282 
550 0.04069783940497193 0.13318877343699165 0.9875616523997309 0 0 0 0.15 124 550 146 251 175 182 
551 0.15290655846340298 0.1352349802108699 1.002114756836315 0 0 0 0.17 124 551 146 252 175 183 200 283 
552 0.1586404310672145 0.13549456892293343 0.9998897205877547 0 0 0 0.2 124 552 146 253 175 184 
553 -0.19855625469749133 0.1297813108906497 0.9738688922971906 0 0 0 0.1 124 553 146 254 200 284 
554 0.06892142048872078 0.134716918892778 0.9888069289447174 0 0 0 0.16 124 554 146 255 175 185 
555 0.05791642131878567 0.13457859860032087 0.9871502814737768 0 0 0 0.21 124 555 127 11 135 51 175 186 
556 0.16584855704999465 0.13754182033416773 1.0020552151530147 0 0 0 0.08 124 556 146 256 175 187 
557 0.19732203437259627 0.13793893526390857 1.0063371293739942 0 0 0 0.21 124 557 146 257 175 188 200 285 
558 0.17203073174339834 0.13824939161893987 1.004408554975624 0 0 0 0.23 124 558 175 189 200 286 
559 -0.06036429546033347 0.13440721954696924 0.9730903885934328 0 0 0 0.3 124 559 136 31 200 287 
560 0.06225775141415103 0.1372123820057862 0.9876500598317791 0 0 0 0.17 124 560 175 190 200 288 
561 -0.08926762334824362 0.13457660915426314 0.9690650070900176 0 0 0 0.16 124 561 146 258 213 140 
562 0.15154108611379308 0.14073619354843542 0.9991824723967229 0 0 0 0.21 124 562 146 259 175 191 213 141 
563 0.14887009631635353 0.1417157114871375 0.9995137147785658 0 0 0 0.23 124 563 146 260 175 192 214 160 
564 -0.15331154796140253 0.13697799118025858 0.9688716992212799 0 0 0 0.32 124 564 136 32 200 289 
565 0.20720750339750407 0.14514318776389593 1.0083312236012254 0 0 0 0.15 124 565 146 261 175 193 
566 0.17545991439821246 0.14484419210099417 1.0019126650049746 0 0 0 0.27 124 566 175 194 200 290 214 161 
567 -0.11385940257566313 0.14160944722252708 0.9688459564353706 0 0 0 0.17 124 567 157 219 200 291 
568 0.003953082219224248 0.1463678799495889 0.9777929302748332 0 0 0 0.26 124 568 146 262 175 195 
569 0.006315695636835243 0.14714863388570817 0.9791954117494246 0 0 0 0.41 124 569 175 196 214 162 
570 0.004576200127292324 0.14835595160248716 0.9787763544840868 0 0 0 0.19 124 570 146 263 175 197 213 142 
571 0.03772644897036043 0.14893926950113193 0.9813547504174245 0 0 0 0.1 124 571 175 198 200 292 
572 0.09359717874086954 0.15090982573175932 0.988696492531894 0 0 0 0.12 124 572 175 199 200 293 
573 0.1206751478110832 0.1527837833053806 0.993006977006526 0 0 0 0.21 124 573 146 264 175 200 200 294 
574 0.09339526010826099 0.15429276047984303 0.9875147190353257 0 0 0 0.13 124 574 175 201 200 295 
575 0.09339526010826099 0.15429276047984303 0.9875147190353257 0 0 0 0.13 124 575 175 202 200 296 
576 0.15180213860798572 0.1562259887232775 0.9974069491973346 0 0 0 0.13 124 576 175 203 200 297 
577 -0.05132064121438601 0.15079183322082787 0.9703924721707883 0 0 0 0.4 124 577 146 265 213 143 214 163 
578 0.09204523197066047 0.1554891399277383 0.9871401856879525 0 0 0 0.43 124 578 175 204 200 298 
579 0.15227349087121236 0.16296103605784779 0.996611117169338 0 0 0 0.2 124 579 175 205 200 299 
580 0.15064371924128733 0.16347731590269826 0.9963918458419062 0 0 0 0.16 124 580 175 206 200 300 
581 0.15298143873270442 0.16433854020575664 0.9956428920415309 0 0 0 0.17 124 581 146 266 175 207 200 301 
582 -0.11652239080931551 0.15744287019786643 0.9652277195407667 0 0 0 0.18 124 582 157 220 200 302 
583 0.15178211473947212 0.1662079780019691 0.9953063037864436 0 0 0 0.23 124 583 175 208 200 303 
584 -0.1164951568690977 0.1660425504081027 0.9640747122934258 0 0 0 0.2 124 584 157 221 200 304 
585 0.07504498811099801 0.17529073163974057 0.9858040165988384 0 0 0 0.26 124 585 146 267 200 305 
586 0.07687279277831402 0.17587932930211742 0.9845530644854382 0 0 0 0.34 124 586 146 268 200 306 214 164 
587 -0.12022220127932733 0.17077148095623512 0.9612270530739476 0 0 0 0.22 124 587 146 269 157 222 
588 0.08795242630120058 -0.10849546911064532 1.0449981743059136 0 0 0 0.13 124 588 164 58 197 15 
589 -0.12920907829549722 -0.07439600541756271 1.0145812169552055 0 0 0 0.14 124 589 157 223 200 307 
590 -0.14310644556810306 -0.06090049551813076 1.0126835760396886 0 0 0 0.12 124 590 146 270 176 131 
591 0.13180501402263395 -0.07211375059024115 1.0418665453304907 0 0 0 0.29 124 591 146 271 157 224 164 59 182 13 196 32 200 308 214 165 
592 -0.12134292172678546 -0.05162992633813074 1.0094744268762765 0 0 0 0.28 124 592 146 272 164 60 176 132 200 309 
593 0.22706359923176736 -0.07021829620780905 1.056291414187744 0 0 0 0.26 124 593 200 310 234 17 
594 -0.09587332323119847 -0.046478601760287244 1.0117463064114092 0 0 0 0.31 124 594 176 133 200 311 
595 -0.03449885112747225 -0.04575663589378135 1.0142985210790738 0 0 0 0.1 124 595 176 134 214 166 
596 0.12105407841782256 -0.051877957345299645 1.0339897917910958 0 0 0 0.31 124 596 197 16 219 15 
597 0.11865737106886223 -0.05163214319111237 1.0342832172778942 0 0 0 0.32 124 597 164 61 176 135 219 16 
598 0.035749733175960134 -0.0414181785868833 1.0228204140846815 0 0 0 0.31 124 598 146 273 158 41 159 28 176 136 185 25 
599 0.2870326997734725 -0.05494690597291826 1.065086278464844 0 0 0 0.3 124 599 164 62 182 14 
600 -0.010678683183851628 -0.03452341543710638 1.015008253883428 0 0 0 0.21 124 600 135 52 200 312 
601 0.12338026169694022 -0.04247975191291821 1.0356235654951373 0 0 0 0.29 124 601 146 274 157 225 176 137 182 15 
602 -0.056304764628209034 -0.03074104811227981 1.008502107478688 0 0 0 0.25 124 602 176 138 214 167 
603 0.29015995512433657 -0.04949315594986152 1.0626197106925044 0 0 0 0.52 124 603 136 33 164 63 182 16 
604 0.02749824106727086 -0.032994546297516414 1.0191776252723186 0 0 0 0.43 124 604 176 139 185 26 
605 0.08518455386529537 -0.032546103787262796 1.022066362656836 0 0 0 0.23 124 605 135 53 146 275 157 226 213 144 214 168 
606 -0.06838441556511896 -0.026046573507749395 1.0060861195053679 0 0 0 0.16 124 606 135 54 146 276 159 29 176 140 213 145 214 169 
607 -0.004620016530555179 -0.029133326860224268 1.0144017702477786 0 0 0 0.26 124 607 146 277 157 227 185 27 213 146 
608 -0.004561620803425476 -0.029044343674374116 1.0141752806276576 0 0 0 0.29 124 608 128 15 135 55 146 278 157 228 176 141 185 28 213 147 
609 -0.025085289326535202 -0.026283592676505808 1.010239586981267 0 0 0 0.38 124 609 176 142 194 48 231 108 
610 0.053013290113019085 -0.030956445847368223 1.0242562466488392 0 0 0 0.39 124 610 176 143 231 109 
611 -0.060927479568830344 -0.023222232508055753 1.0056522407960662 0 0 0 0.31 124 611 146 279 157 229 176 144 194 49 231 110 
612 -0.05702283663354429 -0.021331563727033466 1.0054288616181664 0 0 0 0.41 124 612 148 32 157 230 158 42 159 30 176 145 194 50 204 17 
613 -0.05708330462164079 -0.021359389455921786 1.0055467043200816 0 0 0 0.43 124 613 148 33 158 43 159 31 176 146 194 51 
614 -0.053799763448947706 -0.02157169081989376 1.0055780838175035 0 0 0 0.24 124 614 146 280 159 32 176 147 204 18 231 111 
615 0.03933418267825119 -0.02625119741746816 1.0195535233363557 0 0 0 0.36 124 615 135 56 157 231 158 44 176 148 194 52 214 170 219 17 
616 -0.04819258272135071 -0.021513264193234995 1.0070623501196247 0 0 0 0.41 124 616 146 281 157 232 158 45 159 33 164 64 176 149 194 53 204 19 213 148 214 171 
617 0.05277781115399491 -0.026376802476793266 1.02100728742118 0 0 0 0.42 124 617 176 150 204 20 231 112 
618 -0.022839686731080378 -0.021015955993227326 1.006308393030154 0 0 0 0.37 124 618 135 57 200 313 
619 0.030777932766985584 -0.02475412043947316 1.017882596807356 0 0 0 0.22 124 619 135 58 176 151 200 314 231 113 
620 0.05058238583621124 -0.026073620108731214 1.021706103360887 0 0 0 0.21 124 620 176 152 231 114 
621 -0.1197743857306209 -0.01981457494444895 1.0050235824840519 0 0 0 0.29 124 621 157 233 159 34 185 29 
622 -0.1504393788915285 -0.01896567218895252 1.0045819880067828 0 0 0 0.29 124 622 146 282 148 34 176 153 185 30 200 315 204 21 220 15 224 28 
623 0.04848588187352606 -0.02389020785639317 1.0195638163295784 0 0 0 0.38 124 623 194 54 219 18 
624 0.048485881873538215 -0.023890207856371835 1.019563816329484 0 0 0 0.38 124 624 194 55 219 19 
625 0.05280705634983423 -0.02388788836871017 1.0201487440397232 0 0 0 0.17 124 625 194 56 219 20 
626 -0.006776652168016017 -0.020072042331392127 1.0105262694873693 0 0 0 0.22 124 626 135 59 157 234 164 65 200 316 213 149 
627 -0.11859767868602564 -0.017599925017560573 1.0036313591412094 0 0 0 0.18 124 627 146 283 148 35 164 66 194 57 213 150 224 29 
628 -0.10932346492369885 -0.01773523150646143 1.0036821867573156 0 0 0 0.29 124 628 128 16 148 36 157 235 164 67 176 154 194 58 200 317 204 22 213 151 214 172 
629 0.03605602160463013 -0.022256849374649477 1.0177793429245132 0 0 0 0.31 124 629 135 60 157 236 159 35 200 318 214 173 
630 -0.10583714868104116 -0.017402182711030285 1.0038991628469052 0 0 0 0.18 124 630 128 17 157 237 158 46 176 155 185 31 194 59 200 319 213 152 214 174 
631 0.00486717329222889 -0.02016628955793668 1.0122435998321666 0 0 0 0.17 124 631 135 61 231 115 
632 -0.13977927532418238 -0.01710463453994411 1.00378147457392 0 0 0 0.32 124 632 157 238 164 68 176 156 200 320 204 23 213 153 224 30 
633 -0.13641538181972176 -0.017332821528489785 1.0046530875184236 0 0 0 0.36 124 633 146 284 176 157 200 321 224 31 
634 -0.15450104650695418 -0.0168554242135891 1.0037175058009562 0 0 0 0.33 124 634 146 285 148 37 157 239 164 69 176 158 200 322 213 154 
635 0.013483898469694605 -0.02026612118325422 1.0140094902438679 0 0 0 0.3 124 635 157 240 231 116 
636 -0.14322459572183452 -0.01652268449274932 1.0031636832749653 0 0 0 0.18 124 636 157 241 158 47 162 15 200 323 
637 -0.03269223642303003 -0.018016779368298666 1.0082106836231008 0 0 0 0.14 124 637 135 62 158 48 200 324 214 175 
638 0.07922562772989067 -0.023153647762310808 1.023047118901874 0 0 0 0.39 124 638 197 17 204 24 219 21 
639 0.03145098299496273 -0.020346165958807196 1.0160129360201933 0 0 0 0.39 124 639 127 12 135 63 162 16 164 70 185 32 194 60 196 33 213 155 217 6 221 16 
640 -0.061996577688579683 -0.016230938691797082 1.0041786267577117 0 0 0 0.14 124 640 135 64 146 286 214 176 
641 -0.061759482401211714 -0.016180366695821433 1.003843033152668 0 0 0 0.33 124 641 148 38 157 242 214 177 
642 -0.02067550384101947 -0.017700870127772803 1.0081939632748433 0 0 0 0.32 124 642 135 65 157 243 231 117 
643 -0.1073477115481868 -0.01565380672045785 1.0032465605507603 0 0 0 0.35 124 643 157 244 176 159 200 325 214 178 
644 -0.05587690920139382 -0.01618883390960021 1.0048810033238997 0 0 0 0.15 124 644 214 179 231 118 
645 -0.05290394078236402 -0.016640408772160064 1.0058629903891307 0 0 0 0.24 124 645 146 287 214 180 231 119 
646 -0.016770474677607977 -0.017655699477373506 1.0088429283498066 0 0 0 0.34 124 646 135 66 200 326 231 120 
647 -0.01703733274859373 -0.01823008527219996 1.0109142287696513 0 0 0 0.2 124 647 135 67 200 327 
648 -0.014235910802961245 -0.01777796234187644 1.0092633647340798 0 0 0 0.16 124 648 157 245 200 328 224 32 
649 -0.20642330400042747 -0.015390413346009752 1.002908775191689 0 0 0 0.22 124 649 146 288 157 246 176 160 200 329 213 156 214 181 
650 -0.200278305564528 -0.01537923589197414 1.002950746776002 0 0 0 0.29 124 650 146 289 157 247 158 49 176 161 200 330 213 157 214 182 
651 -0.10353889964696983 -0.01541975360845501 1.0030202455808626 0 0 0 0.28 124 651 136 34 148 39 158 50 159 36 185 33 194 61 214 183 224 33 
652 -0.09698342968218397 -0.015426919767555626 1.002970846188539 0 0 0 0.36 124 652 157 248 158 51 162 17 176 162 200 331 
653 -0.011252690580426012 -0.017874199109342175 1.0103789805554266 0 0 0 0.11 124 653 196 34 200 332 
654 -0.14766434802996617 -0.014790791518897494 1.002766385755537 0 0 0 0.25 124 654 146 290 157 249 158 52 162 18 176 163 200 333 213 158 227 11 
655 -0.13497321579085375 -0.014912382811810565 1.002699228486528 0 0 0 0.21 124 655 136 35 146 291 158 53 164 71 196 35 200 334 213 159 214 184 
656 -0.13495675270306204 -0.014920383123781784 1.0027044182983125 0 0 0 0.19 124 656 146 292 157 250 158 54 200 335 214 185 
657 -0.15499397569825357 -0.014543575511346683 1.0027275631265158 0 0 0 0.24 124 657 146 293 148 40 157 251 158 55 164 72 200 336 204 25 213 160 214 186 224 34 
658 -0.14444441496080382 -0.014673913992686098 1.002709062433456 0 0 0 0.37 124 658 127 13 128 18 146 294 157 252 158 56 196 36 200 337 214 187 220 16 227 12 
659 -0.030893907164416517 -0.015994255901784604 1.007118834755833 0 0 0 0.21 124 659 135 68 200 338 214 188 231 121 
660 -0.17478914951740943 -0.014225013036370845 1.0023592532683847 0 0 0 0.26 124 660 146 295 148 41 157 253 158 57 162 19 164 73 200 339 214 189 
661 -0.03423021404363807 -0.015955616710933974 1.0071217180694036 0 0 0 0.2 124 661 135 69 146 296 176 164 185 34 200 340 214 190 224 35 
662 -0.027135409489267983 -0.0160394934099093 1.0081305910105396 0 0 0 0.42 124 662 164 74 200 341 214 191 231 122 
663 -0.021988097064520307 -0.01580776144551215 1.0081126629254717 0 0 0 0.12 124 663 157 254 164 75 176 165 213 161 231 123 
664 -0.1954542652402753 -0.013904814499749755 1.003542338778506 0 0 0 0.35 124 664 146 297 164 76 224 36 
665 -0.18728006199784944 -0.013782068581878294 1.0020936582481195 0 0 0 0.31 124 665 146 298 176 166 
666 0.025422393277868514 -0.01789568039767772 1.0153535957167752 0 0 0 0.33 124 666 135 70 146 299 158 58 162 20 194 62 200 342 
667 -0.19002193230829587 -0.013538475575895298 1.0025502889010438 0 0 0 0.15 124 667 146 300 157 255 
668 -0.015474397930545428 -0.0156935318312891 1.0093798371208196 0 0 0 0.18 124 668 135 71 157 256 158 59 200 343 224 37 231 124 
669 0.02850952464938846 -0.017854807475518986 1.0156200061353948 0 0 0 0.32 124 669 127 14 135 72 146 301 157 257 158 60 200 344 
670 0.03176349581579011 -0.01750672834974246 1.0147767797706542 0 0 0 0.14 124 670 148 42 164 77 
671 -0.22035725362257202 -0.012863371831285437 1.0023784935713056 0 0 0 0.41 124 671 157 258 196 37 200 345 214 192 
672 0.06953327049986344 -0.017968223208549735 1.0208284135394001 0 0 0 0.28 124 672 127 15 128 19 135 73 146 302 148 43 157 259 159 37 164 78 175 209 176 167 194 63 200 346 213 162 214 193 220 17 
673 0.03619257428255775 -0.01632525455237086 1.017417838411098 0 0 0 0.52 124 673 127 16 128 20 135 74 157 260 196 38 200 347 
674 0.04532245788008276 -0.016065020466641062 1.0172590796256107 0 0 0 0.22 124 674 135 75 164 79 176 168 213 163 214 194 
675 -0.006951801154201234 -0.013341788059041864 1.009669050335839 0 0 0 0.19 124 675 148 44 196 39 214 195 
676 0.09192450323954368 -0.017611915563807628 1.022837063032559 0 0 0 0.31 124 676 135 76 146 303 157 261 158 61 175 210 176 169 197 18 200 348 213 164 214 196 
677 0.06738426016707325 -0.01624022645360772 1.020782171025861 0 0 0 0.42 124 677 127 17 135 77 146 304 185 35 200 349 204 26 220 18 
678 0.07434659279803299 -0.015778359370970295 1.0207386556784361 0 0 0 0.15 124 678 135 78 146 305 148 45 157 262 162 21 175 211 176 170 200 350 213 165 
679 0.07447186923504012 -0.015893304161395113 1.021380212200782 0 0 0 0.37 124 679 127 18 135 79 146 306 148 46 157 263 162 22 175 212 176 171 200 351 
680 0.10274876236330181 -0.017565518362223736 1.0264638155565606 0 0 0 0.34 124 680 135 80 146 307 164 80 176 172 200 352 213 166 214 197 
681 0.055438878102693386 -0.01339124721610156 1.0162000891442575 0 0 0 0.29 124 681 204 27 231 125 
682 0.13252690696151215 -0.017138304085820944 1.0309154868385735 0 0 0 0.23 124 682 146 308 157 264 158 62 175 213 182 17 200 353 
683 0.0999009160461061 -0.014968507993503223 1.024869242117864 0 0 0 0.21 124 683 175 214 234 18 
684 0.1045949079437444 -0.015591214222864754 1.0286848314199253 0 0 0 0.47 124 684 159 38 176 173 
685 0.1576357712273316 -0.016991181841183735 1.0341444353272964 0 0 0 0.48 124 685 157 265 175 215 176 174 182 18 200 354 
686 0.165055024142417 -0.01695836620749174 1.0354948597871139 0 0 0 0.29 124 686 146 309 148 47 157 266 164 81 175 216 176 175 182 19 196 40 197 19 200 355 213 167 214 198 220 19 
687 0.23781881595318075 -0.020032616412941393 1.048336558262743 0 0 0 0.47 124 687 127 19 158 63 182 20 196 41 
688 0.2459549612522775 -0.0196278297754919 1.0492423500181398 0 0 0 0.4 124 688 164 82 182 21 227 13 
689 0.16035766902191667 -0.014749684202517566 1.0342349525338306 0 0 0 0.34 124 689 204 28 213 168 
690 0.1602188394269091 -0.014741097995825866 1.0340985247338685 0 0 0 0.32 124 690 146 310 176 176 204 29 213 169 234 19 
691 0.2105155669269599 -0.016990212340831968 1.0426230241082315 0 0 0 0.33 124 691 146 311 158 64 164 83 182 22 196 42 200 356 214 199 
692 0.10663006713986048 -0.011321674861669117 1.0256045697457687 0 0 0 0.29 124 692 135 81 146 312 234 20 
693 0.11142193101381705 -0.011498771294826453 1.0276038701813421 0 0 0 0.22 124 693 182 23 197 20 200 357 
694 0.1327395207648751 -0.011480010706887481 1.0310797922227626 0 0 0 0.37 124 694 146 313 158 65 
695 0.20728574080258447 -0.014851581391276257 1.0416805478941236 0 0 0 0.38 124 695 146 314 157 267 176 177 182 24 200 358 
696 0.27566671142218907 -0.01866055258252452 1.0548859296406319 0 0 0 0.69 124 696 146 315 148 48 158 66 196 43 213 170 220 20 235 0 
697 -0.15458146352376473 -0.0018440979929517133 1.0004910390177157 0 0 0 0.13 124 697 136 36 214 200 
698 -0.1503545479329914 -0.0018668183302852628 1.0001712170301071 0 0 0 0.27 124 698 159 39 200 359 
699 0.16502498230334212 -0.011080678737984628 1.035118172805691 0 0 0 0.25 124 699 146 316 157 268 158 67 213 171 
700 0.16887369241797756 -0.011001447941989885 1.0351721169104904 0 0 0 0.3 124 700 157 269 164 84 200 360 
701 0.191477542187686 -0.011158613829383096 1.0382935853224509 0 0 0 0.29 124 701 157 270 182 25 204 30 
702 0.022306456586598106 -0.0006135907660949633 1.0176050749113101 0 0 0 0.35 124 702 157 271 176 178 
703 -0.15544407750142905 0.004972334365784437 0.9990294711208663 0 0 0 0.13 124 703 157 272 213 172 
704 -0.1542151911290054 0.006794440804072431 1.000194320254841 0 0 0 0.17 124 704 176 179 214 201 
705 -0.2144450080552725 0.008819275657077212 1.0025791703151494 0 0 0 0.27 124 705 146 317 176 180 
706 0.10062755833432187 0.004138191947491204 1.0256238754519407 0 0 0 0.39 124 706 157 273 176 181 
707 0.028835807835613465 0.00861096168159878 1.0114123245481237 0 0 0 0.25 124 707 146 318 157 274 176 182 194 64 231 126 
708 0.031881563666302765 0.015096812833913597 1.0116039310103875 0 0 0 0.29 124 708 176 183 231 127 
709 0.027008062364583484 0.023236539225312363 1.0064235208251608 0 0 0 0.29 124 709 176 184 231 128 
710 -0.11689583017998201 0.02872875820905661 0.9949902347837893 0 0 0 0.29 124 710 146 319 176 185 231 129 
711 -0.046966159331255974 0.028540868970539944 0.9991352171731018 0 0 0 0.09 124 711 176 186 231 130 
712 -0.03516926485141013 0.028272805461186063 1.000880337919376 0 0 0 0.11 124 712 157 275 200 361 
713 -0.03513225065148025 0.02830111191732397 1.0007422361071978 0 0 0 0.15 124 713 157 276 176 187 
714 -0.09444671054421522 0.029661211922633456 0.9955194962648686 0 0 0 0.19 124 714 135 82 136 37 157 277 185 36 200 362 214 202 231 131 
715 -0.10755743800540278 0.030148363167564925 0.9957588255238353 0 0 0 0.22 124 715 127 20 135 83 146 320 148 49 157 278 158 68 164 85 176 188 200 363 214 203 224 38 231 132 
716 -0.09233804429028648 0.031440542715288296 0.9941536588378541 0 0 0 0.18 124 716 128 21 146 321 176 189 200 364 214 204 
717 -0.20433552241850625 0.033181936227427364 0.9938261584013631 0 0 0 0.41 124 717 158 69 200 365 214 205 
718 -0.1617145881176174 0.033480848337524884 0.9940291758092656 0 0 0 0.15 124 718 136 38 200 366 
719 0.02542450406415454 0.031917851905892976 1.0064043335634634 0 0 0 0.27 124 719 135 84 176 190 185 37 204 31 231 133 
720 0.00942245878041219 0.033050886704082065 1.0040084071187525 0 0 0 0.2 124 720 146 322 157 279 164 86 200 367 204 32 213 173 214 206 
721 0.009530000962874288 0.033147526028479125 1.0039427101414877 0 0 0 0.18 124 721 159 40 175 217 176 191 
722 0.1299688733001648 0.02993334043927788 1.022020216700561 0 0 0 0.21 124 722 135 85 200 368 
723 0.013218650017653013 0.033288116998057934 1.0046941744527833 0 0 0 0.23 124 723 136 39 146 323 157 280 175 218 176 192 185 38 204 33 213 174 214 207 
724 -0.013758256429493639 0.0353294943855227 1.001159890750019 0 0 0 0.23 124 724 127 21 136 40 148 50 157 281 194 65 196 44 200 369 213 175 224 39 
725 -0.06113395683964124 0.038621561765251354 0.9944706141770805 0 0 0 0.25 124 725 157 282 200 370 214 208 231 134 
726 -0.10344996878585086 0.03955697991775972 0.9940823475611106 0 0 0 0.08 124 726 157 283 200 371 
727 -0.15328750326087404 0.04040814729765159 0.9914453866672053 0 0 0 0.17 124 727 214 209 231 135 
728 0.16100663925329264 0.035424409499960605 1.0258568540853363 0 0 0 0.38 124 728 196 45 214 210 
729 0.02234640202004047 0.03905395794232196 1.0059345149834322 0 0 0 0.33 124 729 157 284 194 66 
730 -0.21266073887461595 0.040656465832801345 0.9938565153547997 0 0 0 0.24 124 730 176 193 224 40 
731 -0.16796791191879043 0.04080477550112294 0.9935816176120821 0 0 0 0.2 124 731 146 324 148 51 157 285 164 87 172 15 176 194 200 372 213 176 214 211 
732 0.051841890968776776 0.038933073646487494 1.0096491553769482 0 0 0 0.24 124 732 185 39 197 21 200 373 231 136 
733 -0.19960120470641696 0.041632230499079485 0.9929222565273831 0 0 0 0.14 124 733 146 325 157 286 
734 -0.20710569318616115 0.04167306653719594 0.9933482560032287 0 0 0 0.35 124 734 128 22 148 52 164 88 224 41 
735 0.11374784005969434 0.038859221667642344 1.0180660366411378 0 0 0 0.16 124 735 159 41 185 40 214 212 231 137 
736 0.1408806717281438 0.03975195823942247 1.021861943045506 0 0 0 0.17 124 736 176 195 200 374 
737 0.013340878737121219 0.04282723963195933 1.007421981363078 0 0 0 0.14 124 737 157 287 175 219 
738 0.021667019187246114 0.04278921188571418 1.0090325590392586 0 0 0 0.47 124 738 146 326 175 220 231 138 
739 0.03820693107041166 0.044630951592678006 1.0094824473482948 0 0 0 0.16 124 739 176 196 231 139 
740 -0.21263922866332904 0.05370035083937531 0.9914135339038307 0 0 0 0.21 124 740 146 327 200 375 214 213 
741 -0.14840998084278173 0.07464183157561419 0.9842465537059861 0 0 0 0.22 124 741 214 214 231 140 
742 -0.04587724422411504 0.08337322997778417 0.9911456812093996 0 0 0 0.13 124 742 146 328 213 177 
743 0.054479686254033294 0.08609926401262243 1.0021490401806568 0 0 0 0.18 124 743 146 329 176 197 200 376 
744 0.016571399811987908 0.08608522419545209 0.998498608220752 0 0 0 0.31 124 744 200 377 231 141 
745 0.1343879181803027 0.08683022739777577 1.0136647695610064 0 0 0 0.28 124 745 172 16 182 26 231 142 
746 0.14315754700172748 0.08677559780108811 1.0153008338208502 0 0 0 0.21 124 746 146 330 175 221 
747 -0.07317770070594955 0.08776783115112635 0.9829393521863095 0 0 0 0.15 124 747 164 89 213 178 
748 -0.061713543266716145 0.08767672502171017 0.9846127525554322 0 0 0 0.1 124 748 146 331 176 198 213 179 
749 -0.04493163308319158 0.08766082728854056 0.9876541793950706 0 0 0 0.16 124 749 157 288 231 143 
750 -0.00899840807926693 0.08821991769346003 0.9917665504533694 0 0 0 0.15 124 750 200 378 213 180 
751 -0.006024670495271175 0.08845565528188619 0.991958460199525 0 0 0 0.12 124 751 135 86 200 379 
752 0.20668088405798987 0.08985568604004217 1.0169419476939905 0 0 0 0.22 124 752 175 222 200 380 234 21 
753 -0.004443985780775001 0.08963666359812673 0.991126419374985 0 0 0 0.23 124 753 157 289 176 199 
754 -0.028000903431238223 0.09070262355758392 0.981763804474186 0 0 0 0.2 124 754 158 70 231 144 
755 -0.028000903431238223 0.09070262355758392 0.981763804474186 0 0 0 0.2 124 755 158 71 231 145 
756 0.20489333754732042 0.09100430124227941 1.0182584037360143 0 0 0 0.29 124 756 176 200 182 27 
757 -0.03833998852178517 0.09070402138263023 0.9875779157027229 0 0 0 0.23 124 757 157 290 194 67 
758 -0.029807428929625235 0.0918039908311388 0.9842966627135239 0 0 0 0.34 124 758 135 87 176 201 188 1 231 146 
759 0.13376570470009183 0.0917598671566883 1.0093080764640405 0 0 0 0.29 124 759 146 332 164 90 214 215 
760 0.1337590978230224 0.09180533244497066 1.0094353116308046 0 0 0 0.16 124 760 135 88 157 291 231 147 
761 0.015429837031764867 0.09169786337383147 0.9943691482429717 0 0 0 0.2 124 761 214 216 231 148 
762 0.015429837031764867 0.09169786337383147 0.9943691482429717 0 0 0 0.2 124 762 214 217 231 149 
763 -0.12218876900027988 0.09232029233978797 0.9775106851432181 0 0 0 0.13 124 763 146 333 176 202 
764 -0.15538518292436754 0.09225345509517777 0.97678228591223 0 0 0 0.25 124 764 176 203 213 181 
765 -0.08651786671320918 0.09280665846336456 0.9765272785156492 0 0 0 0.27 124 765 176 204 213 182 
766 -0.029877970371037423 0.09411755576796968 0.9838774862821104 0 0 0 0.09 124 766 188 2 200 381 
767 -0.0716608646869153 0.09447883168329636 0.981865744503842 0 0 0 0.14 124 767 146 334 213 183 
768 0.024946669092107555 0.09464294598098223 0.994293780859429 0 0 0 0.18 124 768 146 335 157 292 175 223 
769 0.07195131986215796 0.09492366001546185 1.001576835003502 0 0 0 0.18 124 769 146 336 231 150 
770 -0.13582666336024277 0.09509261092222222 0.9802857136819076 0 0 0 0.39 124 770 136 41 157 293 176 205 200 382 214 218 231 151 
771 0.0422512863064848 0.09593272659742491 0.9952538842314658 0 0 0 0.45 124 771 146 337 148 53 175 224 185 41 194 68 197 22 231 152 
772 0.02473341320112285 0.0962055106613208 0.9911192232683873 0 0 0 0.41 124 772 146 338 175 225 188 3 196 46 
773 -0.055597851013197565 0.09641265560048447 0.9784384998860474 0 0 0 0.16 124 773 146 339 176 206 
774 -0.08382958172401307 0.0967151423446562 0.9726087171385381 0 0 0 0.22 124 774 136 42 164 91 200 383 213 184 214 219 
775 -0.05778016079588238 0.0969132771781593 0.979445367862481 0 0 0 0.23 124 775 146 340 157 294 176 207 213 185 231 153 
776 -0.08161642182847313 0.09725922031006096 0.9720278233912003 0 0 0 0.22 124 776 214 220 231 154 
777 0.0024836670233787804 0.09748252459826784 0.9851533083748684 0 0 0 0.14 124 777 146 341 157 295 188 4 
778 0.20033776315793017 0.09972807447019903 1.0170707475499816 0 0 0 0.21 124 778 146 342 176 208 
779 -0.13458414523976345 0.09790830029445968 0.9791462175175517 0 0 0 0.34 124 779 146 343 176 209 200 384 213 186 
780 0.025756971440336576 0.10005273322711469 0.9895482544678973 0 0 0 0.34 124 780 146 344 164 92 176 210 200 385 231 155 
781 0.10690082427903688 0.1006938285217661 1.0028910958528299 0 0 0 0.43 124 781 135 89 157 296 
782 0.11330535165706836 0.1008776751124151 1.0057081595817934 0 0 0 0.41 124 782 146 345 157 297 
783 0.05230093709539624 0.10055176052417764 0.9943637065735671 0 0 0 0.23 124 783 200 386 214 221 
784 0.13533858663207257 0.10107593969999468 1.007790901040337 0 0 0 0.41 124 784 157 298 196 47 231 156 
785 0.14130295791496278 0.10101784045496762 1.0087567120679952 0 0 0 0.18 124 785 135 90 164 93 175 226 231 157 
786 0.23468136467686143 0.1026757342636711 1.0194358550556872 0 0 0 0.62 124 786 164 94 196 48 200 387 
787 0.23528703325566963 0.10266748738669447 1.0207236912310593 0 0 0 0.23 124 787 164 95 200 388 214 222 
788 0.14642961277895292 0.10253132004878117 1.0055915792271237 0 0 0 0.29 124 788 158 72 175 227 
789 0.20406671319282896 0.10258824433916162 1.0158994067859388 0 0 0 0.34 124 789 146 346 234 22 
790 0.02824916122488904 0.1018742619251245 0.9911516431587447 0 0 0 0.37 124 790 135 91 231 158 
791 0.02804060294905773 0.10197188648594123 0.9901846629370131 0 0 0 0.34 124 791 135 92 146 347 175 228 188 5 213 187 
792 0.1397523183892417 0.10293629913615754 1.0074453168002742 0 0 0 0.08 124 792 135 93 157 299 
793 0.01753490336677701 0.10240428564710675 0.9919311052883819 0 0 0 0.46 124 793 135 94 158 73 231 159 
794 0.02150249394567444 0.10218018991991426 0.9912576722954038 0 0 0 0.29 124 794 146 348 157 300 175 229 213 188 214 223 
795 0.16847079654985284 0.10343842967597465 1.0130868348290374 0 0 0 0.18 124 795 146 349 148 54 176 211 196 49 213 189 
796 -0.05662552641272012 0.10206696567601259 0.976156612966033 0 0 0 0.25 124 796 146 350 176 212 
797 -0.13809508654713248 0.10156722577091057 0.9792252648660258 0 0 0 0.2 124 797 135 95 200 389 
798 -0.011184161276670218 0.1027515010032516 0.9852520034900065 0 0 0 0.49 124 798 135 96 200 390 214 224 231 160 
799 0.21086504879932905 0.10472329932397247 1.0164765265488158 0 0 0 0.06 124 799 175 230 182 28 
800 0.1748787674280022 0.10514342496682241 1.0114682799094565 0 0 0 0.18 124 800 157 301 164 96 
801 0.02964057981949155 0.1041533845326019 0.9904322884184921 0 0 0 0.23 124 801 146 351 175 231 200 391 
802 0.03287195989312822 0.104039572525107 0.9897483483051005 0 0 0 0.21 124 802 135 97 175 232 200 392 231 161 
803 0.05913804877550214 0.10435149859964656 0.9937236108115968 0 0 0 0.07 124 803 157 302 175 233 
804 0.09804340400505998 0.10480696477366633 0.9982793820940239 0 0 0 0.37 124 804 146 352 175 234 
805 0.1970489662429631 0.10543683745546681 1.017253948685838 0 0 0 0.15 124 805 146 353 158 74 175 235 182 29 
806 0.00023614890169998 0.10416267520767644 0.9853666332291743 0 0 0 0.16 124 806 135 98 175 236 200 393 
807 0.0029271730551746573 0.10420116721588683 0.9864461452005627 0 0 0 0.11 124 807 135 99 146 354 157 303 175 237 188 6 200 394 214 225 
808 0.14173003609341597 0.10508205285480327 1.009457882503655 0 0 0 0.2 124 808 157 304 200 395 
809 -0.08303377615864815 0.10384172384260552 0.9725367889453602 0 0 0 0.18 124 809 200 396 214 226 224 42 231 162 
810 -0.0506782836950534 0.10396893245817412 0.9792538897016116 0 0 0 0.21 124 810 146 355 148 55 194 69 200 397 214 227 231 163 
811 -0.050529577190896235 0.10394608039581209 0.9786895210243656 0 0 0 0.28 124 811 148 56 176 213 
812 0.006069430473832342 0.10447628165397324 0.9864120701489661 0 0 0 0.26 124 812 146 356 157 305 158 75 175 238 188 7 200 398 
813 -0.021999688075924267 0.10436095360772592 0.9823295408644014 0 0 0 0.02 124 813 135 100 224 43 
814 0.0227289846857294 0.1050287709116994 0.9917284670997708 0 0 0 0.15 124 814 146 357 200 399 
815 -0.11418986484428552 0.10438282051665801 0.9754946789944755 0 0 0 0.29 124 815 135 101 146 358 157 306 159 42 176 214 200 400 213 190 214 228 224 44 
816 -0.1189430595450513 0.10453911777830795 0.9755802901739591 0 0 0 0.32 124 816 135 102 157 307 200 401 213 191 214 229 
817 -0.11901623689588037 0.10454565094213356 0.9761388373047788 0 0 0 0.2 124 817 157 308 200 402 213 192 
818 -0.15439790958237037 0.10527113069192806 0.9758545696553003 0 0 0 0.24 124 818 157 309 200 403 231 164 
819 -0.02985760822924686 0.10750449892680637 0.9799978629293584 0 0 0 0.27 124 819 157 310 231 165 
820 0.20951134237150237 0.11056875488992901 1.0145875007789806 0 0 0 0.4 124 820 146 359 148 57 214 230 
821 0.238878289545113 0.11071100544099201 1.020514667884474 0 0 0 0.36 124 821 146 360 158 76 213 193 
822 0.15051122625300528 0.11273717572571212 1.0054674531241483 0 0 0 0.19 124 822 175 239 200 404 
823 -0.19069028712402034 0.10951906943866342 0.974910999977817 0 0 0 0.29 124 823 146 361 176 215 200 405 
824 -0.11511205909100374 0.11269038647015803 0.9743035220007783 0 0 0 0.2 124 824 135 103 136 43 146 362 158 77 200 406 213 194 214 231 231 166 
825 -0.11528400586346482 0.11271340809162028 0.9747646212062401 0 0 0 0.18 124 825 135 104 136 44 146 363 157 311 200 407 213 195 214 232 
826 0.13588500286837255 0.12122647025679682 1.007757834910131 0 0 0 0.2 124 826 146 364 175 240 
827 -0.15061302072092253 0.11920583728479105 0.9720718593933257 0 0 0 0.26 124 827 146 365 200 408 231 167 
828 0.033065431166888426 0.12282629453334178 0.9871911232952492 0 0 0 0.06 124 828 175 241 231 168 
829 0.16909914515045577 0.12523184691622025 1.0093990328030356 0 0 0 0.19 124 829 146 366 148 58 213 196 234 23 
830 0.1912442500300492 0.1277107028861577 1.0114213932930116 0 0 0 0.23 124 830 158 78 175 242 213 197 234 24 
831 0.03295752148302432 0.12609962516830775 0.9861494912085907 0 0 0 0.03 124 831 196 50 200 409 
832 -0.0162178306522042 0.12595399054613174 0.9853736361324682 0 0 0 0.27 124 832 146 367 188 8 213 198 
833 -0.11193897464846633 0.12429141646649945 0.9709291523352832 0 0 0 0.34 124 833 157 312 200 410 
834 -0.005892669910514998 0.1265496726995403 0.9873744074471699 0 0 0 0.2 124 834 146 368 175 243 188 9 
835 -0.18540652997457313 0.12424449612508257 0.9711653030236722 0 0 0 0.39 124 835 158 79 200 411 214 233 
836 -0.04052973071303895 0.12650520560290565 0.9787904358870126 0 0 0 0.2 124 836 200 412 231 169 
837 -0.18340815985499814 0.1252310905123428 0.9708237326084788 0 0 0 0.34 124 837 158 80 200 413 
838 -0.1834081598549354 0.12523109051233597 0.9708237326083472 0 0 0 0.34 124 838 158 81 200 414 
839 -0.131430171149217 0.12732552838906244 0.9747301102718703 0 0 0 0.23 124 839 135 105 164 97 200 415 213 199 
840 0.2001914195279294 0.1329674251367683 1.010682441737285 0 0 0 0.33 124 840 146 369 196 51 200 416 213 200 
841 0.20083797378133536 0.1330539911657231 1.0122557346901286 0 0 0 0.11 124 841 146 370 164 98 200 417 
842 0.038730372696662976 0.13037746989931423 0.984897635013807 0 0 0 0.26 124 842 175 244 213 201 
843 0.2093111407584798 0.13396708747569197 1.0106747571925596 0 0 0 0.12 124 843 158 82 200 418 
844 0.054418441423915775 0.13286292583490958 0.989297847546838 0 0 0 0.47 124 844 175 245 200 419 234 25 
845 0.020081417969730855 0.13226660865451928 0.9886473009217852 0 0 0 0.28 124 845 158 83 175 246 
846 0.03295933075323921 0.1323937568302366 0.983550871082548 0 0 0 0.24 124 846 158 84 231 170 
847 0.17003205337000624 0.13800685993301623 1.0045660043796634 0 0 0 0.23 124 847 146 371 158 85 175 247 
848 -0.12648141966358345 0.13284764434333154 0.9740749357670265 0 0 0 0.3 124 848 157 313 200 420 
849 0.1628858756477473 0.14071094626304984 1.0016923852264483 0 0 0 0.44 124 849 146 372 200 421 234 26 
850 0.16321227372512412 0.14065398951977873 1.0020031561418834 0 0 0 0.47 124 850 175 248 200 422 234 27 
851 0.17920302481685074 0.14146008747575325 1.0061316416000978 0 0 0 0.28 124 851 146 373 175 249 234 28 
852 0.032968166993510795 0.13888667457567574 0.9828612822629856 0 0 0 0.24 124 852 164 99 200 423 
853 0.03297228060347782 0.13894710028908744 0.983170889367205 0 0 0 0.36 124 853 158 86 200 424 
854 -0.18594485674423963 0.13514036355336662 0.9696405882129541 0 0 0 0.18 124 854 146 374 200 425 
855 0.031274787017339996 0.13996127202946126 0.9838838219501436 0 0 0 0.35 124 855 175 250 200 426 231 171 
856 0.03500508578352798 0.13983646034416725 0.9833010759816665 0 0 0 0.2 124 856 175 251 200 427 
857 0.16327731879950255 0.14294960284579694 0.9998888908336117 0 0 0 0.35 124 857 135 106 146 375 164 100 175 252 213 202 214 234 234 29 
858 0.1565951577147342 0.14418605189219474 0.9994434525948601 0 0 0 0.26 124 858 135 107 146 376 164 101 175 253 200 428 213 203 
859 0.15624466427752318 0.14408590336430938 0.9986043592651913 0 0 0 0.14 124 859 146 377 175 254 213 204 
860 0.06316418837374578 0.14211414050984925 0.986501803554168 0 0 0 0.16 124 860 135 108 175 255 196 52 200 429 
861 0.06319758981720573 0.14208054308179618 0.9863488598380437 0 0 0 0.18 124 861 135 109 136 45 164 102 196 53 214 235 
862 -0.1536213180835441 0.13804588066611523 0.9660262187764823 0 0 0 0.28 124 862 148 59 214 236 
863 0.0318163439722541 0.14188532038989626 0.9830202003364197 0 0 0 0.21 124 863 175 256 200 430 231 172 
864 -0.18196305987022887 0.13835726561693376 0.9658452563174159 0 0 0 0.46 124 864 200 431 214 237 
865 -0.16681864192411414 0.13899734582998882 0.9663199389689171 0 0 0 0.35 124 865 146 378 214 238 
866 -0.07601519395033401 0.14037095934200294 0.9680520685590193 0 0 0 0.2 124 866 194 70 214 239 
867 -0.019231419566584414 0.14216057363671625 0.9757747778484511 0 0 0 0.35 124 867 135 110 146 379 164 103 172 17 188 10 200 432 
868 -0.18815651127673025 0.13920760987188574 0.9662415684437913 0 0 0 0.42 124 868 146 380 200 433 
869 0.1815812133534777 0.1487080597157034 1.0034883453649213 0 0 0 0.36 124 869 175 257 182 30 200 434 213 205 214 240 
870 0.031391932583154085 0.14629256750355657 0.9799694332680703 0 0 0 0.39 124 870 146 381 158 87 200 435 
871 -0.17946251734976423 0.1425524314707278 0.9667426499328674 0 0 0 0.41 124 871 146 382 157 314 200 436 214 241 
872 -0.15918860082241548 0.14386656898751288 0.9673896090242599 0 0 0 0.21 124 872 157 315 200 437 
873 0.09152938081595781 0.14931747820950977 0.9874137088537476 0 0 0 0.23 124 873 135 111 200 438 
874 0.12198213014017507 0.15093109155470052 0.992594181337127 0 0 0 0.18 124 874 135 112 175 258 200 439 
875 0.12388233154144529 0.15253301547836084 0.9933800864204977 0 0 0 0.21 124 875 127 22 200 440 
876 0.06034674359560189 0.15134629807052052 0.9839875053141892 0 0 0 0.25 124 876 146 383 175 259 194 71 196 54 200 441 214 242 234 30 
877 0.09168040064033002 0.15282604563505586 0.9879715314204482 0 0 0 0.09 124 877 175 260 200 442 
878 -0.049769844669431455 0.14938808850376287 0.970545499308696 0 0 0 0.2 124 878 200 443 213 206 224 45 
879 -0.18518595202480737 0.14863780326389833 0.967044231073809 0 0 0 0.27 124 879 146 384 200 444 
880 -0.04985013395640792 0.15235857518713994 0.969780632944735 0 0 0 0.31 124 880 164 104 200 445 213 207 
881 0.06057633774937478 0.15573896372726978 0.9833657692186154 0 0 0 0.29 124 881 194 72 196 55 200 446 
882 0.00021309125561941907 0.15593799208097311 0.9769580066664391 0 0 0 0.34 124 882 158 88 213 208 231 173 
883 -0.052764558412179245 0.15406374689158572 0.9667507448126008 0 0 0 0.2 124 883 200 447 231 174 
884 0.060645622724072624 0.160697615559985 0.9826209198749112 0 0 0 0.2 124 884 194 73 200 448 
885 -0.1545244963375092 0.15643054759335612 0.9649394258922696 0 0 0 0.13 124 885 157 316 200 449 
886 -0.15037809037712688 0.15673020986591787 0.9648991360060967 0 0 0 0.52 124 886 200 450 213 209 
887 0.09522761698266233 0.1644644728927316 0.9854252834156264 0 0 0 0.34 124 887 196 56 200 451 
888 -0.15116617551035072 0.1588241469092299 0.9649520830071698 0 0 0 0.23 124 888 157 317 200 452 
889 -0.1131458043605957 0.1627048780200544 0.9641660529661574 0 0 0 0.15 124 889 157 318 200 453 
890 -0.04915995012710179 0.16418056875075654 0.9658989386079996 0 0 0 0.25 124 890 158 89 200 454 
891 -0.14034397937648452 -0.07228581956799845 1.0150885475219857 0 0 0 0.22 124 891 157 319 158 90 200 455 
892 -0.136380692702341 -0.0722386493082541 1.0146831538629308 0 0 0 0.17 124 892 157 320 200 456 
893 -0.13202544083346768 -0.07210106819840081 1.015096641349629 0 0 0 0.08 124 893 157 321 200 457 
894 -0.03717108767966462 -0.0584774087147115 1.01219765975752 0 0 0 0.26 124 894 146 385 157 322 176 216 200 458 214 243 219 22 
895 -0.03404173953762638 -0.05544380547117241 1.014246057302013 0 0 0 0.17 124 895 157 323 159 43 172 18 176 217 185 42 200 459 204 34 232 27 
896 0.03774751353631639 -0.05855477558141472 1.0219686435153186 0 0 0 0.27 124 896 146 386 157 324 164 105 185 43 196 57 213 210 214 244 
897 0.0378049408446765 -0.05859957301307383 1.02206665198294 0 0 0 0.2 124 897 146 387 176 218 185 44 213 211 214 245 
898 -0.024820121219134697 -0.05007870803376906 1.0152649285284006 0 0 0 0.21 124 898 158 91 176 219 185 45 204 35 213 212 219 23 232 28 
899 -0.035732950714890147 -0.042838282061630165 1.01294734776926 0 0 0 0.16 124 899 204 36 219 24 
900 0.0711555951913295 -0.043346964023515844 1.0235170683955317 0 0 0 0.41 124 900 157 325 159 44 
901 0.07095785024047942 -0.04317393115678218 1.0223680776891824 0 0 0 0.48 124 901 157 326 176 220 200 460 213 213 
902 -0.05241954624138016 -0.036055184520553896 1.0094243971274348 0 0 0 0.17 124 902 159 45 172 19 176 221 185 46 194 74 204 37 214 246 219 25 231 175 
903 -0.004781198241892879 -0.03840333289670126 1.0160390386789862 0 0 0 0.32 124 903 135 113 157 327 176 222 214 247 
904 0.038789839149319466 -0.0412347253220355 1.022825873406538 0 0 0 0.24 124 904 146 388 152 11 158 92 176 223 185 47 204 38 214 248 232 29 
905 0.05236144849970647 -0.04096662986667053 1.023969521881398 0 0 0 0.3 124 905 176 224 204 39 
906 0.07613801052312445 -0.03958495918493314 1.0225384997269165 0 0 0 0.15 124 906 146 389 157 328 
907 0.07613801052312445 -0.03958495918493314 1.0225384997269165 0 0 0 0.15 124 907 146 390 157 329 
908 0.03379714608007889 -0.03804579881615262 1.022069731292252 0 0 0 0.24 124 908 204 40 231 176 
909 0.03369890965769464 -0.03803859021785846 1.0220161560072858 0 0 0 0.37 124 909 176 225 204 41 231 177 
910 -0.03923417660054545 -0.031121721019194363 1.0098252030316006 0 0 0 0.26 124 910 172 20 204 42 219 26 
911 -0.030238998861613915 -0.03173637817796572 1.0119941410362028 0 0 0 0.21 124 911 158 93 194 75 214 249 
912 -0.11471654559908015 -0.027796749989242916 1.0030617217293483 0 0 0 0.34 124 912 162 23 200 461 
913 -0.03520312848997209 -0.03084257940330217 1.0110540648849298 0 0 0 0.36 124 913 128 23 135 114 172 21 204 43 219 27 220 21 221 17 224 46 227 14 232 30 
914 0.015272476751353615 -0.032860966982184735 1.017042747065174 0 0 0 0.39 124 914 176 226 204 44 
915 0.0528938386710677 -0.03480766586860704 1.0230717842325368 0 0 0 0.28 124 915 157 330 214 250 
916 -0.1824127101068954 -0.026304801958209927 1.002220583685675 0 0 0 0.35 124 916 176 227 213 214 219 28 
917 -0.2172208534514837 -0.025601578377383524 1.0023564407998924 0 0 0 0.35 124 917 200 462 214 251 224 47 
918 -0.22115249800979023 -0.02518770512546347 1.0015999312047905 0 0 0 0.52 124 918 200 463 224 48 
919 -0.09702374825854035 -0.023946194911383153 1.0047260251957435 0 0 0 0.15 124 919 158 94 200 464 224 49 227 15 
920 -0.0300503149679002 -0.0245860168166603 1.0086022313518535 0 0 0 0.46 124 920 135 115 157 331 176 228 231 178 
921 0.08927961875962759 -0.028507133022254782 1.0220954496267753 0 0 0 0.34 124 921 135 116 146 391 157 332 158 95 164 106 175 261 176 229 197 23 200 465 213 215 214 252 219 29 
922 0.05747780897254752 -0.027640048159866266 1.0214849081299906 0 0 0 0.25 124 922 176 230 214 253 
923 -0.21134544518185172 -0.013176303598196696 1.0029541268036346 0 0 0 0.34 124 923 127 23 128 24 146 392 148 60 157 333 159 46 162 24 164 107 185 48 190 7 200 466 213 216 224 50 227 16 232 31 
924 -0.21124237048952366 -0.013137725051192638 1.002610305010611 0 0 0 0.31 124 924 127 24 146 393 148 61 157 334 164 108 190 8 196 58 200 467 213 217 224 51 232 32 
925 -0.09491375920478715 -0.011910063571225806 1.002406031181555 0 0 0 0.27 124 925 146 394 164 109 213 218 
926 -0.029975863561534748 -0.013278258004664718 1.0071250466768662 0 0 0 0.25 124 926 204 45 219 30 
927 -0.02380163982821441 -0.01340784767363616 1.008340618265797 0 0 0 0.23 124 927 135 117 146 395 152 12 157 335 162 25 164 110 196 59 200 468 214 254 220 22 231 179 
928 0.1204699629211531 -0.020192096887389474 1.0303766413573578 0 0 0 0.24 124 928 158 96 182 31 200 469 220 23 
929 0.1339186759428351 -0.019703454827261813 1.0311941736977281 0 0 0 0.42 124 929 200 470 217 7 
930 -0.19961209799796545 -0.009835255274303975 1.0020718640002684 0 0 0 0.03 124 930 146 396 200 471 213 219 
931 0.08247490247891047 -0.015853542798840062 1.0222892512067479 0 0 0 0.25 124 931 152 13 176 231 197 24 204 46 232 33 
932 -0.004663780576716572 -0.00980586811457215 1.0086992489023916 0 0 0 0.05 124 932 146 397 231 180 
933 0.22584964405943028 -0.020288674537122634 1.0458834021718362 0 0 0 0.23 124 933 146 398 158 97 200 472 214 255 227 17 
934 0.2257702582267164 -0.020309342907380002 1.0458652376826438 0 0 0 0.13 124 934 146 399 158 98 182 32 214 256 
935 0.05467541215989991 -0.00971093347684473 1.0160014786037768 0 0 0 0.09 124 935 204 47 231 181 
936 0.20706210005760187 -0.017378081771644596 1.0426165847660651 0 0 0 0.2 124 936 176 232 204 48 
937 0.2573629570000103 -0.01977118017756398 1.0511016980362606 0 0 0 0.26 124 937 182 33 220 24 
938 0.2003855675610184 -0.008670331204519238 1.037450417037203 0 0 0 0.3 124 938 158 99 172 22 176 233 204 49 
939 -0.18460150983887783 0.004717609402249687 0.9999485332162098 0 0 0 0.3 124 939 146 400 157 336 159 47 
