# 3D point list with one line of data per point:
#   POINT3D_ID, X, Y, Z, R, G, B, ERROR, TRACK[] as (IMAGE_ID, POINT2D_IDX)
# Number of points: 283, mean track length: 16.16
172 -0.033005308359861374 0.1136217936873436 0.5982005000114441 36 24 25 0.35 46 172 47 172 48 171 49 172 50 159 51 134 
173 -0.2886005640029907 0.17089781165122986 0.6271510124206543 124 130 135 1.93 46 173 47 173 48 172 49 173 50 160 51 135 
174 0.05835089087486267 -0.04379093647003174 0.5296327471733093 97 90 87 2.35 46 174 47 174 48 173 49 174 50 161 51 136 52 112 53 73 54 49 57 59 58 57 60 50 62 61 63 53 64 51 65 50 66 47 67 60 68 54 69 37 70 39 71 30 
175 -0.11070998013019562 0.09555716812610626 0.6808214783668518 105 107 109 0.61 46 175 47 175 48 174 49 175 50 162 51 137 52 113 
176 -0.6001538038253784 0.014124831184744835 1.037245273590088 32 27 24 3.72 46 176 47 176 48 175 49 176 50 163 52 114 53 74 
177 0.0596955269575119 0.045785121619701385 0.5041448473930359 131 132 133 1.7 46 177 47 177 48 176 49 177 50 164 51 138 52 115 53 75 54 50 57 60 58 58 60 51 62 62 
178 -0.1016019880771637 0.1906965970993042 0.6354793310165405 35 32 33 0.97 46 178 47 178 48 177 49 178 50 165 51 139 52 116 
179 -0.16734066605567932 0.19548124074935913 0.4896899461746216 55 46 48 3.45 46 179 47 179 48 178 49 179 50 166 51 140 
180 0.1813948005437851 0.12147641181945801 0.3150818645954132 17 16 16 147.43 46 180 47 180 48 179 49 180 50 167 51 141 52 117 54 51 58 59 59 24 62 63 63 54 64 52 65 51 66 48 67 61 68 55 69 38 70 40 
181 -0.1196235939860344 -0.12774160504341125 0.7358642220497131 41 37 35 0.42 46 181 47 181 48 180 49 181 50 168 51 142 52 118 
182 -0.31311890482902527 -0.10571105033159256 0.6972290277481079 96 100 106 0.8 46 182 47 182 48 181 49 182 50 169 51 143 
183 0.026899419724941254 -0.014988357201218605 0.5428380966186523 130 127 126 0.75 46 183 47 183 48 182 49 183 50 170 51 144 52 119 
184 0.14612284302711487 -0.0458863228559494 0.6168390512466431 139 136 131 1.67 46 184 47 184 48 183 49 184 50 171 51 145 52 120 53 76 54 52 57 61 58 60 59 25 60 52 62 64 63 55 64 53 65 52 66 49 67 62 68 56 69 39 70 41 71 31 
185 -0.1546216905117035 0.08019453287124634 0.7286670804023743 23 22 23 0.48 46 185 47 185 48 184 49 185 50 172 51 146 52 121 
186 -0.19695566594600677 0.2208309769630432 0.7292386889457703 56 51 49 1.03 46 186 47 186 48 185 49 186 50 173 51 147 52 122 
187 0.009374391287565231 -0.04228745400905609 0.5681352019309998 112 113 119 0.49 46 187 47 187 48 186 49 187 50 174 51 148 52 123 
188 0.048885490745306015 0.15595592558383942 0.48001348972320557 106 98 94 3.07 46 188 47 188 48 187 49 188 50 175 51 149 52 124 53 77 54 53 57 62 58 61 
189 0.021171292290091515 -0.20670394599437714 0.5908763408660889 63 72 79 1.77 46 189 47 189 48 188 49 189 50 176 51 150 52 125 60 53 62 65 
190 0.1239221841096878 -0.08540812134742737 0.6079280376434326 137 132 125 2.2 46 190 47 190 48 189 49 190 50 177 51 151 52 126 53 78 54 54 57 63 58 62 59 26 60 54 62 66 63 56 64 54 65 53 66 50 67 63 68 57 69 40 70 42 71 32 
191 -0.0410487987101078 0.14458198845386505 0.413503497838974 33 34 33 2.6 46 191 47 191 48 190 49 191 50 178 51 152 
192 -0.017272694036364555 -0.08804041892290115 0.6264879703521729 40 45 46 0.53 46 192 47 192 48 191 49 192 50 179 51 153 
193 0.36708006262779236 -0.15109571814537048 0.8709636330604553 117 115 113 2.63 46 193 47 193 48 192 49 193 50 180 51 154 52 127 53 79 57 64 58 63 60 55 61 21 62 67 63 57 64 55 65 54 66 51 67 64 68 58 69 41 70 43 71 33 72 18 
194 -0.1403217613697052 -0.021003928035497665 0.7600317001342773 36 48 56 0.78 46 194 47 194 48 193 49 194 50 181 51 155 
195 0.2743155062198639 0.0489732064306736 0.7113665342330933 104 94 86 1.74 46 195 47 195 48 194 49 195 50 182 51 156 52 128 53 80 54 55 57 65 58 64 59 27 60 56 61 22 62 68 63 58 64 56 65 55 66 52 67 65 68 59 69 42 70 44 
196 0.05227155610918999 0.13440746068954468 0.30131465196609497 82 78 85 3.41 46 196 47 196 48 195 49 196 
197 0.06942253559827805 -0.06491430848836899 0.5478994250297546 116 108 105 2.79 46 197 47 197 48 196 49 197 50 183 51 157 52 129 53 81 54 56 57 66 58 65 60 57 62 69 63 59 64 57 65 56 66 53 67 66 68 60 69 43 70 45 71 34 
198 0.637001633644104 0.11321081221103668 0.955637514591217 31 36 27 7.07 46 198 47 198 48 197 49 198 50 184 51 158 52 130 53 82 54 57 57 67 59 28 61 23 62 70 63 60 64 58 65 57 66 54 67 67 68 61 69 44 70 46 
199 -0.07207156717777252 0.1387895792722702 0.6224343180656433 111 112 112 0.8 46 199 47 199 48 198 49 199 50 185 51 159 52 131 
200 -0.10527064651250839 0.1577003002166748 0.6584638357162476 99 93 88 0.74 46 200 47 200 48 199 49 200 50 186 51 160 52 132 
201 0.035947296768426895 -0.065937340259552 0.543841540813446 75 72 74 1.93 46 201 47 201 48 200 49 201 50 187 51 161 52 133 53 83 54 58 57 68 58 66 60 58 62 71 63 61 64 59 65 58 67 68 
202 -0.08487874269485474 0.17682243883609772 0.43989402055740356 76 73 77 3.16 46 202 47 202 48 201 49 202 50 188 51 162 
203 0.011077498085796833 -0.08079938590526581 0.5749757289886475 98 100 103 0.39 46 203 47 203 48 202 49 203 50 189 51 163 52 134 
204 0.0337289460003376 -0.23593975603580475 0.5562196373939514 22 21 25 2.7 46 204 47 204 48 203 50 190 51 164 58 67 60 59 62 72 63 62 64 60 65 59 66 55 67 69 68 62 70 47 71 35 72 19 
205 0.14506903290748596 0.14404338598251343 0.36074933409690857 24 24 31 8.25 46 205 47 205 48 204 49 204 50 191 51 165 52 135 53 84 62 73 67 70 68 63 
206 -0.37684106826782227 0.13244999945163727 0.7640393972396851 67 66 64 5.22 46 206 47 206 48 205 49 205 50 192 51 166 53 85 
207 -0.1872638761997223 -0.08060871809720993 0.7902783155441284 111 126 139 0.42 46 207 47 207 48 206 49 206 50 193 51 167 52 136 
208 -0.20645827054977417 0.21965141594409943 0.48648321628570557 26 43 16 1.09 46 208 47 208 48 207 49 207 
209 -0.06743363291025162 0.1683293879032135 0.6114310622215271 108 104 103 0.93 46 209 47 209 48 208 49 208 50 194 51 168 52 137 
210 0.04845016822218895 -0.001459459774196148 0.5174641609191895 124 123 121 2.11 46 210 47 210 48 209 49 209 50 195 51 169 52 138 53 86 54 59 57 69 58 68 60 60 62 74 63 63 64 61 65 60 66 56 67 71 68 64 70 48 71 36 
211 0.15226928889751434 -0.10622486472129822 0.6427471041679382 129 121 114 1.68 46 211 47 211 48 210 49 210 50 196 51 170 52 139 53 87 54 60 57 70 58 69 59 29 60 61 62 75 63 64 64 62 65 61 66 57 67 72 68 65 69 45 70 49 71 37 
212 0.035019729286432266 -0.21160629391670227 0.5776116251945496 71 81 89 2.64 46 212 47 212 48 211 49 211 50 197 51 171 57 71 58 70 60 62 62 76 63 65 64 63 65 62 66 58 67 73 68 66 70 50 
213 -0.015858475118875504 -0.12152174860239029 0.6392508149147034 134 162 180 1.01 46 213 47 213 48 212 49 212 50 198 
214 0.08033043146133423 -0.2196015566587448 0.594990074634552 166 191 211 2.66 46 214 47 214 48 213 49 213 50 199 51 172 57 72 58 71 60 63 62 77 63 66 64 64 65 63 66 59 67 74 68 67 69 46 70 51 71 38 72 20 
215 -0.4792763292789459 0.14986741542816162 0.8784913420677185 73 69 68 6.96 46 215 47 215 48 214 49 214 50 200 
216 -0.02182295359671116 0.04686325415968895 0.6083695292472839 19 23 25 0.87 46 216 47 216 48 215 49 215 50 201 51 173 
217 0.09475336223840714 0.11280141770839691 0.2625935971736908 33 25 28 21.42 46 217 47 217 48 216 49 216 62 78 
218 0.1000743955373764 -0.22940370440483093 0.6262351870536804 24 23 28 3.13 46 218 47 218 48 217 49 217 50 202 51 174 58 72 60 64 62 79 63 67 64 65 65 64 66 60 67 75 68 68 69 47 70 52 71 39 
219 -0.6398183703422546 -0.03553171083331108 1.0701416730880737 164 172 178 2.97 46 219 47 219 48 218 49 218 50 203 51 175 52 140 53 88 
220 -0.06869020313024521 0.11659418046474457 0.6229047179222107 102 98 99 0.6 46 220 47 220 48 219 49 219 50 204 51 176 52 141 
221 0.006464544218033552 -0.11001574248075485 0.5872369408607483 76 79 83 0.51 46 221 47 221 48 220 49 220 50 205 51 177 52 142 
222 -0.05695440247654915 -0.055191125720739365 0.645815908908844 122 120 116 0.88 46 222 47 222 48 221 49 221 50 206 51 178 52 143 
223 0.5708789825439453 0.14881525933742523 0.9822894334793091 106 100 98 7.68 46 223 47 223 48 222 49 222 50 207 51 179 52 144 53 89 54 61 57 73 58 73 59 30 60 65 61 24 62 80 63 68 69 48 70 53 72 21 
224 0.03472362458705902 0.026015421375632286 0.5255497694015503 93 81 79 1.32 46 224 47 224 48 223 49 223 50 208 51 180 52 145 57 74 60 66 
225 -0.12153948098421097 0.16570042073726654 0.6999171376228333 90 102 112 1.03 46 225 47 225 48 224 49 224 50 209 
226 -0.1608002483844757 0.20688606798648834 0.44202718138694763 59 63 30 1.29 46 226 47 226 48 225 49 225 
227 -0.02924315817654133 0.17503264546394348 0.5576682686805725 78 73 73 1.08 46 227 47 227 48 226 49 226 50 210 51 181 52 146 
228 0.4096841812133789 0.09841252118349075 0.8309417366981506 100 97 92 1.91 46 228 47 228 48 227 49 227 50 211 51 182 52 147 53 90 54 62 57 75 58 74 59 31 60 67 61 25 62 81 63 69 64 66 65 65 66 61 67 76 68 69 69 49 
229 0.08708393573760986 -0.03363494202494621 0.5546736121177673 116 109 102 2.4 46 229 47 229 48 228 49 228 50 212 51 183 52 148 53 91 54 63 57 76 58 75 60 68 62 82 63 70 64 67 65 66 66 62 67 77 68 70 69 50 70 54 71 40 
230 -0.00325141497887671 0.08344903588294983 0.5830336809158325 75 91 99 0.53 46 230 47 230 48 229 49 229 
231 -0.04193295165896416 0.15388889610767365 0.4109877049922943 25 23 28 3.51 46 231 47 231 48 230 49 230 50 213 51 184 
232 -0.27029386162757874 0.10091012716293335 0.8529568314552307 67 60 54 0.92 46 232 47 232 48 231 49 231 50 214 51 185 
233 -0.19621218740940094 0.20811815559864044 0.733981192111969 69 60 58 1.05 46 233 47 233 48 232 49 232 50 215 51 186 52 149 
234 0.02521630749106407 -0.13553643226623535 0.5720953345298767 152 152 149 0.79 46 234 47 234 48 233 49 233 50 216 51 187 52 150 60 69 
235 -0.03020976111292839 -0.06929069012403488 0.6446590423583984 30 42 51 0.88 46 235 47 235 48 234 49 234 50 217 51 188 
236 -0.04927903041243553 -0.1496473103761673 0.662422239780426 22 19 21 0.42 46 236 47 236 48 235 49 235 50 218 51 189 52 151 
237 -0.14688725769519806 0.20839357376098633 0.4478785991668701 30 41 22 1.18 46 237 47 237 48 236 49 236 
238 0.1289222687482834 0.14344821870326996 0.3774906396865845 15 19 23 49.08 46 238 47 238 48 237 49 237 50 219 51 190 52 152 53 92 54 64 57 77 58 76 62 83 63 71 64 68 65 67 66 63 67 78 68 71 70 55 71 41 
239 0.04861190542578697 -0.00861324742436409 0.5191792249679565 109 106 109 2.08 46 239 47 239 48 238 49 238 50 220 51 191 52 153 53 93 54 65 57 78 58 77 60 70 62 84 63 72 64 69 65 68 66 64 67 79 68 72 70 56 71 42 
240 0.04298992455005646 -0.22557507455348969 0.5571090579032898 174 196 211 2.77 46 240 47 240 48 239 49 239 50 221 51 192 58 78 60 71 62 85 63 73 64 70 65 69 66 65 67 80 68 73 69 51 70 57 71 43 72 22 
241 -0.19146670401096344 0.21569658815860748 0.4927462041378021 32 42 21 4.19 46 241 47 241 48 240 49 240 50 222 
242 0.33027979731559753 0.06310369074344635 0.7637540698051453 104 100 98 1.18 46 242 47 242 48 241 49 241 50 223 51 193 52 154 53 94 54 66 57 79 58 79 59 32 60 72 61 26 62 86 63 74 64 71 65 70 66 66 67 81 68 74 69 52 70 58 
243 -0.0032766673248261213 -0.07180911302566528 0.592233419418335 130 155 172 0.52 46 243 47 243 48 242 49 242 50 224 51 194 52 155 
244 -0.24327485263347626 0.03695719689130783 0.8408260345458984 40 37 38 1.39 46 244 47 244 48 243 49 243 50 225 51 195 52 156 
245 0.032779261469841 0.07269356399774551 0.517829954624176 120 116 115 0.56 46 245 47 245 48 244 49 244 50 226 51 196 52 157 
246 -0.23387359082698822 0.15874935686588287 0.8239566087722778 63 70 76 3.15 46 246 47 246 48 245 49 245 50 227 51 197 
247 0.11908135563135147 0.14934666454792023 0.37927311658859253 29 29 34 11.19 46 247 47 247 48 246 49 246 50 228 51 198 52 158 53 95 58 80 62 87 66 67 67 82 68 75 
248 0.0015353315975517035 0.05956928804516792 0.5696375370025635 32 50 58 1.75 46 248 47 248 48 247 49 247 50 229 51 199 
249 0.1168716698884964 0.1479395031929016 0.3893146216869354 23 28 33 55.57 46 249 47 249 48 248 49 248 50 230 51 200 52 159 53 96 54 67 57 80 58 81 62 88 63 75 64 72 65 71 66 68 67 83 68 76 70 59 71 44 
250 -0.4527202248573303 -0.12375887483358383 0.8469994068145752 66 62 62 0.53 46 250 47 250 48 249 49 249 50 231 
251 0.17872953414916992 0.15521781146526337 0.4736691117286682 23 27 24 2.46 46 251 47 251 48 250 49 250 50 232 51 201 52 160 53 97 54 68 57 81 58 82 62 89 63 76 64 73 65 72 66 69 67 84 68 77 71 45 
252 0.03388418257236481 -0.013299157842993736 0.5350577235221863 134 132 128 2.32 46 252 47 252 48 251 49 251 50 233 51 202 52 161 53 98 57 82 58 83 60 73 62 90 
253 0.018725957721471786 0.11973660439252853 0.5240023136138916 107 96 95 0.79 46 253 47 253 48 252 49 252 50 234 51 203 52 162 
254 0.027418170124292374 -0.06554263830184937 0.5531417727470398 113 111 113 1.0 46 254 47 254 48 253 49 253 50 235 51 204 52 163 60 74 62 91 
255 0.08938954025506973 0.0720614418387413 0.5235323905944824 103 92 88 0.95 46 255 47 255 48 254 49 254 50 236 51 205 52 164 53 99 54 69 57 83 58 84 
256 0.003050663508474827 0.10348273068666458 0.5610688328742981 24 27 30 1.98 46 256 47 256 48 255 49 255 50 237 51 206 
257 -0.18901367485523224 0.06918106228113174 0.7621205449104309 94 86 79 0.52 46 257 47 257 48 256 49 256 50 238 51 207 52 165 
258 -0.31444069743156433 -0.08772632479667664 0.6916795969009399 107 108 116 1.48 46 258 47 258 48 257 49 257 50 239 51 208 
259 -0.17337343096733093 0.06386455148458481 0.7489806413650513 20 19 19 0.48 46 259 47 259 48 258 49 258 50 240 51 209 52 166 
260 0.4594019949436188 0.2760428488254547 0.7651247382164001 72 73 84 8.66 46 260 47 260 48 259 49 259 50 241 51 210 52 167 53 100 54 70 57 84 58 85 59 33 62 92 63 77 64 74 65 73 66 70 67 85 68 78 69 53 
261 -0.00501724099740386 -0.09346555173397064 0.6057451963424683 111 122 136 2.08 46 261 47 261 48 260 49 260 50 242 51 211 52 168 
262 0.00782474223524332 -0.03923913836479187 0.5693067908287048 68 67 75 0.53 46 262 47 262 48 261 49 261 50 243 51 212 52 169 
263 -0.3321645259857178 -0.18700246512889862 0.7219491004943848 169 189 196 1.18 46 263 47 263 48 262 49 262 50 244 51 213 
264 0.488303542137146 0.23688648641109467 0.877670407295227 36 22 24 5.97 46 264 47 264 48 263 49 263 50 245 51 214 52 170 53 101 54 71 57 85 58 86 59 34 60 75 61 27 62 93 63 78 64 75 65 74 66 71 67 86 
265 0.17400987446308136 0.03068634308874607 0.6193728446960449 116 116 119 2.03 46 265 47 265 48 264 49 264 50 246 51 215 52 171 53 102 54 72 57 86 58 87 59 35 60 76 62 94 63 79 64 76 65 75 66 72 67 87 68 79 69 54 70 60 
266 -0.15480884909629822 0.2062053233385086 0.4458169639110565 47 56 33 1.16 46 266 47 266 48 265 49 265 
267 -0.008780351839959621 -0.14743761718273163 0.637131929397583 166 183 190 3.27 46 267 47 267 48 266 49 266 50 247 51 216 52 172 
268 -0.07529798895120621 0.16575831174850464 0.6207225918769836 118 118 117 0.84 46 268 47 268 48 267 49 267 50 248 51 217 52 173 
269 0.03834020346403122 0.0539461188018322 0.5158299803733826 117 115 112 0.39 46 269 47 269 48 268 49 268 50 249 51 218 52 174 
270 -0.31051114201545715 -0.08007518202066422 0.6914135813713074 52 54 57 1.27 46 270 47 270 48 269 49 269 50 250 51 219 
271 -0.5029085874557495 -0.05318595841526985 0.9172353148460388 216 226 228 1.79 46 271 47 271 48 270 49 270 50 251 
272 -0.0031713764183223248 0.03136512264609337 0.570260763168335 16 13 14 0.3 46 272 47 272 48 271 49 271 50 252 51 220 52 175 
273 -0.3132270276546478 0.11666592955589294 0.9021582007408142 56 45 38 1.4 46 273 47 273 48 272 49 272 50 253 51 221 
274 -0.12810763716697693 0.10233873873949051 0.7151125073432922 78 86 94 0.63 46 274 47 274 48 273 49 273 50 254 51 222 
275 -0.11733495444059372 -0.05373270809650421 0.7217147946357727 92 95 104 0.54 46 275 47 275 48 274 49 274 50 255 51 223 52 176 
276 0.0781073346734047 0.031791217625141144 0.5252077579498291 114 109 106 2.06 46 276 47 276 48 275 49 275 50 256 51 224 52 177 53 103 54 73 57 87 58 88 60 77 62 95 67 88 68 80 
277 -0.13554605841636658 0.2085995376110077 0.443073570728302 50 43 42 1.45 46 277 47 277 48 276 49 276 
278 -0.2729434669017792 -0.07804391533136368 0.7076027989387512 61 61 61 0.4 46 278 47 278 48 277 49 277 50 257 51 225 52 178 
279 -0.01298366580158472 0.13250184059143066 0.5869535207748413 39 50 56 0.86 46 279 47 279 48 278 49 278 
280 -0.4146534204483032 -0.07896146923303604 0.8179284334182739 212 221 225 1.26 46 280 47 280 48 279 49 279 50 258 
281 0.054899487644433975 0.1274995356798172 0.3215632140636444 47 47 53 78.44 46 281 47 281 48 280 49 280 50 259 51 226 52 179 53 104 58 89 62 96 66 73 67 89 
282 -0.01026978436857462 -0.07180142402648926 0.6203531622886658 137 172 198 0.99 46 282 47 282 48 281 49 281 50 260 51 227 
283 0.05297619104385376 0.030640436336398125 0.5062718391418457 122 112 109 2.11 46 283 47 283 48 282 49 282 50 261 51 228 52 180 53 105 54 74 57 88 58 90 60 78 62 97 63 80 
284 -0.010394768789410591 -0.11078382283449173 0.6282762289047241 68 85 96 2.37 46 284 47 284 48 283 49 283 50 262 51 229 
285 0.27350136637687683 -0.010055330581963062 0.73009192943573 128 122 117 1.51 46 285 47 285 48 284 49 284 50 263 51 230 52 181 53 106 54 75 57 89 58 91 59 36 60 79 61 28 62 98 63 81 64 77 65 76 66 74 67 90 68 81 69 55 70 61 
286 0.1801987737417221 0.1332394778728485 0.34072810411453247 52 44 50 130.35 46 286 47 286 48 285 49 285 50 264 51 231 52 182 54 76 57 90 58 92 59 37 62 99 63 82 64 78 65 77 66 75 67 91 68 82 69 56 70 62 71 46 
287 -0.04362107813358307 -0.1726537048816681 0.6597139239311218 72 57 58 0.62 46 287 47 287 48 286 49 286 50 265 51 232 52 183 
288 0.18834806978702545 -0.025122128427028656 0.6512208580970764 118 116 115 1.89 46 288 47 288 48 287 49 287 50 266 51 233 52 184 53 107 54 77 57 91 58 93 59 38 60 80 62 100 63 83 64 79 65 78 66 76 67 92 68 83 69 57 70 63 71 47 
289 0.14557133615016937 0.06236078217625618 0.5808103680610657 110 107 104 3.09 46 289 47 289 48 288 49 288 50 267 57 92 58 94 59 39 60 81 62 101 63 84 64 80 65 79 66 77 67 93 68 84 69 58 70 64 
290 -0.3053644895553589 -0.08162158727645874 0.6884006261825562 50 48 48 1.23 46 290 47 290 48 289 49 289 50 268 51 234 
291 -0.0031884871423244476 -0.003208244452252984 0.5743677020072937 134 133 131 0.45 46 291 47 291 48 290 49 290 50 269 51 235 52 185 
292 0.07530653476715088 0.11637135595083237 0.49725502729415894 86 72 68 1.09 46 292 47 292 48 291 49 291 50 270 51 236 52 186 53 108 54 78 57 93 58 95 
293 0.43021032214164734 -0.07499724626541138 0.908026933670044 135 129 124 1.55 46 293 47 293 48 292 49 292 50 271 51 237 52 187 53 109 54 79 57 94 58 96 59 40 60 82 61 29 62 102 63 85 64 81 65 80 66 78 67 94 68 85 69 59 70 65 71 48 72 23 
294 0.09829559922218323 -0.1212228313088417 0.5946967601776123 133 129 122 2.21 46 294 47 294 48 293 49 293 50 272 51 238 52 188 53 110 54 80 57 95 58 97 60 83 62 103 63 86 64 82 65 81 66 79 67 95 68 86 69 60 70 66 
295 -0.13339394330978394 0.08348893374204636 0.722419261932373 21 22 21 0.76 46 295 47 295 48 294 49 294 50 273 51 239 
296 0.013662942685186863 0.010600798763334751 0.5520325303077698 137 137 139 0.41 46 296 47 296 48 295 49 295 50 274 51 240 52 189 
297 0.1316535323858261 0.14591126143932343 0.3705440163612366 69 59 67 14.52 46 297 47 297 48 296 49 296 50 275 51 241 52 190 53 111 58 98 62 104 66 80 67 96 68 87 
298 0.02819085866212845 0.12554936110973358 0.5123840570449829 47 37 39 0.76 46 298 47 298 48 297 49 297 50 276 51 242 52 191 
299 -0.2231973558664322 -0.10632401704788208 0.7715115547180176 166 180 187 0.42 46 299 47 299 48 298 49 298 50 277 51 243 52 192 
300 -0.14216479659080505 -0.06793610006570816 0.7700547575950623 51 61 67 1.21 46 300 47 300 48 299 49 299 50 278 51 244 52 193 
301 0.001522035920061171 0.026295838877558708 0.562595784664154 99 95 94 0.35 46 301 47 301 48 300 49 300 50 279 51 245 52 194 
302 -0.37197887897491455 -0.09359931945800781 0.7714905738830566 207 219 226 1.1 46 302 47 302 48 301 49 301 50 280 
303 -0.016530146822333336 0.08896210044622421 0.5985296368598938 52 72 83 0.6 46 303 47 303 48 302 49 302 50 281 
304 0.007247087080031633 0.15746735036373138 0.5295695662498474 37 31 26 1.26 46 304 47 304 48 303 49 303 50 282 51 246 52 195 
305 -0.33547061681747437 -0.09534697979688644 0.7204753160476685 56 53 52 0.59 46 305 47 305 48 304 49 304 50 283 51 247 
306 0.014187953434884548 -0.08677352219820023 0.5726044178009033 138 139 138 0.59 46 306 47 306 48 305 49 305 50 284 51 248 52 196 
307 0.041409723460674286 -0.22685953974723816 0.5564953088760376 169 184 194 2.87 46 307 47 307 48 306 49 306 50 285 51 249 58 99 60 84 62 105 63 87 64 83 65 82 66 81 67 97 68 88 69 61 70 67 71 49 72 24 
308 -0.2784242033958435 0.07362336665391922 0.6691759824752808 41 42 41 1.55 46 308 47 308 48 307 49 307 50 286 51 250 
309 0.2855115532875061 -0.0040785325691103935 0.7403784394264221 112 107 104 1.38 46 309 47 309 48 308 49 308 50 287 51 251 52 197 53 112 54 81 57 96 58 100 59 41 60 85 61 30 62 106 63 88 64 84 65 83 66 82 67 98 68 89 69 62 70 68 
310 0.4350261986255646 0.2772015631198883 0.7742575407028198 13 17 9 5.6 46 310 47 310 48 309 49 309 50 288 51 252 52 198 53 113 54 82 57 97 58 101 59 42 62 107 63 89 64 85 65 84 66 83 67 99 68 90 69 63 
311 -0.3080730438232422 -0.13290393352508545 0.6988649964332581 97 94 93 1.02 46 311 47 311 48 310 49 310 50 289 51 253 
312 0.06439711153507233 0.008554380387067795 0.5196214914321899 107 98 94 2.14 46 312 47 312 48 311 49 311 50 290 51 254 52 199 53 114 54 83 57 98 58 102 60 86 62 108 63 90 64 86 65 85 66 84 67 100 68 91 70 69 71 50 
313 0.08563460409641266 -0.10149513930082321 0.5756791830062866 131 125 116 2.39 46 313 47 313 48 312 49 312 50 291 51 255 52 200 53 115 54 84 57 99 58 103 60 87 62 109 63 91 64 87 65 86 66 85 67 101 68 92 69 64 70 70 
314 0.10986790806055069 -0.03664146736264229 0.5780763030052185 116 108 99 2.14 46 314 47 314 48 313 49 313 50 292 51 256 52 201 53 116 54 85 57 100 58 104 60 88 62 110 63 92 64 88 65 87 66 86 67 102 68 93 69 65 70 71 71 51 
315 0.3752255141735077 0.07104581594467163 0.8060770630836487 150 152 155 1.21 46 315 47 315 48 314 49 314 50 293 51 257 52 202 53 117 54 86 57 101 58 105 59 43 60 89 61 31 62 111 63 93 64 89 65 88 66 87 67 103 68 94 69 66 70 72 
316 0.0030547583010047674 0.10051070898771286 0.5617298483848572 131 149 165 1.95 46 316 47 316 48 315 49 315 50 294 51 258 
317 -0.06445011496543884 -0.03404764458537102 0.6495983004570007 107 102 100 0.52 46 317 47 317 48 316 49 316 50 295 51 259 52 203 
318 -0.21916793286800385 0.037526022642850876 0.8034058213233948 47 40 34 0.51 46 318 47 318 48 317 49 317 50 296 51 260 52 204 
319 -0.6764957308769226 -0.05149141326546669 1.0961335897445679 18 14 18 2.33 46 319 47 319 48 318 49 318 50 297 52 205 53 118 
320 0.10818922519683838 0.1580009162425995 0.5169519782066345 58 52 50 1.06 46 320 47 320 48 319 49 319 50 298 51 261 52 206 53 119 54 87 68 95 
321 0.3535211682319641 -0.19713202118873596 0.873009979724884 139 134 129 2.14 46 321 47 321 48 320 49 320 50 299 52 207 57 102 60 90 61 32 63 94 64 90 65 89 66 88 67 104 68 96 69 67 70 73 71 52 72 25 
322 0.12170474231243134 0.07908029109239578 0.5523809790611267 78 74 72 2.4 46 322 47 322 48 321 49 321 50 300 51 262 52 208 53 120 65 90 66 89 67 105 68 97 69 68 
323 0.19303977489471436 0.12202528864145279 0.3142564296722412 40 36 41 182.81 46 323 47 323 48 322 49 322 50 301 51 263 54 88 57 103 58 106 59 44 62 112 63 95 64 91 65 91 66 90 67 106 68 98 69 69 70 74 
324 -0.07124212384223938 0.1743227243423462 0.430720716714859 66 64 69 3.11 46 324 47 324 48 323 49 323 50 302 51 264 
325 0.5108997821807861 0.29881128668785095 0.8749833703041077 54 61 66 5.58 46 325 47 325 48 324 49 324 50 303 51 265 52 209 53 121 54 89 57 104 58 107 59 45 62 113 63 96 64 92 65 92 66 91 67 107 68 99 72 26 
326 0.055670853704214096 0.0787382498383522 0.49314790964126587 107 101 97 2.3 46 326 47 326 48 325 49 325 50 304 51 266 52 210 53 122 54 90 57 105 58 108 60 91 
327 0.4597588777542114 0.06639135628938675 0.8925998210906982 43 45 50 2.16 46 327 47 327 48 326 49 326 50 305 51 267 52 211 53 123 54 91 57 106 58 109 59 46 60 92 61 33 62 114 63 97 64 93 65 93 66 92 67 108 68 100 69 70 71 53 72 27 
328 -0.17541885375976562 0.020792122930288315 0.757847249507904 25 24 28 0.5 46 328 47 328 48 327 49 327 50 306 51 268 52 212 
329 0.17438684403896332 0.12943994998931885 0.4796576201915741 22 29 23 1.82 46 329 47 329 48 328 49 328 50 307 51 269 52 213 53 124 54 92 58 110 60 93 62 115 63 98 66 93 67 109 
330 -0.03639399632811546 -0.11825669556856155 0.6603271961212158 52 67 73 0.8 46 330 47 330 48 329 49 329 50 308 51 270 
331 -0.030522877350449562 0.04735805094242096 0.6148073673248291 32 28 27 0.92 46 331 47 331 48 330 49 330 50 309 51 271 
332 -0.019669856876134872 -0.008230696432292461 0.5942472815513611 137 135 130 0.72 46 332 47 332 48 331 49 331 50 310 51 272 52 214 
333 0.1732671558856964 -0.18845157325267792 0.6911499500274658 92 99 103 2.12 46 333 47 333 48 332 49 332 50 311 51 273 52 215 57 107 58 111 60 94 62 116 63 99 64 94 65 94 66 94 67 110 68 101 69 71 70 75 71 54 72 28 
334 -0.48615601658821106 0.05747437849640846 0.9095009565353394 50 45 46 3.34 46 334 47 334 48 333 49 333 53 125 
335 0.04403359815478325 -0.21378006041049957 0.5706785321235657 81 80 79 2.95 46 335 47 335 48 334 49 334 50 312 51 274 57 108 58 112 60 95 62 117 63 100 64 95 65 95 66 95 67 111 68 102 69 72 70 76 71 55 72 29 
336 0.056503571569919586 0.139306902885437 0.4773171842098236 112 108 105 3.06 46 336 47 336 48 335 49 335 50 313 51 275 52 216 53 126 54 93 57 109 58 113 
337 -0.351892352104187 -0.09884413331747055 0.7469048500061035 92 127 143 1.91 46 337 47 337 48 336 49 336 50 314 51 276 
338 0.04882538318634033 0.10986746847629547 0.4926716685295105 88 63 58 2.23 46 338 47 338 48 337 49 337 50 315 51 277 52 217 53 127 54 94 57 110 58 114 
339 -0.040315378457307816 -0.14618192613124847 0.6664935350418091 51 48 50 0.36 46 339 47 339 48 338 49 338 50 316 51 278 52 218 
340 0.09916097670793533 -0.0799119770526886 0.5850321054458618 127 124 120 1.58 46 340 47 340 48 339 49 339 50 317 51 279 52 219 53 128 54 95 57 111 58 115 60 96 62 118 63 101 64 96 65 96 66 96 67 112 68 103 69 73 70 77 71 56 
341 0.12468522787094116 0.02587360516190529 0.5749154090881348 108 101 100 1.19 46 341 47 341 48 340 49 340 50 318 51 280 52 220 53 129 54 96 57 112 58 116 60 97 62 119 63 102 64 97 65 97 66 97 67 113 68 104 69 74 70 78 
342 0.3218407928943634 0.1834074854850769 0.7204321622848511 97 89 86 1.38 47 342 48 341 49 341 50 319 51 281 52 221 53 130 54 97 57 113 58 117 59 47 60 98 61 34 62 120 63 103 64 98 65 98 66 98 67 114 68 105 69 75 
343 0.16204188764095306 0.07038210332393646 0.5149921178817749 34 44 41 1.37 46 342 47 343 48 342 49 342 50 320 51 282 52 222 53 131 54 98 57 114 58 118 60 99 62 121 63 104 64 99 65 99 66 99 67 115 68 106 70 79 
344 0.20451317727565765 0.2040909379720688 0.5134798884391785 33 29 30 2.07 46 343 47 344 48 343 49 343 50 321 51 283 52 223 53 132 54 99 57 115 58 119 62 122 63 105 64 100 65 100 66 100 67 116 68 107 70 80 71 57 
345 0.054887767881155014 -0.1895352005958557 0.578689694404602 138 129 117 2.09 46 344 47 345 48 344 49 344 50 322 51 284 52 224 57 116 58 120 60 100 62 123 63 106 64 101 65 101 66 101 67 117 68 108 69 76 70 81 71 58 72 30 
346 -0.2838643193244934 0.1557033658027649 0.6492135524749756 105 110 111 1.1 46 345 47 346 48 345 49 345 50 323 51 285 
347 -0.0802415981888771 0.208836629986763 0.6082146763801575 17 19 24 1.72 46 346 47 347 48 346 49 346 50 324 51 286 52 225 
348 -0.3973861038684845 0.33121025562286377 0.9575700163841248 93 77 65 2.53 46 347 47 348 48 347 49 347 50 325 51 287 52 226 
349 0.11097455769777298 0.14730043709278107 0.4115137755870819 66 74 90 18.64 46 348 47 349 48 348 49 348 50 326 51 288 52 227 53 133 54 100 57 117 58 121 62 124 65 102 66 102 67 118 68 109 
350 0.36499154567718506 0.20248541235923767 0.7591220736503601 96 86 83 1.67 46 349 47 350 48 349 49 349 50 327 51 289 52 228 53 134 54 101 57 118 58 122 59 48 60 101 61 35 62 125 63 107 64 102 65 103 66 103 67 119 68 110 69 77 
351 0.35441508889198303 0.23568885028362274 0.739253580570221 105 95 93 1.23 46 350 47 351 48 350 49 350 50 328 51 290 52 229 53 135 54 102 57 119 58 123 59 49 62 126 63 108 64 103 65 104 66 104 67 120 68 111 69 78 
352 0.32093843817710876 0.25992080569267273 0.6894384026527405 32 32 30 3.17 46 351 47 352 48 351 49 351 50 329 51 291 52 230 53 136 54 103 57 120 58 124 59 50 62 127 63 109 64 104 65 105 66 105 67 121 68 112 69 79 
353 0.5030427575111389 0.29760289192199707 0.8648640513420105 75 88 102 2.66 46 352 47 353 48 352 49 352 50 330 51 292 52 231 53 137 54 104 57 121 58 125 59 51 62 128 63 110 64 105 65 106 66 106 67 122 71 59 
354 0.1104419082403183 0.10679123550653458 0.5364899635314941 90 81 73 0.61 46 353 47 354 48 353 49 353 50 331 51 293 52 232 53 138 54 105 
355 0.09051823616027832 -0.04911492019891739 0.5666071772575378 130 131 129 1.73 46 354 47 355 48 354 49 354 50 332 51 294 52 233 53 139 54 106 57 122 58 126 60 102 62 129 63 111 64 106 65 107 66 107 67 123 68 113 69 80 70 82 71 60 
356 0.10915634781122208 0.03687254339456558 0.5566985607147217 64 61 64 1.05 46 355 47 356 48 355 49 355 50 333 51 295 52 234 53 140 54 107 57 123 58 127 64 107 65 108 66 108 67 124 68 114 69 81 70 83 
357 -0.14972497522830963 -0.037063922733068466 0.7653789520263672 132 132 137 0.67 46 356 47 357 48 356 49 356 50 334 51 296 52 235 
358 0.3787268102169037 0.07282963395118713 0.812079906463623 130 128 129 2.02 46 357 47 358 48 357 49 357 50 335 51 297 52 236 53 141 54 108 57 124 58 128 59 52 60 103 61 36 62 130 63 112 64 108 65 109 66 109 67 125 68 115 69 82 70 84 
359 0.14329375326633453 -0.1129026934504509 0.6384377479553223 151 147 142 1.39 46 358 47 359 48 358 49 358 50 336 51 298 52 237 53 142 54 109 57 125 58 129 59 53 60 104 62 131 63 113 64 109 65 110 66 110 67 126 68 116 69 83 70 85 71 61 
360 0.3677951693534851 -0.05816597118973732 0.8431085348129272 136 135 133 2.12 46 359 47 360 48 359 49 359 50 337 51 299 52 238 53 143 54 110 57 126 58 130 59 54 60 105 61 37 62 132 63 114 64 110 65 111 66 111 67 127 68 117 69 84 70 86 71 62 72 31 
361 0.2921745181083679 0.16784998774528503 0.6979248523712158 32 22 24 1.41 48 360 49 360 50 338 51 300 52 239 53 144 54 111 57 127 58 131 59 55 60 106 61 38 62 133 63 115 64 111 65 112 66 112 67 128 68 118 69 85 70 87 
362 0.190300852060318 0.050721220672130585 0.6212459206581116 71 74 71 2.87 46 360 47 361 48 361 49 361 50 339 51 301 52 240 53 145 54 112 57 128 58 132 59 56 60 107 62 134 63 116 64 112 65 113 66 113 67 129 68 119 69 86 70 88 
363 0.5906744003295898 0.1947443187236786 0.9166968464851379 20 21 20 2.05 46 361 47 362 48 362 49 362 50 340 51 302 52 241 53 146 54 113 57 129 59 57 61 39 62 135 63 117 64 113 65 114 
364 -0.1708785593509674 0.018295766785740852 0.7607741951942444 108 109 107 0.6 46 362 47 363 48 363 49 363 50 341 51 303 52 242 
365 0.10797685384750366 -0.07405982166528702 0.5914398431777954 139 132 124 1.19 46 363 47 364 48 364 49 364 50 342 51 304 52 243 53 147 54 114 57 130 58 133 60 108 62 136 63 118 64 114 65 115 66 114 67 130 68 120 69 87 70 89 71 63 
366 0.024668129161000252 0.1639367938041687 0.5010012984275818 89 92 104 1.08 46 364 47 365 48 365 49 365 50 343 51 305 52 244 53 148 
367 -0.0032225342001765966 -0.08206560462713242 0.5941836833953857 126 126 134 0.47 46 365 47 366 48 366 49 366 50 344 51 306 52 245 
368 0.057851966470479965 0.046211253851652145 0.5081233382225037 131 132 135 1.24 46 366 47 367 48 367 49 367 50 345 51 307 52 246 53 149 54 115 57 131 58 134 60 109 62 137 
369 0.3080393671989441 0.22531658411026 0.6951048374176025 97 91 87 1.15 47 368 48 368 49 368 50 346 51 308 52 247 53 150 54 116 57 132 58 135 59 58 62 138 63 119 64 115 65 116 66 115 67 131 68 121 69 88 
370 0.6075801849365234 0.1487487107515335 1.0158032178878784 123 117 112 3.44 46 367 47 369 48 369 49 369 50 347 51 309 52 248 53 151 54 117 65 117 66 116 67 132 68 122 69 89 70 90 71 64 72 32 73 0 
371 0.2959306240081787 -0.0567774623632431 0.7693200707435608 131 131 129 1.67 46 368 47 370 48 370 49 370 50 348 51 310 52 249 53 152 54 118 57 133 58 136 59 59 60 110 61 40 62 139 63 120 64 116 65 118 66 117 67 133 68 123 69 90 70 91 71 65 72 33 
372 -0.16430975496768951 0.0809696614742279 0.7424267530441284 89 93 97 0.77 46 369 47 371 48 371 49 371 50 349 51 311 52 250 
373 0.054189059883356094 -0.07161649316549301 0.5388182997703552 87 81 78 1.73 46 370 47 372 48 372 49 372 50 350 51 312 52 251 53 153 54 119 57 134 58 137 60 111 62 140 63 121 64 117 65 119 66 118 67 134 68 124 71 66 
374 0.1108255460858345 -0.11467061936855316 0.6079840064048767 147 145 139 1.16 46 371 47 373 48 373 49 373 50 351 51 313 52 252 53 154 54 120 57 135 58 138 60 112 62 141 63 122 64 118 65 120 66 119 67 135 68 125 69 91 70 92 71 67 
375 0.043598778545856476 -0.21800707280635834 0.5648266673088074 86 86 88 2.16 46 372 47 374 48 374 49 374 50 352 51 314 57 136 58 139 60 113 62 142 63 123 64 119 65 121 66 120 67 136 68 126 69 92 70 93 71 68 72 34 
376 -0.06168823316693306 0.16798172891139984 0.4072636663913727 147 146 162 1.39 46 373 47 375 48 375 49 375 50 353 51 315 
377 0.2782300114631653 0.20998819172382355 0.6766320466995239 28 19 21 1.27 48 376 49 376 50 354 51 316 52 253 53 155 54 121 57 137 58 140 59 60 62 143 63 124 64 120 65 122 66 121 67 137 68 127 69 93 
378 -0.07380905002355576 0.17798630893230438 0.44318583607673645 82 82 90 6.57 46 374 47 376 48 377 49 377 50 355 51 317 
379 0.16460517048835754 0.13994576036930084 0.3480176031589508 19 20 28 7.83 46 375 47 377 48 378 49 378 50 356 51 318 52 254 53 156 62 144 67 138 
380 -0.007960603572428226 -0.16672933101654053 0.6195037364959717 96 89 93 0.75 46 376 47 378 48 379 49 379 50 357 51 319 52 255 
381 -0.11693013459444046 0.0021808824967592955 0.7017346620559692 39 29 25 0.82 46 377 47 379 48 380 49 380 50 358 51 320 52 256 
382 0.41768383979797363 0.23321187496185303 0.8003125190734863 86 70 62 1.55 46 378 47 380 48 381 49 381 50 359 51 321 52 257 53 157 54 122 57 138 58 141 59 61 61 41 62 145 63 125 64 121 65 123 66 122 67 139 68 128 
383 -0.014141611754894257 -0.009094703011214733 0.590085506439209 117 118 117 0.43 46 379 47 381 48 382 49 382 50 360 51 322 52 258 
384 0.18068209290504456 -0.13330543041229248 0.6820598244667053 143 138 130 1.7 46 380 47 382 48 383 49 383 50 361 51 323 52 259 53 158 57 139 58 142 59 62 60 114 62 146 63 126 64 122 65 124 66 123 67 140 68 129 69 94 70 94 71 69 72 35 
385 0.41629472374916077 0.17675983905792236 0.8164100646972656 86 69 62 1.09 46 381 47 383 48 384 49 384 50 362 51 324 52 260 53 159 54 123 57 140 58 143 59 63 60 115 61 42 62 147 63 127 64 123 65 125 66 124 67 141 68 130 
386 0.12067526578903198 0.07827433198690414 0.5537530779838562 111 111 111 0.78 46 382 47 384 48 385 49 385 50 363 51 325 52 261 53 160 67 142 68 131 69 95 
387 -0.04145870357751846 0.16921523213386536 0.41030019521713257 41 53 60 6.73 46 383 47 385 48 386 49 386 50 364 51 326 62 148 
388 0.0587507002055645 0.14645884931087494 0.48088815808296204 57 37 34 1.27 46 384 47 386 48 387 49 387 50 365 51 327 52 262 53 161 54 124 57 141 58 144 
389 0.2752664089202881 -0.10778827220201492 0.7646483182907104 137 135 130 1.65 46 385 47 387 48 388 49 388 50 366 51 328 52 263 53 162 54 125 57 142 58 145 59 64 60 116 61 43 62 149 63 128 64 124 65 126 66 125 67 143 68 132 69 96 70 95 71 70 72 36 
390 0.07835472375154495 0.11299700289964676 0.5045061111450195 99 94 94 0.96 46 386 47 388 48 389 49 389 50 367 51 329 52 264 53 163 54 126 57 143 58 146 
391 0.5187734961509705 0.19335779547691345 0.9182376265525818 113 102 97 4.01 46 387 47 389 48 390 49 390 50 368 51 330 52 265 53 164 54 127 57 144 58 147 59 65 60 117 61 44 62 150 63 129 64 125 65 127 66 126 72 37 
392 0.4618539810180664 0.053052302449941635 0.903270959854126 119 116 114 3.03 46 388 47 390 48 391 49 391 50 369 51 331 52 266 53 165 54 128 57 145 58 148 59 66 60 118 61 45 62 151 63 130 64 126 65 128 66 127 67 144 68 133 69 97 70 96 71 71 72 38 
393 0.21631678938865662 0.03228791058063507 0.6632773876190186 90 78 70 0.98 46 389 47 391 48 392 49 392 50 370 51 332 52 267 53 166 54 129 57 146 58 149 59 67 60 119 62 152 63 131 64 127 65 129 66 128 67 145 68 134 69 98 70 97 
394 0.42132776975631714 0.11756865680217743 0.843722403049469 46 26 26 2.73 46 390 47 392 48 393 49 393 50 371 51 333 52 268 53 167 54 130 57 147 58 150 59 68 60 120 61 46 62 153 63 132 64 128 65 130 66 129 67 146 68 135 69 99 
395 -0.0535837784409523 0.17290078103542328 0.4225587844848633 67 70 76 7.33 46 391 47 393 48 394 49 394 50 372 51 334 
396 0.20473438501358032 0.11901218444108963 0.4823085069656372 11 16 11 2.27 46 392 47 394 48 395 49 395 50 373 51 335 52 269 53 168 54 131 57 148 58 151 60 121 62 154 63 133 64 129 65 131 66 130 67 147 68 136 71 72 
397 0.09780377149581909 -0.04314901679754257 0.5714564919471741 115 111 105 1.44 46 393 47 395 48 396 49 396 50 374 51 336 52 270 53 169 54 132 57 149 58 152 60 122 62 155 63 134 64 130 65 132 66 131 67 148 68 137 69 100 70 98 71 73 
398 -0.28793761134147644 -0.06986081600189209 0.7141873836517334 41 39 36 0.87 46 394 47 396 48 397 49 397 50 375 51 337 52 271 
399 -0.1206960529088974 -0.12511856853961945 0.738892674446106 95 83 77 0.53 46 395 47 397 48 398 49 398 50 376 51 338 52 272 
400 -0.47739195823669434 0.3217688798904419 1.056248664855957 47 47 44 1.25 46 396 47 398 48 399 49 399 50 377 51 339 52 273 
401 0.12045739591121674 -0.01265766192227602 0.5830047130584717 130 130 129 1.12 46 397 47 399 48 400 49 400 50 378 51 340 52 274 53 170 54 133 57 150 58 153 60 123 62 156 63 135 64 131 65 133 66 132 67 149 68 138 69 101 70 99 71 74 
402 0.6568310260772705 0.25908541679382324 0.887941837310791 12 16 11 14.66 49 401 50 379 52 275 59 69 62 157 63 136 64 132 65 134 66 133 67 150 68 139 69 102 70 100 71 75 72 39 
403 0.24278053641319275 0.10533735901117325 0.671362578868866 46 35 41 1.31 48 401 49 402 50 380 51 341 52 276 53 171 54 134 57 151 58 154 59 70 60 124 62 158 63 137 64 133 65 135 66 134 67 151 68 140 69 103 70 101 
404 0.1416720747947693 -0.15142089128494263 0.6497892141342163 105 102 98 1.89 46 398 47 400 48 402 49 403 50 381 51 342 52 277 53 172 57 152 58 155 59 71 60 125 62 159 63 138 64 134 65 136 66 135 67 152 68 141 69 104 70 102 71 76 72 40 
405 0.08720282465219498 0.1234317421913147 0.5085441470146179 98 89 83 0.97 46 399 47 401 48 403 49 404 50 382 51 343 52 278 53 173 54 135 57 153 
406 0.29625633358955383 -0.00815135333687067 0.7541692852973938 123 121 123 1.65 46 400 47 402 48 404 49 405 50 383 51 344 52 279 53 174 54 136 57 154 58 156 59 72 60 126 61 47 62 160 63 139 64 135 65 137 66 136 67 153 68 142 69 105 70 103 
407 0.02752535045146942 -0.1338656097650528 0.572260320186615 142 149 154 1.0 46 401 47 403 48 405 49 406 50 384 51 345 52 280 53 175 60 127 
408 0.18688595294952393 0.14229801297187805 0.3569751977920532 65 65 77 8.84 46 402 47 404 48 406 49 407 50 385 51 346 52 281 53 176 62 161 67 154 
409 -0.12131176888942719 -0.009271821938455105 0.7147049307823181 105 105 114 0.85 46 403 47 405 48 407 49 408 50 386 51 347 52 282 
410 -0.2836662828922272 0.07726801186800003 0.6776708960533142 87 94 101 0.68 46 404 47 406 48 408 49 409 50 387 51 348 
411 0.23902516067028046 0.11261647194623947 0.6653431057929993 32 22 25 1.13 49 410 50 388 51 349 52 283 53 177 54 137 57 155 58 157 59 73 60 128 62 162 63 140 64 136 65 138 66 137 67 155 68 143 69 106 70 104 
412 0.5634191036224365 0.035901736468076706 1.0125540494918823 125 127 125 2.81 46 405 47 407 48 409 49 411 50 389 51 350 52 284 53 178 54 138 57 156 58 158 59 74 60 129 61 48 62 163 63 141 64 137 65 139 66 138 67 156 68 144 69 107 70 105 71 77 72 41 
413 0.2162328064441681 -0.05543168634176254 0.6898708343505859 133 129 127 1.05 46 406 47 408 48 410 49 412 50 390 51 351 52 285 53 179 54 139 57 157 58 159 59 75 60 130 62 164 63 142 64 138 65 140 66 139 67 157 68 145 69 108 70 106 71 78 
414 -0.14079362154006958 0.08062385767698288 0.720295786857605 7 5 6 0.71 46 407 47 409 48 411 49 413 50 391 51 352 52 286 
415 0.08772305399179459 -0.0640486478805542 0.5687322616577148 91 84 81 1.81 46 408 47 410 48 412 49 414 50 392 51 353 52 287 53 180 54 140 57 158 58 160 60 131 62 165 63 143 64 139 65 141 66 140 67 158 68 146 69 109 70 107 71 79 
416 0.10458870977163315 0.18016664683818817 0.5118261575698853 66 63 60 0.77 46 409 47 411 48 413 49 415 50 393 51 354 52 288 53 181 54 141 
417 0.6097254753112793 0.22937169671058655 0.9011566042900085 53 50 45 8.84 46 410 47 412 48 414 49 416 50 394 51 355 52 289 53 182 54 142 57 159 59 76 61 49 62 166 63 144 64 140 65 142 66 141 67 159 68 147 70 108 71 80 
418 -0.15754982829093933 0.20280788838863373 0.6993619799613953 26 32 39 0.75 46 411 47 413 48 415 49 417 50 395 51 356 52 290 
419 0.04357398673892021 -0.02743893675506115 0.5298341512680054 105 103 106 1.77 46 412 47 414 48 416 49 418 50 396 51 357 52 291 53 183 54 143 57 160 58 161 60 132 62 167 63 145 64 141 67 160 71 81 
420 0.51197749376297 0.27301084995269775 0.8883919715881348 67 55 53 4.47 46 413 47 415 48 417 49 419 50 397 51 358 52 292 53 184 54 144 57 161 58 162 59 77 62 168 63 146 64 142 65 143 66 142 67 161 72 42 
421 0.29827553033828735 0.25046563148498535 0.6789626479148865 52 50 51 1.95 46 414 47 416 48 418 49 420 50 398 51 359 52 293 53 185 54 145 57 162 58 163 59 78 62 169 63 147 64 143 65 144 66 143 67 162 68 148 69 110 
422 0.13048706948757172 -0.024411199614405632 0.5964820981025696 144 138 130 1.35 46 415 47 417 48 419 49 421 50 399 51 360 52 294 53 186 54 146 57 163 58 164 59 79 60 133 62 170 63 148 64 144 65 145 66 144 67 163 68 149 69 111 70 109 
423 -0.2779741585254669 0.23737283051013947 0.6543819904327393 77 81 90 2.69 46 416 47 418 48 420 49 422 50 400 51 361 
424 0.19595517218112946 -0.0924486592411995 0.682330846786499 143 147 145 1.3 46 417 47 419 48 421 49 423 50 401 51 362 52 295 53 187 54 147 57 164 58 165 59 80 60 134 62 171 63 149 64 145 65 146 66 145 67 164 68 150 69 112 70 110 71 82 
425 0.376481831073761 -0.11196880787611008 0.8695008754730225 151 152 151 2.23 46 418 47 420 48 422 49 424 50 402 51 363 52 296 53 188 54 148 57 165 58 166 59 81 60 135 61 50 62 172 63 150 64 146 65 147 66 146 67 165 68 151 69 113 70 111 71 83 72 43 
426 -0.5143436193466187 0.13477496802806854 1.1380627155303955 61 52 41 3.84 46 419 47 421 48 423 49 425 50 403 51 364 52 297 
427 -0.08815260976552963 0.1878151148557663 0.6248359680175781 96 96 98 0.67 46 420 47 422 48 424 49 426 50 404 51 365 52 298 
428 -0.10213620215654373 0.1896490603685379 0.6462814807891846 75 72 73 0.97 46 421 47 423 48 425 49 427 50 405 51 366 52 299 
429 0.053307514637708664 -0.04328393563628197 0.5295003652572632 96 93 92 1.71 46 422 47 424 48 426 49 428 50 406 51 367 52 300 53 189 54 149 57 166 58 167 60 136 62 173 63 151 64 147 65 148 66 147 67 166 68 152 69 114 70 112 71 84 
430 0.5273102521896362 -0.06121295690536499 1.006463885307312 132 132 132 3.67 46 423 47 425 48 427 49 429 50 407 51 368 52 301 53 190 54 150 57 167 58 168 59 82 60 137 61 51 62 174 63 152 64 148 65 149 66 148 67 167 68 153 69 115 70 113 71 85 72 44 
431 0.05542274937033653 -0.06735562533140182 0.5387247204780579 108 106 106 1.75 46 424 47 426 48 428 49 430 50 408 51 369 52 302 53 191 54 151 57 168 58 169 60 138 62 175 63 153 64 149 65 150 66 149 67 168 68 154 69 116 70 114 71 86 
432 0.04829370230436325 0.1557101458311081 0.48566538095474243 126 127 129 1.58 46 425 47 427 48 429 49 431 50 409 51 370 52 303 53 192 54 152 57 169 
433 0.1001720055937767 0.14884141087532043 0.4202101230621338 42 46 56 3.74 46 426 47 428 48 430 49 432 50 410 51 371 52 304 53 193 58 170 62 176 66 150 67 169 68 155 
434 0.5907146334648132 0.17452730238437653 0.9411177039146423 35 37 39 8.89 46 427 47 429 48 431 49 433 50 411 51 372 52 305 53 194 54 153 57 170 59 83 61 52 62 177 63 154 64 150 68 156 69 117 70 115 71 87 
435 0.04310457780957222 -0.14398419857025146 0.5587353706359863 163 167 170 1.61 46 428 47 430 48 432 49 434 50 412 51 373 52 306 53 195 57 171 58 171 60 139 62 178 63 155 64 151 65 151 66 151 67 170 68 157 69 118 70 116 71 88 
436 0.11836934834718704 0.16109372675418854 0.3905577063560486 24 24 30 3.72 46 429 47 431 48 433 49 435 50 413 51 374 52 307 53 196 62 179 66 152 67 171 68 158 
437 0.30264008045196533 -0.06293442845344543 0.7781956791877747 150 151 148 1.6 46 430 47 432 48 434 49 436 50 414 51 375 52 308 53 197 54 154 57 172 58 172 59 84 60 140 61 53 62 180 63 156 64 152 65 152 66 153 67 172 68 159 69 119 70 117 71 89 72 45 
438 0.09678158164024353 -0.12126041203737259 0.5964499711990356 140 134 126 1.37 46 431 47 433 48 435 49 437 50 415 51 376 52 309 53 198 54 155 57 173 58 173 60 141 62 181 63 157 64 153 65 153 66 154 67 173 68 160 69 120 70 118 71 90 
439 0.26676106452941895 0.21660126745700836 0.5112981796264648 23 20 22 2.84 47 434 48 436 49 438 50 416 51 377 52 310 53 199 54 156 57 174 58 174 62 182 63 158 64 154 65 154 66 155 67 174 68 161 
440 0.049598850309848785 -0.11572274565696716 0.5496339797973633 131 127 123 1.85 46 432 47 435 48 437 49 439 50 417 51 378 52 311 53 200 54 157 57 175 58 175 60 142 62 183 63 159 64 155 65 155 66 156 67 175 68 162 69 121 70 119 71 91 
441 0.27632591128349304 0.050759345293045044 0.715981125831604 87 86 84 1.45 46 433 47 436 48 438 49 440 50 418 51 379 52 312 53 201 54 158 57 176 58 176 59 85 60 143 61 54 62 184 63 160 64 156 65 156 66 157 67 176 68 163 69 122 70 120 
442 0.14229214191436768 -0.033516980707645416 0.6110287308692932 124 120 115 1.39 46 434 47 437 48 439 49 441 50 419 51 380 52 313 53 202 54 159 57 177 58 177 59 86 60 144 62 185 63 161 64 157 65 157 66 158 67 177 68 164 69 123 70 121 71 92 
443 0.00699419854208827 0.02246474288403988 0.5581031441688538 135 141 147 0.57 46 435 47 438 48 440 49 442 50 420 51 381 52 314 
444 0.2953026294708252 0.05479687824845314 0.733589231967926 69 64 66 1.58 46 436 47 439 48 441 49 443 50 421 51 382 52 315 53 203 54 160 57 178 58 178 59 87 60 145 61 55 62 186 63 162 64 158 65 158 66 159 67 178 68 165 69 124 70 122 
445 0.27477216720581055 0.10682850331068039 0.7050374746322632 42 30 36 2.22 47 440 48 442 49 444 50 422 51 383 52 316 53 204 54 161 57 179 58 179 59 88 60 146 61 56 62 187 63 163 64 159 65 159 66 160 67 179 68 166 69 125 70 123 
446 0.3973553776741028 0.11482324451208115 0.8161910772323608 37 30 28 1.2 46 437 47 441 48 443 49 445 50 423 51 384 52 317 53 205 54 162 57 180 58 180 59 89 60 147 61 57 62 188 63 164 64 160 65 160 66 161 67 180 68 167 69 126 
447 0.02334699034690857 0.19146551191806793 0.49424102902412415 36 40 46 1.45 46 438 47 442 48 444 49 446 50 424 51 385 52 318 53 206 
448 0.3457767367362976 0.25674837827682495 0.6697646379470825 78 93 111 2.03 46 439 47 443 48 445 49 447 50 425 51 386 52 319 53 207 54 163 57 181 58 181 59 90 62 189 63 165 64 161 65 161 66 162 67 181 68 168 69 127 70 124 
449 0.25584694743156433 -0.10640237480401993 0.7461671233177185 148 148 145 2.01 46 440 47 444 48 446 49 448 50 426 51 387 52 320 53 208 54 164 57 182 58 182 59 91 60 148 61 58 62 190 63 166 64 162 65 162 66 163 67 182 68 169 69 128 70 125 71 93 72 46 
450 -0.041682325303554535 0.14358490705490112 0.5923674702644348 65 62 62 0.98 46 441 47 445 48 447 49 449 50 427 51 388 52 321 
451 0.3430432379245758 0.01780114322900772 0.7934834361076355 135 131 127 1.42 46 442 47 446 48 448 49 450 50 428 51 389 52 322 53 209 54 165 57 183 58 183 59 92 60 149 61 59 62 191 63 167 64 163 65 163 66 164 67 183 68 170 69 129 70 126 
452 0.2825801968574524 -0.06827323138713837 0.7592056393623352 137 135 131 1.47 46 443 47 447 48 449 49 451 50 429 51 390 52 323 53 210 54 166 57 184 58 184 59 93 60 150 61 60 62 192 63 168 64 164 65 164 66 165 67 184 68 171 69 130 70 127 71 94 72 47 
453 0.17653587460517883 -0.05142908915877342 0.6499140858650208 132 127 118 1.02 46 444 47 448 48 450 49 452 50 430 51 391 52 324 53 211 54 167 57 185 58 185 59 94 60 151 62 193 63 169 64 165 65 165 66 166 67 185 68 172 69 131 70 128 71 95 
454 0.41829249262809753 0.19612522423267365 0.8119800686836243 70 53 49 1.11 46 445 47 449 48 451 49 453 50 431 51 392 52 325 53 212 54 168 57 186 58 186 59 95 60 152 61 61 62 194 63 170 64 166 65 166 66 167 67 186 68 173 
