# 3D point list with one line of data per point:
#   POINT3D_ID, X, Y, Z, R, G, B, ERROR, TRACK[] as (IMAGE_ID, POINT2D_IDX)
# Number of points: 418, mean track length: 6.27
4451 0.6920998406044488 0.29892056372063786 1.0761714388161163 0 0 0 0.38 91 604 93 444 136 541 194 375 
4452 0.6372722002836959 0.31194626902134914 1.0896949803812408 0 0 0 0.15 91 605 93 445 185 466 214 1051 
4453 0.7477454488245484 0.2873270079057801 1.062683083760966 0 0 0 0.46 91 606 105 405 136 542 194 376 223 584 
4454 0.7547134675863939 0.28692722191046977 1.0643809206373476 0 0 0 0.46 91 607 159 585 223 585 
4455 0.7018279658884103 0.2984654899566878 1.076017931868219 0 0 0 0.44 91 608 196 900 223 586 
4456 0.7085847204725844 0.2972437341656284 1.0748203538828929 0 0 0 0.39 91 609 93 446 164 1568 214 1052 223 587 
4457 0.6540014322372539 0.31035623919916033 1.0897826311161034 0 0 0 0.63 28 843 61 1443 93 447 164 1569 214 1053 223 588 
4458 0.7330212847019836 0.2934219306482717 1.0682928734880481 0 0 0 0.15 91 610 194 377 213 1359 
4459 0.7363568567019156 0.2933211460351258 1.0684700572086294 0 0 0 0.09 91 611 194 378 213 1360 223 589 
4460 0.7549021384609402 0.28944930541987784 1.0616406400929117 0 0 0 0.41 91 612 213 1361 223 590 
4461 0.707557488946686 0.3019828803794596 1.0751929952010237 0 0 0 0.45 91 613 105 406 194 379 223 591 
4462 0.7183303495390494 0.29908301983795094 1.0700234915610036 0 0 0 0.59 91 614 124 594 164 1570 176 1048 196 901 214 1054 
4463 0.7619280422657804 0.2917979455149318 1.0632744009574144 0 0 0 0.59 91 615 214 1055 223 592 
4464 0.7461866254511489 0.2941930424271954 1.0612040286567563 0 0 0 0.19 91 616 176 1049 194 380 213 1362 
4465 0.7487981681278659 0.29372652111112096 1.060351190864057 0 0 0 0.2 91 617 105 407 214 1056 
4466 0.7977415551607215 0.2834077771721757 1.0514618019933353 0 0 0 0.11 91 618 105 408 194 381 
4467 0.7145621546053772 0.318915901994296 1.0630069553628363 0 0 0 0.24 52 700 91 619 136 543 194 382 214 1057 
4468 0.7745816030799338 0.30625443782827305 1.0477346685088127 0 0 0 0.41 52 701 91 620 136 544 194 383 214 1058 223 593 
4469 0.7833563056420114 0.30456907229347674 1.0452486436989403 0 0 0 0.09 91 621 107 361 214 1059 
4470 0.7643472597230172 0.31095628303656664 1.0536895200985381 0 0 0 0.22 91 622 164 1571 213 1363 
4471 0.7002138097164108 0.32448183241389505 1.0677688731494126 0 0 0 0.15 91 623 105 409 136 545 194 384 196 902 
4472 0.6980351895474002 0.3245169867016701 1.0660073398527927 0 0 0 0.26 91 624 164 1572 196 903 214 1060 
4473 0.7579333555685374 0.3123187386976513 1.0528148620769713 0 0 0 0.27 62 192 91 625 214 1061 223 594 
4474 0.680067860062572 0.33023559975025557 1.0726914519878545 0 0 0 0.3 91 626 164 1573 194 385 196 904 
4475 0.7151879801324955 0.3218432540076796 1.0624506649766006 0 0 0 0.29 91 627 136 546 214 1062 
4476 0.7850996866790566 0.3070667217466905 1.0437217001011672 0 0 0 0.42 91 628 105 410 164 1574 
4477 0.6869036882165156 0.33249344627817407 1.0680905589371081 0 0 0 0.84 91 629 214 1063 223 595 
4478 0.6645365037765264 0.3378535461273816 1.071193334623778 0 0 0 0.11 91 630 93 448 213 1364 214 1064 
4479 0.7144272393333836 0.32819536865254667 1.0615355923116716 0 0 0 0.39 28 844 52 702 61 1444 62 193 91 631 105 411 124 595 136 547 164 1575 185 467 194 386 196 905 214 1065 223 596 
4480 0.7506732105942253 0.32049522582347256 1.0503804476677332 0 0 0 0.4 91 632 213 1365 223 597 
4481 0.6822628273787075 0.33545776094187746 1.0674370822437274 0 0 0 1.03 91 633 105 412 223 598 
4482 0.8071797085773185 0.3115360025584189 1.0403711463020704 0 0 0 0.9 91 634 105 413 223 599 
4483 0.7749142406561085 0.31706912006850446 1.0431620738837435 0 0 0 0.52 91 635 164 1576 214 1066 223 600 
4484 0.7057402307137868 0.3315507239820528 1.0585181615005448 0 0 0 0.17 91 636 107 362 214 1067 
4485 0.7074001658207495 0.33096140962986936 1.0567413403629058 0 0 0 0.13 91 637 107 363 164 1577 214 1068 
4486 0.7075596990258247 0.3310504832563585 1.057079166528124 0 0 0 0.12 91 638 107 364 164 1578 196 906 214 1069 
4487 0.7123263500522007 0.33189218107349383 1.0606718708315759 0 0 0 0.8 52 703 91 639 107 365 136 548 185 468 214 1070 220 757 223 601 
4488 0.6752910117899995 0.3373878066380839 1.0634207554653576 0 0 0 0.69 91 640 105 414 196 907 213 1366 214 1071 223 602 
4489 0.7469665567635962 0.32392280585350963 1.0502783381317378 0 0 0 0.21 52 704 91 641 136 549 159 586 194 387 214 1072 223 603 
4490 0.6766986543115509 0.33981854442120973 1.064715587145272 0 0 0 0.1 91 642 105 415 213 1367 
4491 0.7216972007688469 0.33017893787897007 1.0542134200009086 0 0 0 0.44 62 194 91 643 105 416 136 550 194 388 196 908 214 1073 223 604 
4492 0.677324077401947 0.3397153728747548 1.0608613637543263 0 0 0 0.99 91 644 213 1368 223 605 
4493 0.7222444216400804 0.33209796227078203 1.0531199549776384 0 0 0 0.16 91 645 107 366 136 551 214 1074 
4494 0.7243132617888804 0.3330264237628433 1.0535023786455526 0 0 0 0.55 52 705 91 646 107 367 136 552 194 389 214 1075 223 606 
4495 0.7774402480512194 0.3246384878111442 1.0399225827038439 0 0 0 0.2 52 706 91 647 194 390 214 1076 223 607 
4496 0.8030849554226748 0.3210849010175323 1.036569536716739 0 0 0 0.4 52 707 82 220 91 648 107 368 136 553 194 391 196 909 214 1077 223 608 
4497 0.7770684086954496 0.32690993461262696 1.0377846068096381 0 0 0 0.41 52 708 91 649 164 1579 214 1078 
4498 0.7770684086953189 0.32690993461258744 1.0377846068095322 0 0 0 0.41 52 709 91 650 164 1580 214 1079 
4499 0.7957993632875336 0.3294674660447278 1.0339815884964365 0 0 0 0.65 91 651 105 417 107 369 136 554 164 1581 194 392 223 609 
4500 0.7916662914218929 0.3303794669350973 1.0352513985630236 0 0 0 0.53 62 195 91 652 105 418 107 370 111 814 136 555 164 1582 194 393 223 610 
4501 0.7814816243250065 0.33549696029941917 1.0343146306459403 0 0 0 0.4 52 710 91 653 194 394 214 1080 223 611 
4502 0.7831888355743124 0.34049104043139583 1.0315159054795606 0 0 0 0.48 91 654 194 395 196 910 223 612 
4503 0.5929198618290734 0.19353483826356438 1.1553501573757157 0 0 0 0.15 91 655 93 449 159 587 164 1583 
4504 0.5716493076666316 0.2005082063563812 1.159561769060847 0 0 0 0.34 28 845 52 711 91 656 93 450 124 596 158 1079 159 588 164 1584 176 1050 185 469 196 911 204 964 213 1369 214 1081 223 613 231 540 
4505 0.7700804046017865 0.14599743366825735 1.1197724133767464 0 0 0 0.33 91 657 105 419 164 1585 196 912 213 1370 
4506 0.5993677993975963 0.1958443798251997 1.1512902608817261 0 0 0 0.49 28 846 91 658 93 451 112 109 124 597 158 1080 159 589 164 1586 176 1051 185 470 196 913 213 1371 214 1082 223 614 231 541 
4507 0.568562548677687 0.20502995686706468 1.1587531900331989 0 0 0 0.34 91 659 93 452 164 1587 213 1372 
4508 0.6972272120426819 0.17016480737974654 1.1309456312495851 0 0 0 0.48 91 660 105 420 164 1588 214 1083 
4509 0.604738953817768 0.19767728846836544 1.1498318528748588 0 0 0 0.47 61 1445 91 661 93 453 107 371 112 110 159 590 164 1589 176 1052 185 471 194 396 196 914 213 1373 214 1084 223 615 
4510 0.604741923805117 0.19758004746385577 1.1495159179623198 0 0 0 0.31 91 662 159 591 164 1590 185 472 196 915 213 1374 220 758 
4511 0.6200231320954032 0.19921010893555158 1.145334424373226 0 0 0 0.27 28 847 91 663 107 372 124 598 176 1053 213 1375 
4512 0.6117841442240501 0.20558188863907423 1.151676427042654 0 0 0 0.37 91 664 164 1591 214 1085 
4513 0.62535204616444 0.20153377646614415 1.1404323266207317 0 0 0 0.16 91 665 159 592 185 473 196 916 213 1376 
4514 0.6934481376215011 0.18394477513267857 1.1287540206362776 0 0 0 0.39 91 666 136 556 214 1086 
4515 0.6602568818094747 0.19373031331790552 1.1318632513621838 0 0 0 0.24 91 667 159 593 164 1592 196 917 213 1377 
4516 0.6844175585460505 0.18955189936839328 1.1257906671053377 0 0 0 0.44 91 668 164 1593 185 474 196 918 
4517 0.6637701087928684 0.19585029323479583 1.1315611663328855 0 0 0 0.33 91 669 105 421 159 594 164 1594 196 919 
4518 0.6907300043173671 0.1890023042535778 1.1246618996045106 0 0 0 0.17 91 670 105 422 196 920 
4519 0.598754248071132 0.21567310740045562 1.1450089206259664 0 0 0 0.22 91 671 159 595 176 1054 
4520 0.7472737595942706 0.17461157904779268 1.1115257254633537 0 0 0 0.09 91 672 105 423 196 921 
4521 0.7671825816948579 0.17159146241154363 1.1067029472547305 0 0 0 0.3 91 673 124 599 136 557 164 1595 214 1087 
4522 0.6615306424562248 0.2014501126325929 1.1307312571211483 0 0 0 0.32 91 674 105 424 164 1596 176 1055 185 475 213 1378 214 1088 
4523 0.6283465946878434 0.21370136205638576 1.1372760363014582 0 0 0 0.21 28 848 91 675 93 454 112 111 185 476 194 397 213 1379 214 1089 231 542 
4524 0.6130257519010984 0.21933049108792893 1.1445541776349732 0 0 0 0.27 91 676 111 815 164 1597 185 477 220 759 
4525 0.8020089893730493 0.1670079455359029 1.100803738492526 0 0 0 0.5 35 223 61 1446 91 677 164 1598 214 1090 221 1153 
4526 0.7493137335186668 0.18729735681952403 1.1067727551338895 0 0 0 0.14 62 196 91 678 164 1599 213 1380 
4527 0.7493574140121191 0.18975131301087483 1.1059001942187163 0 0 0 0.18 91 679 105 425 107 373 164 1600 176 1056 214 1091 
4528 0.5869364866424719 0.24993741104812456 1.1352351343456117 0 0 0 0.35 28 849 52 712 91 680 93 455 112 112 124 600 159 596 176 1057 214 1092 
4529 0.5627315393623485 0.25778066941760996 1.1424943165355619 0 0 0 0.58 91 681 112 113 136 558 159 597 
4530 0.5900109548560472 0.25376079706577115 1.1339447896214574 0 0 0 0.53 28 850 61 1447 91 682 158 1081 
4531 0.6168313421751676 0.2471600844705137 1.1263772821707783 0 0 0 0.54 91 683 185 478 213 1381 214 1093 223 616 
4532 0.8542060040691619 0.1933988457560743 1.0982402416483479 0 0 0 0.48 91 684 105 426 136 559 164 1601 196 922 220 760 
4533 0.5832650206457302 0.2601769042652862 1.1361351339177723 0 0 0 0.61 91 685 194 398 223 617 
4534 0.5947367561098047 0.2572187042155773 1.1313451440905151 0 0 0 0.09 91 686 176 1058 196 923 
4535 0.5877670740983914 0.25968329173342636 1.1340893186127141 0 0 0 0.47 91 687 159 598 185 479 213 1382 223 618 
4536 0.5913107424652774 0.25881889906727124 1.1315609945440703 0 0 0 0.32 91 688 136 560 159 599 164 1602 
4537 0.5684612224782712 0.2664286338910985 1.1346547710245574 0 0 0 0.48 28 851 52 713 91 689 93 456 112 114 136 561 159 600 176 1059 185 480 194 399 213 1383 214 1094 223 619 
4538 0.5803808868857756 0.265202299198784 1.1378300962907149 0 0 0 0.17 91 690 185 481 214 1095 
4539 0.8374134312806395 0.20154297320796646 1.09161016239634 0 0 0 0.17 91 691 136 562 196 924 
4540 0.5937364713107633 0.2643559398666769 1.129469875113009 0 0 0 0.21 91 692 93 457 185 482 
4541 0.5918192629541479 0.2660992962544906 1.128430878180245 0 0 0 0.37 91 693 93 458 159 601 
4542 0.8054409001388089 0.21224092018896018 1.081306843809011 0 0 0 0.38 62 197 82 221 91 694 105 427 136 563 164 1603 196 925 
4543 0.8800117904747228 0.20573504643363105 1.09742866545163 0 0 0 0.48 91 695 103 595 164 1604 
4544 0.6153161314153496 0.27135726923198183 1.12165192092358 0 0 0 0.44 91 696 159 602 194 400 
4545 0.6505946023453442 0.26380198386247283 1.113764640658303 0 0 0 0.18 91 697 164 1605 214 1096 
4546 0.668775447892299 0.2606298865825313 1.1079613615905244 0 0 0 0.47 91 698 164 1606 223 620 
4547 0.6497425936423603 0.2661129175011598 1.1144976477335795 0 0 0 0.53 91 699 214 1097 223 621 
4548 0.6788519265256745 0.26168905829256583 1.1049666094800688 0 0 0 0.32 91 700 159 603 185 483 
4549 0.611343793777806 0.2832716759781867 1.1192398407013602 0 0 0 0.5 91 701 194 401 196 926 
4550 0.8147271165635745 0.2354829424967905 1.0734031281320962 0 0 0 0.33 61 1448 62 198 91 702 105 428 107 374 136 564 164 1607 196 927 
4551 0.859737467725562 0.23377777443708678 1.0814253286453483 0 0 0 0.38 91 703 105 429 164 1608 196 928 
4552 0.822434036400765 0.24559430506113897 1.0719863049656846 0 0 0 0.19 91 704 111 816 164 1609 
4553 0.585486801513603 0.30222494808611183 1.1181205388760154 0 0 0 0.41 91 705 164 1610 214 1098 
4554 0.5990139607804857 0.29531294844597206 1.1010030141480351 0 0 0 0.81 91 706 159 604 164 1611 185 484 223 622 
4555 0.5901947008797491 0.30143773750929165 1.1165009957425518 0 0 0 0.35 91 707 164 1612 214 1099 
4556 0.601928316416068 0.3021746289031826 1.1025750056467885 0 0 0 0.37 91 708 159 605 164 1613 196 929 
4557 0.5859760503008216 0.31159345004838 1.112075333824444 0 0 0 0.31 91 709 176 1060 185 485 
4558 0.6305762925212426 0.2991154410364827 1.0933830864273162 0 0 0 0.18 91 710 164 1614 213 1384 214 1100 
4559 0.6609897836062945 0.29257645683174294 1.0886377134670076 0 0 0 0.25 91 711 136 565 159 606 164 1615 185 486 196 930 221 1154 
4560 0.6701837670133309 0.2916343494683668 1.091128267510179 0 0 0 0.39 52 714 91 712 105 430 164 1616 196 931 223 623 
4561 0.5921761484366402 0.31061407452658674 1.1097201939182644 0 0 0 0.15 91 713 112 115 176 1061 
4562 0.6578952340982284 0.2947954406629802 1.0890194687851016 0 0 0 0.5 91 714 164 1617 213 1385 214 1101 223 624 
4563 0.6604903968936882 0.2946148862448477 1.0860514238720622 0 0 0 0.16 91 715 107 375 159 607 185 487 
4564 0.596368643328469 0.31163784512360665 1.1051940937490647 0 0 0 0.15 91 716 159 608 214 1102 
4565 0.603795289130432 0.3092384417128845 1.1003276861976456 0 0 0 0.27 91 717 136 566 159 609 196 932 
4566 0.6068691865381799 0.3087481161254021 1.0990891595756425 0 0 0 0.92 91 718 185 488 223 625 
4567 0.7202203474285854 0.28315708727245836 1.0725708823388334 0 0 0 0.17 52 715 91 719 105 431 159 610 164 1618 194 402 223 626 
4568 0.6552997487731463 0.30031670395801563 1.0934749053087316 0 0 0 0.35 91 720 213 1386 214 1103 
4569 0.648783448415899 0.3025978025138305 1.0936622276565544 0 0 0 0.23 91 721 93 459 107 376 136 567 164 1619 194 403 196 933 213 1387 214 1104 
4570 0.6666272626479817 0.2986583486669737 1.0863916051097124 0 0 0 0.66 91 722 164 1620 214 1105 223 627 
4571 0.7450253157362617 0.2825016863991055 1.0715387359262623 0 0 0 0.49 62 199 91 723 103 596 164 1621 214 1106 223 628 
4572 0.7447375019251412 0.2807156735477455 1.0656774634331359 0 0 0 0.41 91 724 107 377 213 1388 
4573 0.788914272886557 0.273071051366943 1.062317133031459 0 0 0 0.19 91 725 107 378 214 1107 
4574 0.5865981628053537 0.3185452838644048 1.1063995567244695 0 0 0 0.18 91 726 194 404 213 1389 214 1108 
4575 0.7954906216166914 0.27275378920695553 1.063437618415123 0 0 0 0.15 91 727 107 379 164 1622 
4576 0.6865848820398963 0.29621513898844565 1.080734354553578 0 0 0 0.38 91 728 105 432 136 568 164 1623 223 629 
4577 0.5684865897566671 0.32324214284163794 1.1089527159022166 0 0 0 0.13 28 852 91 729 185 489 194 405 213 1390 214 1109 
4578 0.5710644238774147 0.32264130560670806 1.1078530109739615 0 0 0 0.42 28 853 91 730 93 460 136 569 164 1624 176 1062 185 490 194 406 213 1391 214 1110 223 630 
4579 0.5743726135263719 0.32210289557850674 1.1066922428268333 0 0 0 0.25 91 731 93 461 164 1625 176 1063 194 407 213 1392 214 1111 
4580 0.7492827456580111 0.28260189925297147 1.0633174409099075 0 0 0 0.18 91 732 159 611 194 408 
4581 0.5859040235405927 0.32193830919457345 1.108885883240889 0 0 0 0.26 91 733 136 570 185 491 214 1112 
4582 0.6180401373933977 0.3133892790809435 1.0980886753747447 0 0 0 0.67 91 734 159 612 194 409 213 1393 223 631 
4583 0.6281169037840464 0.3107856480729423 1.0921959138149016 0 0 0 0.14 91 735 124 601 194 410 213 1394 
4584 0.8353288370852693 0.2695562294803732 1.0633134130746231 0 0 0 1.05 91 736 105 433 164 1626 196 934 
4585 0.5962221348384054 0.31868991177209116 1.100249181690389 0 0 0 0.29 28 854 91 737 93 462 136 571 164 1627 176 1064 213 1395 214 1113 
4586 0.6117699219344009 0.31713346643923135 1.0986786830324082 0 0 0 0.21 91 738 159 613 185 492 194 411 
4587 0.6705025059641201 0.3016175666508865 1.0790293878122192 0 0 0 0.63 91 739 185 493 223 632 
4588 0.5773205175215106 0.32499679891324995 1.104597586063697 0 0 0 0.28 91 740 164 1628 185 494 214 1114 
4589 0.644971673917115 0.3118603978324123 1.0910846281123028 0 0 0 0.24 91 741 164 1629 194 412 
4590 0.701303545240918 0.2959866686033104 1.067614383297936 0 0 0 0.38 91 742 164 1630 185 495 
4591 0.6881292656420014 0.3021508066898036 1.078148404900253 0 0 0 0.36 91 743 164 1631 176 1065 
4592 0.8054756233030649 0.2772586148267265 1.053993213240798 0 0 0 0.17 91 744 105 434 196 935 
4593 0.7070139094360347 0.29979691125918856 1.075717030307386 0 0 0 0.46 62 200 91 745 105 435 124 602 164 1632 185 496 194 413 196 936 
4594 0.6362761447025208 0.31398296704913076 1.0854250637333136 0 0 0 0.82 91 746 159 614 164 1633 223 633 
4595 0.6620948535338718 0.30938804045223933 1.0828268205237235 0 0 0 0.3 91 747 164 1634 176 1066 194 414 213 1396 
4596 0.7432350230399338 0.2919024615621351 1.0605379002679736 0 0 0 0.54 91 748 105 436 159 615 164 1635 196 937 223 634 
4597 0.7472300393395196 0.2938066332407118 1.068452077643483 0 0 0 0.27 91 749 164 1636 223 635 
4598 0.7382022926872465 0.29496599969894227 1.0677817126282654 0 0 0 0.31 62 201 91 750 176 1067 213 1397 223 636 
4599 0.7480066649877134 0.2920014659302165 1.0623032688281027 0 0 0 0.72 62 202 91 751 124 603 164 1637 194 415 196 938 214 1115 223 637 
4600 0.7503898408666936 0.2914690117455933 1.0609024039096533 0 0 0 0.51 62 203 91 752 159 616 194 416 214 1116 223 638 
4601 0.6027086521515634 0.3270601861746077 1.0947384709560537 0 0 0 0.24 28 855 52 716 91 753 164 1638 194 417 213 1398 
4602 0.7688389654101231 0.29188664204199366 1.058160973804211 0 0 0 0.5 91 754 105 437 159 617 196 939 223 639 
4603 0.7756486180565831 0.2896220639778381 1.054095900200832 0 0 0 0.43 91 755 164 1639 176 1068 196 940 
4604 0.7188444128755179 0.30415242222408434 1.0649377242468154 0 0 0 0.54 91 756 194 418 221 1155 223 640 
4605 0.7228158626231425 0.3040570298359531 1.0665673122830213 0 0 0 0.38 91 757 124 604 164 1640 214 1117 
4606 0.7747150927371443 0.2950144068173684 1.0582014176359316 0 0 0 0.9 91 758 107 380 223 641 
4607 0.7471781617878718 0.3010481898720534 1.0596454480127384 0 0 0 0.26 62 204 91 759 159 618 164 1641 194 419 214 1118 
4608 0.6305626680076505 0.33192018973312326 1.0838180795986634 0 0 0 0.35 91 760 164 1642 194 420 214 1119 
4609 0.7495953736902374 0.3104875868322655 1.0561226441993563 0 0 0 0.24 91 761 213 1399 223 642 
4610 0.6831236919676734 0.32597974479184494 1.074781816081437 0 0 0 0.5 28 856 61 1449 91 762 105 438 107 381 124 605 194 421 213 1400 214 1120 223 643 
4611 0.6770036042962418 0.3305546530121817 1.0737393887617144 0 0 0 0.74 91 763 194 422 213 1401 223 644 
4612 0.7770338106668714 0.3097689011426232 1.0466813357828602 0 0 0 0.4 91 764 194 423 223 645 
4613 0.6332535209924487 0.34303315397896994 1.0790965134776256 0 0 0 0.25 91 765 136 572 194 424 213 1402 214 1121 
4614 0.6756356410918334 0.3356051086080321 1.0650889004245137 0 0 0 0.69 52 717 91 766 105 439 214 1122 223 646 
4615 0.7795868801205743 0.31584251077613695 1.0424810847176327 0 0 0 0.31 91 767 136 573 164 1643 194 425 214 1123 223 647 
4616 0.7815284338741858 0.3166190817345184 1.0454872367585402 0 0 0 0.18 91 768 164 1644 213 1403 
4617 0.7059440965015168 0.3336873300362416 1.058625159443921 0 0 0 0.54 91 769 105 440 136 574 164 1645 196 941 214 1124 223 648 
4618 0.6832941528903075 0.3400212791066838 1.0637166366804323 0 0 0 0.55 91 770 105 441 164 1646 194 426 196 942 213 1404 214 1125 223 649 
4619 0.7099853099395721 0.33561489212638146 1.0543952628297075 0 0 0 0.71 91 771 164 1647 213 1405 223 650 
4620 0.6777573943689325 0.3432412585851748 1.063682584272504 0 0 0 0.55 61 1450 91 772 105 442 107 382 158 1082 194 427 196 943 213 1406 223 651 
4621 0.6681702831133166 0.3460585712739483 1.0651571507558097 0 0 0 0.66 28 857 52 718 91 773 107 383 124 606 158 1083 214 1126 223 652 
4622 0.672963599812075 0.3450030107854641 1.0636464328120627 0 0 0 0.9 91 774 164 1648 213 1407 223 653 
4623 0.6334405585311917 0.35374820583451316 1.0737796221937048 0 0 0 1.14 91 775 194 428 223 654 
4624 0.7769096742633171 0.33837396120256763 1.031411510372168 0 0 0 0.6 62 205 91 776 223 655 
4625 0.7462361054315645 0.3471482658050125 1.041752578019424 0 0 0 0.85 91 777 194 429 223 656 
4626 0.570767288179697 0.20302163378293675 1.1592509777031346 0 0 0 0.28 14 317 91 778 103 597 136 575 159 619 164 1649 172 857 194 430 213 1408 
4627 0.5708750572692086 0.2030024145814403 1.159415682257949 0 0 0 0.41 14 318 91 779 93 463 136 576 159 620 164 1650 172 858 176 1069 194 431 213 1409 
4628 0.5746733759587455 0.20188530570922467 1.1584269023970677 0 0 0 0.39 61 1451 91 780 93 464 107 384 124 607 164 1651 185 497 194 432 196 944 204 965 213 1410 214 1127 220 761 231 543 
4629 0.6028489763469057 0.19552191108593447 1.151579107353154 0 0 0 0.51 91 781 93 465 107 385 159 621 185 498 214 1128 223 657 
4630 0.6007101812210077 0.19769735310419945 1.1503659349626423 0 0 0 0.48 91 782 159 622 185 499 223 658 
4631 0.6240358613270892 0.19227087598353423 1.146463524117664 0 0 0 0.47 28 858 52 719 91 783 93 466 136 577 159 623 164 1652 172 859 176 1070 185 500 194 433 213 1411 214 1129 221 1156 231 544 
4632 0.5759063078385932 0.20603907902175833 1.154954846565747 0 0 0 0.42 61 1452 91 784 164 1653 185 501 213 1412 220 762 
4633 0.5858640306320123 0.20449895415746608 1.1525034236234057 0 0 0 0.29 91 785 159 624 164 1654 
4634 0.7367303770556932 0.16357398289502914 1.1202008537652173 0 0 0 0.4 91 786 159 625 214 1130 
4635 0.6105780052437791 0.20091813863127014 1.1481515431001452 0 0 0 0.63 91 787 196 945 213 1413 214 1131 223 659 
4636 0.6162889048155697 0.19980070181373438 1.1476056888745423 0 0 0 0.73 61 1453 91 788 93 467 124 608 164 1655 185 502 223 660 
4637 0.5892986747044655 0.21060759235878485 1.153695926927395 0 0 0 0.47 54 481 91 789 111 817 159 626 164 1656 213 1414 
4638 0.7794882552490298 0.156531586383407 1.106971769039194 0 0 0 0.56 28 859 62 206 91 790 105 443 164 1657 196 946 220 763 
4639 0.6852417550891134 0.185091319440144 1.1285657747452176 0 0 0 0.57 91 791 103 598 136 578 141 178 159 627 164 1658 194 434 196 947 204 966 214 1132 
4640 0.6144097389139005 0.2088223533939266 1.146937112619634 0 0 0 0.22 91 792 159 628 164 1659 214 1133 
4641 0.8434073016727764 0.15019458789546725 1.111936187611878 0 0 0 0.42 91 793 105 444 136 579 196 948 
4642 0.6453627564905894 0.20444954211039962 1.1413541646942567 0 0 0 0.46 91 794 164 1660 196 949 214 1134 220 764 223 661 
4643 0.6095910177055488 0.2173639111576844 1.1465645065356223 0 0 0 0.3 91 795 93 468 185 503 214 1135 
4644 0.615288569014523 0.22068041640164268 1.1431095922145975 0 0 0 0.22 91 796 159 629 214 1136 
4645 0.6157563433744312 0.22073872433096864 1.1447073417819305 0 0 0 0.38 91 797 93 469 159 630 214 1137 223 662 
4646 0.5776132543306522 0.23468952491961337 1.1515478657018916 0 0 0 0.18 91 798 164 1661 214 1138 
4647 0.5771739350730685 0.24219257002286732 1.1459892563873544 0 0 0 0.2 91 799 159 631 220 765 
4648 0.8534940898048027 0.15717883066735142 0.9884362060157375 0 0 0 0.65 91 800 141 179 221 1157 
4649 0.615943135237132 0.23930193128494587 1.1346112281817002 0 0 0 0.4 91 801 185 504 194 435 
4650 0.5920308907287933 0.24535418369138834 1.136448745372908 0 0 0 0.18 91 802 107 386 213 1415 
4651 0.8943127533899424 0.17602092542181463 1.115063687592749 0 0 0 0.22 35 224 71 989 91 803 105 445 111 818 221 1158 
4652 0.640768148968076 0.23713612925300417 1.123348779729322 0 0 0 0.13 91 804 164 1662 185 505 
4653 0.675998151168756 0.22996561421722206 1.1203490335042579 0 0 0 0.11 91 805 159 632 214 1139 
4654 0.6762943191028687 0.23160293780109545 1.1153544126239079 0 0 0 0.76 91 806 93 470 159 633 164 1663 213 1416 223 663 
4655 0.7003774854365538 0.22770519545466622 1.1086367041527665 0 0 0 0.16 91 807 159 634 185 506 
4656 0.7003774854365538 0.22770519545466622 1.1086367041527665 0 0 0 0.16 91 808 159 635 185 507 
4657 0.7056424850203912 0.22691681411289846 1.10780552509458 0 0 0 0.26 91 809 159 636 220 766 
4658 0.7056424850203912 0.22691681411289846 1.10780552509458 0 0 0 0.26 91 810 159 637 220 767 
4659 0.6677241205618182 0.23670756766652756 1.1138520515854007 0 0 0 0.49 91 811 93 471 105 446 159 638 164 1664 185 508 223 664 
4660 0.5928715139127091 0.260119453607053 1.1300236694362362 0 0 0 0.47 91 812 103 599 159 639 185 509 223 665 
4661 0.763168571574887 0.21760387859628574 1.0932230566503118 0 0 0 0.09 61 1454 91 813 158 1084 213 1417 
4662 0.7041673488084293 0.2378667830888577 1.1057216924620874 0 0 0 0.1 91 814 159 640 185 510 
4663 0.7637707089536724 0.23072073495464143 1.11521016607465 0 0 0 1.04 91 815 164 1665 223 666 
4664 0.7577038802134803 0.22850496487114866 1.0888056197222262 0 0 0 0.08 91 816 159 641 221 1159 
4665 0.8556694815728177 0.17559738233280692 0.9424725259058435 0 0 0 0.42 91 817 103 600 141 180 221 1160 
4666 0.6182819230624526 0.26562025694511027 1.1190648929859806 0 0 0 0.26 91 818 159 642 185 511 
4667 0.8540768018354843 0.17727505074178204 0.9375403206797435 0 0 0 0.65 91 819 141 181 221 1161 
4668 0.620714459238468 0.26826894645109506 1.1208800392341363 0 0 0 0.29 91 820 93 472 185 512 196 950 
4669 0.6435862637829998 0.26477113669129565 1.1148529377302219 0 0 0 0.27 91 821 93 473 214 1140 
4670 0.617589275988057 0.27326254678076933 1.120518923106081 0 0 0 0.16 91 822 159 643 196 951 
4671 0.6732552955210425 0.2600971499735642 1.107076208986996 0 0 0 0.2 91 823 185 513 194 436 
4672 0.6764769601093203 0.26343616064548137 1.1031460060076241 0 0 0 0.16 91 824 159 644 185 514 
4673 0.6772409548002892 0.2708364403047226 1.1015416150465078 0 0 0 0.26 91 825 159 645 196 952 
4674 0.5762912723573925 0.3014289138766843 1.1140408018261954 0 0 0 1.26 91 826 164 1666 223 667 
4675 0.6490907391532976 0.2908419828485259 1.0977455843130894 0 0 0 0.69 91 827 164 1667 223 668 
4676 0.617894065532627 0.29851357116195654 1.1001227677008085 0 0 0 0.99 91 828 164 1668 223 669 
4677 0.5969508442845369 0.3036650597373245 1.100628611196187 0 0 0 0.96 91 829 185 515 223 670 
4678 0.6531899884544774 0.29428983362426625 1.0950877829754653 0 0 0 0.35 52 720 91 830 159 646 164 1669 196 953 213 1418 214 1141 221 1162 
4679 0.8245639931515972 0.25715982170468094 1.0648175184870938 0 0 0 0.15 91 831 105 447 221 1163 
4680 0.6238614019890543 0.30239507426910806 1.1034969912198431 0 0 0 0.18 91 832 176 1071 213 1419 
4681 0.639336829538181 0.2995635912753314 1.0973122028503328 0 0 0 0.49 52 721 91 833 93 474 103 601 136 580 159 647 164 1670 185 516 196 954 213 1420 214 1142 223 671 
4682 0.6864516925583961 0.28862794821472787 1.0850828967092987 0 0 0 0.32 54 482 91 834 105 448 159 648 164 1671 185 517 214 1143 223 672 
4683 0.6554240296630334 0.2972135204184041 1.0932574527912966 0 0 0 0.42 89 418 91 835 107 387 136 581 164 1672 185 518 204 967 213 1421 214 1144 223 673 
4684 0.5758349815727318 0.31925962158211624 1.1065736656060574 0 0 0 0.23 91 836 185 519 194 437 214 1145 
4685 0.5757815416595748 0.3192935330341528 1.1065433188627694 0 0 0 0.29 28 860 91 837 176 1072 185 520 194 438 213 1422 214 1146 
4686 0.6505701925848207 0.3031278180470361 1.0917890225327094 0 0 0 0.41 52 722 54 483 91 838 93 475 103 602 107 388 136 582 159 649 164 1673 185 521 194 439 213 1423 214 1147 221 1164 223 674 
4687 0.6103648381537614 0.3198101043684882 1.0998652150001096 0 0 0 0.24 91 839 159 650 194 440 
4688 0.6589731453230667 0.30812718797466926 1.0843256771812508 0 0 0 0.64 91 840 185 522 194 441 213 1424 223 675 
4689 0.7136526894721363 0.29902163552724326 1.073498430648621 0 0 0 0.29 61 1455 91 841 105 449 124 609 164 1674 176 1073 204 968 213 1425 214 1148 
4690 0.6764108182931403 0.32680687367882344 1.0754111166909173 0 0 0 0.8 91 842 105 450 164 1675 194 442 223 676 
4691 0.8027760325819485 0.3016858389148017 1.045629280349159 0 0 0 0.66 52 723 62 207 91 843 105 451 164 1676 194 443 221 1165 223 677 
4692 0.7794401256761848 0.3092926512641515 1.0453016039367482 0 0 0 0.39 91 844 105 452 136 583 194 444 214 1149 223 678 
4693 0.7501308898480058 0.3168248036860639 1.0526880258253657 0 0 0 0.32 52 724 91 845 164 1677 172 860 194 445 214 1150 223 679 
4694 0.692623297706054 0.3303194073307565 1.0666729851384094 0 0 0 0.49 52 725 54 484 91 846 105 453 172 861 185 523 194 446 196 955 214 1151 223 680 
4695 0.6737265549565117 0.3368403804722487 1.0670383188414851 0 0 0 0.41 71 990 91 847 105 454 164 1678 213 1426 
4696 0.6588311102856845 0.34201091348533824 1.0718098159102072 0 0 0 0.47 1 478 69 430 71 991 89 419 91 848 107 389 120 213 124 610 134 109 158 1085 159 651 172 862 194 447 213 1427 223 681 
4697 0.7799128524574274 0.32291829653741105 1.039997723271513 0 0 0 0.25 62 208 91 849 136 584 194 448 196 956 214 1152 223 682 
4698 0.7894934214834691 0.32088567023756065 1.0361114417277992 0 0 0 0.49 54 485 91 850 105 455 221 1166 
4699 0.7492864285766997 0.335143588957936 1.0432155844338398 0 0 0 0.45 91 851 214 1153 223 683 
4700 0.7518355613980516 0.35669665541605233 1.0355086929348485 0 0 0 0.16 61 1456 91 852 164 1679 196 957 
4701 0.7325750096702655 0.15406177687492145 1.1262463472234268 0 0 0 0.48 91 853 176 1074 204 969 
4702 0.7495300554007526 0.15652453809521402 1.112473207492136 0 0 0 0.09 91 854 159 652 204 970 
4703 0.7577086641735247 0.16818699759047767 1.1131728957895533 0 0 0 0.6 91 855 97 515 213 1428 
4704 0.7885735447273219 0.17336707554614267 1.1010743549595405 0 0 0 0.36 35 225 91 856 176 1075 220 768 
4705 0.6076048514762404 0.22958933254728073 1.1405010422441546 0 0 0 0.07 91 857 185 524 196 958 
4706 0.7430284718968837 0.2052544584317478 1.1066251096031121 0 0 0 0.31 91 858 141 182 172 863 204 971 213 1429 
4707 0.8508800898808304 0.1642987065504317 0.9729558429898493 0 0 0 0.69 91 859 111 819 158 1086 221 1167 
4708 0.6238560153302468 0.2671955268923908 1.1183367805624504 0 0 0 0.21 91 860 111 820 194 449 
4709 0.7555553196646219 0.23590344925919204 1.0873821869986697 0 0 0 0.58 35 226 91 861 213 1430 221 1168 
4710 0.599478128580868 0.3000309575961317 1.1024190156534106 0 0 0 0.27 25 737 91 862 159 653 164 1680 
4711 0.6984509492331042 0.2886900898244163 1.0785363195882915 0 0 0 0.34 73 731 91 863 134 110 185 525 204 972 231 545 
4712 0.6093191442387014 0.3143878995305209 1.097702644395474 0 0 0 0.32 61 1457 91 864 159 654 185 526 196 959 213 1431 
4713 0.6846794037720507 0.3071526801711701 1.0788085029633245 0 0 0 0.49 91 865 111 821 214 1154 223 684 
4714 0.7721203468055133 0.2950769131029033 1.0595436543240935 0 0 0 0.69 71 992 73 732 91 866 221 1169 223 685 
4715 0.7971090237557064 0.30483487691619154 1.0514734012227462 0 0 0 0.39 61 1458 91 867 164 1681 172 864 
4716 0.7212771209441153 0.3230334451473064 1.0589102314598677 0 0 0 0.35 28 861 52 726 54 486 62 209 71 993 91 868 136 585 159 655 164 1682 172 865 194 450 196 960 214 1155 223 686 
4717 0.7429790965488687 0.32910563985989716 1.0503998774126686 0 0 0 0.13 91 869 159 656 194 451 
4718 0.5675226207654145 0.22223927255220355 1.151169264618563 0 0 0 0.38 91 870 159 657 164 1683 221 1170 
4719 0.615113311615644 0.22840810690743482 1.1382734574490763 0 0 0 0.21 91 871 159 658 185 527 
4720 0.7962915729346184 0.1877547252011866 1.096264548625318 0 0 0 0.27 52 727 54 487 62 210 91 872 164 1684 
4721 0.5670278894453169 0.2685317633985855 1.1334718361929927 0 0 0 0.13 91 873 136 586 214 1156 
4722 0.6478978290043536 0.280090021098292 1.10844974966663 0 0 0 0.05 71 994 91 874 185 528 214 1157 
4723 0.6474036415538509 0.3126835944881173 1.0883302466651867 0 0 0 0.72 71 995 91 875 159 659 164 1685 223 687 
4724 0.6598077981820333 0.3231924431558169 1.079406096629742 0 0 0 0.77 52 728 54 488 91 876 185 529 194 452 223 688 
4725 0.7719312605443949 0.32590754019274454 1.045280790487223 0 0 0 0.41 54 489 62 211 91 877 120 214 164 1686 223 689 
4726 0.5663706059315885 0.21269916481209025 1.1555667679646677 0 0 0 0.74 1 479 25 738 61 1459 73 733 89 420 91 878 97 516 111 822 129 276 158 1087 159 660 164 1687 172 866 176 1076 185 530 194 453 196 961 204 973 213 1432 221 1171 
4727 0.7063813481372627 0.18835194830390017 1.119401133828886 0 0 0 0.38 91 879 111 823 185 531 
4728 0.6146925680837616 0.21635191691489325 1.14310917354836 0 0 0 0.21 91 880 136 587 159 661 164 1688 
4729 0.6146258274633256 0.2162390142719197 1.142734204749445 0 0 0 0.13 91 881 136 588 159 662 
4730 0.7424882279724327 0.19791060486814382 1.106056565548239 0 0 0 0.29 91 882 136 589 159 663 
4731 0.6526944675146292 0.23064916333852517 1.1249511647808936 0 0 0 0.38 91 883 111 824 159 664 
4732 0.6866316570318854 0.23989737192590563 1.1084419345039127 0 0 0 0.34 91 884 136 590 159 665 
4733 0.7767603173183824 0.28131317844746084 1.0536714933117053 0 0 0 0.98 91 885 164 1689 176 1077 223 690 
4734 0.6571209989175576 0.20271493093959103 1.1283272564158673 0 0 0 0.43 91 886 159 666 194 454 214 1158 
4735 0.6578947389610865 0.20288775090460678 1.1298995993619647 0 0 0 0.33 91 887 93 476 136 591 159 667 231 546 
4736 0.8544692408672759 0.16293106090840198 0.9476101739426739 0 0 0 0.72 91 888 141 183 221 1172 
4737 0.6775606188115397 0.24944847816178065 1.1069716162613914 0 0 0 0.6 25 739 61 1460 91 889 120 215 172 867 194 455 
4738 0.6291189771086457 0.303430532815546 1.0895695083194157 0 0 0 0.35 91 890 159 668 164 1690 214 1159 
4739 0.6021127286934008 0.30817041092461434 1.1020072807978947 0 0 0 1.4 91 891 214 1160 223 691 
4740 0.772523630820736 0.19105296786674822 1.1209107058605086 0 0 0 1.25 120 216 129 277 172 868 223 692 
4741 0.6591868613397642 0.2976160694551147 1.0899893016959163 0 0 0 0.76 91 892 164 1691 196 962 
4742 0.7405061128524132 0.13750038178067794 1.1295351526546953 0 0 0 0.22 105 456 164 1692 214 1161 
4743 0.6293640353748805 0.16318435101008014 1.1572056933063644 0 0 0 0.19 52 729 93 477 136 592 159 669 176 1078 213 1433 214 1162 
4744 0.4642054773090665 0.19333223951834083 1.200432811041388 0 0 0 0.17 93 478 136 593 231 547 
4745 0.7929815865699257 0.1643907095050461 1.1053657372633428 0 0 0 0.52 82 222 105 457 107 390 124 611 164 1693 214 1163 220 769 
4746 0.5190808470384225 0.19196163697426225 1.181561123938712 0 0 0 0.2 93 479 124 612 231 548 
4747 0.6937853617026132 0.17738388357616977 1.1301913822895222 0 0 0 0.47 93 480 105 458 112 116 214 1164 
4748 0.5368102103673633 0.19171758365354288 1.1763817096853237 0 0 0 0.31 93 481 112 117 124 613 136 594 214 1165 231 549 
4749 0.4708302524349345 0.19837762786223953 1.1962753559969634 0 0 0 0.26 28 862 61 1461 93 482 107 391 159 670 164 1694 176 1079 185 532 196 963 213 1434 214 1166 
4750 0.5975425953533339 0.18750856690739218 1.1533317126644342 0 0 0 0.34 93 483 107 392 124 614 213 1435 214 1167 223 693 231 550 
4751 0.5360031386924115 0.19352481051645715 1.1754702757578768 0 0 0 0.66 28 863 61 1462 93 484 124 615 176 1080 213 1436 214 1168 223 694 231 551 
4752 0.5964976315351351 0.18922738093640923 1.1530139149853087 0 0 0 0.29 93 485 112 118 124 616 231 552 
4753 0.6626810506583944 0.1843908151724038 1.1379476558613792 0 0 0 0.29 93 486 112 119 124 617 231 553 
4754 0.46005690664109145 0.20434870658934343 1.1971753905884743 0 0 0 0.44 28 864 93 487 136 595 164 1695 213 1437 224 444 
4755 0.5578255563868983 0.19505780918225532 1.1681161327698386 0 0 0 0.25 93 488 97 517 124 618 176 1081 204 974 214 1169 231 554 
4756 0.5576211736164128 0.19503860165536985 1.1680487940889603 0 0 0 0.34 61 1463 93 489 97 518 164 1696 176 1082 185 533 213 1438 214 1170 
4757 0.5799226422169853 0.19384416867876056 1.1610991246153888 0 0 0 0.3 93 490 159 671 223 695 
4758 0.5031728551106935 0.2020167910859987 1.1840656874078581 0 0 0 0.3 93 491 214 1171 231 555 
4759 0.5786385180980639 0.1959444774779823 1.1589577282110983 0 0 0 0.19 93 492 164 1697 176 1083 
4760 0.5879431252757777 0.19596370714113057 1.1557182928701868 0 0 0 0.34 91 893 93 493 159 672 176 1084 196 964 213 1439 214 1172 
4761 0.5553743295820279 0.19953605421844667 1.1657369967489015 0 0 0 0.43 28 865 93 494 213 1440 231 556 
4762 0.5777583435704555 0.19751005173525382 1.159227349653435 0 0 0 0.37 91 894 93 495 124 619 196 965 213 1441 214 1173 
4763 0.4657883924676385 0.20949938579261101 1.1933642731879335 0 0 0 0.57 28 866 93 496 124 620 224 445 231 557 
4764 0.4691284006090892 0.20986163169202468 1.192187208870371 0 0 0 0.25 93 497 124 621 136 596 159 673 224 446 231 558 
4765 0.5475352020134908 0.20245901108447176 1.168299986576661 0 0 0 0.29 93 498 124 622 214 1174 231 559 
4766 0.5049188414796015 0.20765923234649886 1.1796296349168525 0 0 0 0.26 28 867 93 499 112 120 124 623 164 1698 214 1175 
4767 0.5556582001549666 0.20297199507206937 1.1647605750911276 0 0 0 0.12 93 500 213 1442 231 560 
4768 0.49016209214396245 0.21193626918575262 1.1833685273580352 0 0 0 0.25 93 501 124 624 231 561 
4769 0.4617921366558303 0.21577852859478983 1.1928889577479889 0 0 0 0.22 93 502 107 393 124 625 176 1085 231 562 
4770 0.43740132274196303 0.22007286243475244 1.199161986213162 0 0 0 0.37 28 868 93 503 124 626 213 1443 
4771 0.45562306316959805 0.218232979497379 1.1936192738935236 0 0 0 0.36 28 869 93 504 124 627 185 534 214 1176 224 447 231 563 
4772 0.5032779179538267 0.21411374165162428 1.177188033458794 0 0 0 0.38 93 505 112 121 124 628 164 1699 213 1444 214 1177 224 448 231 564 
4773 0.43542285163963457 0.22071340056829475 1.1999268978098048 0 0 0 0.41 28 870 93 506 124 629 136 597 176 1086 213 1445 214 1178 231 565 
4774 0.7186658814228529 0.19878187990174861 1.1130547207666888 0 0 0 0.32 93 507 112 122 194 456 
4775 0.6544439912580559 0.20684337804645342 1.1312292443529024 0 0 0 0.08 93 508 124 630 231 566 
4776 0.6901055810977217 0.20353222878033309 1.120169440909797 0 0 0 0.09 93 509 112 123 214 1179 
4777 0.6598252706241668 0.2086898389292563 1.1289859222223744 0 0 0 0.31 93 510 105 459 194 457 
4778 0.4786113957337373 0.22897019776731553 1.1808120923824061 0 0 0 0.22 93 511 124 631 214 1180 
4779 0.2978755825840242 0.2448890942474018 1.2578710091660512 0 0 0 0.17 28 871 93 512 176 1087 
4780 0.2978755825840242 0.2448890942474018 1.2578710091660512 0 0 0 0.17 28 872 93 513 176 1088 
4781 0.507817232867229 0.2314985107567643 1.1701876527036974 0 0 0 0.3 93 514 112 124 124 632 214 1181 231 567 
4782 0.7492172865976167 0.2107981840279915 1.0987839326581836 0 0 0 0.44 93 515 112 125 214 1182 
4783 0.29137336646305445 0.2575299533673247 1.2584725494262652 0 0 0 0.54 93 516 124 633 196 966 214 1183 
4784 0.32463985639707754 0.26330406220166336 1.2385031221272513 0 0 0 0.3 93 517 124 634 214 1184 
4785 0.5641179842061125 0.24833469307272113 1.144608055459509 0 0 0 0.28 28 873 93 518 112 126 176 1089 213 1446 214 1185 231 568 
4786 0.7127720133814003 0.2331212296615157 1.1026866354830747 0 0 0 0.14 93 519 112 127 231 569 
4787 0.6526271713621457 0.2407626918318986 1.1197886932655883 0 0 0 0.23 93 520 124 635 136 598 214 1186 231 570 
4788 0.5899035412223466 0.24869077665793737 1.1346067238126256 0 0 0 0.09 93 521 136 599 214 1187 
4789 0.5812528251282933 0.250916799329458 1.1368669801407414 0 0 0 0.24 93 522 124 636 176 1090 231 571 
4790 0.6217404928412583 0.24862141691716388 1.1250524155237034 0 0 0 0.11 93 523 112 128 214 1188 
4791 0.6563998356118158 0.24505387042084406 1.116035898116948 0 0 0 0.17 93 524 112 129 124 637 231 572 
4792 0.5231410551357953 0.2615929088132001 1.153042488748643 0 0 0 0.27 93 525 124 638 231 573 
4793 0.6084027960112133 0.25264185132120276 1.1283385489133364 0 0 0 0.28 93 526 136 600 214 1189 
4794 0.44077952831276135 0.2745771052150925 1.1764483760722138 0 0 0 0.14 93 527 124 639 231 574 
4795 0.4846910131517632 0.2703010026796873 1.1629400954284161 0 0 0 0.22 93 528 124 640 214 1190 
4796 0.47526169276738395 0.2727898986156678 1.168408997414896 0 0 0 0.43 93 529 112 130 124 641 176 1091 213 1447 
4797 0.4997320803195078 0.27053070014604 1.1588666093470947 0 0 0 0.24 93 530 124 642 214 1191 
4798 0.47371508431703535 0.2738576772294299 1.1679185081257872 0 0 0 0.14 93 531 124 643 136 601 176 1092 231 575 
4799 0.46463169437302176 0.27542650330588425 1.170684100041746 0 0 0 0.09 93 532 214 1192 231 576 
4800 0.46164743317658785 0.27593247540862237 1.1717418083336404 0 0 0 0.11 93 533 136 602 213 1448 
4801 0.46164743317658785 0.27593247540862237 1.1717418083336404 0 0 0 0.11 93 534 136 603 213 1449 
4802 0.5083775181390822 0.2763162722973576 1.1517341842690882 0 0 0 0.24 93 535 124 644 136 604 159 674 176 1093 214 1193 231 577 
4803 0.31905137723178983 0.3019988024905217 1.2250240322699728 0 0 0 1.63 93 536 224 449 
4804 0.6015722472327517 0.299752440038525 1.103115209747335 0 0 0 0.04 93 537 136 605 214 1194 
4805 0.5692517311506667 0.3047787360590661 1.1140805979465687 0 0 0 0.1 93 538 213 1450 214 1195 
4806 0.6493233909523325 0.2978016889544269 1.094847306681378 0 0 0 0.43 93 539 136 606 194 458 
4807 0.6491099518036532 0.29772583030935834 1.0949373831778517 0 0 0 0.16 93 540 124 645 194 459 214 1196 
4808 0.4239117992527686 0.3398175114436331 1.1489880398768104 0 0 0 0.28 28 874 93 541 112 131 124 646 136 607 176 1094 213 1451 214 1197 231 578 
4809 0.513202207537678 0.33388233965029374 1.1234890136135014 0 0 0 0.1 93 542 213 1452 214 1198 
4810 0.2940566472376104 0.38551758543342485 1.2032599890043263 0 0 0 0.47 93 543 213 1453 214 1199 
4811 0.3600821691101364 0.38153852095104984 1.1726123124071544 0 0 0 0.3 93 544 124 647 214 1200 
4812 0.6661907609353882 0.3348738632638389 1.0718525278609075 0 0 0 0.2 93 545 124 648 214 1201 
4813 0.5164503606039663 0.37501399668325264 1.1075329260039066 0 0 0 0.19 93 546 124 649 214 1202 
4814 0.544933637787386 0.3716594264267945 1.0980171507506982 0 0 0 0.16 93 547 214 1203 231 579 
4815 0.4305837006719523 0.3915507155082326 1.1296190632479324 0 0 0 0.26 93 548 124 650 214 1204 
4816 0.73196135357725 0.11445549231436936 1.1404126775119674 0 0 0 0.36 93 549 105 460 136 608 159 675 214 1205 
4817 0.7266545736044329 0.11512075581864423 1.142812000590471 0 0 0 0.5 93 550 112 132 159 676 214 1206 
4818 0.6547317203296457 0.1533318085556219 1.1496508346525984 0 0 0 0.38 93 551 105 461 164 1700 176 1095 214 1207 
4819 0.733560492804442 0.1467253749939204 1.1330123159057626 0 0 0 0.31 93 552 112 133 124 651 
4820 0.4848852871937596 0.1846916485766026 1.1969995410126717 0 0 0 0.33 93 553 158 1088 159 677 
4821 0.57663152164711 0.181036333288779 1.1660003449496439 0 0 0 0.74 61 1464 93 554 124 652 158 1089 164 1701 176 1096 196 967 213 1454 214 1208 
4822 0.5810314476199797 0.1876151767955589 1.1625635800651266 0 0 0 0.21 93 555 136 609 164 1702 213 1455 214 1209 
4823 0.5807727492966114 0.1875678307679039 1.1622225052780217 0 0 0 0.2 93 556 164 1703 176 1097 213 1456 223 696 
4824 0.7416834639528949 0.17585752604657223 1.1154972512001697 0 0 0 0.25 105 462 107 394 164 1704 194 460 196 968 214 1210 
4825 0.5744806502851268 0.19192619233669864 1.1624988680448898 0 0 0 0.31 93 557 159 678 164 1705 196 969 213 1457 
4826 0.6787194412423206 0.18385487773318585 1.1316774037363782 0 0 0 0.49 52 730 91 895 93 558 105 463 124 653 164 1706 194 461 196 970 213 1458 214 1211 
4827 0.5683965947422405 0.19544011383493326 1.1635327290251414 0 0 0 0.41 93 559 223 697 231 580 
4828 0.7660846655803276 0.17740217210725281 1.1058233794263772 0 0 0 0.2 105 464 164 1707 196 971 
4829 0.5559686690684222 0.19724488132621626 1.1666238577850614 0 0 0 0.71 28 875 61 1465 93 560 107 395 124 654 159 679 164 1708 213 1459 223 698 
4830 0.6654576722878486 0.1881042134563244 1.1339936838329432 0 0 0 0.12 93 561 164 1709 196 972 
4831 0.6658713499581282 0.1880875667841712 1.134675255165512 0 0 0 0.48 14 319 93 562 107 396 136 610 159 680 164 1710 194 462 196 973 204 975 
4832 0.627271525556994 0.19424644216061626 1.1442687083574115 0 0 0 0.29 93 563 107 397 136 611 185 535 194 463 213 1460 
4833 0.6308490743235022 0.19373427258586035 1.1436575846609367 0 0 0 0.12 93 564 185 536 194 464 
4834 0.5424907382170456 0.20324947080045733 1.1691368939487865 0 0 0 0.34 93 565 107 398 124 655 164 1711 196 974 214 1212 223 699 231 581 
4835 0.6007467865962353 0.19791070188993923 1.150295449034132 0 0 0 0.2 93 566 112 134 124 656 176 1098 213 1461 214 1213 231 582 
4836 0.577890664935159 0.2015711848202844 1.157168019878695 0 0 0 0.15 28 876 93 567 176 1099 
4837 0.5837224400120157 0.2008627727732082 1.154864661910482 0 0 0 0.09 93 568 136 612 194 465 
4838 0.564678472685449 0.2037208011277106 1.16049692072634 0 0 0 0.53 93 569 136 613 196 975 223 700 
4839 0.4318898660174958 0.21724251106440065 1.201102714616106 0 0 0 0.76 28 877 93 570 159 681 164 1712 204 976 
4840 0.43213043250041216 0.2170904206070275 1.2018743620846153 0 0 0 0.55 28 878 93 571 124 657 136 614 159 682 164 1713 172 869 176 1100 196 976 204 977 213 1462 224 450 231 583 
4841 0.5305535993958918 0.20982108517499104 1.17020881062653 0 0 0 0.17 93 572 159 683 176 1101 196 977 213 1463 214 1214 231 584 
4842 0.4945988701717462 0.21373194612170615 1.180305130108869 0 0 0 0.3 93 573 124 658 136 615 196 978 
4843 0.5137838421414322 0.21246159524609817 1.174054475345086 0 0 0 0.22 93 574 164 1714 214 1215 
4844 0.4640685897732703 0.21906523972528877 1.1891409304343277 0 0 0 0.51 52 731 93 575 124 659 159 684 164 1715 
4845 0.4748779539542122 0.21885393396176656 1.185315170188186 0 0 0 0.36 93 576 112 135 124 660 164 1716 213 1464 214 1216 224 451 231 585 
4846 0.4528458021828927 0.22221417302690935 1.1926388821447027 0 0 0 0.37 52 732 61 1466 93 577 107 399 124 661 164 1717 196 979 213 1465 214 1217 231 586 
4847 0.4307449958258234 0.22608582403054828 1.1977459317512797 0 0 0 0.65 93 578 158 1090 196 980 224 452 231 587 
4848 0.41351846985904117 0.2309704893493018 1.2024718757401673 0 0 0 1.47 93 579 107 400 
4849 0.18542490320285876 0.2501329571203393 1.315738332689522 0 0 0 0.46 93 580 103 603 159 685 196 981 220 770 221 1173 224 453 
4850 0.355421043857525 0.23876953065078238 1.234048978030337 0 0 0 0.44 61 1467 93 581 111 825 124 662 176 1102 213 1466 214 1218 224 454 
4851 0.3498571819420502 0.23979959126298322 1.2346624860411197 0 0 0 0.53 28 879 93 582 164 1718 196 982 221 1174 224 455 231 588 
4852 0.3492547385330737 0.23993673739722102 1.2368843015861166 0 0 0 0.45 93 583 164 1719 213 1467 214 1219 220 771 221 1175 
4853 0.3539690267245267 0.24329804075439296 1.2314695501971173 0 0 0 0.24 28 880 52 733 61 1468 89 421 93 584 103 604 124 663 136 616 158 1091 159 686 164 1720 172 870 176 1103 185 537 196 983 204 978 213 1468 214 1220 220 772 224 456 231 589 
4854 0.2770065909380019 0.26052912238669435 1.2639895770069645 0 0 0 0.28 93 585 164 1721 196 984 204 979 214 1221 224 457 
4855 0.2555091298788854 0.26342525690077007 1.2735939302571733 0 0 0 0.35 61 1469 93 586 107 401 111 826 158 1092 159 687 164 1722 172 871 176 1104 185 538 196 985 204 980 213 1469 214 1222 224 458 
4856 0.48306865474912086 0.2425688306959219 1.1747041491627064 0 0 0 0.34 93 587 136 617 224 459 
4857 0.5412770893669716 0.23693313930207263 1.1569565254649867 0 0 0 0.25 93 588 136 618 214 1223 
4858 0.23966566056996874 0.2671642731511558 1.280453381227492 0 0 0 0.32 52 734 61 1470 67 433 93 589 103 605 111 827 159 688 164 1723 172 872 176 1105 185 539 196 986 204 981 213 1470 214 1224 224 460 
4859 0.23964891262069704 0.26711973306178133 1.2804631964280826 0 0 0 0.3 61 1471 93 590 111 828 164 1724 176 1106 185 540 196 987 213 1471 214 1225 224 461 
4860 0.546551245503153 0.24990766423250524 1.151678418176321 0 0 0 0.35 93 591 136 619 159 689 
4861 0.5960404451600778 0.24518088109152963 1.1345190095679336 0 0 0 0.19 93 592 185 541 214 1226 
4862 0.4820293794364338 0.2586367881041253 1.1687181059104281 0 0 0 0.27 52 735 93 593 112 136 164 1725 213 1472 
4863 0.7472462943625807 0.23069004816056754 1.0910606395631335 0 0 0 0.44 93 594 159 690 214 1227 
4864 0.45805000916327576 0.26442774374119915 1.1773020608858775 0 0 0 0.31 93 595 124 664 185 542 214 1228 231 590 
4865 0.5933293793500041 0.24958930951829558 1.1335370317880147 0 0 0 0.67 93 596 112 137 214 1229 231 591 
4866 0.668931721716419 0.24144260900813636 1.1128105435298248 0 0 0 0.31 28 881 93 597 124 665 176 1107 231 592 
4867 0.6682106932859958 0.2432283580957753 1.1130194967643487 0 0 0 0.34 91 896 93 598 105 465 107 402 164 1726 176 1108 194 466 196 988 223 701 
4868 0.5177376833433174 0.26116512926893415 1.1558929510077363 0 0 0 0.33 93 599 112 138 124 666 158 1093 164 1727 172 873 204 982 213 1473 214 1230 
