# 3D point list with one line of data per point:
#   POINT3D_ID, X, Y, Z, R, G, B, ERROR, TRACK[] as (IMAGE_ID, POINT2D_IDX)
# Number of points: 407, mean track length: 5.94
5311 -0.24644940844499796 0.0020100352520175226 1.2208309334202647 0 0 0 0.73 147 823 158 888 164 2491 165 1242 172 1106 181 309 182 450 190 729 194 272 196 1159 198 422 213 2474 223 908 232 1323 234 164 235 1184 
5312 -0.2620658308480461 -0.06947204017779798 1.2247847070423494 0 0 0 0.45 182 451 221 1106 222 773 
5313 -0.2620658308480461 -0.06947204017779798 1.2247847070423494 0 0 0 0.45 182 452 221 1107 222 774 
5314 -0.21228251555381555 -0.2052841615690491 1.2582190820380903 0 0 0 0.5 184 559 185 905 235 1185 
5315 -0.22552067224628414 -0.17702230151468948 1.2709410231708937 0 0 0 2.53 184 560 213 2475 223 909 
5316 -0.13984095805580576 -0.14577259468066847 1.2881236704713288 0 0 0 0.84 162 811 184 561 196 1160 197 570 
5317 -0.2180316980561034 -0.13090822216258813 1.2697308079346465 0 0 0 1.72 184 562 213 2476 223 910 
5318 -0.15163006097801204 -0.13403433898595093 1.2777879816256794 0 0 0 0.16 184 563 213 2477 235 1186 
5319 -0.2431830456109819 -0.11890059833977616 1.2343370242418714 0 0 0 0.24 164 2492 165 1243 176 2014 182 453 184 564 185 906 213 2478 235 1187 
5320 -0.09624501338900104 -0.13927030036242374 1.3415800036827463 0 0 0 0.44 184 565 197 571 217 645 221 1108 232 1324 
5321 -0.19280039849664496 -0.11331479671432142 1.257625964510526 0 0 0 0.23 176 2015 184 566 196 1161 213 2479 
5322 -0.07345848390974152 -0.1223453737962635 1.5392260725763331 0 0 0 0.44 184 567 197 572 221 1109 
5323 -0.1099297136137545 -0.06091981785410737 1.3319323004515917 0 0 0 0.37 164 2493 184 568 235 1188 
5324 -0.1323764981642197 -0.05238300442728135 1.2907312111492055 0 0 0 0.26 163 379 165 1244 182 454 184 569 213 2480 235 1189 
5325 -0.011522425960792684 -0.032694151582243626 1.201268774133954 0 0 0 0.66 184 570 197 573 221 1110 235 1190 
5326 -0.011522425960792684 -0.032694151582243626 1.201268774133954 0 0 0 0.66 184 571 197 574 221 1111 235 1191 
5327 -0.2455766892984827 -0.02007512365098622 1.2186057977213085 0 0 0 0.24 165 1245 176 2016 184 572 
5328 -0.24546288983809794 -0.015315403239258837 1.218509901507554 0 0 0 0.19 184 573 194 273 235 1192 
5329 -0.20667156965808395 -0.01131561767796338 1.2438031259274738 0 0 0 0.97 184 574 213 2481 223 911 
5330 -0.1809641236380098 -0.010805129879762702 1.252638676705982 0 0 0 0.56 159 1278 164 2494 176 2017 184 575 213 2482 235 1193 
5331 -0.23027525645827385 0.022456757832211495 1.2290671678769793 0 0 0 0.56 184 576 194 274 196 1162 235 1194 
5332 -0.21826134207896997 0.032177695606659715 1.23119510846809 0 0 0 0.16 184 577 194 275 213 2483 
5333 -0.24540717771922302 0.033445147357065524 1.2195199869771916 0 0 0 0.23 184 578 194 276 196 1163 
5334 -0.24676895101019275 0.035228219664996376 1.2180485435112114 0 0 0 0.33 184 579 194 277 213 2484 235 1195 
5335 -0.21681814672399838 0.04513339385084021 1.2308359713692474 0 0 0 0.25 184 580 194 278 196 1164 213 2485 
5336 -0.14659406112616838 0.058026713591066544 1.2700134333848827 0 0 0 0.45 164 2495 184 581 213 2486 
5337 -0.24988842647893145 -0.16621614957607192 1.235705009837289 0 0 0 0.45 184 582 185 907 196 1165 
5338 -0.22591192118383865 -0.13630985634638462 1.2410408037507454 0 0 0 0.34 172 1107 176 2018 184 583 197 575 221 1112 235 1196 
5339 -0.22591192118383865 -0.13630985634638462 1.2410408037507454 0 0 0 0.34 172 1108 176 2019 184 584 197 576 221 1113 235 1197 
5340 -0.10335567800790106 -0.15303265201574356 1.3344303554621646 0 0 0 0.46 158 889 163 380 182 455 184 585 220 880 221 1114 232 1325 
5341 -0.18452582111725818 -0.13345984059162935 1.2628103594574303 0 0 0 0.68 162 812 184 586 196 1166 
5342 -0.08796360234921773 -0.12029128053581581 1.3562866684634654 0 0 0 0.31 165 1246 172 1109 182 456 184 587 197 577 217 646 221 1115 235 1198 
5343 -0.08800134719170943 -0.1205018205006445 1.3573243633425727 0 0 0 0.25 165 1247 172 1110 182 457 184 588 197 578 221 1116 235 1199 
5344 -0.09745176564598607 -0.1025639965228654 1.3331047603876347 0 0 0 0.24 184 589 217 647 220 881 221 1117 
5345 -0.08091218817825777 -0.10494784469352995 1.3535115691832187 0 0 0 0.38 184 590 221 1118 235 1200 
5346 -0.010567555282365068 -0.08232889342684098 1.2091406834704053 0 0 0 0.51 184 591 197 579 221 1119 222 775 
5347 -0.2388573699383772 -0.07738560820223067 1.2365364983408587 0 0 0 0.18 164 2496 184 592 185 908 235 1201 
5348 -0.16069831945660376 -0.07093556365153772 1.274687220979288 0 0 0 0.09 184 593 213 2487 235 1202 
5349 -0.1401496056704835 -0.06722991583237309 1.2916440099258184 0 0 0 0.28 184 594 197 580 221 1120 
5350 -0.07945672498877408 -0.07251466160386477 1.356527361254773 0 0 0 0.17 184 595 197 581 221 1121 235 1203 
5351 -0.07945672498877408 -0.07251466160386477 1.356527361254773 0 0 0 0.17 184 596 197 582 221 1122 235 1204 
5352 -0.06545700971021665 -0.015748644812251394 1.374573910049575 0 0 0 0.67 184 597 197 583 221 1123 
5353 -0.1675640184581005 0.0030453341601984194 1.2659538782651252 0 0 0 1.41 184 598 213 2488 223 912 235 1205 
5354 -0.1664837347584003 0.0032153255936177567 1.2599014346084507 0 0 0 0.86 184 599 196 1167 213 2489 235 1206 
5355 -0.18081360050573692 0.016473645707785898 1.2569031012064533 0 0 0 0.93 164 2497 165 1248 184 600 196 1168 213 2490 223 913 235 1207 
5356 -0.013038837817014247 0.028619284386559266 1.210548759649251 0 0 0 0.91 184 601 197 584 221 1124 
5357 -0.14394223323886773 0.039279933119116324 1.27466999257357 0 0 0 0.36 184 602 213 2491 235 1208 
5358 -0.2589014385632839 -0.1966880939323113 1.2563976513549673 0 0 0 0.38 184 603 185 909 197 585 213 2492 
5359 -0.22045934523240718 -0.14006428076064578 1.26763555536038 0 0 0 1.72 165 1249 184 604 185 910 221 1125 222 776 235 1209 
5360 -0.1418320931546864 -0.14008811237963423 1.2841414809061276 0 0 0 0.47 162 813 184 605 197 586 213 2493 217 648 221 1126 222 777 232 1326 235 1210 
5361 -0.033226497807190836 -0.13042741435863262 1.2412882937789815 0 0 0 0.78 184 606 221 1127 234 165 
5362 -0.033226497807190836 -0.13042741435863262 1.2412882937789815 0 0 0 0.78 184 607 221 1128 234 166 
5363 -0.02076037191330062 -0.08673861588355146 1.2348310150669675 0 0 0 1.58 184 608 217 649 221 1129 235 1211 
5364 -0.13680839572943324 -0.0731967783630516 1.2869755056591023 0 0 0 0.26 162 814 184 609 197 587 217 650 220 882 221 1130 222 778 
5365 -0.07820849611424852 -0.0615886699872393 1.3642354015759275 0 0 0 0.21 165 1250 182 458 184 610 221 1131 232 1327 235 1212 
5366 -0.13215937200459338 -0.008470215687001204 1.2928865124551001 0 0 0 0.33 164 2498 165 1251 184 611 213 2494 221 1132 235 1213 
5367 -0.14071795419187091 0.0012321434167869157 1.2751215671711198 0 0 0 0.44 147 824 162 815 164 2499 165 1252 184 612 190 730 197 588 198 423 208 131 213 2495 217 651 221 1133 222 779 235 1214 
5368 -0.2411577109771666 0.020644279593866582 1.2203419151956352 0 0 0 0.5 164 2500 184 613 185 911 213 2496 223 914 
5369 -0.15736626173309673 0.022858268187265513 1.274360253884081 0 0 0 0.25 184 614 213 2497 222 780 
5370 -0.1432323131965099 0.05798866790614728 1.270588878777927 0 0 0 0.72 184 615 213 2498 235 1215 
5371 -0.22268966774729665 -0.18483006973145683 1.2496021557277348 0 0 0 0.76 184 616 213 2499 217 652 221 1134 
5372 -0.22275737738909718 -0.18486951146606487 1.2497586000160306 0 0 0 0.48 147 825 152 615 184 617 185 912 213 2500 217 653 221 1135 
5373 -0.22393589195332936 -0.17613454699841097 1.2489591844410586 0 0 0 0.32 184 618 220 883 227 664 
5374 -0.1829394021899422 -0.13884992380575262 1.2656137005574328 0 0 0 0.58 182 459 184 619 190 731 196 1169 213 2501 
5375 -0.03323332211922547 -0.13459717305901353 1.2414832755272587 0 0 0 0.69 184 620 221 1136 234 167 
5376 -0.04312842149312196 -0.045869248308334 1.2312736815566794 0 0 0 0.46 184 621 221 1137 222 781 232 1328 235 1216 
5377 -0.04892507928027248 -0.038275975630734316 1.2477415762280981 0 0 0 0.17 184 622 221 1138 222 782 232 1329 
5378 -0.11285608275670092 -0.03859888084309058 1.330003452818059 0 0 0 0.19 184 623 221 1139 222 783 
5379 -0.1905280349622416 -0.026773817356650867 1.2572312899184028 0 0 0 1.25 184 624 221 1140 222 784 223 915 
5380 -0.11187017294762618 -0.03139569485537308 1.3195685090538187 0 0 0 0.17 184 625 190 732 221 1141 
5381 -0.24119391980423072 -0.02023735755690777 1.2245864056417106 0 0 0 0.34 184 626 204 1324 213 2502 222 785 232 1330 
5382 -0.0297840287744572 -0.024179849470158155 1.2322948848176565 0 0 0 0.46 184 627 221 1142 232 1331 
5383 -0.015196385104751074 -0.021098287787536595 1.2201683210354406 0 0 0 0.41 184 628 221 1143 222 786 
5384 -0.015554248526708158 -0.01126211675613958 1.211093990157645 0 0 0 0.54 184 629 190 733 221 1144 222 787 
5385 -0.13442373536759786 0.007042756757287335 1.2854265744818698 0 0 0 0.61 165 1253 184 630 197 589 217 654 221 1145 222 788 235 1217 
5386 -0.015429517409085108 0.02411070278080887 1.217326818230115 0 0 0 0.61 184 631 197 590 221 1146 
5387 -0.04639372317268827 0.03458898613723034 1.2615712008096045 0 0 0 0.77 184 632 221 1147 235 1218 
5388 -0.17250587090030134 0.0611072441754708 1.2545053078593442 0 0 0 0.28 184 633 213 2503 235 1219 
5389 -0.018644218321471145 -0.02326213843881435 1.218188201205399 0 0 0 0.31 184 634 221 1148 222 789 
5390 -0.018644218321471145 -0.02326213843881435 1.218188201205399 0 0 0 0.31 184 635 221 1149 222 790 
5391 -0.045744559083057905 -0.02099008805011292 1.2488314656354884 0 0 0 0.26 184 636 190 734 221 1150 222 791 232 1332 
5392 -0.07352770308409942 -0.021831470520140246 1.364088127082213 0 0 0 0.34 184 637 221 1151 232 1333 
5393 -0.021466315584349853 -0.010802805139438841 1.2196570004894112 0 0 0 0.39 184 638 221 1152 222 792 
5394 -0.03930452522695317 0.0009002643540644604 1.228569985873983 0 0 0 0.69 184 639 221 1153 235 1220 
5395 -0.25283742631059947 -0.11262319271596431 1.2366108398962448 0 0 0 0.48 184 640 185 913 217 655 
5396 -0.051682754657524546 -0.05551165175089266 1.2501343494870811 0 0 0 0.44 184 641 190 735 221 1154 
5397 -0.021725006588362652 -0.049171126204462824 1.2154122677212305 0 0 0 0.23 184 642 221 1155 232 1334 
5398 -0.12333470038796568 -0.12598433338099532 1.323810828614647 0 0 0 0.84 184 643 197 591 204 1325 217 656 221 1156 222 793 
5399 -0.10669535048973615 -0.037383471406321485 1.3267875792749362 0 0 0 0.92 147 826 165 1254 184 644 190 736 221 1157 222 794 232 1335 235 1221 
5400 -0.12387480990165635 -0.028474687447721046 1.3093398047309097 0 0 0 0.58 164 2501 165 1255 184 645 190 737 235 1222 
5401 -0.12339597926275128 -0.016344862896322185 1.3032239812318323 0 0 0 0.42 164 2502 165 1256 184 646 197 592 198 424 204 1326 217 657 221 1158 235 1223 
5402 -0.14568270544133555 -0.00016203390653896267 1.273358121765041 0 0 0 0.41 172 1111 184 647 190 738 196 1170 197 593 198 425 221 1159 222 795 234 168 235 1224 
5403 -0.033524288594449406 -0.0934073995777811 1.2335741264700906 0 0 0 0.52 184 648 190 739 197 594 221 1160 232 1336 
5404 -0.03353718255075897 -0.08399106275166679 1.2416525202316158 0 0 0 0.38 184 649 190 740 197 595 221 1161 
5405 -0.09684799197870758 -0.08039239753463079 1.3305892267282244 0 0 0 0.38 184 650 217 658 221 1162 222 796 
5406 -0.13914600921323428 0.05513059432820303 1.2670214259495625 0 0 0 0.54 184 651 198 426 217 659 
5407 -0.14319244255976138 -0.14742825176059923 1.284411847993128 0 0 0 1.14 147 827 152 616 158 890 162 816 165 1257 172 1112 182 460 184 652 190 741 197 596 198 427 199 282 204 1327 213 2504 217 660 227 665 232 1337 235 1225 
5408 -0.4384672950971607 -0.2287927662401922 1.1515794621006465 0 0 0 0.34 185 914 213 2505 224 721 
5409 -0.295886517723936 -0.19210027571242289 1.214416636505441 0 0 0 0.19 185 915 196 1171 197 597 
5410 -0.40160176839125383 -0.1892126478727562 1.189789890942918 0 0 0 1.63 185 916 204 1328 213 2506 
5411 -0.4902425621614095 -0.19735309726969164 1.1261548296472765 0 0 0 0.39 185 917 196 1172 213 2507 220 884 221 1163 224 722 232 1338 
5412 -0.36880210938942826 -0.17259070121878162 1.180499906805479 0 0 0 1.09 162 817 185 918 196 1173 213 2508 
5413 -0.3102829317330936 -0.1494506304698983 1.2023914720967714 0 0 0 0.2 165 1258 185 919 196 1174 197 598 235 1226 
5414 -0.5530928255092689 -0.18267633209162124 1.1095348755802161 0 0 0 0.27 162 818 185 920 220 885 
5415 -0.37966692966119264 -0.1520889103575443 1.1723790514870036 0 0 0 0.19 159 1279 185 921 196 1175 221 1164 
5416 -0.37191061884363535 -0.14056448034059643 1.1715151362492113 0 0 0 0.53 185 922 200 764 213 2509 
5417 -0.3331298097227222 -0.11748344344025981 1.1902503896344958 0 0 0 0.59 185 923 197 599 204 1329 219 1011 223 916 
5418 -0.4179929293253729 -0.1182542907703877 1.1516807707624603 0 0 0 0.15 185 924 214 878 221 1165 222 797 
5419 -0.5336200960189295 -0.12181750571182459 1.1068350225456445 0 0 0 0.45 185 925 213 2510 214 879 221 1166 
5420 -0.3142096349337688 -0.08297118754392735 1.1968465101865302 0 0 0 0.5 185 926 213 2511 214 880 223 917 
5421 -0.29072886278740245 -0.07963542559165238 1.2117978958487226 0 0 0 0.25 185 927 223 918 235 1227 
5422 -0.45679901630041575 -0.09432812601452412 1.1324906007121638 0 0 0 0.24 164 2503 185 928 214 881 224 723 
5423 -0.3497729367746269 -0.08192059949852214 1.1821308151997723 0 0 0 0.32 185 929 196 1176 213 2512 231 290 
5424 -0.5506643410061226 -0.0856647388725749 1.1008014056222573 0 0 0 0.22 185 930 214 882 232 1339 
5425 -0.5536196385153984 -0.08574550523997833 1.099691306207549 0 0 0 0.18 176 2020 185 931 214 883 232 1340 
5426 -0.556694429555029 -0.0856086296757395 1.0988876013399864 0 0 0 0.06 159 1280 185 932 204 1330 224 724 232 1341 
5427 -0.5501734155817055 -0.08330316754457051 1.1034847580538736 0 0 0 0.67 185 933 204 1331 232 1342 
5428 -0.4433327476810226 -0.06466453250634012 1.133850120280811 0 0 0 0.44 185 934 190 742 221 1167 222 798 
5429 -0.34137403009602446 -0.02712509953680374 1.177393533641723 0 0 0 0.89 185 935 197 600 223 919 
5430 -0.2899521971805598 -0.019081960657271236 1.2040888104159713 0 0 0 0.22 185 936 194 279 196 1177 
5431 -0.3804691244542925 -0.01522502989415875 1.1565156456740486 0 0 0 0.61 164 2504 176 2021 185 937 194 280 213 2513 214 884 219 1012 223 920 
5432 -0.45689873347316967 -0.01861796051610325 1.1247410451683542 0 0 0 0.16 176 2022 185 938 213 2514 219 1013 
5433 -0.35848582234093196 -0.01012580759707418 1.1664759516434107 0 0 0 0.25 185 939 194 281 213 2515 
5434 -0.3816349031909109 -0.1780454875830087 1.1736174533118935 0 0 0 0.33 185 940 220 886 221 1168 222 799 
5435 -0.3133244810894994 -0.15334617616975876 1.195460948018166 0 0 0 0.55 176 2023 185 941 197 601 213 2516 214 885 219 1014 232 1343 235 1228 
5436 -0.4775730066303753 -0.16457870817853779 1.1241636354722861 0 0 0 0.36 185 942 204 1332 219 1015 
5437 -0.30264853230960764 -0.13646485293737923 1.206518357512653 0 0 0 0.34 185 943 213 2517 234 169 
5438 -0.34638536393952674 -0.12603405601003437 1.189775571325126 0 0 0 0.26 172 1113 185 944 197 602 213 2518 221 1169 232 1344 
5439 -0.34638536393952674 -0.12603405601003437 1.189775571325126 0 0 0 0.26 172 1114 185 945 197 603 213 2519 221 1170 232 1345 
5440 -0.4626247710245811 -0.10016397568786133 1.1335682545524322 0 0 0 0.36 185 946 200 765 213 2520 
5441 -0.26904495899927255 -0.05991181449380775 1.2193048601662781 0 0 0 0.25 185 947 194 282 223 921 
5442 -0.2782989376822129 -0.03572112568507093 1.209290040594693 0 0 0 0.5 185 948 214 886 223 922 235 1229 
5443 -0.3297058469383258 -0.03196003444612012 1.1791839918670826 0 0 0 0.11 185 949 204 1333 222 800 
5444 -0.3796533895065057 -0.02699040630375773 1.154648896494546 0 0 0 0.9 185 950 196 1178 220 887 223 923 
5445 -0.45171349396612825 -0.02852611160365408 1.1295646042389065 0 0 0 0.22 185 951 190 743 222 801 224 725 
5446 -0.37620708777803225 -0.021541695028226213 1.16252739126193 0 0 0 0.68 164 2505 175 247 185 952 194 283 217 661 223 924 231 291 
5447 -0.4951923290770633 -0.017856624420717438 1.1035013879606417 0 0 0 0.41 164 2506 176 2024 185 953 196 1179 200 766 204 1334 213 2521 214 887 219 1016 222 802 223 925 232 1346 
5448 -0.27458531584186946 0.01117615153178176 1.204886001038604 0 0 0 0.68 185 954 220 888 221 1171 
5449 -0.2824831162945768 -0.12860880202425054 1.2165203598016159 0 0 0 0.54 185 955 197 604 214 888 
5450 -0.6634978389728982 -0.17808808417037997 1.0716650743108862 0 0 0 0.51 185 956 220 889 224 726 
5451 -0.6560128586861279 -0.17503633367377713 1.0775676928213265 0 0 0 0.47 185 957 221 1172 227 666 
5452 -0.5347543605631132 -0.1477993464362665 1.106489477716718 0 0 0 0.25 185 958 204 1335 219 1017 220 890 
5453 -0.2537302137026583 -0.00657374361641181 1.2189484387239586 0 0 0 0.58 162 819 185 959 214 889 223 926 
5454 -0.5439660841447601 -0.02137699360064386 1.0945145577809392 0 0 0 0.15 185 960 214 890 227 667 
5455 -0.5058723162575396 0.005073759376643057 1.1073339111354772 0 0 0 0.98 185 961 214 891 223 927 
5456 -0.26900937895190435 0.01883717481222447 1.207597374880151 0 0 0 0.57 163 381 165 1259 175 248 185 962 194 284 213 2522 220 891 223 928 235 1230 
5457 -0.5652122805827637 -0.17345360235231524 1.0992290117924906 0 0 0 0.79 172 1115 185 963 190 744 200 767 204 1336 213 2523 217 662 220 892 221 1173 
5458 -0.5056340494856006 -0.16463174227406707 1.1207170871214578 0 0 0 0.52 185 964 221 1174 222 803 232 1347 
5459 -0.21453645159828252 -0.09067297821408474 1.2453770481047215 0 0 0 0.37 147 828 152 617 164 2507 165 1260 185 965 204 1337 214 892 
5460 -0.31720160355108684 -0.06119330808325845 1.1976370386466326 0 0 0 0.25 185 966 194 285 196 1180 200 768 
5461 -0.48914139069835594 -0.0672136829167651 1.1150309503939555 0 0 0 0.41 158 891 185 967 214 893 219 1018 
5462 -0.46607777946199547 -0.03437644209413009 1.1204217358445232 0 0 0 0.51 147 829 176 2025 185 968 190 745 196 1181 198 428 199 283 204 1338 213 2524 214 894 217 663 219 1019 220 893 221 1175 222 804 224 727 232 1348 
5463 -0.46481022161399094 -0.1910794220188459 1.1355201685758003 0 0 0 0.96 147 830 164 2508 185 969 196 1182 198 429 224 728 
5464 -0.5818002552692273 -0.1721570226320173 1.095809811803987 0 0 0 0.47 185 970 190 746 204 1339 219 1020 221 1176 227 668 
5465 -0.5206493135654888 -0.1349378145238422 1.1121013502609012 0 0 0 0.5 147 831 162 820 176 2026 185 971 198 430 204 1340 213 2525 219 1021 220 894 232 1349 
5466 -0.2897939687409633 -0.012454789601601747 1.1999506913358082 0 0 0 0.19 185 972 198 431 199 284 
5467 -0.5057690668898709 0.008336833584830965 1.107873398983292 0 0 0 0.4 185 973 196 1183 198 432 224 729 
5468 -0.508953593354973 0.01402743825849427 1.1041533173783389 0 0 0 0.37 162 821 185 974 204 1341 214 895 232 1350 
5469 -0.5049170020167357 0.01885071265040834 1.1030338176335832 0 0 0 0.21 172 1116 176 2027 185 975 190 747 198 433 204 1342 213 2526 214 896 219 1022 232 1351 
5470 -0.378498895725409 -0.08854387133305153 1.1669558430920108 0 0 0 0.36 185 976 213 2527 219 1023 222 805 
5471 -0.28868635307279006 -0.2038252888587222 1.2179218024053717 0 0 0 0.65 185 977 197 605 204 1343 219 1024 
5472 -0.4904464533472921 -0.026950002327356025 1.1070198364166872 0 0 0 0.84 176 2028 185 978 190 748 204 1344 213 2528 219 1025 221 1177 232 1352 
5473 -0.49081219192502046 -0.027096933698247262 1.1076739653073424 0 0 0 0.79 176 2029 185 979 190 749 213 2529 219 1026 221 1178 232 1353 
5474 -0.5294625168309433 -0.11428208692257802 1.108380926317917 0 0 0 0.17 185 980 217 664 224 730 
5475 -0.3580471403568726 -0.08750496854668101 1.1779439973857122 0 0 0 0.62 147 832 172 1117 176 2030 185 981 190 750 198 434 204 1345 214 897 217 665 219 1027 221 1179 222 806 232 1354 
5476 -0.3269774354876645 -0.2192182964866441 1.2230181651368077 0 0 0 1.21 185 982 190 751 198 435 213 2530 217 666 
5477 -0.4000184583887102 -0.1693715641814023 1.1631221951111423 0 0 0 0.15 200 769 213 2531 214 898 
5478 -0.22626930875521695 -0.16130223806693264 1.2482154190488095 0 0 0 0.54 159 1281 200 770 235 1231 
5479 -0.4431487887723555 -0.1599190674539604 1.1414823583529827 0 0 0 0.18 159 1282 176 2031 204 1346 
5480 -0.46493217327492886 -0.1467085180680929 1.1305521869076662 0 0 0 0.34 158 892 159 1283 164 2509 176 2032 185 983 196 1184 204 1347 213 2532 214 899 220 895 224 731 
5481 -0.4363171267270515 -0.14655566310283966 1.1442465947345286 0 0 0 0.4 159 1284 176 2033 185 984 196 1185 214 900 224 732 
5482 -0.6127565491464377 -0.14632353898493816 1.0834357235078285 0 0 0 0.25 164 2510 176 2034 200 771 204 1348 213 2533 
5483 -0.4429533974023602 -0.13519207996398297 1.1397859632357472 0 0 0 0.18 176 2035 200 772 214 901 
5484 -0.44410584326301067 -0.129623482233995 1.1402353689561262 0 0 0 0.34 213 2534 214 902 231 292 
5485 -0.4923175729838401 -0.12177381081052488 1.1177612190546007 0 0 0 0.18 176 2036 213 2535 214 903 
5486 -0.38980120337511803 -0.10486998824894918 1.163248026246582 0 0 0 0.27 200 773 213 2536 214 904 231 293 
5487 -0.42104402331508683 -0.0876148087126002 1.149191866915514 0 0 0 0.18 176 2037 200 774 213 2537 214 905 
5488 -0.48017588198248784 -0.08781703234512762 1.1224627962342355 0 0 0 0.72 159 1285 214 906 219 1028 224 733 231 294 
5489 -0.3654848256561148 -0.08497287062737482 1.1745473244512936 0 0 0 0.27 159 1286 213 2538 214 907 
5490 -0.4141044150907505 -0.0821361329417876 1.150135107639864 0 0 0 0.17 159 1287 164 2511 176 2038 213 2539 214 908 231 295 
5491 -0.617825817881744 -0.0883523633721007 1.0779810034239647 0 0 0 0.28 159 1288 176 2039 200 775 213 2540 224 734 
5492 -0.3615792958297558 -0.07670266776693863 1.1758267015318946 0 0 0 0.4 164 2512 200 776 213 2541 
5493 -0.356106547483597 -0.07214518648482585 1.1755186031006484 0 0 0 0.59 159 1289 175 249 176 2040 197 606 214 909 223 929 
5494 -0.4083084246142417 -0.03503667526866186 1.1474759248534023 0 0 0 0.17 188 34 200 777 213 2542 
5495 -0.49147152564148333 -0.03591799113408348 1.103905741217432 0 0 0 0.26 164 2513 176 2041 213 2543 214 910 
5496 -0.29812633896527524 -0.02998387122898836 1.1961281129198815 0 0 0 0.23 213 2544 214 911 235 1232 
5497 -0.2899184776232731 -0.023881040003099315 1.204222626816216 0 0 0 0.06 175 250 176 2042 213 2545 
5498 -0.4049239023162085 -0.023961337219606894 1.151463966771713 0 0 0 0.79 188 35 194 286 223 930 
5499 -0.4334293606236311 -0.0177438868640569 1.1339591374024793 0 0 0 0.11 188 36 200 778 213 2546 
5500 -0.42761220574960984 -0.01746894566886875 1.1373966359456296 0 0 0 0.2 188 37 213 2547 214 912 231 296 
5501 -0.40758515656827365 -0.015448754287289987 1.144647215369622 0 0 0 0.09 188 38 194 287 214 913 
5502 -0.46374122936025197 -0.014893288532186076 1.1202458528476618 0 0 0 0.18 185 985 200 779 214 914 231 297 
5503 -0.35946577159190446 -0.012219243356241041 1.1664160118713502 0 0 0 0.94 188 39 214 915 223 931 
5504 -0.49384161123782405 -0.01557251418537562 1.104339495215804 0 0 0 0.51 158 893 164 2514 176 2043 200 780 213 2548 214 916 223 932 224 735 
5505 -0.3898385648033396 -0.012600985994825021 1.15329969342385 0 0 0 0.27 188 40 214 917 231 298 
5506 -0.39874980963040174 -0.012742228861575985 1.1543472610394547 0 0 0 0.22 188 41 214 918 231 299 
5507 -0.3203140215633323 -0.010358491044553242 1.1855692031297136 0 0 0 0.15 197 607 213 2549 214 919 
5508 -0.313282956504965 -0.010534245727069312 1.1907986959404973 0 0 0 0.63 164 2515 213 2550 214 920 223 933 234 170 
5509 -0.5843567364401655 -0.017323571613540353 1.0844535953164556 0 0 0 0.33 159 1290 164 2516 176 2044 213 2551 232 1355 
5510 -0.2691553001126211 -0.005545037497249367 1.2095504369487764 0 0 0 0.62 163 382 194 288 213 2552 220 896 221 1180 223 934 232 1356 234 171 
5511 -0.194650762935854 -0.003242633243614512 1.2460305539971557 0 0 0 0.92 164 2517 200 781 213 2553 223 935 234 172 
5512 -0.5265910019789004 -0.007786636060473006 1.096724589286169 0 0 0 0.21 158 894 200 782 213 2554 214 921 224 736 
5513 -0.6301214780087651 -0.009064891723566483 1.064626882380846 0 0 0 0.17 176 2045 200 783 213 2555 
5514 -0.5236668119919683 -0.0021193801005746776 1.0969180027404146 0 0 0 0.34 176 2046 200 784 213 2556 
5515 -0.35923797726531065 0.007712019946874302 1.1651160898531425 0 0 0 0.49 147 833 164 2518 172 1118 194 289 204 1349 213 2557 214 922 222 807 223 936 
5516 -0.18653512814771425 0.013182502552028732 1.2487055698176182 0 0 0 0.92 165 1261 200 785 213 2558 223 937 235 1233 
5517 -0.23991232685319092 0.011681225608751412 1.2235832301913758 0 0 0 0.12 194 290 213 2559 235 1234 
5518 -0.3261958927331887 0.011044192854993853 1.1797007114101463 0 0 0 0.72 194 291 214 923 223 938 
5519 -0.22296571044352967 0.015014351320785923 1.2301485511013222 0 0 0 0.52 194 292 213 2560 214 924 223 939 
5520 -0.2577478041392036 0.01385334413685514 1.2175673089185928 0 0 0 0.4 165 1262 200 786 213 2561 223 940 235 1235 
5521 -0.3825330671799677 0.010140546251420222 1.1547200049794906 0 0 0 0.84 164 2519 175 251 194 293 196 1186 213 2562 214 925 223 941 227 669 231 300 232 1357 
5522 -0.539898818921687 0.006561989088004563 1.0948364340698966 0 0 0 0.13 200 787 213 2563 214 926 
5523 -0.2957152149456 0.014604838364610144 1.194446949053253 0 0 0 0.29 200 788 213 2564 214 927 
5524 -0.2580477757973922 0.0162985621929844 1.2171205609479707 0 0 0 0.43 200 789 213 2565 223 942 
5525 -0.16708675681362212 0.02150711814939231 1.2628260289131412 0 0 0 0.9 164 2520 165 1263 184 653 197 608 213 2566 223 943 235 1236 
5526 -0.26753638854445566 0.01907408197286677 1.2093014607674435 0 0 0 0.72 163 383 200 790 213 2567 
5527 -0.3025617853837581 0.0192451369278466 1.1908745329748667 0 0 0 0.63 194 294 214 928 223 944 235 1237 
5528 -0.32621245699456813 0.01887807494275387 1.1787009669574358 0 0 0 0.63 194 295 213 2568 214 929 223 945 
5529 -0.3260951684112335 0.021398421838626915 1.1789136815567456 0 0 0 0.11 194 296 213 2569 214 930 
5530 -0.3260951684112335 0.021398421838626915 1.1789136815567456 0 0 0 0.11 194 297 213 2570 214 931 
5531 -0.3026486474855493 0.023201241464408575 1.1913800146871618 0 0 0 0.29 194 298 213 2571 214 932 
5532 -0.3289625986347194 0.02763227643432226 1.1760973848335206 0 0 0 0.78 194 299 213 2572 223 946 
5533 -0.3005773913082846 0.028893890247247894 1.1905439465414425 0 0 0 0.85 164 2521 194 300 214 933 223 947 
5534 -0.3008240008452308 0.029204121385412687 1.1909569761401826 0 0 0 0.47 164 2522 213 2573 214 934 
5535 -0.32591676032196787 0.02919862089385425 1.1779557496351067 0 0 0 0.57 164 2523 194 301 196 1187 213 2574 214 935 223 948 
5536 -0.4661023512554969 0.032357368479505426 1.1152141844157921 0 0 0 0.11 176 2047 213 2575 214 936 
5537 -0.4678462237132113 0.03939553356468833 1.113926632754238 0 0 0 0.23 164 2524 200 791 213 2576 214 937 
5538 -0.17104798931459173 0.05434321921946623 1.2564364511629456 0 0 0 0.89 213 2577 223 949 235 1238 
5539 -0.4524705026256948 -0.177481374308421 1.13157521684894 0 0 0 0.76 213 2578 219 1029 223 950 
5540 -0.7445955332334606 -0.19081701678969024 1.0505984308649894 0 0 0 0.44 164 2525 196 1188 221 1181 224 737 232 1358 
5541 -0.38540976438028995 -0.17428684637947506 1.1700620923099991 0 0 0 0.64 176 2048 213 2579 221 1182 223 951 232 1359 
5542 -0.2660330388144737 -0.14835412416639238 1.2225256373773934 0 0 0 0.74 197 609 213 2580 234 173 235 1239 
5543 -0.20001671909714958 -0.14632551616674863 1.2522620326583025 0 0 0 0.31 159 1291 176 2049 213 2581 235 1240 
5544 -0.3580195347488948 -0.1447112394237565 1.1794877518514166 0 0 0 0.48 200 792 213 2582 223 952 
5545 -0.41588721261416317 -0.14422210693614712 1.153790714295535 0 0 0 0.15 196 1189 204 1350 213 2583 214 938 
5546 -0.6110104208107163 -0.14386740144696475 1.0831839526916274 0 0 0 0.41 158 895 164 2526 176 2050 200 793 213 2584 224 738 
5547 -0.20916635650601337 -0.13445548340676636 1.2526395861484692 0 0 0 0.24 185 986 196 1190 197 610 
5548 -0.366903166558714 -0.11417768944970232 1.1797816988000216 0 0 0 0.34 172 1119 176 2051 197 611 200 794 204 1351 213 2585 222 808 232 1360 
5549 -0.159196087104566 -0.08595356210648285 1.272445889966277 0 0 0 0.27 164 2527 197 612 235 1241 
5550 -0.18107426016986908 -0.07618648356504142 1.263436180843119 0 0 0 0.24 164 2528 165 1264 200 795 213 2586 
5551 -0.33750668385207144 -0.07787469176058608 1.1860839779709245 0 0 0 0.5 159 1292 163 384 164 2529 176 2052 194 302 196 1191 213 2587 221 1183 223 953 232 1361 
5552 -0.5952680616997287 -0.0837037564342075 1.0837223259308535 0 0 0 0.18 213 2588 214 939 232 1362 
5553 -0.37564321959689595 -0.0738042941194165 1.169929774270651 0 0 0 0.92 197 613 213 2589 223 954 
5554 -0.37151790329145523 -0.0732284093622866 1.1734296976306637 0 0 0 0.21 213 2590 214 940 221 1184 
5555 -0.36597728636623006 -0.06766314478914388 1.175866562923413 0 0 0 0.29 152 618 158 896 200 796 204 1352 213 2591 
5556 -0.7297944946448074 -0.0752941862675236 1.041637693684756 0 0 0 0.5 164 2530 196 1192 220 897 221 1185 232 1363 
5557 -0.3450961664071436 -0.03472457577589157 1.1825087710886004 0 0 0 0.27 164 2531 197 614 213 2592 221 1186 
5558 -0.3450961664071436 -0.03472457577589157 1.1825087710886004 0 0 0 0.27 164 2532 197 615 213 2593 221 1187 
5559 -0.373609485959899 -0.03235595716556858 1.1699114258499044 0 0 0 0.34 164 2533 172 1120 197 616 213 2594 221 1188 232 1364 
5560 -0.47698667309474324 -0.03247229360889382 1.1177630454131864 0 0 0 0.18 158 897 176 2053 200 797 204 1353 213 2595 219 1030 232 1365 
5561 -0.4252981722528214 -0.03098413542101521 1.1435086925948816 0 0 0 0.15 188 42 200 798 213 2596 
5562 -0.4157274099779713 -0.015618717051595498 1.1400752506646357 0 0 0 0.18 188 43 194 303 204 1354 213 2597 214 941 219 1031 
5563 -0.34555527890882154 -0.011840134037017938 1.1756828449071637 0 0 0 0.79 197 617 214 942 223 955 
5564 -0.3205070304140755 -0.007819380443596275 1.1836975834202068 0 0 0 0.94 214 943 220 898 221 1189 223 956 232 1366 
5565 -0.35916820941460276 0.0039589362019934494 1.165788862279914 0 0 0 0.63 164 2534 172 1121 214 944 223 957 232 1367 
5566 -0.6999566784130439 -0.005515246273268963 1.0434549543766916 0 0 0 0.33 164 2535 172 1122 176 2054 213 2598 219 1032 232 1368 
5567 -0.5950093815237365 -0.0002312073268012232 1.0751747832595075 0 0 0 0.45 162 822 164 2536 176 2055 204 1355 213 2599 219 1033 224 739 227 670 232 1369 
5568 -0.40759647146103783 0.007416622583420299 1.1449716011562152 0 0 0 0.1 188 44 213 2600 231 301 
5569 -0.1672386884581625 0.014818178901544358 1.2647803352058338 0 0 0 1.47 184 654 213 2601 223 958 
5570 -0.35389684915541325 0.011467557155982836 1.168155163048047 0 0 0 0.32 213 2602 214 945 221 1190 234 174 
5571 -0.16823186276930485 0.016767949980947616 1.2554647075380874 0 0 0 0.92 197 618 213 2603 235 1242 
5572 -0.2987290978378697 0.012787525680497168 1.1921679556197347 0 0 0 0.67 213 2604 214 946 223 959 
5573 -0.37456602732877103 0.01112135958539536 1.161844147886128 0 0 0 0.77 194 304 213 2605 214 947 223 960 
5574 -0.2982630089528429 0.01547782007056702 1.191885796565957 0 0 0 0.77 213 2606 214 948 223 961 
5575 -0.2984466087273105 0.018653508865860476 1.192165743042494 0 0 0 0.93 213 2607 214 949 223 962 234 175 
5576 -0.3612981704851213 0.01946899118173297 1.1636332938799552 0 0 0 0.91 200 799 204 1356 213 2608 223 963 
5577 -0.39203972895493894 0.02043876558341389 1.1508139303632905 0 0 0 0.9 213 2609 214 950 221 1191 223 964 232 1370 
5578 -0.2337629412110134 0.026029488879878562 1.2240196435166386 0 0 0 0.45 164 2537 165 1265 184 655 197 619 223 965 234 176 235 1243 
5579 -0.4369464522628763 0.022407274384872097 1.1317209370489438 0 0 0 0.35 164 2538 213 2610 214 951 222 809 
5580 -0.3938954937880991 0.028389667955298854 1.144181433258918 0 0 0 0.35 164 2539 213 2611 214 952 
5581 -0.3982760671462266 0.031753979331198945 1.1411310179402399 0 0 0 0.45 164 2540 213 2612 214 953 
5582 -0.38458522472735107 0.037117190263600594 1.1519599730514176 0 0 0 0.78 194 305 213 2613 214 954 223 966 232 1371 
5583 -0.38386827422824854 0.04294516970600368 1.1517663421812065 0 0 0 0.61 164 2541 194 306 213 2614 214 955 222 810 223 967 227 671 232 1372 
5584 -0.6499053617992783 -0.20555334414930918 1.0793888219930312 0 0 0 0.41 196 1193 213 2615 219 1034 
5585 -0.639745151483714 -0.19193530988720425 1.0845208879360952 0 0 0 0.38 172 1123 190 752 213 2616 219 1035 227 672 232 1373 
5586 -0.6439238711674943 -0.18006052541468037 1.079506881210879 0 0 0 0.17 152 619 204 1357 213 2617 
5587 -0.5623300582304925 -0.15567295710686477 1.0957055763403158 0 0 0 0.2 200 800 204 1358 227 673 
5588 -0.34903660329586833 -0.1472293154639052 1.1854534402637993 0 0 0 0.39 147 834 152 620 190 753 217 667 219 1036 220 899 221 1192 222 811 223 968 232 1374 
5589 -0.3764788820607648 -0.12453482886086618 1.1827422854547285 0 0 0 0.1 213 2618 221 1193 232 1375 
5590 -0.5839890749474591 -0.09142350319875803 1.0895266489135864 0 0 0 0.42 176 2056 196 1194 204 1359 221 1194 224 740 232 1376 
5591 -0.2958228875427755 -0.060601040257605585 1.206529128696142 0 0 0 0.39 152 621 172 1124 175 252 176 2057 190 754 197 620 198 436 199 285 204 1360 213 2619 217 668 227 674 232 1377 234 177 
5592 -0.3331911785791105 -0.03649038980959005 1.1812203606272518 0 0 0 0.35 147 835 190 755 197 621 213 2620 222 812 
5593 -0.2845159006987011 -0.01755381826014 1.2037320184894655 0 0 0 0.35 213 2621 214 956 232 1378 
5594 -0.4654199020981501 -0.016879486698897477 1.1187373346518639 0 0 0 0.47 158 898 159 1293 185 987 196 1195 213 2622 214 957 221 1195 
5595 -0.3500770737556726 -0.013540071404611293 1.173008529883818 0 0 0 0.42 176 2058 197 622 219 1037 221 1196 
5596 -0.3360877543618763 -0.008914208988358393 1.1795797991978147 0 0 0 0.37 197 623 214 958 221 1197 222 813 232 1379 
5597 -0.5208154011803829 -0.014290811676907175 1.1017334131562713 0 0 0 0.21 204 1361 221 1198 232 1380 
5598 -0.6992849964329139 -0.02059350665680226 1.0462896555583259 0 0 0 0.65 213 2623 217 669 221 1199 232 1381 
5599 -0.6383277065975164 0.005686473826293656 1.0624980852385764 0 0 0 0.53 220 900 224 741 232 1382 
5600 -0.2609467898313595 0.040729003157052135 1.2004741905357657 0 0 0 1.13 164 2542 165 1266 213 2624 223 969 235 1244 
5601 -0.6676475424107333 -0.17678842598456815 1.0710752785347246 0 0 0 0.57 164 2543 185 988 200 801 220 901 221 1200 224 742 
5602 -0.12398075594628995 -0.13763484853145994 1.3550536119119445 0 0 0 0.42 184 656 197 624 221 1201 
5603 -0.36088508902197525 -0.0886667161130055 1.1734633946153492 0 0 0 0.7 159 1294 164 2544 185 989 217 670 223 970 
5604 -0.44508310142186625 -0.05010582341189628 1.139812637590895 0 0 0 0.68 147 836 176 2059 190 756 213 2625 219 1038 222 814 232 1383 
5605 -0.7020476308037469 -0.053471460563774165 1.0528212269533668 0 0 0 1.46 196 1196 220 902 223 971 232 1384 
5606 -0.13855211119903754 -0.015894562346194917 1.2869872312413044 0 0 0 0.44 147 837 165 1267 184 657 197 625 213 2626 221 1202 222 815 235 1245 
5607 -0.39749497641963055 -0.01813881646141082 1.155716380012331 0 0 0 0.46 188 45 204 1362 217 671 219 1039 
5608 -0.2883662037999695 -0.007867118650119511 1.2030141977983577 0 0 0 0.49 147 838 164 2545 165 1268 222 816 223 972 235 1246 
5609 -0.7020997631069262 -0.018641028347089902 1.0454004009042952 0 0 0 0.33 159 1295 164 2546 217 672 219 1040 220 903 224 743 232 1385 
5610 -0.6910184612263187 0.009302153825475876 1.0458169893135871 0 0 0 0.33 196 1197 220 904 224 744 
5611 -0.37626323811929546 0.022072370854082615 1.156710409956907 0 0 0 0.41 200 802 214 959 231 302 232 1386 
5612 -0.4267019576451639 0.02443098837364382 1.1432426136520482 0 0 0 0.46 190 757 213 2627 232 1387 
5613 -0.330788083518793 -0.22100202005555206 1.2038256597867862 0 0 0 0.41 147 839 152 622 158 899 176 2060 190 758 197 626 204 1363 213 2628 221 1203 227 675 232 1388 
5614 -0.7348814923957859 -0.18113669999491216 1.049129800166956 0 0 0 0.43 217 673 221 1204 232 1389 
5615 -0.3597709219430723 -0.1518394345513611 1.179319222169213 0 0 0 0.27 196 1198 213 2629 221 1205 
5616 -0.3598905568893066 -0.15189887582384445 1.1793699337092003 0 0 0 0.33 196 1199 213 2630 217 674 221 1206 
5617 -0.4988090992688078 -0.15063658999633645 1.117039480559618 0 0 0 0.33 147 840 196 1200 200 803 214 960 217 675 220 905 
5618 -0.6998169159608929 -0.1104457712198323 1.054405536737056 0 0 0 0.48 164 2547 172 1125 176 2061 190 759 196 1201 213 2631 219 1041 220 906 221 1207 224 745 227 676 
5619 -0.735574346469053 -0.07191766285014023 1.0361408096517484 0 0 0 0.14 196 1202 220 907 224 746 
5620 -0.3880277643310338 -0.049933968524591574 1.1563792099624446 0 0 0 0.3 197 627 213 2632 221 1208 232 1390 
5621 -0.4922084606416666 -0.035024186039077435 1.1071802103797628 0 0 0 0.27 147 841 158 900 190 760 204 1364 213 2633 219 1042 221 1209 222 817 232 1391 
5622 -0.4671551302215015 -0.03412870814110921 1.1236565063546005 0 0 0 0.14 190 761 213 2634 217 676 222 818 
5623 -0.3904128335897052 -0.031632515877171925 1.1593256841584192 0 0 0 0.38 213 2635 221 1210 232 1392 
5624 -0.7182410033155768 -0.012107791181174731 1.0445515528584148 0 0 0 0.64 190 762 220 908 221 1211 232 1393 
5625 -0.2825639796153777 0.004650698536949458 1.2082177394942684 0 0 0 0.39 221 1212 222 819 232 1394 
5626 -0.5489271123691118 -0.0019716772187015003 1.0938707318109229 0 0 0 0.54 190 763 221 1213 232 1395 
5627 -0.5701935445033834 0.0060655169112203595 1.0825846997640103 0 0 0 0.09 190 764 204 1365 219 1043 
5628 -0.1375007204804667 0.025982144300384858 1.281830773946144 0 0 0 0.13 190 765 197 628 213 2636 235 1247 
5629 -0.4966155988937106 -0.17112232763433788 1.1249309722869996 0 0 0 1.34 213 2637 217 677 221 1214 232 1396 
5630 -0.39430839386877276 -0.15910030374929351 1.1623263983551757 0 0 0 0.48 158 901 176 2062 200 804 219 1044 
5631 -0.7407946375970683 -0.16969741698929244 1.0504247870606325 0 0 0 0.3 198 437 199 286 220 909 221 1215 
5632 -0.30175227664954923 -0.12169018212432359 1.211106549162345 0 0 0 0.52 204 1366 217 678 221 1216 
5633 -0.09200266147812951 -0.09055353627575947 1.3399137286228806 0 0 0 0.22 190 766 197 629 222 820 
5634 -0.6176460180422192 -0.09000067805786145 1.080534147056741 0 0 0 0.22 190 767 199 287 217 679 220 910 232 1397 
5635 -0.6158187045391078 -0.020906691033056465 1.071903341361479 0 0 0 0.49 164 2548 176 2063 190 768 199 288 204 1367 213 2638 219 1045 221 1217 232 1398 
5636 -0.2826973673357174 -0.006557364377663474 1.2077503490507369 0 0 0 0.23 198 438 200 805 213 2639 214 961 
5637 -0.2772491282070371 -0.0026211089903788202 1.2068172098498744 0 0 0 0.5 158 902 190 769 196 1203 221 1218 222 821 232 1399 234 178 
5638 -0.3880819111637306 0.028631240831965457 1.1497524315882115 0 0 0 0.6 147 842 194 307 196 1204 198 439 213 2640 217 680 220 911 221 1219 222 822 223 973 232 1400 
5639 -0.7236591693811705 -0.17152413862534507 1.0581261975150704 0 0 0 0.4 172 1126 176 2064 190 770 217 681 219 1046 221 1220 227 677 232 1401 
5640 -0.3542236951790471 -0.14544107147159643 1.1827499327213007 0 0 0 0.63 158 903 162 823 164 2549 200 806 208 132 217 682 
5641 -0.6871144464679761 -0.03877939283470346 1.0523446913513097 0 0 0 0.53 162 824 164 2550 172 1127 199 289 220 912 
5642 -0.45288969635926857 -0.01749233141559509 1.1260245923892018 0 0 0 0.54 147 843 190 771 194 308 196 1205 198 440 204 1368 217 683 220 913 221 1221 224 747 232 1402 
5643 -0.7236814800992106 -0.0008772004110791941 1.0419879448278682 0 0 0 0.34 199 290 220 914 224 748 
5644 -0.41231422394709016 -0.04284884775673173 1.1433872589173402 0 0 0 0.67 188 46 213 2641 221 1222 232 1403 
5645 -0.35564343224025974 -0.039218876423689424 1.1663817650359931 0 0 0 0.75 147 844 188 47 198 441 
5646 -0.14360046710290336 -0.02176203364138752 1.2790372293686607 0 0 0 0.6 184 658 190 772 197 630 198 442 204 1369 221 1223 227 678 
5647 -0.35668636668715215 -0.003375886626027365 1.1675808669911747 0 0 0 0.67 147 845 164 2551 172 1128 181 310 194 309 196 1206 198 443 213 2642 217 684 220 915 221 1224 222 823 223 974 232 1404 
5648 -0.3843857581770988 0.028847051513781655 1.1526742485850299 0 0 0 0.82 147 846 158 904 164 2552 194 310 196 1207 198 444 213 2643 217 685 220 916 221 1225 223 975 227 679 232 1405 
5649 -0.5971702422433894 -0.11570451491840507 1.085826870316077 0 0 0 0.41 162 825 172 1129 200 807 213 2644 
5650 -0.3992460013927353 -0.10436222653563729 1.1571830486442367 0 0 0 0.63 147 847 159 1296 172 1130 176 2065 190 773 196 1208 198 445 204 1370 213 2645 214 962 217 686 220 917 221 1226 223 976 232 1406 
5651 -0.3428271853554882 -0.045464360457141806 1.1771170736330459 0 0 0 0.78 164 2553 176 2066 198 446 213 2646 214 963 217 687 220 918 232 1407 
5652 -0.3444083224080536 -0.045188505211570695 1.1811650851767268 0 0 0 1.24 198 447 213 2647 232 1408 
5653 -0.20819827549970976 -0.03659591337845872 1.2452171943733088 0 0 0 0.28 190 774 198 448 222 824 232 1409 
5654 -0.427885664219976 -0.030703686902630322 1.1425895916995006 0 0 0 0.76 188 48 213 2648 214 964 221 1227 232 1410 
5655 -0.34186944655021273 -0.0018211162981962316 1.173255634793913 0 0 0 1.04 147 848 190 775 196 1209 198 449 213 2649 217 688 221 1228 223 977 232 1411 
5656 -0.3424993578486146 0.0271230658475899 1.1719761620117006 0 0 0 0.26 194 311 196 1210 220 919 
5657 -0.676427678827516 -0.11087247352180118 1.063451066719696 0 0 0 0.86 164 2554 190 776 198 450 199 291 204 1371 213 2650 217 689 219 1047 220 920 221 1229 224 749 227 680 232 1412 
5658 -0.6431302127362599 -0.08359815849531724 1.068618101670325 0 0 0 0.61 162 826 198 451 204 1372 220 921 
5659 -0.37168546411292963 -0.043825108852217826 1.1667152565285859 0 0 0 0.64 194 312 198 452 213 2651 221 1230 232 1413 
5660 -0.5087907852599844 -0.006411273102659617 1.1007876791857736 0 0 0 0.45 213 2652 220 922 221 1231 224 750 232 1414 
5661 -0.5101516284668065 -0.006376064207909698 1.1022822355971031 0 0 0 0.84 147 849 176 2067 190 777 213 2653 220 923 221 1232 224 751 232 1415 
5662 -0.32670629160595954 0.014903435180188785 1.178392962221719 0 0 0 1.06 164 2555 190 778 194 313 196 1211 198 453 214 965 217 690 220 924 223 978 
5663 -0.3267782788649025 0.015444085526967232 1.1784619532018055 0 0 0 0.89 164 2556 196 1212 198 454 214 966 217 691 
5664 -0.5620709864834955 0.007751413294744747 1.087725363708341 0 0 0 0.21 213 2654 214 967 221 1233 
5665 -0.4798149476313639 -0.2253158953899982 1.176275291352063 0 0 0 0.56 190 779 213 2655 232 1416 
5666 -0.35317808010448387 -0.22583860194756364 1.2323774565170307 0 0 0 0.34 190 780 204 1373 222 825 
5667 -0.2778543804568006 -0.18327406797950407 1.2255014900019512 0 0 0 0.25 190 781 213 2656 232 1417 
5668 -0.17238497272111705 -0.18976642642759411 1.302436944859052 0 0 0 0.31 147 850 184 659 190 782 204 1374 213 2657 222 826 227 681 
5669 -0.6910899953881099 -0.16500336021423803 1.0543843028311668 0 0 0 0.24 190 783 213 2658 232 1418 
5670 -0.5619609255769539 -0.16464349007663856 1.0933974337003995 0 0 0 0.27 190 784 204 1375 219 1048 
5671 -0.6956939857347758 -0.1635113211911128 1.064019020442796 0 0 0 0.21 190 785 213 2659 232 1419 
5672 -0.5923394910299559 -0.1627636146172219 1.083511564141093 0 0 0 0.33 190 786 204 1376 219 1049 221 1234 
5673 -0.4963567931154524 -0.15977728830261123 1.1133139770719918 0 0 0 0.19 190 787 213 2660 222 827 232 1420 
5674 -0.355225664291484 -0.15203215901150535 1.1831075376585176 0 0 0 0.53 190 788 219 1050 223 979 232 1421 
5675 -0.6345200407360151 -0.137723134123002 1.0756535295292278 0 0 0 0.15 190 789 213 2661 217 692 
5676 -0.6306158492682961 -0.12914198147110922 1.0706116156298409 0 0 0 0.4 190 790 213 2662 219 1051 221 1235 
5677 -0.2434294802708252 -0.11927500061731701 1.2347581014643099 0 0 0 0.1 190 791 204 1377 222 828 
5678 -0.6457675138183105 -0.10171685657592473 1.0711249564568057 0 0 0 0.28 190 792 204 1378 213 2663 232 1422 
5679 -0.22623425583066828 -0.09791270404937037 1.2445910870533126 0 0 0 0.12 190 793 213 2664 234 179 
5680 -0.19901920821670324 -0.0825981738892313 1.2546128568773112 0 0 0 0.26 190 794 196 1213 213 2665 235 1248 
5681 -0.4165858873428349 -0.0429555889180257 1.1424963390684881 0 0 0 0.21 147 851 188 49 190 795 204 1379 213 2666 219 1052 222 829 232 1423 
5682 -0.0395814273698812 -0.029729390400297255 1.2454262926589943 0 0 0 0.12 190 796 197 631 221 1236 
5683 -0.5645064419692383 -0.019487643549394165 1.0858992218873487 0 0 0 0.35 190 797 204 1380 213 2667 219 1053 
5684 -0.45182172343753607 -0.014440554757022706 1.1284884626905383 0 0 0 0.12 190 798 204 1381 219 1054 
5685 -0.26601602272805996 -0.006555624802758692 1.208811856923141 0 0 0 0.36 172 1131 190 799 213 2668 221 1237 222 830 232 1424 
5686 -0.3711283248958743 0.01875122218290941 1.1640096907504633 0 0 0 0.11 190 800 213 2669 214 968 
5687 -0.4311773421825004 0.020054025254946414 1.1294924048437882 0 0 0 0.15 190 801 204 1382 213 2670 232 1425 
5688 -0.5372306882266924 -0.1749568947958121 1.1119765043702263 0 0 0 0.18 190 802 204 1383 232 1426 
5689 -0.6549091854568169 -0.137887950200753 1.0675976695050804 0 0 0 0.25 172 1132 176 2068 190 803 204 1384 213 2671 219 1055 232 1427 
5690 -0.6360777896501235 -0.13645327416639483 1.070191142817678 0 0 0 0.31 190 804 213 2672 217 693 221 1238 
5691 -0.6364373247842572 -0.13640633617742215 1.0707260880321325 0 0 0 0.31 190 805 204 1385 213 2673 219 1056 221 1239 227 682 232 1428 
5692 -0.6589144411794651 -0.1338244413523247 1.0640675258156675 0 0 0 0.33 190 806 213 2674 221 1240 
5693 -0.5949360846079588 -0.12212656548712603 1.0912221563918498 0 0 0 0.29 176 2069 190 807 219 1057 232 1429 
5694 -0.6568323903787423 -0.08214856496836401 1.068006626563727 0 0 0 0.49 172 1133 176 2070 190 808 204 1386 213 2675 220 925 227 683 232 1430 
5695 -0.009088272400205542 -0.07772570972987411 1.2143043316228144 0 0 0 0.54 190 809 197 632 221 1241 
5696 -0.6288915961732112 -0.07520571396295601 1.0830996623607558 0 0 0 0.54 172 1134 190 810 213 2676 227 684 232 1431 
5697 -0.662360457580313 -0.0376286688167508 1.0538151978408603 0 0 0 0.4 176 2071 190 811 204 1387 213 2677 217 694 219 1058 227 685 232 1432 
5698 -0.6521426842354083 -0.012900911191029858 1.0555041057045387 0 0 0 0.58 190 812 221 1242 232 1433 
5699 -0.2243682505600276 -0.0023908773773574925 1.2304306053926664 0 0 0 0.14 190 813 213 2678 227 686 232 1434 
5700 -0.49656537202902357 -0.2114100846722026 1.1260720185287805 0 0 0 0.41 152 623 190 814 213 2679 217 695 
5701 -0.34871954037457853 -0.22205006661006993 1.2309962469949174 0 0 0 0.33 190 815 213 2680 232 1435 
5702 -0.3305358572640066 -0.21301458359233652 1.2054816791603384 0 0 0 0.27 190 816 213 2681 217 696 232 1436 
5703 -0.6683828080739962 -0.1985947470535053 1.0756983512707534 0 0 0 0.19 190 817 213 2682 217 697 
5704 -0.5269521882484568 -0.1963697877806975 1.1177402691890523 0 0 0 0.33 190 818 213 2683 217 698 
5705 -0.6883329229599839 -0.12300106304465307 1.060022405693951 0 0 0 0.14 190 819 204 1388 232 1437 
5706 -0.66066510224422 -0.06233746327171471 1.0576809403023937 0 0 0 0.54 158 905 172 1135 190 820 198 455 204 1389 221 1243 
5707 -0.24051903707766176 -0.039357186516092435 1.2366762745147022 0 0 0 0.49 182 461 190 821 213 2684 221 1244 
5708 -0.19838793339308755 -0.026600995405463203 1.248213777319674 0 0 0 0.75 164 2557 165 1269 190 822 196 1214 198 456 213 2685 223 980 235 1249 
5709 -0.38029819909786644 0.0011983051530677468 1.1547932488800865 0 0 0 0.26 190 823 204 1390 213 2686 
5710 -0.6759187599595595 -0.11995132819245462 1.048667449423361 0 0 0 0.4 158 906 172 1136 227 687 
5711 -0.026238644166145263 -0.035348864717066344 1.225974015780273 0 0 0 0.64 190 824 221 1245 234 180 
5712 -0.40500215670244155 0.0005173258021919546 1.1490884395819523 0 0 0 0.21 190 825 213 2687 232 1438 
5713 -0.4424088004659851 -0.22828645290363764 1.1491933164606682 0 0 0 0.32 172 1137 190 826 204 1391 219 1059 
5714 -0.6166023890101391 -0.1667732231121125 1.0859529768328016 0 0 0 0.78 190 827 196 1215 213 2688 
5715 -0.5731221194387035 -0.10267133357382459 1.092253226765021 0 0 0 0.3 190 828 217 699 220 926 
5716 -0.02272262257030253 -0.07790348928408622 1.217980070717923 0 0 0 0.24 190 829 197 633 221 1246 
5717 -0.660051225380225 -0.17312074146029338 1.0729855532229735 0 0 0 0.65 159 1297 164 2558 181 311 190 830 196 1216 199 292 213 2689 217 700 220 927 221 1247 224 752 232 1439 
