# 3D point list with one line of data per point:
#   POINT3D_ID, X, Y, Z, R, G, B, ERROR, TRACK[] as (IMAGE_ID, POINT2D_IDX)
# Number of points: 414, mean track length: 7.23
360 0.17277265656786123 -0.08680467656532888 1.0201876817347677 0 0 0 0.56 12 30 15 28 26 26 27 107 42 257 43 48 53 35 63 57 71 50 73 43 107 36 126 54 146 56 147 22 148 165 159 65 162 61 176 46 185 47 196 170 204 28 
361 0.4144968775812492 -0.0008484039175525634 1.015428485401862 0 0 0 0.33 12 31 19 94 40 107 43 49 54 49 60 78 71 51 105 61 111 34 127 34 136 102 148 166 162 62 163 28 164 157 196 171 198 20 
362 0.2537194863789095 0.09825795328886272 0.9834046113726908 0 0 0 0.37 12 32 42 258 52 89 54 50 85 186 107 37 109 50 110 45 148 167 164 158 165 97 185 48 194 30 196 172 
363 -3.296863177755688e-05 0.10759049652136003 0.9913110391764592 0 0 0 0.64 12 33 19 95 26 27 33 98 42 259 44 71 50 31 60 79 111 35 158 18 172 28 200 26 
364 0.1057705237642085 -0.11643782621598243 1.0252597785223907 0 0 0 1.02 15 29 33 99 38 29 40 108 42 260 85 187 111 36 148 168 162 63 164 159 213 108 
365 0.11127740363828392 -0.09372986156623467 1.0228077433681455 0 0 0 0.28 15 30 16 20 19 96 40 109 42 261 61 32 77 160 85 188 118 46 159 66 164 160 185 49 
366 0.05927070605410414 -0.08675564280609775 1.0225448771868144 0 0 0 0.49 15 31 42 262 111 37 164 161 
367 0.012101623493301992 -0.08432750510862246 1.0248779868739002 0 0 0 0.32 15 32 27 108 42 263 77 161 92 57 159 67 164 162 176 47 196 173 213 109 
368 0.21599583621992804 -0.0825044644739825 1.01759630401686 0 0 0 0.19 15 33 19 97 33 100 42 264 107 38 162 64 
369 0.2043302286720273 0.0045946382293497985 1.0073708985420944 0 0 0 0.07 15 34 42 265 196 174 
370 0.1850491015033375 0.06970322718172266 0.9887888691449473 0 0 0 0.27 15 35 42 266 136 103 
371 0.06803922201432996 0.0796851844470448 0.99163890993562 0 0 0 0.24 15 36 17 73 42 267 164 163 172 29 213 110 
372 0.008432068073891475 0.09707337430257722 0.9963858821631179 0 0 0 0.39 15 37 19 98 25 15 27 109 33 101 42 268 52 90 85 189 93 38 96 37 111 38 148 169 162 65 196 175 
373 0.019205976445420846 -0.1119861797112477 1.02952500601033 0 0 0 0.44 15 38 16 21 27 110 33 102 38 30 42 269 44 72 52 91 85 190 111 39 118 47 148 170 157 21 164 164 185 50 196 176 213 111 
374 0.3951810714720004 0.056976023627595844 0.9957833559624235 0 0 0 0.23 15 39 17 74 54 51 63 58 71 52 110 46 148 171 165 98 213 112 
375 0.2538765518927001 -0.11240287680285661 1.022176234285825 0 0 0 0.25 15 40 40 110 42 270 85 191 165 99 196 177 
376 0.19186120588081415 -0.009646285953141895 1.0073328316802894 0 0 0 0.34 15 41 27 111 42 271 159 68 
377 0.13093222318047437 0.10515301248940166 0.9836868468171931 0 0 0 0.2 15 42 40 111 42 272 172 30 196 178 
378 0.23346401083735321 0.06243529930466 0.9884605360162897 0 0 0 0.41 15 43 19 99 42 273 73 44 91 73 148 172 163 29 164 165 196 179 
379 0.2172737187754252 -0.07752328799439476 1.013595712007628 0 0 0 0.33 15 44 42 274 44 73 54 52 63 59 71 53 118 48 148 173 
380 0.23479522995977 -0.037958996013930775 1.0111206463710298 0 0 0 0.57 15 45 27 112 40 112 42 275 71 54 126 55 127 35 
381 0.3746126026016096 -0.08664015741797138 1.0165285117828005 0 0 0 0.51 28 17 33 103 42 276 44 74 85 192 148 174 176 48 200 27 213 113 
382 0.37922757616156544 -0.02419566239211838 1.0055256306813316 0 0 0 0.18 19 100 33 104 40 113 42 277 52 92 60 80 105 62 127 36 136 104 148 175 213 114 
383 0.25245821892998405 -0.011712055056705414 1.0037546797349195 0 0 0 0.22 27 113 40 114 42 278 164 166 
384 0.17589307474305163 0.08835867424983122 0.9855284117427556 0 0 0 0.44 38 31 42 279 52 93 85 193 91 74 146 57 164 167 165 100 194 31 
385 0.05018744487259314 0.09760823580588775 0.9942887728756113 0 0 0 0.22 16 22 42 280 92 58 196 180 213 115 
386 0.2852175768042115 0.1130927599126398 0.9792501375895979 0 0 0 0.24 42 281 60 81 105 63 136 105 146 58 184 42 194 32 213 116 
387 0.012071912632490234 -0.08443357306053026 1.0250590510753181 0 0 0 0.3 16 23 42 282 92 59 157 22 164 168 196 181 
388 0.3898146699315059 -0.01072118671700638 1.003209739108453 0 0 0 0.26 19 101 77 162 91 75 148 176 162 66 
389 0.2677155624579463 0.06386612781457685 0.9905361254375769 0 0 0 0.42 42 283 52 94 148 177 165 101 185 51 194 33 196 182 
390 0.1102228552628598 0.06465725850704414 0.9920503853032293 0 0 0 0.21 16 24 42 284 93 39 146 59 176 49 
391 0.2474894372849919 0.09528203207335766 0.9833482511179019 0 0 0 0.22 42 285 164 169 194 34 
392 0.2871919137264567 0.096980553287305 0.9816961435146602 0 0 0 0.23 42 286 52 95 148 178 164 170 194 35 196 183 
393 0.07059447615872641 0.10234056044601472 0.9874004404219462 0 0 0 0.18 16 25 42 287 85 194 196 184 
394 0.1423446284285784 0.11051977267522806 0.9816791193971969 0 0 0 0.47 28 18 42 288 109 51 146 60 
395 0.1776089249305756 0.11618935994758825 0.9809686458059449 0 0 0 0.35 42 289 77 163 164 171 165 102 213 117 
396 0.17786569955800396 0.12583192944236601 0.9792828009528747 0 0 0 0.44 42 290 77 164 93 40 146 61 164 172 213 118 
397 -0.0029826859258305655 -0.13012513259160452 1.0322566395617343 0 0 0 0.31 16 26 17 75 27 114 28 19 38 32 42 291 44 75 50 32 52 96 71 55 77 165 85 195 109 52 146 62 158 19 159 69 185 52 200 28 
398 0.09084456258385369 -0.1142184981555684 1.0286875245078684 0 0 0 0.35 16 27 33 105 40 115 42 292 44 76 93 41 148 179 196 185 
399 0.11392286358850079 -0.0813526742649224 1.0204423283410353 0 0 0 0.29 16 28 27 115 42 293 92 60 126 56 148 180 164 173 213 119 
400 0.3166174188051957 -0.0760381233404026 1.0130980397637153 0 0 0 0.33 19 102 42 294 63 60 91 76 146 63 164 174 196 186 
401 0.2974464865380888 -0.08554736525381092 1.0159443817910334 0 0 0 0.25 17 76 19 103 27 116 42 295 77 166 85 196 165 103 176 50 196 187 204 29 213 120 
402 0.0753001601905413 0.0809688773400523 0.9915435736605505 0 0 0 0.45 16 29 27 117 42 296 43 50 111 40 204 30 
403 0.28666059128950766 -0.04535562328567548 1.011646218162577 0 0 0 0.29 29 40 42 297 54 53 77 167 118 49 126 57 148 181 159 70 185 53 213 121 
404 0.27011624474319423 -0.062028961149234826 1.0129947340568408 0 0 0 0.43 17 77 29 41 40 116 42 298 53 36 63 61 118 50 126 58 159 71 162 67 197 27 198 21 
405 0.03664714758559943 -0.025395488123079537 1.0155827867282912 0 0 0 0.23 16 30 42 299 136 106 213 122 
406 -0.34559863561645376 -0.1961072940196769 0.8831795556299943 0 0 0 0.11 17 78 40 117 42 300 
407 -0.34559863561645376 -0.1961072940196769 0.8831795556299943 0 0 0 0.11 17 79 40 118 42 301 
408 0.19964831510082728 -0.17022662630802135 1.0356606065402965 0 0 0 0.28 17 80 42 302 60 82 
409 0.21150864765300278 0.06547776580079075 0.9887273996812959 0 0 0 0.11 17 81 42 303 85 197 91 77 185 54 
410 0.07009754140175986 0.12897974708454701 0.9831795054572157 0 0 0 0.12 17 82 42 304 146 64 
411 0.349250574364602 0.12720173750547153 0.9743569111100308 0 0 0 0.39 17 83 44 77 77 168 85 198 127 37 213 123 
412 -0.17983632487231874 -0.0913684379632119 1.0539266023037792 0 0 0 0.39 17 84 19 104 42 305 77 169 85 199 146 65 157 23 176 51 204 31 
413 0.14519795828877863 -0.08121701258751762 1.0177169147480136 0 0 0 0.12 17 85 42 306 85 200 
414 0.2975012776310906 -0.0855407485052639 1.0160094130699817 0 0 0 0.14 17 86 42 307 165 104 
415 0.38010195923609014 -0.03917970836035151 1.0088772709933527 0 0 0 0.2 17 87 42 308 52 97 
416 0.3098540203674166 -0.13194895890856095 1.0220499535831393 0 0 0 0.21 19 105 40 119 42 309 60 83 85 201 105 64 136 107 148 182 196 188 
417 0.32089178422124226 -0.13133411409621756 1.0248709568569412 0 0 0 0.26 19 106 42 310 44 78 60 84 
418 -0.015018544637689204 -0.13176482136851808 1.0320565194929616 0 0 0 0.3 19 107 42 311 109 53 
419 0.3624000281240928 -0.08086332729904382 1.013398439855482 0 0 0 0.31 19 108 33 106 40 120 42 312 60 85 85 202 91 78 105 65 111 41 126 59 136 108 148 183 162 68 163 30 196 189 
420 0.38958206065666473 -0.0777472800819933 1.0135493826320217 0 0 0 0.35 19 109 33 107 42 313 85 203 105 66 165 105 
421 0.3622736050660785 -0.07549654728938618 1.011889111191415 0 0 0 0.21 19 110 33 108 42 314 52 98 91 79 105 67 126 60 
422 0.4578350839777854 -0.0706284691233607 1.0459107182359613 0 0 0 0.52 19 111 105 68 164 175 196 190 
423 0.23820928140346753 -0.07938678438410991 1.0161442513160823 0 0 0 0.45 19 112 42 315 44 79 52 99 60 86 127 38 172 31 185 55 196 191 204 32 
424 0.2274238890589698 -0.079917496972579 1.0181068307319658 0 0 0 0.21 19 113 42 316 107 39 164 176 196 192 
425 0.4531235374585934 -0.059762389743730195 1.041084593006008 0 0 0 0.24 19 114 85 204 91 80 105 69 196 193 
426 0.10734072391153393 -0.08383067859342926 1.0194112417810217 0 0 0 0.49 19 115 42 317 44 80 93 42 127 39 200 29 
427 -0.023774030174733996 -0.08315909471427844 1.0285426218966676 0 0 0 0.52 19 116 42 318 93 43 148 184 
428 0.44290059658148256 -0.04190512255382514 1.0349908432008803 0 0 0 0.37 19 117 60 87 85 205 91 81 105 70 136 109 162 69 196 194 
429 -0.07227253693635194 -0.08467349017650286 1.0298097216082995 0 0 0 0.31 19 118 40 121 42 319 85 206 159 72 196 195 
430 0.4282030529985461 -0.030924338517352486 1.0268126014588563 0 0 0 0.43 19 119 42 320 85 207 110 47 136 110 184 43 
431 0.4564558773577642 -0.019354477632623025 1.0378949811561935 0 0 0 0.47 19 120 40 122 162 70 196 196 
432 0.3871585629236622 -0.00988654710809335 1.00231107537441 0 0 0 0.43 19 121 33 109 42 321 136 111 163 31 213 124 
433 0.23760333799823172 -0.018228746631862712 1.0073610561355073 0 0 0 0.22 19 122 40 123 42 322 77 170 85 208 92 61 93 44 148 185 159 73 
434 0.44692037660331624 0.004366951074262426 1.0281352080720814 0 0 0 0.34 19 123 40 124 105 71 136 112 164 177 165 106 196 197 
435 0.22418330924213892 -0.005742986412253607 1.0080344896188587 0 0 0 0.25 19 124 42 323 148 186 
436 0.4504721199555556 0.011508439088356076 1.028225448419683 0 0 0 0.33 19 125 85 209 105 72 136 113 196 198 
437 0.4397120049944084 0.01629038389652052 1.023461853338247 0 0 0 0.25 19 126 40 125 42 324 136 114 
438 0.42676268927508837 0.01729695509027901 1.0156923407959062 0 0 0 0.4 19 127 40 126 44 81 85 210 91 82 105 73 127 40 136 115 164 178 
439 0.07629303074374823 -0.007490064195915466 1.0079984306189893 0 0 0 0.21 19 128 42 325 196 199 
440 0.19178510571933136 0.007407018174962146 1.008210491560214 0 0 0 0.2 19 129 42 326 136 116 148 187 
441 0.4220834538495411 0.030529956438533547 1.0138642309234644 0 0 0 0.25 19 130 105 74 136 117 196 200 
442 0.22554508260931957 0.024115655773835978 1.0035522790337599 0 0 0 0.24 19 131 42 327 196 201 
443 0.4491143714342823 0.039659438973153945 1.0240194285140307 0 0 0 0.34 19 132 40 127 105 75 107 40 136 118 162 71 164 179 
444 0.2443324886379497 0.07272582153864966 0.9869845420107026 0 0 0 0.3 19 133 29 42 33 110 40 128 42 328 54 54 77 171 105 76 109 54 110 48 136 119 148 188 164 180 194 36 
445 0.2626846464948781 0.10012890905908033 0.9834340922161405 0 0 0 0.28 19 134 33 111 42 329 52 100 85 211 91 83 105 77 107 41 109 55 194 37 
446 0.2838777116421338 0.1052706410516532 0.9800421951331137 0 0 0 0.25 19 135 33 112 40 129 42 330 52 101 60 88 85 212 91 84 105 78 110 49 136 120 148 189 194 38 196 202 
447 0.11295570202906843 0.10522702862683755 0.985644415933512 0 0 0 0.26 19 136 33 113 42 331 52 102 92 62 194 39 196 203 
448 0.239190039606014 0.11380798261883156 0.9796063349960838 0 0 0 0.31 19 137 42 332 107 42 109 56 110 50 148 190 194 40 
449 0.23617381686019712 0.11371562271670081 0.9792127207643725 0 0 0 0.47 19 138 42 333 52 103 60 89 85 213 107 43 109 57 110 51 
450 0.3806696316598904 0.13034485684863606 0.9757204145631813 0 0 0 0.49 19 139 85 214 196 204 
451 0.41450590755821115 0.13636990642303262 0.9903019689989419 0 0 0 0.21 19 140 107 44 164 181 
452 0.3878104453525781 0.1377303557442397 0.9773380145938428 0 0 0 0.3 19 141 33 114 40 130 85 215 107 45 148 191 196 205 
453 0.2855601316678799 -0.12633209996004674 1.0229988492480484 0 0 0 0.16 19 142 42 334 85 216 
454 0.045229482595194354 -0.12336439459277365 1.030973057528694 0 0 0 0.27 19 143 40 131 42 335 44 82 126 61 148 192 162 72 164 182 196 206 200 30 
455 0.07024015040439031 -0.10957301342030823 1.0282400269188485 0 0 0 0.32 19 144 28 20 42 336 44 83 93 45 158 20 176 52 200 31 
456 0.020214621536518724 -0.10800630794996234 1.0297088825834408 0 0 0 0.26 19 145 38 33 40 132 42 337 111 42 136 121 148 193 162 73 196 207 
457 -0.18425253077478357 -0.12212218453469252 1.0601955488828207 0 0 0 0.27 19 146 40 133 42 338 196 208 
458 0.271518665976046 -0.07474066892125938 1.0143565475216179 0 0 0 0.36 19 147 27 118 33 115 42 339 105 79 159 74 185 56 
459 0.007690705215391349 -0.07892349532266922 1.0240932980856345 0 0 0 0.36 19 148 40 134 42 340 52 104 85 217 92 63 93 46 109 58 126 62 136 122 148 194 164 183 
460 -0.1767956215802559 -0.08715890754799055 1.0525308612922877 0 0 0 0.36 19 149 42 341 53 37 85 218 
461 0.07310589395805532 -0.05814820162555789 1.0187764040358953 0 0 0 0.29 19 150 42 342 44 84 60 90 77 172 148 195 
462 0.07650172958396437 -0.05502125665770595 1.0169673689888206 0 0 0 0.28 19 151 40 135 42 343 148 196 196 209 
463 0.45495705693704924 -0.0229855139179133 1.0363598106477736 0 0 0 0.54 19 152 73 45 105 80 165 107 196 210 
464 0.29415461630928985 -0.004967050045137902 1.006189219718198 0 0 0 0.25 19 153 40 136 42 344 148 197 
465 0.423301055431932 0.016845802003932084 1.0152271374050885 0 0 0 0.28 19 154 85 219 91 85 105 81 136 123 165 108 
466 0.32018821027759636 0.05330789666935747 0.9847293078231806 0 0 0 0.13 19 155 33 116 42 345 148 198 196 211 
467 0.1879115526204206 0.050009009555973045 0.9959353305416782 0 0 0 0.25 19 156 26 28 42 346 52 105 63 62 85 220 148 199 185 57 196 212 
468 0.40438982686853847 0.10356627461821692 0.9869166075380441 0 0 0 0.16 19 157 136 124 196 213 
469 0.23109311673996472 0.11174063831439654 0.9780544160918916 0 0 0 0.19 19 158 42 347 85 221 107 46 194 41 196 214 
470 -0.06116465940503801 0.10247729190584656 0.9932030845530184 0 0 0 0.41 19 159 42 348 126 63 
471 -0.05949569121234979 -0.18167762844855873 1.0556273399883171 0 0 0 0.35 19 160 40 137 42 349 185 58 
472 -0.06769914554577955 -0.17401428793571688 1.0481014780946067 0 0 0 0.33 19 161 40 138 42 350 52 106 77 173 85 222 109 59 159 75 196 215 
473 -0.3459255014752493 -0.16761993341487258 0.9001635216368027 0 0 0 0.47 19 162 40 139 42 351 
474 0.07361690315285117 -0.1429578017743061 1.0335198521203337 0 0 0 0.75 19 163 42 352 60 91 164 184 
475 0.25720943466147905 -0.12109522322980563 1.023840797148706 0 0 0 0.16 19 164 40 140 42 353 105 82 109 60 
476 0.044654998531786956 -0.13390026430093757 1.0320319547476073 0 0 0 0.82 19 165 40 141 42 354 43 51 53 38 85 223 109 61 111 43 162 74 185 59 
477 0.36183605758808635 -0.08872531991094937 1.015920163403471 0 0 0 0.36 19 166 29 43 33 117 40 142 42 355 60 92 105 83 111 44 126 64 148 200 162 75 172 32 196 216 
478 0.358761984398304 -0.08480837286210759 1.014154736634975 0 0 0 0.29 19 167 29 44 33 118 40 143 42 356 52 107 54 55 60 93 85 224 91 86 111 45 126 65 148 201 162 76 163 32 165 109 172 33 
479 -0.01633980719313975 -0.09994661398110462 1.0313015994530754 0 0 0 0.26 19 168 42 357 52 108 162 77 200 32 
480 0.28729206324675416 -0.06268830653834453 1.0129996117951583 0 0 0 0.22 19 169 42 358 52 109 126 66 
481 0.06665851260893187 -0.07442617752968302 1.0198269753971463 0 0 0 0.3 19 170 40 144 42 359 85 225 109 62 
482 -0.34447141626725203 -0.0848500159103749 1.081405191025808 0 0 0 0.29 19 171 40 145 42 360 109 63 196 217 
483 0.39814485545284345 -0.019412015396680644 1.0087847096243565 0 0 0 0.31 19 172 33 119 40 146 52 110 85 226 126 67 136 125 148 202 196 218 
484 0.44637931132102027 0.016082251895886253 1.0255195236176924 0 0 0 0.4 19 173 40 147 73 46 85 227 162 78 196 219 
485 -0.2981188424099077 0.07142471626652719 1.040604262051959 0 0 0 0.18 19 174 42 361 52 111 
486 0.14791183487430898 0.09443108802302022 0.9838545516533609 0 0 0 0.45 19 175 33 120 40 148 42 362 111 46 162 79 
487 0.45746435297488597 -0.10179640499710232 1.048108027954923 0 0 0 0.24 19 176 40 149 85 228 
488 0.04653463187414833 -0.12778228220547475 1.0302775849162344 0 0 0 0.38 19 177 40 150 42 363 85 229 126 68 136 126 148 203 196 220 
489 0.11670071560737631 -0.10950031773633713 1.0249108903773805 0 0 0 0.86 19 178 40 151 42 364 60 94 63 63 77 174 85 230 148 204 162 80 164 185 172 34 196 221 
490 0.34591637549491333 -0.028757657552191954 1.0060488523456164 0 0 0 0.19 19 179 42 365 126 69 
491 0.20763505641698196 -0.022047980633259977 1.008756498702857 0 0 0 0.17 19 180 40 152 42 366 60 95 85 231 136 127 148 205 
492 0.19075147316254779 -0.022488973969164872 1.0105778578767053 0 0 0 0.35 19 181 27 119 33 121 42 367 44 85 85 232 109 64 111 47 126 70 136 128 148 206 159 76 162 81 196 222 
493 0.39369537606211596 0.008937553568747574 1.0031766887352662 0 0 0 0.23 19 182 33 122 40 153 63 64 71 56 85 233 107 47 127 41 136 129 148 207 196 223 
494 0.44230251790241815 0.012665356468746444 1.0247084399885562 0 0 0 0.31 19 183 40 154 71 57 73 47 77 175 85 234 136 130 163 33 165 110 184 44 196 224 
495 0.3937715036083124 0.06163277181086646 0.9948817061708279 0 0 0 0.28 19 184 148 208 196 225 
496 0.42176002428901727 0.0647059789382203 1.0087709127247093 0 0 0 0.4 19 185 40 155 63 65 73 48 110 52 127 42 136 131 196 226 
497 0.21901734730405056 0.0974578207150994 0.9835598946036894 0 0 0 0.42 19 186 26 29 42 368 43 52 60 96 185 60 194 42 196 227 
498 0.25748215736660085 0.10328646673487499 0.9811170085590012 0 0 0 0.21 19 187 42 369 107 48 
499 0.4063077839216256 0.1112727178219003 0.9902943622514168 0 0 0 0.28 19 188 60 97 107 49 196 228 
500 0.22284912398019374 0.10611988323422542 0.9829967143802643 0 0 0 0.22 19 189 33 123 40 156 42 370 52 112 91 87 111 48 162 82 194 43 
501 0.2229984776112567 0.10597731835079144 0.9811334806450653 0 0 0 0.48 19 190 42 371 43 53 52 113 60 98 63 66 73 49 85 235 91 88 107 50 109 65 111 49 147 23 162 83 194 44 200 33 
502 0.23591662942669928 0.10616548886354736 0.9801905303750096 0 0 0 0.23 19 191 42 372 52 114 60 99 107 51 111 50 148 209 162 84 163 34 194 45 
503 0.2477950396330385 0.10848459942616998 0.9781363866257468 0 0 0 0.29 19 192 33 124 40 157 42 373 43 54 52 115 63 67 71 58 85 236 91 89 105 84 110 53 111 51 148 210 162 85 163 35 194 46 196 229 
504 0.13489398038438813 -0.11908877565417546 1.0262828270837372 0 0 0 0.54 19 193 42 374 126 71 164 186 196 230 198 22 
505 0.027114913576286467 -0.12128842040899175 1.0316194675076624 0 0 0 0.37 19 194 42 375 85 237 96 38 111 52 126 72 196 231 200 34 
506 0.06281921712743187 -0.10646383742211511 1.0274000038950295 0 0 0 0.28 19 195 42 376 63 68 200 35 
507 0.0628750431235211 -0.1064143004318354 1.0273141731830857 0 0 0 0.5 19 196 40 158 42 377 44 86 63 69 162 86 196 232 200 36 
508 0.24008117699027334 0.09922371578562558 0.9845434897882454 0 0 0 0.31 19 197 27 120 42 378 52 116 107 52 194 47 
509 -0.017935686987591362 0.09847490970662309 0.9966534711423755 0 0 0 0.61 19 198 42 379 52 117 
510 0.31520829309276627 -0.1224368445633456 1.0201543615596782 0 0 0 0.24 19 199 42 380 163 36 
511 0.15601360588597804 -0.11409022112068229 1.0283324470418176 0 0 0 0.33 19 200 40 159 42 381 85 238 109 66 126 73 159 77 
512 0.24179782675393044 -0.06975400912087151 1.0135832421514623 0 0 0 0.63 19 201 40 160 96 39 118 51 146 66 164 187 165 111 197 28 
513 0.4079759295300689 -0.007130855100365559 1.0099881433929752 0 0 0 0.3 19 202 40 161 43 55 63 70 71 59 162 87 198 23 
514 0.3857298836081806 -0.004231930798031499 1.0012212689447622 0 0 0 0.4 19 203 33 125 40 162 42 382 105 85 136 132 148 211 196 233 213 125 
515 0.1851362637139278 -0.11378027036161026 1.0254140307722812 0 0 0 0.53 19 204 42 383 85 239 159 78 
516 -0.030800293814557667 -0.07945958504042262 1.019056790310106 0 0 0 0.29 19 205 42 384 159 79 
517 0.4204627951476295 0.05566978423113135 1.0034455677779925 0 0 0 0.31 19 206 40 163 136 133 
518 -0.343208215588421 -0.1577843592431197 0.8980581011203118 0 0 0 0.63 19 207 40 164 42 385 
519 0.20012972931429404 -0.11709079022055237 1.0256326656253762 0 0 0 0.26 19 208 42 386 111 53 
520 0.054794757279964426 -0.07079579719439427 1.0194886482430157 0 0 0 0.79 19 209 40 165 42 387 85 240 109 67 196 234 
521 0.2836057410222106 0.0784921282455889 0.9836029584961518 0 0 0 0.38 19 210 42 388 60 100 85 241 194 48 
522 0.28351767146651813 0.07866948842594351 0.9848039208415368 0 0 0 0.38 19 211 42 389 60 101 77 176 85 242 158 21 194 49 196 235 200 37 
523 0.2148981029185338 0.07772999549576005 0.9878718065995542 0 0 0 0.52 19 212 40 166 42 390 127 43 148 212 158 22 194 50 196 236 
524 0.21269997487116535 0.09326119160268088 0.986044062867398 0 0 0 1.04 19 213 42 391 85 243 91 90 
525 0.027109455409010608 -0.10182455240507413 1.0273875403968613 0 0 0 0.06 25 16 42 392 126 74 159 80 
526 0.19743030480866686 -0.013772907440760764 1.009300214634445 0 0 0 0.22 25 17 42 393 50 33 126 75 176 53 204 33 
527 0.07025118298793735 0.061271124182930556 0.9936154408505854 0 0 0 0.16 25 18 42 394 93 47 96 40 126 76 148 213 196 237 213 126 
528 -0.18297029627513964 0.06284488022695331 1.0238948289602035 0 0 0 0.31 25 19 42 395 77 177 
529 0.27802831754111385 0.09983541620718948 0.9810473382498147 0 0 0 0.23 40 167 42 396 53 39 54 56 63 71 96 41 105 86 110 54 136 134 147 24 148 214 185 61 194 51 196 238 
530 0.0012798612152784387 0.09840040202459685 0.9926225064643968 0 0 0 0.31 25 20 42 397 77 178 92 64 172 35 204 34 
531 0.1129814863466171 0.10156920697116803 0.9857345242887943 0 0 0 0.42 25 21 27 121 42 398 52 118 92 65 126 77 136 135 194 52 196 239 200 38 
532 -0.10070263410985116 0.0967369936912417 1.004043493985728 0 0 0 0.37 25 22 42 399 52 119 
533 0.06539296703996755 0.11865692458529732 0.9844590065977382 0 0 0 0.21 25 23 26 30 42 400 196 240 
534 0.10026098133374252 0.07086014621514829 0.9920662001505599 0 0 0 0.07 25 24 26 31 42 401 
535 0.13272259303832082 0.08949071791349816 0.985854146456425 0 0 0 0.51 26 32 42 402 52 120 196 241 
536 -0.06459111038670452 0.09772611391723378 0.9934245217176315 0 0 0 0.19 25 25 26 33 42 403 77 179 126 78 148 215 196 242 
537 0.07453362529769263 0.0905905880710122 0.9903647667724248 0 0 0 0.35 25 26 27 122 42 404 127 44 196 243 
538 -0.318174453013872 0.08834398915000222 1.039951364270635 0 0 0 0.52 25 27 26 34 42 405 73 50 159 81 
539 0.2699856760924568 -0.03831446693931127 1.0107719471360406 0 0 0 0.59 42 406 63 72 73 51 110 55 126 79 148 216 185 62 196 244 
540 0.23485018227584217 -0.038008007126234165 1.0108659327234666 0 0 0 0.56 27 123 40 168 42 407 71 60 126 80 127 45 
541 -0.19149080551823527 0.09148250526623239 1.0203249184286058 0 0 0 0.52 25 28 42 408 126 81 148 217 
542 -0.30686553959630974 -0.12539103305877744 1.0833936996558797 0 0 0 0.33 26 35 40 169 42 409 60 102 196 245 
543 0.030593937368554164 -0.07474522538843952 1.021625579283998 0 0 0 0.26 26 36 42 410 85 244 109 68 159 82 164 188 185 63 196 246 
544 0.19017406963348027 -0.04981002018393573 1.0173688059264205 0 0 0 0.48 26 37 42 411 73 52 165 112 185 64 
545 0.2228136418090944 0.06401500322977877 0.9900834988132351 0 0 0 0.21 26 38 42 412 85 245 109 69 148 218 196 247 
546 0.20758121262740445 0.06330662065225975 0.98933058900589 0 0 0 0.07 26 39 42 413 126 82 148 219 
547 0.18732126444207645 0.06365959560845559 0.9917890495165897 0 0 0 0.32 26 40 42 414 52 121 91 91 126 83 148 220 
548 0.115574736805187 0.06275620368793171 0.9937516340957905 0 0 0 0.23 26 41 40 170 42 415 196 248 
549 0.09973106575977339 0.09173678148759833 0.9878145978239963 0 0 0 0.34 26 42 42 416 43 56 172 36 196 249 
550 -0.04211971281230178 -0.10682571622158518 1.0329134621352094 0 0 0 0.25 26 43 40 171 42 417 127 46 136 136 
551 -0.36189489939747815 -0.14029056484712857 1.0978733910913694 0 0 0 0.45 26 44 42 418 60 103 73 53 111 54 126 84 148 221 
552 0.06705841342611553 -0.009582722798520899 1.0103771507988264 0 0 0 0.31 26 45 42 419 63 73 85 246 
553 -0.2614772728817518 0.05425927922284919 1.038146401115936 0 0 0 0.66 26 46 42 420 164 189 196 250 
554 -0.11633426855073757 0.10563641471849579 1.004210482937856 0 0 0 0.7 26 47 27 124 42 421 77 180 85 247 118 52 176 54 
555 -0.3565665035156971 -0.1199428635922313 1.0944990544631048 0 0 0 0.34 26 48 42 422 85 248 148 222 159 83 
556 0.18169856264494563 -0.04636242284790092 1.0135558523319648 0 0 0 0.35 26 49 42 423 63 74 159 84 185 65 197 29 198 24 213 127 
557 0.12716789092541234 -0.038786955893838855 1.011392336774561 0 0 0 0.58 26 50 40 172 42 424 109 70 148 223 194 53 198 25 
558 -0.014449725552290961 -0.13155525622391145 1.0311128314221372 0 0 0 0.23 27 125 42 425 109 71 
559 0.1332398091892345 -0.09277410597010878 1.0207614164289982 0 0 0 0.23 27 126 42 426 164 190 
560 0.11226112984972654 -0.0906940574663877 1.0213836574291517 0 0 0 0.36 27 127 42 427 77 181 127 47 
561 0.18294433450139708 -0.06914724109209701 1.0153854165401124 0 0 0 0.34 27 128 42 428 126 85 162 88 
562 0.017353137900614515 -0.020068783042581227 1.0162208443082954 0 0 0 0.29 27 129 42 429 85 249 109 72 196 251 
563 0.33327693160289146 -0.01217924290076515 1.0034822689054603 0 0 0 0.28 42 430 148 224 196 252 
564 0.3391572612207769 0.06482318247566261 0.9896287609383355 0 0 0 0.18 27 130 42 431 85 250 213 128 
565 0.35013004313348417 0.06652167253948346 0.9849247887525986 0 0 0 0.25 27 131 42 432 148 225 
566 0.14064522463266274 0.0726570116169742 0.989076588566184 0 0 0 0.38 27 132 38 34 42 433 77 182 92 66 96 42 136 137 148 226 
567 0.1779494481028753 0.0819207271322281 0.9866535632146392 0 0 0 0.46 27 133 42 434 77 183 96 43 118 53 
568 -0.035795950102056634 0.11495082189561445 0.9908207356352381 0 0 0 0.49 27 134 42 435 52 122 93 48 118 54 147 25 164 191 204 35 213 129 
569 0.10256455063376878 -0.1322928126356787 1.0252203284914787 0 0 0 0.85 27 135 42 436 50 34 159 85 185 66 196 253 
570 0.3837756686521343 -0.06892926823132119 1.0133477658515153 0 0 0 0.37 33 126 42 437 52 123 85 251 105 87 136 138 
571 0.17165987156978724 -0.021681550989205624 1.0093144165769643 0 0 0 0.37 27 136 42 438 54 57 96 44 162 89 
572 0.11086345970160935 -0.1278402046090378 1.02058964453029 0 0 0 0.39 27 137 42 439 50 35 54 58 73 54 92 67 164 192 196 254 
573 0.024770878649714927 -0.12718378641435532 1.031919067840251 0 0 0 0.37 27 138 40 173 42 440 96 45 126 86 159 86 162 90 185 67 
574 0.4107576971215108 0.12917480309952817 0.9913805893836746 0 0 0 0.33 43 57 71 61 148 227 196 255 
575 -0.015930170332795337 -0.09961551327470257 1.0306745256398937 0 0 0 0.36 27 139 42 441 52 124 164 193 200 39 
576 -0.021474410005889323 -0.09695430412570788 1.0300466954713152 0 0 0 0.48 27 140 40 174 42 442 148 228 159 87 
577 0.03258143186712307 0.11836190519785726 0.9840990215088169 0 0 0 0.43 27 141 42 443 52 125 85 252 92 68 126 87 194 54 196 256 
578 0.0005234707611311712 -0.12512273482474376 1.0323974961742306 0 0 0 0.38 27 142 42 444 52 126 
579 0.19644744896663063 0.09660328645323064 0.9841865342211917 0 0 0 0.56 42 445 52 127 127 48 196 257 
580 0.21732064655504674 -0.046679061177872405 1.0121444913213975 0 0 0 0.53 27 143 40 175 42 446 60 104 63 75 91 92 126 88 127 49 148 229 159 88 185 68 
581 0.3384440792289424 -0.06198237422468285 1.0111908529352904 0 0 0 0.32 27 144 29 45 63 76 91 93 146 67 148 230 
582 0.2675685071152876 0.11946900932360602 0.9768514096492498 0 0 0 0.73 27 145 42 447 53 40 77 184 196 258 
583 0.45454693281031616 -0.10331942175279737 1.0490031467437482 0 0 0 0.24 28 21 40 176 50 36 105 88 196 259 
584 0.3516298377580842 0.061884523127341516 0.982860082014145 0 0 0 0.29 28 22 42 448 176 55 
585 0.13650281649810087 0.06519558254907978 0.9901497153334486 0 0 0 0.3 28 23 42 449 127 50 194 55 196 260 
586 0.14200525116368953 0.12115979900051341 0.9799286064254715 0 0 0 0.29 28 24 40 177 42 450 52 128 85 253 109 73 146 68 148 231 196 261 
587 0.14193528490011137 0.12504567497241828 0.9792483514300933 0 0 0 0.21 28 25 42 451 52 129 85 254 146 69 148 232 194 56 
588 0.06962545521147447 0.12239417908129609 0.9848862993565733 0 0 0 0.2 28 26 42 452 92 69 146 70 213 130 
589 -0.1439602659365193 0.06205277349753192 1.0191029173403312 0 0 0 0.29 42 453 164 194 196 262 
590 -0.1491999775812067 0.04788838744701418 1.019070981325293 0 0 0 0.29 42 454 52 130 148 233 
591 0.31934908970413733 -0.08554652035880488 1.014926594032092 0 0 0 0.64 29 46 42 455 52 131 77 185 
592 0.19896387710477273 -0.0021570326291081906 1.006300170692438 0 0 0 0.58 29 47 42 456 60 105 85 255 111 55 126 89 200 40 
593 0.42082577152848355 0.056424839486508074 1.0084205699686013 0 0 0 0.28 29 48 63 77 136 139 
594 0.32918091420219087 -0.027098824140673144 1.0079580826358936 0 0 0 0.11 33 127 42 457 148 234 
595 0.4045156505206501 -0.017767956290514468 1.0126675019327889 0 0 0 0.21 33 128 52 132 60 106 85 256 136 140 148 235 213 131 
596 0.39255001812515194 -0.007303335100069284 1.0056194074752502 0 0 0 0.31 33 129 60 107 127 51 136 141 148 236 164 195 
597 0.40921343962851364 0.032376703151686156 1.0065231198183002 0 0 0 0.18 33 130 52 133 136 142 
598 0.3941110460219539 0.03535236671304629 0.9993390065273735 0 0 0 0.2 33 131 42 458 85 257 
599 0.38782935135342783 0.04047391795666964 0.9947392492649411 0 0 0 0.19 33 132 42 459 136 143 
600 0.3220832945962678 0.04343377990938792 0.9897510639358893 0 0 0 0.15 33 133 42 460 105 89 
601 0.3566522903796262 0.05357602959462668 0.9867990382630837 0 0 0 0.26 33 134 42 461 196 263 
602 0.3515733823669745 0.05883008478984611 0.9834776336107875 0 0 0 0.18 33 135 42 462 85 258 196 264 
603 0.38055593013012323 0.06331243648236613 0.9865537125875343 0 0 0 0.18 33 136 42 463 60 108 105 90 148 237 196 265 
604 0.2634334609632449 0.09595130854032972 0.9859545795383605 0 0 0 0.4 33 137 42 464 52 134 60 109 109 74 136 144 165 113 184 45 194 57 196 266 
605 0.28492372535343313 0.10144846306819513 0.9816837078092082 0 0 0 0.3 33 138 42 465 60 110 105 91 148 238 164 196 194 58 196 267 213 132 
606 0.2840407171104896 0.10311853558792354 0.9808636318544735 0 0 0 0.28 33 139 42 466 105 92 127 52 136 145 194 59 
607 0.38733872029149335 0.10980913350890399 0.984017978549552 0 0 0 0.18 33 140 85 259 136 146 
608 0.10322511205621787 -0.10147536616639075 1.0250736531537994 0 0 0 0.2 33 141 42 467 52 135 127 53 
609 0.3826354962278869 -0.02749285035151212 1.0068118403052788 0 0 0 0.32 33 142 42 468 91 94 164 197 196 268 
610 0.406929677367749 -0.012225744623722015 1.0126076890187425 0 0 0 0.32 33 143 40 178 52 136 60 111 85 260 136 147 148 239 
611 0.267138193913729 -0.0076684587668842666 1.0085251700782045 0 0 0 0.1 33 144 40 179 42 469 165 114 
612 0.3131558975108472 0.04354717577325045 0.989784222684524 0 0 0 0.1 33 145 42 470 148 240 
613 0.27959948442585325 0.06367241852642824 0.9886357958192159 0 0 0 0.24 33 146 42 471 148 241 194 60 
614 0.2801352350137187 0.06359457881815889 0.9861346980033131 0 0 0 0.66 33 147 42 472 105 93 109 75 110 56 148 242 194 61 
615 0.3932010871559809 0.07972195544232134 0.9872908152226451 0 0 0 0.14 33 148 40 180 148 243 196 269 
616 0.2671407068720144 0.10361376557262397 0.9797226338620173 0 0 0 0.16 33 149 42 473 148 244 196 270 
617 0.28963817445344753 0.10347078651341086 0.980790204067557 0 0 0 0.31 33 150 42 474 52 137 85 261 148 245 196 271 
618 0.3681006550488879 0.11914644010779431 0.9777928474489203 0 0 0 0.27 33 151 40 181 42 475 85 262 105 94 110 57 148 246 196 272 
619 0.3880441131933893 0.1466531383005049 0.9816482704451595 0 0 0 0.27 33 152 42 476 148 247 
620 0.38077764164749334 -0.16340586587721226 1.1071403375645479 0 0 0 0.6 33 153 42 477 60 112 148 248 196 273 
621 -0.06925023933031933 -0.0980522402813628 1.0301253140393678 0 0 0 0.61 33 154 42 478 148 249 196 274 
622 0.39028797803463705 -0.021949244158888864 1.006845148316784 0 0 0 0.46 33 155 40 182 52 138 60 113 73 55 165 115 196 275 
623 0.2343583930948813 -0.019938008915098296 1.0078380048867759 0 0 0 0.14 33 156 42 479 44 87 85 263 91 95 105 95 165 116 
624 0.11669988913730152 -0.015665441877800352 1.0107607323152688 0 0 0 0.2 33 157 42 480 136 148 164 198 185 69 196 276 
625 0.38922198384044004 0.0980030417467527 0.9866293924324842 0 0 0 0.22 33 158 52 139 85 264 110 58 136 149 148 250 196 277 
626 0.22668947166254413 0.10323116012865192 0.9801299942520402 0 0 0 0.5 33 159 42 481 164 199 196 278 
627 0.38337278265415387 0.11228935520669041 0.9826306392356812 0 0 0 0.44 33 160 42 482 136 150 
628 0.382980755447896 0.14253398805271383 0.9781683246314659 0 0 0 0.36 33 161 42 483 148 251 196 279 
629 0.38482898568498497 0.1446132754217256 0.9740714247484377 0 0 0 0.37 33 162 148 252 164 200 
630 0.3047799726215501 -0.12634873225359117 1.0226106408263655 0 0 0 0.36 33 163 40 183 42 484 52 140 85 265 148 253 164 201 
631 0.2059224868984462 0.058369976374378345 0.9910871947746769 0 0 0 0.37 33 164 42 485 43 58 52 141 53 41 73 56 85 266 92 70 93 49 148 254 164 202 194 62 196 280 
632 0.27235151568550126 0.10461148597908067 0.9806276210574458 0 0 0 0.63 33 165 40 184 42 486 52 142 73 57 105 96 127 54 136 151 148 255 184 46 194 63 196 281 
633 0.274227020446145 0.11138983861866293 0.979000231159118 0 0 0 0.25 33 166 42 487 60 114 109 76 163 37 184 47 
634 0.38658418334754846 -0.07360017823789779 1.0131615447647893 0 0 0 0.46 33 167 40 185 42 488 73 58 85 267 127 55 196 282 
635 0.40422481246710457 -0.014158899734177418 1.0126466791839523 0 0 0 0.3 33 168 52 143 54 59 60 115 63 78 71 62 85 268 105 97 126 90 136 152 148 256 164 203 196 283 
636 0.17945797888176923 0.041226408666644586 0.9931507374655522 0 0 0 0.29 33 169 42 489 109 77 196 284 
637 0.29578660463656886 -0.04030137586411567 1.012729239823445 0 0 0 0.1 33 170 42 490 136 153 148 257 
638 0.3978979856391066 -0.009285070114934318 1.0065695829634098 0 0 0 0.43 33 171 54 60 63 79 71 63 85 269 136 154 148 258 162 91 163 38 
639 0.3192741296970023 0.04623050718144786 0.9892051900422307 0 0 0 0.26 33 172 42 491 127 56 148 259 196 285 
640 0.2560157674107409 0.10454296512851485 0.982058012073281 0 0 0 0.29 33 173 40 186 42 492 148 260 194 64 196 286 
641 0.010037275529363088 0.10498168127385123 0.9943613086871712 0 0 0 0.38 33 174 42 493 196 287 
642 0.016549910232759375 0.061464548973513805 0.9988133672874194 0 0 0 0.21 33 175 42 494 196 288 
643 0.37460056280068776 0.11058168910339831 0.9787898294017372 0 0 0 0.48 33 176 52 144 71 64 85 270 110 59 127 57 148 261 196 289 198 26 
644 0.15179581128535746 -0.09346717145798841 1.0188605951278602 0 0 0 0.76 33 177 40 187 42 495 52 145 73 59 85 271 93 50 148 262 159 89 164 204 196 290 198 27 
645 0.23550156333480918 -0.06310481811378932 1.013129467916718 0 0 0 0.34 33 178 42 496 77 186 148 263 196 291 
646 0.44474212123985307 -0.08300416161735122 1.0405373305942553 0 0 0 0.16 60 116 136 155 184 48 
647 0.35329973658064356 -0.05507839915801069 1.0097728540491613 0 0 0 0.23 42 497 52 146 91 96 136 156 148 264 164 205 196 292 
648 0.4180715585320737 -0.021440096433214532 1.0203856309108938 0 0 0 0.26 40 188 42 498 77 187 85 272 91 97 165 117 196 293 
649 0.4101469341967117 0.019312253950587378 1.0105147290691496 0 0 0 0.13 85 273 105 98 148 265 
650 0.4204876756680738 0.03696200651950497 1.0114843700720009 0 0 0 0.29 60 117 85 274 91 98 105 99 110 60 127 58 136 157 164 206 184 49 
651 0.2658238946568141 0.06181168657427507 0.9905156907802909 0 0 0 0.36 42 499 148 266 157 24 164 207 165 118 185 70 
652 0.025286993407617663 0.10260101848530531 0.9888278725434514 0 0 0 0.27 38 35 42 500 52 147 
653 -0.035884180034609255 -0.12145504146613371 1.0300612928090007 0 0 0 0.17 42 501 50 37 85 275 92 71 
654 0.38461094654591954 -0.07184343164422455 1.0136757686362399 0 0 0 0.17 40 189 44 88 92 72 
655 0.44265058931158413 -0.041625547091367746 1.0339130342586975 0 0 0 0.2 85 276 105 100 196 294 
656 0.24278747663297268 -0.020432355873499106 1.0079992730287184 0 0 0 0.22 42 502 44 89 196 295 
657 0.3175317896569122 0.06378940751825342 0.9847089220265711 0 0 0 0.36 42 503 85 277 91 99 110 61 148 267 164 208 196 296 213 133 
658 0.3176913125017214 0.0637892731847931 0.9850728171101312 0 0 0 0.2 42 504 85 278 91 100 110 62 148 268 213 134 
659 0.4198879917776411 0.11261404674783465 0.9974679417852501 0 0 0 0.4 40 190 60 118 85 279 127 59 136 158 162 92 196 297 
660 -0.2284725731006722 -0.09087257525714058 1.0608869897081459 0 0 0 0.65 42 505 109 78 176 56 
661 -0.3364392090183884 -0.04618022005630892 1.0759437991664484 0 0 0 0.75 40 191 42 506 52 148 85 280 164 209 196 298 
662 0.27580877519308405 0.11514539288022763 0.9775592457636201 0 0 0 0.5 40 192 42 507 43 59 52 149 196 299 
663 0.4019439747757834 0.10642181389916387 0.9856921064193434 0 0 0 0.24 73 60 136 159 148 269 
664 0.3079807373057696 -0.1691937698896529 1.032685699816117 0 0 0 0.32 40 193 42 508 50 38 60 119 105 101 148 270 165 119 196 300 
665 0.14315790927742128 -0.16182057818558865 1.0360871443429036 0 0 0 0.03 40 194 42 509 52 150 
666 0.3077887489339914 -0.12060502543993709 1.025846869733284 0 0 0 0.2 40 195 42 510 85 281 105 102 118 55 159 90 196 301 
667 0.2987920534945559 -0.11170255130183421 1.02327491683816 0 0 0 0.38 40 196 42 511 85 282 148 271 
668 0.4496370446556857 -0.09377732343388556 1.04317274697593 0 0 0 0.15 40 197 42 512 60 120 
669 0.4372868281347169 -0.08948723588727577 1.0349100011448273 0 0 0 0.4 40 198 42 513 196 302 
670 -0.34700477244738204 -0.16462895208270129 0.8959729362810858 0 0 0 0.58 40 199 42 514 196 303 
671 0.07138945533705159 -0.12952576356392603 1.029918047528817 0 0 0 0.18 40 200 42 515 162 93 
672 0.43438646006138587 -0.07887680701590379 1.0372722805673251 0 0 0 0.38 40 201 42 516 196 304 
673 -0.3466791544586114 -0.13354215650806664 0.9075121963142786 0 0 0 0.59 40 202 42 517 126 91 159 91 
674 -0.02006885211377167 -0.10187760467329145 1.0298646279367552 0 0 0 0.19 40 203 42 518 159 92 
675 -0.020069010805769606 -0.10191052814441016 1.029921271626552 0 0 0 0.16 40 204 42 519 96 46 126 92 159 93 
676 0.4294297287208624 -0.049613892367350816 1.023924721158994 0 0 0 0.36 40 205 85 283 105 103 196 305 
677 0.4267676865944078 -0.047958218500130385 1.0198776280095214 0 0 0 0.24 40 206 42 520 196 306 
678 0.432217398349939 -0.047578897813525714 1.026298783819439 0 0 0 0.2 40 207 105 104 196 307 
679 0.1049371918004359 -0.07900612179006279 1.0194408081629929 0 0 0 0.45 40 208 42 521 52 151 63 80 126 93 159 94 185 71 
680 0.1502417029665095 -0.06568946175864684 1.015555875861452 0 0 0 0.28 40 209 42 522 85 284 126 94 
681 -0.20131085824146794 -0.09132567932027183 1.0545504835284754 0 0 0 0.62 40 210 42 523 164 210 
682 0.3910369524895294 -0.02881751249019208 1.004758187778486 0 0 0 0.21 40 211 42 524 196 308 
683 -0.2425393510781312 -0.08626298701494918 1.0649227661328886 0 0 0 0.5 40 212 42 525 85 285 110 63 148 272 
684 0.44430924507588804 -0.01584929598278179 1.0314094108901513 0 0 0 0.31 40 213 42 526 196 309 
685 0.07609530943784684 -0.046066516740391805 1.0166146512420406 0 0 0 0.23 40 214 42 527 196 310 
686 0.3393046445397253 -0.01220361441011511 1.0049198871253822 0 0 0 0.16 40 215 42 528 52 152 105 105 
687 0.3453593718994948 -0.011904937333857855 1.0034108743182735 0 0 0 0.1 40 216 42 529 148 273 
688 -0.34475017559870097 -0.06313029549311787 1.0796872082530855 0 0 0 0.54 40 217 42 530 126 95 
689 0.1840902070303035 -0.013429697556588596 1.0066628738510197 0 0 0 0.12 40 218 42 531 136 160 
690 0.44553066701741306 0.008349865003133606 1.0214829258368567 0 0 0 0.4 40 219 110 64 196 311 
691 0.15370173265735657 -0.014734809850778626 1.0068663148094754 0 0 0 0.38 40 220 42 532 196 312 
692 0.42448059117479614 0.008111349216703029 1.014773675985217 0 0 0 0.42 40 221 127 60 136 161 
693 0.4550340313351838 0.009670044222354998 1.0327374612388878 0 0 0 0.12 40 222 85 286 105 106 
694 0.15365689152041248 -0.011375893451689531 1.0096211879357915 0 0 0 0.1 40 223 42 533 162 94 
695 0.4157313508726323 0.009942531029204518 1.0128299504263085 0 0 0 0.27 40 224 85 287 148 274 
696 0.13574437793025185 -0.011703466684263465 1.0075877626217276 0 0 0 0.23 40 225 42 534 85 288 148 275 196 313 
697 0.4358174409190131 0.01609697158934871 1.0200347978307571 0 0 0 0.34 40 226 42 535 136 162 196 314 
698 0.06345621055593224 -0.012302442250571997 1.0119759814520282 0 0 0 0.25 40 227 42 536 109 79 126 96 196 315 
699 0.44253260045678205 0.016507453733057374 1.0276932727899295 0 0 0 0.46 40 228 91 101 164 211 
700 0.1531272564602927 0.0009255111928165898 1.0084940890131837 0 0 0 0.15 40 229 42 537 185 72 
701 -0.25758754881805573 -0.027823383532856228 1.0569469418058977 0 0 0 0.2 40 230 42 538 196 316 200 41 
702 0.3549100423566673 0.04837236409226894 0.9867683564396255 0 0 0 0.23 40 231 42 539 148 276 196 317 
703 0.18372008180504049 0.04824516074609678 0.9910838031747096 0 0 0 0.26 40 232 42 540 91 102 196 318 
704 0.14656419882331242 0.04868795352513521 0.9915264924572496 0 0 0 0.21 40 233 42 541 126 97 148 277 196 319 
705 0.18519189336644978 0.050595788517435854 0.9923803460248299 0 0 0 0.33 40 234 42 542 148 278 165 120 
706 0.1852093416673168 0.0507205214771736 0.9921232568233861 0 0 0 0.17 40 235 42 543 165 121 185 73 
707 0.07725735485061773 0.04964112206523785 0.9959439567664177 0 0 0 0.1 40 236 42 544 52 153 126 98 196 320 
708 0.07955241859623063 0.05067393174734148 0.998729253738749 0 0 0 0.23 40 237 42 545 60 121 93 51 136 163 185 74 196 321 
709 0.2568618387714376 0.06653970288612991 0.9884909793045683 0 0 0 0.2 40 238 42 546 85 289 96 47 148 279 164 212 165 122 196 322 
710 -0.27605258638719443 0.06317211951193678 1.036734843905643 0 0 0 0.43 40 239 42 547 109 80 
711 0.11318606530643839 0.07658455387080128 0.9905295497934506 0 0 0 0.14 40 240 42 548 196 323 
712 0.18682871494522557 0.08913395418031364 0.9854257803187042 0 0 0 0.33 40 241 42 549 162 95 
713 0.3655811880250756 0.11904744360517604 0.978689313433913 0 0 0 0.37 40 242 42 550 136 164 
714 0.20920792123867055 -0.1142861479240282 1.0249595696119331 0 0 0 0.37 40 243 42 551 196 324 
715 -0.021494806216286338 -0.1340944020235518 1.0283856100167885 0 0 0 0.14 40 244 42 552 159 95 176 57 
716 0.05488257991710361 -0.11379497085698057 1.0304027064480397 0 0 0 0.37 40 245 42 553 52 154 159 96 196 325 
717 -0.29885139573524633 -0.12357888414814937 1.0846104666246963 0 0 0 0.4 40 246 42 554 85 290 196 326 
718 0.43944574325475755 -0.04128412391346244 1.0294101057274483 0 0 0 0.52 40 247 42 555 85 291 110 65 196 327 
719 0.38025218976880504 -0.03931583759621021 1.0086449731326215 0 0 0 0.22 40 248 42 556 148 280 
720 0.43561014594629227 -0.027654101676069208 1.0267290846629522 0 0 0 0.26 40 249 42 557 105 107 196 328 
721 -0.20170220486324897 -0.08700603810905014 1.0561542762002898 0 0 0 0.24 40 250 42 558 109 81 159 97 
722 0.4155924342821239 -0.023729816392906927 1.0196114646915881 0 0 0 0.27 40 251 42 559 52 155 85 292 105 108 136 165 165 123 196 329 
723 -0.24973567180954753 -0.08587521888923393 1.0630599092069257 0 0 0 0.31 40 252 42 560 44 90 109 82 196 330 
724 0.3496117871815013 -0.019456527550769872 1.001040145873639 0 0 0 0.4 40 253 42 561 136 166 
725 -0.3436416557401586 -0.08461335763859129 1.080306129598884 0 0 0 0.28 40 254 42 562 196 331 
726 -0.3375303784702763 -0.07121808734915393 1.0796237255167476 0 0 0 0.17 40 255 42 563 109 83 
727 -0.40191637865021046 -0.072363404527622 1.0905033310156416 0 0 0 0.15 40 256 42 564 109 84 
728 0.2471335245530175 -0.009908554033678752 1.0048340979707433 0 0 0 0.37 40 257 42 565 148 281 
729 0.2795877471969626 0.008677788887988279 1.0041388632414583 0 0 0 0.52 40 258 42 566 148 282 
730 0.19437813486484454 0.007299421611245749 1.0083266419670596 0 0 0 0.12 40 259 42 567 52 156 85 293 136 167 
731 -0.400910329385455 -0.034494046357775913 1.0819391139048156 0 0 0 0.44 40 260 42 568 52 157 159 98 
732 0.4333978007943057 0.03877623566550475 1.0182285337030972 0 0 0 0.15 40 261 85 294 164 213 
733 0.4455088257707904 0.04041897812904392 1.0212946406971048 0 0 0 0.29 40 262 85 295 107 53 110 66 136 168 164 214 184 50 196 332 
734 0.34684244513485235 0.043646331924946685 0.9911513618586617 0 0 0 0.4 40 263 42 569 71 65 77 188 85 296 127 61 148 283 159 99 
735 0.18995654010932364 0.04654210308568231 0.996645115186271 0 0 0 0.19 40 264 42 570 85 297 148 284 196 333 
736 0.07445397006719966 0.04757660163809887 0.995482370594697 0 0 0 0.2 40 265 42 571 52 158 126 99 148 285 196 334 
737 0.24257014722492157 0.06396628825755685 0.9896817729302828 0 0 0 0.09 40 266 42 572 196 335 
738 0.20739191250229563 0.0632522842695198 0.9892032158220005 0 0 0 0.28 40 267 42 573 63 81 71 66 194 65 196 336 
739 0.24158222655672618 0.06895874386803375 0.9889939249501394 0 0 0 0.17 40 268 42 574 105 109 109 85 
740 0.35338651775711155 0.09432981462640125 0.981269419805122 0 0 0 0.38 40 269 71 67 85 298 
741 0.151218392224913 0.09219241521425167 0.9848100047534313 0 0 0 0.22 40 270 42 575 111 56 196 337 
742 0.36497375747660327 0.10762018244285884 0.9754452818585558 0 0 0 0.3 40 271 148 286 162 96 
743 0.38835886358713356 0.1323342311135821 0.9775015060100893 0 0 0 0.22 40 272 105 110 107 54 164 215 196 338 
744 0.3059232156865205 -0.16122761316913173 1.029414464720676 0 0 0 0.2 40 273 42 576 196 339 
745 0.45274525403715865 -0.10573382469147964 1.0505445280071077 0 0 0 0.41 40 274 85 299 105 111 165 124 
746 0.43511767203131374 -0.09448149797923834 1.0357205990738212 0 0 0 0.44 40 275 91 103 105 112 126 100 136 169 196 340 
747 0.41845759931892057 -0.06713304502462927 1.0283656330523074 0 0 0 0.35 40 276 42 577 52 159 196 341 
748 0.4184575993189206 -0.06713304502462929 1.0283656330523077 0 0 0 0.35 40 277 42 578 52 160 196 342 
749 0.38015107421048955 -0.06870639996190522 1.0133596120857866 0 0 0 0.33 40 278 42 579 52 161 126 101 
750 -0.07075059826695557 -0.09255522760696536 1.0311139234187416 0 0 0 0.24 40 279 42 580 44 91 93 52 109 86 196 343 
751 -0.4491211076873469 -0.11196454905189752 1.1059497842741066 0 0 0 0.54 40 280 42 581 109 87 196 344 
752 -0.3390278956483189 -0.0588797137275819 1.0765260978812798 0 0 0 0.41 40 281 42 582 52 162 
753 0.4212771505624737 0.021996403809411525 1.0136712381898854 0 0 0 0.32 40 282 85 300 127 62 196 345 
754 0.18802423567982166 0.04324513079061313 1.0006219654379176 0 0 0 0.4 40 283 42 583 136 170 
755 0.3528871319086794 0.10356475322325512 0.980131918354004 0 0 0 0.2 40 284 42 584 148 287 
756 0.3530091149854622 0.10342874533390843 0.9784829903548581 0 0 0 0.43 40 285 42 585 110 67 136 171 148 288 196 346 
757 0.3641605550571698 0.10462616470740399 0.98034702576272 0 0 0 0.18 40 286 42 586 52 163 136 172 148 289 
758 0.2419849748790766 0.10703183346973845 0.9790189579646836 0 0 0 0.1 40 287 42 587 196 347 
759 -0.06563179022231705 -0.17906428726120246 1.052893467120022 0 0 0 0.32 40 288 42 588 52 164 109 88 196 348 
760 0.02739435063975832 -0.12132349472883311 1.0311123060236127 0 0 0 0.32 40 289 42 589 126 102 148 290 196 349 
761 0.36043835110114686 -0.05445401708092397 1.0110347137196471 0 0 0 0.38 40 290 42 590 196 350 
762 0.16001713218450214 -0.0518181521465538 1.0179605983165996 0 0 0 0.29 40 291 42 591 109 89 
763 -0.2490705708267966 -0.07698894289620166 1.0607261971680804 0 0 0 0.52 40 292 42 592 85 301 109 90 148 291 159 100 196 351 
764 -0.39282101929407887 -0.070403440728367 1.0890417023026036 0 0 0 0.31 40 293 42 593 109 91 
765 -0.4331665167082789 -0.026734001030102147 1.0857421231201743 0 0 0 0.53 40 294 42 594 109 92 196 352 
766 -0.4331680635186579 -0.026524602042402985 1.085992037377197 0 0 0 0.72 40 295 42 595 52 165 109 93 
767 0.19314588685649856 0.033487962893566946 1.00347185659039 0 0 0 0.57 40 296 42 596 126 103 194 66 
768 -0.3472746758309173 -0.14525648440674419 0.9037649212359058 0 0 0 0.43 40 297 42 597 196 353 
769 -0.35941135247359496 -0.13695427401794918 1.1019043561133013 0 0 0 0.59 40 298 42 598 73 61 109 94 127 63 196 354 
770 -0.35517577447969206 -0.13582153928629465 1.097261515912624 0 0 0 0.32 40 299 42 599 196 355 
771 0.43611494539253326 -0.03841544819543644 1.031961013401127 0 0 0 0.68 40 300 60 122 73 62 85 302 105 113 162 97 163 39 196 356 
772 -0.34591109188525093 -0.09815514714599279 0.886269749203196 0 0 0 0.21 40 301 42 600 159 101 
773 -0.42734064277219125 -0.08028199449609136 1.0976974270478372 0 0 0 0.36 40 302 42 601 85 303 109 95 
