# 3D point list with one line of data per point:
#   POINT3D_ID, X, Y, Z, R, G, B, ERROR, TRACK[] as (IMAGE_ID, POINT2D_IDX)
# Number of points: 274, mean track length: 17.21
29 0.07407074316651657 0.11089819028569609 0.578488960704853 97 81 80 0.51 0 29 1 29 2 28 3 26 4 19 6 21 7 25 8 26 9 29 10 28 11 29 12 28 13 28 14 26 15 26 16 23 17 23 18 24 19 15 98 27 99 27 
30 0.2622825140237204 0.1612028420424773 0.45599752972869695 145 158 177 1.02 0 30 1 30 2 29 3 27 4 20 5 17 6 22 7 26 8 27 9 30 10 29 11 30 12 29 13 29 14 27 
31 0.27362753459615785 0.15657450057745811 0.46731190592495747 70 58 67 1.73 0 31 1 31 2 30 3 28 4 21 5 18 6 23 7 27 8 28 9 31 10 30 11 31 12 30 13 30 14 28 
32 0.12674604950860988 0.09288550068659396 0.5825739779767676 44 35 36 0.42 0 32 1 32 2 31 3 29 6 24 7 28 8 29 9 32 10 31 11 32 12 31 13 31 14 29 15 27 16 24 17 24 18 25 98 28 99 28 
33 -0.008129907807219386 0.17843103922199036 0.4371576214668055 43 54 31 0.75 0 33 1 33 2 32 3 30 4 22 5 19 6 25 7 29 8 30 9 33 10 32 11 33 12 32 13 32 98 29 99 29 
34 0.07362823948415774 -0.10131359841266711 0.6294201936878108 61 55 56 0.63 0 34 1 34 2 33 3 31 5 20 6 26 7 30 8 31 9 34 10 33 11 34 12 33 13 33 14 30 15 28 16 25 17 25 18 26 19 16 98 30 99 30 
35 -0.018033252079417604 0.06469893218620504 0.5985288393848377 90 83 72 0.51 0 35 1 35 2 34 3 32 4 23 8 32 9 35 10 34 11 35 12 34 13 34 14 31 15 29 16 26 17 26 18 27 19 17 98 31 99 31 
36 -0.11253833426312758 0.0050274339084212605 0.6223707761085301 149 155 159 0.46 0 36 1 36 2 35 3 33 4 24 5 21 9 36 10 35 11 36 12 35 13 35 14 32 15 30 16 27 17 27 18 28 98 32 99 32 
37 0.150551927085613 0.06372108019804844 0.57721128670269 166 162 152 0.62 0 37 1 37 2 36 6 27 7 31 8 33 9 37 10 36 11 37 12 36 13 36 14 33 15 31 16 28 17 28 18 29 19 18 98 33 99 33 
38 -0.1430061489733429 0.04691397430344634 0.6205770938434908 129 123 114 0.65 0 38 1 38 2 37 3 34 4 25 5 22 9 38 10 37 11 38 12 37 13 37 14 34 15 32 16 29 17 29 98 34 99 34 
39 0.11172876348582042 0.04028468537923036 0.589762614907527 122 94 90 0.5 0 39 1 39 2 38 3 35 4 26 7 32 8 34 9 39 10 38 11 39 12 38 13 38 14 35 15 33 16 30 17 30 18 30 98 35 99 35 
40 -0.16134179143960203 0.0677034935284733 0.6166433786213459 113 105 95 0.65 0 40 1 40 2 39 3 36 4 27 5 23 9 40 10 39 11 40 12 39 13 39 14 36 15 34 16 31 17 31 18 31 98 36 99 36 
41 0.024437718350262056 0.12977838856485494 0.5819941733606979 133 123 114 0.59 0 41 1 41 2 40 3 37 4 28 7 33 8 35 9 41 10 40 11 41 12 40 13 40 14 37 15 35 16 32 17 32 18 32 98 37 99 37 
42 0.24594307984671257 0.1679671075762803 0.439785100795147 58 69 46 1.23 0 42 1 42 3 38 4 29 5 24 6 28 7 34 8 36 9 42 10 41 11 42 12 41 13 41 14 38 
43 0.15362029208318786 0.1465718473945088 0.5606682813216208 145 135 126 0.69 0 43 1 43 2 41 3 39 4 30 5 25 6 29 7 35 8 37 9 43 10 42 11 43 12 42 13 42 14 39 15 36 16 33 17 33 18 33 19 19 98 38 99 38 
44 0.1532897212764333 0.029022425893454315 0.5878800401067698 115 105 101 0.73 0 44 1 44 2 42 3 40 6 30 7 36 8 38 9 44 10 43 11 44 12 43 13 43 14 40 15 37 16 34 17 34 18 34 19 20 98 39 99 39 
45 0.14338472473027203 0.18252321947426942 0.539310318032008 80 78 60 1.07 0 45 1 45 2 43 3 41 4 31 5 26 6 31 7 37 8 39 9 45 10 44 11 45 12 44 13 44 14 41 15 38 16 35 17 35 18 35 98 40 99 40 
46 -0.14427551516383713 0.08028576606123619 0.6112870393188661 35 27 26 0.68 0 46 1 46 2 44 3 42 4 32 5 27 9 46 10 45 11 46 12 45 13 45 14 42 15 39 16 36 17 36 18 36 98 41 99 41 
47 -0.11253833426312758 0.0050274339084212605 0.6223707761085301 149 155 159 0.46 0 47 1 47 2 45 3 43 4 33 5 28 9 47 10 46 11 47 12 46 13 46 14 43 15 40 16 37 17 37 18 37 98 42 99 42 
48 0.0737481329184798 0.11528614933810513 0.5773485302969896 115 104 102 0.53 0 48 1 48 2 46 3 44 4 34 6 32 7 38 8 40 9 48 10 47 11 48 12 47 13 47 14 44 15 41 16 38 17 38 18 38 19 21 98 43 99 43 
49 0.13400572208380024 0.08504171966898848 0.579938290713557 34 24 26 0.63 0 49 1 49 2 47 3 45 6 33 7 39 8 41 9 49 10 48 11 49 12 48 13 48 14 45 15 42 16 39 17 39 18 39 19 22 98 44 99 44 
50 0.07628349331586122 -0.07979465358049741 0.6253888941801043 179 195 208 0.65 0 50 1 50 2 48 3 46 4 35 6 34 7 40 8 42 9 50 10 49 11 50 12 49 13 49 14 46 15 43 16 40 17 40 18 40 98 45 99 45 
51 0.12932711069686276 -0.008825496818745705 0.5975759702333289 98 97 99 0.58 0 51 1 51 2 49 3 47 6 35 7 41 8 43 9 51 10 50 11 51 12 50 13 50 14 47 15 44 16 41 17 41 18 41 19 23 98 46 99 46 
52 0.13508163708959467 0.13075880656110087 0.5690056207049923 30 20 21 0.66 0 52 1 52 2 50 3 48 5 29 6 36 7 42 8 44 9 52 10 51 11 52 12 51 13 51 14 48 15 45 16 42 17 42 18 42 19 24 98 47 99 47 
53 0.11156965182424305 0.08608500718950932 0.587956432182652 66 49 52 0.46 0 53 1 53 2 51 3 49 7 43 8 45 9 53 10 52 11 53 12 52 13 52 14 49 15 46 16 43 17 43 18 43 98 48 99 48 
54 0.13804903326196566 0.17596973103910976 0.5574638594521397 59 58 53 0.78 0 54 1 54 2 52 3 50 4 36 5 30 6 37 7 44 8 46 9 54 10 53 11 54 12 53 13 53 14 50 15 47 16 44 17 44 18 44 99 49 
55 0.0929690279133954 -0.07836239177131606 0.6296623973981397 159 183 192 0.67 0 55 1 55 2 53 3 51 4 37 6 38 7 45 8 47 9 55 10 54 11 55 12 54 13 54 14 51 15 48 16 45 17 45 18 45 98 49 99 50 
56 0.12669817473509135 0.12234708509746248 0.5747193354065816 60 42 46 0.38 0 56 1 56 2 54 3 52 6 39 7 46 8 48 9 56 10 55 11 56 12 55 13 55 14 52 15 49 16 46 17 46 18 46 98 50 99 51 
57 0.2505000393086794 0.17316498899985544 0.5372077743737725 84 85 82 1.35 0 57 1 57 2 55 3 53 4 38 5 31 6 40 7 47 8 49 9 57 10 56 11 57 12 56 13 56 14 53 15 50 18 47 20 2 98 51 99 52 
58 -0.004885924510746599 0.15721031509436784 0.46861375610563605 103 97 109 0.95 0 58 1 58 2 56 3 54 4 39 5 32 6 41 7 48 8 50 9 58 10 57 11 58 12 57 13 57 14 54 15 51 98 52 99 53 
59 0.08218476857126114 0.04910062739911107 0.5904378344221343 83 68 75 0.43 0 59 1 59 2 57 3 55 4 40 7 49 8 51 9 59 10 58 11 59 12 58 13 58 14 55 15 52 16 47 17 47 18 48 98 53 99 54 
60 -0.07358647684246572 0.015280196040641203 0.6164530872543871 93 85 82 0.5 0 60 1 60 2 58 3 56 4 41 8 52 9 60 10 59 11 60 12 59 13 59 14 56 15 53 16 48 17 48 18 49 98 54 99 55 
61 -0.024784529326314215 0.15894497148807316 0.4725191600799117 91 66 74 0.87 0 61 1 61 2 59 3 57 4 42 5 33 6 42 7 50 8 53 9 61 10 60 11 61 12 60 13 60 14 57 15 54 98 55 99 56 
62 -0.02532253510827036 0.17604812413148857 0.4565559411620738 43 61 34 0.81 0 62 1 62 2 60 3 58 4 43 5 34 6 43 7 51 8 54 9 62 10 61 11 62 12 61 13 61 15 55 98 56 99 57 
63 0.0604915248902148 0.06951587170839275 0.5864643749594075 143 142 138 0.5 0 63 1 63 2 61 3 59 7 52 8 55 9 63 10 62 11 63 12 62 13 62 14 58 15 56 16 49 17 49 18 50 19 25 98 57 99 58 
64 -0.14152840351476523 0.06699651990789811 0.6140449030902384 123 111 99 0.54 0 64 1 64 2 62 3 60 4 44 5 35 9 64 10 63 11 64 12 63 13 63 14 59 15 57 16 50 17 50 18 51 98 58 99 59 
65 0.12433551898648386 -0.016685919188510114 0.6038237622355215 159 171 183 0.63 0 65 1 65 2 63 3 61 6 44 7 53 8 56 9 65 10 64 11 65 12 64 13 64 14 60 15 58 16 51 17 51 18 52 19 26 98 59 99 60 
66 0.01493783252604222 0.16933863437133603 0.4649766327503871 119 123 133 0.64 0 66 1 66 2 64 3 62 4 45 5 36 6 45 7 54 8 57 9 66 10 65 11 66 12 65 13 65 14 61 15 59 98 60 99 61 
67 0.07861665133174801 -0.03113040142811022 0.6146822532135584 197 212 225 0.66 0 67 1 67 2 65 3 63 4 46 6 46 7 55 8 58 9 67 10 66 11 67 12 66 13 66 14 62 15 60 16 52 17 52 18 53 19 27 98 61 99 62 
68 0.13555995766556792 0.1919998101914634 0.511139796064524 61 55 52 1.26 0 68 1 68 2 66 3 64 4 47 5 37 98 62 99 63 
69 0.08289281678913919 0.10824512844534548 0.5828600695608679 71 55 58 0.74 0 69 1 69 2 67 3 65 4 48 6 47 7 56 8 59 9 68 10 67 11 68 12 67 13 67 14 63 15 61 16 53 17 53 18 54 19 28 98 63 99 64 
70 -0.024210565864145973 0.04968430047544044 0.5974819502296562 92 84 81 0.59 0 70 1 70 2 68 3 66 4 49 8 60 9 69 10 68 11 69 12 68 13 68 14 64 15 62 16 54 17 54 18 55 19 29 98 64 99 65 
71 0.41206156246806624 0.21502344262939022 0.6663157205372536 31 23 24 1.4 0 71 1 71 2 69 3 67 4 50 5 38 6 48 40 0 
72 0.129930686631896 0.1660220315398063 0.5616005749387972 57 41 46 0.59 0 72 1 72 2 70 3 68 4 51 5 39 6 49 7 57 8 61 9 70 10 69 11 70 12 69 13 69 14 65 15 63 16 55 17 55 18 56 99 66 
73 0.110371820555804 -0.032746471371197884 0.6174291058019005 142 160 172 0.68 0 73 1 73 2 71 3 69 6 50 7 58 8 62 9 71 10 70 11 71 12 70 13 70 14 66 15 64 16 56 17 56 18 57 98 65 99 67 
74 0.13943107181349743 -0.06988800062985585 0.6134514881588226 160 158 153 0.54 0 74 1 74 2 72 3 70 6 51 7 59 8 63 9 72 10 71 11 72 12 71 13 71 14 67 15 65 16 57 17 57 18 58 98 66 99 68 
75 0.13314943767290402 0.19298519727325564 0.5067911928381702 32 26 22 1.08 0 75 1 75 2 73 3 71 4 52 5 40 98 67 99 69 
76 0.05990219089361513 -0.05705951595418033 0.6188518643212833 152 148 139 0.63 0 76 1 76 2 74 3 72 4 53 6 52 7 60 8 64 9 73 10 72 11 73 12 72 13 72 14 68 15 66 16 58 17 58 18 59 19 30 98 68 99 70 
77 -0.11167658649363686 0.030925574272953074 0.618731107573 74 68 68 0.59 0 77 1 77 2 75 3 73 4 54 5 41 9 74 10 73 11 74 12 73 13 73 14 69 15 67 16 59 17 59 18 60 98 69 99 71 
78 0.09812116965966805 0.0766332687114885 0.5934521074982853 34 23 26 0.63 0 78 1 78 2 76 3 74 7 61 8 65 9 75 10 74 11 75 12 74 13 74 14 70 15 68 16 60 17 60 18 61 98 70 99 72 
79 0.06878484614191177 0.1857638054531607 0.5435455500418807 98 91 78 0.75 0 79 1 79 2 77 3 75 4 55 5 42 6 53 7 62 8 66 9 76 10 75 11 76 12 75 13 75 14 71 15 69 16 61 17 61 
80 0.0933409092104078 -0.08385328102123443 0.6309719759537117 161 180 190 0.73 0 80 1 80 2 78 3 76 4 56 6 54 7 63 8 67 9 77 10 76 11 77 12 76 13 76 14 72 15 70 16 62 17 62 18 62 98 71 99 73 
81 -0.009662705922812233 0.04790604508471257 0.5969395207664819 186 199 217 0.43 0 81 1 81 2 79 3 77 4 57 8 68 9 78 10 77 11 78 12 77 13 77 14 73 15 71 16 63 17 63 18 63 19 31 98 72 99 74 
82 0.14626341287668743 0.043584383841231 0.5858167317324215 150 143 135 0.62 0 82 1 82 2 80 3 78 6 55 7 64 8 69 9 79 10 78 11 79 12 78 13 78 14 74 15 72 16 64 17 64 18 64 19 32 98 73 99 75 
83 0.08577059823171058 0.1690970572378262 0.5678849576807514 70 53 60 0.55 0 83 1 83 2 81 3 79 4 58 5 43 6 56 7 65 8 70 9 80 10 79 11 80 12 79 13 79 14 75 15 73 16 65 17 65 18 65 
84 0.14435898848381695 0.1438345491895928 0.5625972379814586 145 136 128 0.66 0 84 1 84 2 82 3 80 4 59 5 44 6 57 7 66 8 71 9 81 10 80 11 81 12 80 13 80 14 76 15 74 16 66 17 66 18 66 19 33 98 74 99 76 
85 -0.014660974261757347 0.17865014548303593 0.43721449788629657 42 48 31 0.93 0 85 1 85 2 83 3 81 4 60 5 45 6 58 7 67 8 72 9 82 10 81 11 82 12 81 13 81 98 75 99 77 
86 0.4751760448802041 0.34817504596649784 1.3622624094759608 76 73 77 1.33 35 0 37 0 39 0 40 1 41 0 42 0 43 0 46 0 47 0 48 0 49 0 
87 0.3788970985963123 0.30872617284053194 1.4225796337054124 135 130 125 0.25 35 1 37 1 38 1 39 1 40 2 41 1 42 1 43 1 46 1 47 1 48 1 49 1 
88 0.13911340487405513 0.19768704749418783 1.4681817043108305 128 122 117 0.3 40 3 41 2 42 2 43 2 46 2 47 2 48 2 49 2 
89 0.3691594776074106 0.13524477728875178 1.4104461889235997 111 122 136 0.78 6 59 8 73 9 83 21 1 22 1 23 0 35 2 37 2 38 2 39 2 40 4 41 3 42 3 43 3 46 3 47 3 48 3 49 3 
90 0.35346876667471666 0.2584254211358148 1.2240375917216497 90 102 112 1.2 6 60 7 68 8 74 9 84 10 82 11 83 18 67 21 2 35 3 36 0 37 3 38 3 39 3 40 5 41 4 42 4 43 4 46 4 47 4 48 4 49 4 
91 0.34747297556236456 0.10025767399925258 1.2447007579118332 136 155 169 0.88 6 61 7 69 8 75 9 85 10 83 11 84 19 34 22 2 23 1 26 2 35 4 36 1 37 4 38 4 39 4 40 6 41 5 42 5 43 5 46 5 47 5 48 5 49 5 
92 0.3287080772883161 0.3453132684886414 1.4226062352116886 58 52 50 0.55 40 7 41 6 42 6 43 6 46 6 47 6 48 6 49 6 
93 0.3480573485319952 0.10997846789338847 1.1043219005597469 45 38 32 0.99 5 46 6 62 7 70 8 76 9 86 10 84 11 85 12 82 13 82 20 3 21 3 22 3 23 2 35 5 36 2 37 5 38 5 41 7 42 7 43 7 46 7 47 7 48 7 49 7 
94 0.05713148912649077 0.10097374516956135 1.4971950186614587 125 119 113 0.39 40 8 41 8 42 8 43 8 46 8 47 8 48 8 49 8 
95 0.38850012299036324 0.38230575030092395 1.5047233311701231 31 34 40 0.18 46 9 47 9 48 9 49 9 
96 0.3530158469246556 0.12893193437087302 1.264635999824199 19 19 17 0.97 6 63 7 71 8 77 9 87 10 85 11 86 18 68 21 4 22 4 23 3 35 6 36 3 37 6 38 6 39 5 40 9 41 9 42 9 43 9 46 10 47 10 48 10 49 10 
97 0.44624967791388875 0.07101112011601715 0.8274059054230788 115 116 119 1.43 4 61 12 83 13 83 14 77 15 75 16 67 17 67 18 69 19 35 20 4 21 5 22 5 23 4 26 3 36 4 38 7 39 6 40 10 41 10 42 10 43 10 46 11 47 11 48 11 49 11 
98 0.3635470617582179 0.16727787100242467 1.2866619159048431 109 108 106 0.89 6 64 7 72 8 78 9 88 10 86 17 68 20 5 26 4 35 7 36 5 37 7 38 8 39 7 40 11 41 11 42 11 43 11 46 12 47 12 48 12 49 12 
99 0.36647278341565187 0.1608541981063297 1.369450974589642 114 118 127 0.62 6 65 7 73 8 79 9 89 19 36 22 6 23 5 35 8 36 6 37 8 38 9 39 8 40 12 41 12 42 12 43 12 46 13 47 13 48 13 49 13 
100 0.4950318985775908 0.34091208722610084 1.2678437911906872 32 42 21 1.0 35 9 41 13 42 13 43 13 46 14 47 14 48 14 49 14 
101 0.5459913196256021 0.3170995690369612 1.2215037984046175 83 76 75 0.73 12 84 38 10 39 9 40 13 41 14 42 14 43 14 46 15 47 15 48 15 
102 0.3554351353970514 0.09053825815058912 1.3985634453803866 113 131 149 1.05 6 66 7 74 8 80 9 90 10 87 19 37 22 7 35 10 36 7 37 9 38 11 39 10 40 14 41 15 42 15 43 15 46 16 47 16 48 16 49 15 
103 0.3742952519906296 0.1911649857447121 1.4434828691612132 55 59 64 0.69 6 67 7 75 8 81 20 6 35 11 37 10 38 12 39 11 40 15 41 16 42 16 43 16 46 17 47 17 48 17 49 16 
104 0.46283296404883006 0.33589202203376783 1.3831126689611284 24 26 26 1.19 35 12 37 11 38 13 39 12 40 16 41 17 42 17 43 17 46 18 47 18 48 18 49 17 
105 0.4820950780071943 0.331171101551015 1.2802782594996762 55 46 48 0.36 42 18 43 18 46 19 47 19 48 19 49 18 
106 0.3637113988630109 0.3176943709492798 1.4299864552753216 86 72 68 0.6 21 6 35 13 37 12 38 14 39 13 40 17 41 18 42 19 43 19 46 20 47 20 48 20 49 19 
107 0.3763362427786674 0.24146583699008609 1.4332497537059687 62 39 39 0.67 6 68 7 76 8 82 20 7 35 14 37 13 38 15 39 14 40 18 41 19 42 20 43 20 46 21 47 21 48 21 49 20 
108 0.3746991592344292 0.21997050817669228 1.4213047410117996 136 136 133 0.78 6 69 7 77 8 83 20 8 35 15 37 14 38 16 39 15 40 19 41 20 42 21 43 21 46 22 47 22 48 22 49 21 
109 0.406661211356552 0.38067589156693765 1.4955456868157233 29 29 34 1.13 43 22 46 23 47 23 48 23 
110 -0.05773794121978629 0.4137289236119083 1.4272581220416187 84 98 112 0.34 46 24 47 24 48 24 49 22 
111 0.3684558454771137 0.3031678556381884 1.3252793793043132 36 25 28 0.66 6 70 7 78 22 8 35 16 36 8 37 15 38 17 39 16 40 20 41 21 42 22 43 23 46 25 47 25 48 25 49 23 
112 0.457139206257122 -0.011517779161246505 0.9579157942484182 60 56 54 1.47 7 79 8 84 9 91 10 88 11 87 12 85 13 84 14 78 15 76 16 68 17 69 18 70 19 38 20 9 21 7 22 9 23 6 26 5 36 9 38 18 39 17 40 21 41 22 42 23 43 24 46 26 47 26 48 26 49 24 
113 0.3722599980325108 0.2092397364187792 1.383341713741381 104 97 91 0.66 6 71 8 85 9 92 21 8 35 17 37 16 38 19 39 18 40 22 41 23 42 24 43 25 46 27 47 27 48 27 49 25 
114 0.34672417395667904 0.24512258416071375 1.0941695010909718 104 118 131 1.26 6 72 7 80 8 86 9 93 10 89 11 88 12 86 13 85 20 10 21 9 22 10 35 18 36 10 37 17 40 23 41 24 42 25 43 26 46 28 47 28 48 28 49 26 
115 0.47203743833920514 0.027440946303180575 1.1572128126056647 207 219 226 0.95 7 81 8 87 9 94 10 90 11 89 12 87 13 86 14 79 15 77 16 69 17 70 18 71 19 39 20 11 21 10 22 11 23 7 35 19 36 11 37 18 38 20 39 19 40 24 41 25 42 26 43 27 46 29 47 29 48 29 49 27 
116 0.3791937784735707 0.31368882448497903 1.4144331531166106 110 107 106 0.28 35 20 37 19 38 21 39 20 40 25 41 26 42 27 43 28 46 30 47 30 48 30 49 28 
117 0.47954718813567165 0.003527187882682331 1.2442423193662118 51 47 44 0.89 7 82 9 95 10 91 11 90 12 88 13 87 14 80 15 78 16 70 17 71 18 72 19 40 20 12 21 11 35 21 37 20 38 22 39 21 40 26 41 27 42 28 43 29 46 31 47 31 48 31 49 29 
118 0.45617295373602007 0.06530248411068452 1.2282557624070893 136 142 148 1.18 12 89 13 88 14 81 15 79 16 71 17 72 18 73 19 41 20 13 21 12 22 12 23 8 26 6 35 22 36 12 37 21 38 23 39 22 40 27 41 28 42 29 43 30 46 32 47 32 48 32 49 30 
119 0.28463435584404084 0.1759453725315565 1.4662486734323812 135 130 126 0.23 40 28 41 29 42 30 43 31 46 33 47 33 48 33 49 31 
120 0.45796803707938893 -0.0074213999046167855 0.9783640275409161 81 80 83 1.24 7 83 8 88 9 96 10 92 11 91 12 90 13 89 14 82 15 80 16 72 17 73 18 74 19 42 20 14 21 13 22 13 23 9 36 13 38 24 39 23 40 29 41 30 42 31 43 32 46 34 47 34 48 34 49 32 
121 0.45442121796038404 0.346703754712286 1.3847636960972374 25 23 28 0.95 39 24 40 30 41 31 42 32 43 33 46 35 47 35 48 35 49 33 
122 0.27680819588424527 0.3726527182810662 1.4987763562742682 45 45 41 0.49 42 33 43 34 46 36 47 36 48 36 49 34 
123 0.37262366382841944 0.24881199952367905 1.383071697811927 32 50 58 0.68 6 73 8 89 21 14 22 14 23 10 35 23 37 22 38 25 39 25 40 31 41 32 42 34 43 35 46 37 47 37 48 37 49 35 
124 0.3784619105647289 0.3149251406007339 1.4008374832418113 95 82 81 0.36 35 24 37 23 38 26 39 26 40 32 41 33 42 35 43 36 46 38 47 38 48 38 49 36 
125 0.3400186932103582 0.11971643760542763 0.9760267163046153 41 31 27 1.55 5 47 6 74 7 84 8 90 9 97 10 93 11 92 12 91 13 90 14 83 15 81 16 73 20 15 21 15 22 15 26 7 35 25 36 14 39 27 40 33 41 34 42 36 46 39 47 39 48 39 49 37 
126 0.3648968835076658 0.2598549434364873 1.143737782466114 73 76 80 1.0 6 75 7 85 8 91 9 98 10 94 11 93 19 43 26 8 38 27 39 28 40 34 41 35 42 37 43 37 46 40 47 40 48 40 49 38 
127 0.3607351656374518 0.27088314939963887 1.3471004532153574 117 126 140 0.84 6 76 19 44 35 26 37 24 38 28 39 29 40 35 41 36 42 38 43 38 46 41 47 41 48 41 49 39 
128 0.29172480903352854 0.24843974419854636 1.4501504860618737 99 88 83 0.36 40 36 41 37 42 39 43 39 46 42 47 42 48 42 49 40 
129 0.365718544695019 0.1357186649179621 1.3495818423752548 122 120 116 0.75 6 77 8 92 9 99 20 16 22 16 35 27 36 15 37 25 38 29 39 30 40 37 41 38 42 40 43 40 46 43 47 43 48 43 49 41 
130 0.2864813223682488 0.2694925116312296 1.4457592942829602 110 107 104 0.4 40 38 41 39 42 41 43 41 46 44 47 44 48 44 49 42 
131 0.34606698214668696 0.22529293835887243 0.9657533885494141 65 46 41 1.48 5 48 6 78 7 86 8 93 9 100 10 95 13 91 14 84 19 45 20 17 21 16 26 9 39 31 40 39 41 40 42 42 46 45 47 45 48 45 49 43 
132 0.3643509167843695 0.10569151740116307 1.3448048031912565 137 134 126 0.69 6 79 8 94 9 101 10 96 20 18 23 11 35 28 36 16 37 26 38 30 39 32 40 40 41 41 42 43 43 42 46 46 47 46 48 46 49 44 
133 0.36446617465756004 0.27428101386637727 1.3638877713843922 126 143 157 0.47 19 46 22 17 23 12 35 29 37 27 38 31 39 33 40 41 41 42 42 44 43 43 46 47 47 47 48 47 49 45 
134 0.38245884574034655 0.0610262566655999 1.5006598570387306 138 155 166 0.85 20 19 35 30 37 28 38 32 39 34 40 42 41 43 42 45 43 44 46 48 47 48 48 48 49 46 
135 0.39208793083225735 0.3412793189707709 1.3940300575609461 13 12 14 0.11 46 49 47 49 48 49 49 47 
136 0.37749545524676514 0.31843318191946013 1.3749966363077364 119 119 118 0.47 6 80 35 31 37 29 38 33 39 35 40 43 41 44 42 46 43 45 46 50 47 50 48 50 49 48 
137 0.32488256609370797 0.18632744639390222 1.4603594481209725 115 109 102 0.23 40 44 41 45 42 47 43 46 46 51 47 51 48 51 49 49 
138 0.36805654768475216 0.16508496599536762 1.3504128226412098 63 53 51 0.79 6 81 7 87 8 95 9 102 22 18 23 13 35 32 36 17 37 30 38 34 39 36 40 45 41 46 42 48 43 47 46 52 47 52 48 52 49 50 
139 0.3772105145602492 0.3164522845480868 1.427478401096957 105 98 95 0.35 35 33 37 31 38 35 39 37 40 46 41 47 42 49 43 48 46 53 47 53 48 53 49 51 
140 0.3930454607263831 0.3240267196420705 1.3468968063700837 78 73 73 1.75 21 17 22 19 23 14 37 32 38 36 39 38 40 47 41 48 42 50 43 49 46 54 47 54 48 54 49 52 
141 0.34560558712104006 0.10835643531028898 1.2544586365008508 86 101 113 0.94 6 82 7 88 8 96 9 103 10 97 11 94 19 47 21 18 22 20 23 15 35 34 36 18 37 33 38 37 39 39 40 48 41 49 42 51 43 50 46 55 47 55 48 55 49 53 
142 0.40157827813218877 0.3833682999589567 1.5016169972684823 22 23 28 0.39 43 51 46 56 47 56 48 56 
143 0.3661893979865112 0.2721347849025645 1.440323472789563 121 118 116 0.56 20 20 21 19 35 35 37 34 38 38 39 40 40 49 41 50 42 52 43 52 46 57 47 57 48 57 49 54 
144 0.36856067261070463 0.1265914727343811 1.472774483738463 134 132 127 0.62 20 21 35 36 37 35 38 39 39 41 40 50 41 51 42 53 43 53 46 58 47 58 48 58 49 55 
145 0.37617378433167176 0.29664138200542234 1.3749206302241792 71 72 74 0.56 6 83 21 20 35 37 37 36 38 40 39 42 40 51 41 52 42 54 43 54 46 59 47 59 48 59 49 56 
146 0.28560306318679957 0.26200248705808094 1.4467095657832276 116 110 104 0.38 40 52 41 53 42 55 43 55 46 60 47 60 48 60 49 57 
147 0.3822491116617787 0.30714945377341113 1.2870331447324677 37 34 38 0.9 6 84 43 56 46 61 47 61 48 61 49 58 
148 0.3758109797788135 0.3461867236680034 1.4200335547369678 88 76 71 0.37 35 38 37 37 39 43 40 53 41 54 42 56 43 57 46 62 47 62 48 62 49 59 
149 0.377683131589719 0.3023190414112188 1.4115342010962888 31 35 39 0.31 35 39 37 38 38 41 39 44 40 54 41 55 42 57 43 58 46 63 47 63 48 63 49 60 
150 0.11433633399859203 0.2631561002957326 1.4573225957541973 89 90 86 0.57 40 55 41 56 46 64 47 64 48 64 49 61 
151 0.37746897483182 0.27971870726443826 1.4303667684075274 109 104 101 0.62 7 89 20 22 35 40 37 39 38 42 39 45 40 56 41 57 42 58 43 59 46 65 47 65 48 65 49 62 
152 0.3734530680316338 0.1734704428690536 1.4471708408503339 129 124 121 0.68 8 97 20 23 35 41 37 40 38 43 39 46 40 57 41 58 42 59 43 60 46 66 47 66 48 66 49 63 
153 -0.03806259576570702 0.1273185937969055 1.494793606332119 135 129 124 0.37 40 58 41 59 42 60 43 61 46 67 47 67 48 67 49 64 
154 0.4349845336517817 0.04110182291735274 0.8565782321798829 84 77 75 2.02 4 62 13 92 14 85 17 74 18 75 19 48 47 68 48 68 49 65 
155 0.35958668839478247 0.08303479460231956 1.310127415817066 122 121 119 0.98 6 85 7 90 8 98 9 104 10 98 17 75 20 24 21 21 35 42 36 19 37 41 38 44 39 47 40 59 41 60 42 61 43 62 46 68 47 69 48 69 49 66 
156 0.3785065110713224 0.3294379410101976 1.3814173912559042 123 119 116 0.3 35 43 37 42 38 45 39 48 40 60 41 61 42 62 43 63 46 69 47 70 48 70 49 67 
157 0.1609396317149805 0.2258743784501879 1.461357648801841 123 116 110 0.29 40 61 41 62 42 63 43 64 46 70 47 71 48 71 49 68 
158 0.4765417182575724 0.025994188594744165 1.223815054954808 97 94 93 0.89 7 91 8 99 9 105 10 99 11 95 12 92 13 93 14 86 15 82 16 74 17 76 18 76 19 49 20 25 21 22 22 21 23 16 26 10 35 44 36 20 37 43 38 46 39 49 40 62 41 63 42 64 43 65 46 71 47 72 48 72 49 69 
159 0.36627925933558064 0.18383882795719916 1.1926159106158785 84 71 68 0.93 6 86 7 92 8 100 9 106 10 100 11 96 18 77 19 50 21 23 22 22 23 17 26 11 35 45 36 21 37 44 38 47 39 50 40 63 41 64 42 65 43 66 46 72 47 73 48 73 49 70 
160 0.3467693607667777 0.06083645172677997 1.2636329601194578 71 79 87 1.13 6 87 7 93 8 101 9 107 11 97 18 78 19 51 21 24 22 23 23 18 35 46 36 22 37 45 38 48 39 51 40 64 41 65 42 66 43 67 46 73 47 74 48 74 49 71 
161 0.3601895121947094 0.06841166342159559 1.3772945468758118 22 19 21 0.81 6 88 7 94 9 108 20 26 35 47 36 23 37 46 38 49 39 52 40 65 41 66 42 67 43 68 46 74 47 75 48 75 49 72 
162 0.1255137148014373 0.24453577484947753 1.4595200679876974 105 90 82 0.36 40 66 41 67 42 68 46 75 47 76 48 76 49 73 
163 -0.21086178680568188 0.29474423715636455 1.4685927017808045 94 91 88 0.29 40 67 46 76 47 77 48 77 49 74 
164 0.45712925328920156 -0.009816291471978492 0.9705706101960804 52 48 45 1.28 7 95 8 102 9 109 10 101 11 98 12 93 13 94 14 87 15 83 16 75 17 77 18 79 19 52 20 27 21 25 22 24 23 19 26 12 36 24 38 50 39 53 40 68 41 68 42 69 43 69 46 77 47 78 48 78 49 75 
165 0.3748504532963385 0.20774145917497194 1.4367077317601034 137 137 134 0.53 6 89 8 103 9 110 20 28 35 48 37 47 38 51 39 54 40 69 41 69 42 70 43 70 46 78 47 79 48 79 49 76 
166 0.34527819117223296 0.262244375356409 1.442265023571383 124 122 118 0.31 39 55 40 70 41 70 42 71 43 71 46 79 47 80 48 80 49 77 
167 0.4795438069176747 0.05702316780292425 1.208353628854198 107 108 116 0.86 7 96 8 104 9 111 10 102 11 99 12 94 13 95 14 88 15 84 16 76 17 78 18 80 19 53 20 29 21 26 22 25 23 20 35 49 36 25 37 48 38 52 39 56 40 71 41 71 42 72 43 72 46 80 47 81 48 81 49 78 
168 0.31256467088430484 0.16960797123215515 1.4659104038433348 97 99 99 0.21 40 72 41 72 42 73 43 73 46 81 47 82 48 82 49 79 
169 0.3953516956899926 0.386842036600924 1.5103238521050533 30 26 31 0.27 46 82 47 83 48 83 49 80 
170 0.35552915125362344 0.12100138252048266 1.3816666421488026 102 118 136 0.57 20 30 22 26 35 50 36 26 37 49 38 53 39 57 40 73 41 73 42 74 43 74 46 83 47 84 48 84 49 81 
171 0.4501087700168237 0.005833117781604664 0.9954867111687113 34 30 27 1.17 7 97 8 105 9 112 10 103 11 100 12 95 13 96 14 89 15 85 16 77 17 79 18 81 19 54 20 31 21 27 22 27 23 21 26 13 36 27 37 50 38 54 39 58 40 74 41 74 42 75 43 75 46 84 47 85 48 85 49 82 
172 0.47168256128282526 0.03760734214401611 1.1590189606014452 64 54 52 0.86 7 98 8 106 9 113 10 104 11 101 12 96 13 97 14 90 15 86 16 78 17 80 18 82 19 55 20 32 21 28 22 28 23 22 35 51 36 28 37 51 38 55 39 59 40 75 41 75 42 76 43 76 46 85 47 86 48 86 49 83 
173 0.36398655783380257 0.1420224260577007 1.3153165404220895 112 105 101 0.85 6 90 7 99 8 107 9 114 10 105 20 33 21 29 35 52 36 29 37 52 38 56 39 60 40 76 41 76 42 77 43 77 46 86 47 87 48 87 49 84 
174 0.3800014383391729 0.32636737907263297 1.4131148405199059 123 120 118 0.28 35 53 37 53 38 57 39 61 40 77 41 77 42 78 43 78 46 87 47 88 48 88 49 85 
175 0.34516977874721044 0.11117720144522673 1.2458789500656615 36 48 56 0.83 6 91 7 100 8 108 9 115 10 106 11 102 19 56 22 29 23 23 26 14 35 54 36 30 37 54 38 58 39 62 40 78 41 78 42 79 43 79 46 88 47 89 48 89 49 86 
176 0.04808830418181136 0.06134778019683208 1.5078817398314883 125 123 121 0.45 40 79 41 79 42 80 43 80 46 89 47 90 48 90 49 87 
177 0.3754800734639578 0.2954244516581886 1.3739976752756304 93 102 111 0.78 6 92 21 30 22 30 23 24 35 55 37 55 38 59 39 63 40 80 41 80 42 81 43 81 46 90 47 91 48 91 49 88 
178 0.38698672555061636 0.38002759074270587 1.4956725311056063 15 19 23 0.3 43 82 46 91 47 92 48 92 49 89 
179 0.35551391936239296 0.11809559067107951 1.371849943463239 145 168 185 0.9 6 93 8 109 9 116 20 34 22 31 23 25 35 56 36 31 37 56 38 60 39 64 40 81 41 81 42 82 43 83 46 92 47 93 48 93 49 90 
180 0.3749763555219379 0.2128589100753138 1.4392491839934494 45 47 50 0.66 6 94 7 101 8 110 20 35 35 57 37 57 38 61 39 65 40 82 41 82 42 83 43 84 46 93 47 94 48 94 49 91 
181 0.45324911310745886 -0.02824378036427871 0.9397806709774305 220 230 232 1.65 7 102 9 117 10 107 11 103 12 97 13 98 14 91 15 87 17 81 18 83 19 57 20 36 21 31 22 32 23 26 26 15 36 32 37 58 38 62 39 66 40 83 41 83 42 84 43 85 46 94 47 95 48 95 49 92 
182 0.37330491359483897 0.14074101890460025 1.4560173329409094 149 150 149 0.79 6 95 7 103 8 111 9 118 20 37 35 58 37 59 38 63 39 67 40 84 41 84 42 85 43 86 46 95 47 96 48 96 49 93 
183 0.5120194111612654 0.34346944716630157 1.274586269074484 26 43 16 0.87 35 59 36 33 38 64 39 68 40 85 41 85 42 86 43 87 46 96 47 97 48 97 49 94 
184 0.3252187233196245 0.22763437523559776 1.452185679356806 107 99 96 0.52 39 69 40 86 41 86 42 87 43 88 46 97 47 98 48 98 49 95 
185 0.3808102997477858 0.33689824666531837 1.415474903378631 41 44 47 0.31 35 60 37 60 38 65 39 70 40 87 41 87 42 88 43 89 46 98 47 99 48 99 49 96 
186 0.3092572666051621 0.17382492860986384 1.465068623656026 128 122 115 0.32 40 88 41 88 42 89 43 90 46 99 47 100 48 100 49 97 
187 0.37366225060167524 0.15264936110493252 1.4628405569265446 126 116 110 0.6 7 104 8 112 9 119 20 38 35 61 37 61 38 66 39 71 40 89 41 89 42 90 43 91 46 100 47 101 48 101 49 98 
188 0.12211586542309934 0.18998858602515245 1.4724235953977727 123 120 116 0.26 40 90 41 90 42 91 43 92 46 101 47 102 48 102 49 99 
189 0.38050709449532655 0.06508489164476547 1.4959140756708749 169 184 194 0.47 35 62 40 91 41 91 42 92 43 93 46 102 47 103 48 103 49 100 
190 0.3672558101327115 0.26835542109692073 1.2539832377935471 64 71 71 0.73 6 96 7 105 8 113 9 120 10 108 20 39 35 63 36 34 37 62 38 67 39 72 40 92 41 92 42 93 43 94 46 103 47 104 48 104 49 101 
191 0.34660014016166635 0.20036737094648321 1.1166831988572439 63 70 76 1.81 6 97 7 106 13 99 20 40 21 32 22 33 23 27 35 64 36 35 37 63 40 93 41 93 42 94 43 95 46 104 47 105 48 105 49 102 
192 0.04453240953260874 -0.05863445730264158 1.5433425778388128 21 19 30 0.71 40 94 41 94 42 95 43 96 46 105 47 106 48 106 49 103 
193 0.34205560120057593 0.06658395602445095 1.1269620864154597 24 19 16 0.86 6 98 7 107 8 114 9 121 10 109 11 104 12 98 14 92 20 41 21 33 22 34 23 28 35 65 36 36 37 64 38 68 40 95 41 95 42 96 43 97 46 106 47 107 48 107 49 104 
194 0.3762600680425845 0.24200008344211857 1.424180871891405 93 81 79 0.61 6 99 8 115 20 42 35 66 37 65 38 69 39 73 40 96 41 96 42 97 43 98 46 107 47 108 48 108 49 105 
195 0.4064396552810614 0.3486187608316642 1.377164247318 31 29 34 0.25 46 108 47 109 48 109 49 106 
196 0.34494476079254 0.2829827006292766 1.4387543602632105 103 92 88 0.77 21 34 38 70 39 74 40 97 41 97 42 98 43 99 46 109 47 110 48 110 49 107 
197 0.44522608015355597 -0.07517771509938975 0.8555481372447598 164 172 178 1.08 4 63 9 122 10 110 11 105 12 99 13 100 14 93 15 88 16 79 17 82 18 84 19 58 20 43 21 35 22 35 23 29 26 16 38 71 39 75 40 98 41 98 42 99 43 100 46 110 47 111 48 111 49 108 
198 0.06518561798693788 0.022816322147940365 1.5144666437224452 141 145 145 0.51 40 99 41 99 42 100 43 101 46 111 47 112 48 112 49 109 
199 0.4795071468665868 0.04809339469153159 1.2178734725742517 96 100 106 0.91 7 108 8 116 9 123 10 111 11 106 12 100 13 101 14 94 15 89 16 80 17 83 18 85 19 59 20 44 21 36 22 36 23 30 35 67 36 37 37 66 38 72 39 76 40 100 41 100 42 101 43 102 46 112 47 113 48 113 49 110 
200 0.3733718859212962 0.2658452994738194 1.4402400777043094 131 132 133 0.51 20 45 35 68 37 67 38 73 39 77 40 101 41 101 42 102 43 103 46 113 47 114 48 114 49 111 
201 0.05405999247920063 -0.034677775205478094 1.5277572169079456 37 32 30 0.74 40 102 41 102 42 103 43 104 46 114 47 115 48 115 49 112 
202 0.35672739928659564 0.09269659981471756 1.4009833615037124 110 123 136 1.14 6 100 7 109 8 117 9 124 10 112 19 60 22 37 35 69 36 38 37 68 38 74 39 78 40 103 41 103 42 104 43 105 46 115 47 116 48 116 49 113 
203 0.36194116585885655 0.22695603217959576 1.1500997542456093 72 75 82 1.24 5 49 6 101 7 110 8 118 9 125 10 113 11 107 19 61 22 38 39 79 40 104 41 104 42 105 43 106 46 116 47 117 48 117 49 114 
204 0.356847784652687 0.2601672270961011 1.443118797676465 117 110 108 0.55 21 37 35 70 37 69 38 75 39 80 40 105 41 105 42 106 43 107 46 117 47 118 48 118 49 115 
205 0.3378456986074452 0.2019917991891541 1.4565838378657796 116 109 102 0.28 39 81 40 106 41 106 42 107 43 108 46 118 47 119 48 119 49 116 
206 0.47602560738929867 0.3828115197984199 1.4982779467705951 82 78 85 2.46 47 120 48 120 49 117 
207 0.349451183080786 0.07947866774574211 1.2593811484340405 51 61 67 1.18 6 102 7 111 8 119 9 126 10 114 11 108 18 86 19 62 21 38 22 39 23 31 35 71 36 39 37 70 38 76 39 82 40 107 41 107 42 108 43 109 46 119 47 121 48 121 49 118 
208 0.37414863521462977 0.20883607966003662 1.4167018766992854 143 142 140 0.72 6 103 7 112 8 120 35 72 37 71 38 77 39 83 40 108 41 108 42 109 43 110 46 120 47 122 48 122 49 119 
209 0.4773803864603726 0.03599457334417699 1.211986494043255 197 212 219 1.02 7 113 8 121 9 127 10 115 11 109 12 101 13 102 14 95 15 90 16 81 17 84 18 87 19 63 20 46 21 39 22 40 23 32 35 73 36 40 37 72 38 78 39 84 40 109 41 109 42 110 43 111 46 121 47 123 48 123 49 120 
210 0.37342883213642714 0.1899722224711414 1.4179563235136279 141 142 142 0.57 6 104 8 122 21 40 35 74 37 73 38 79 39 85 40 110 41 110 42 111 43 112 46 122 47 124 48 124 49 121 
211 0.34679066365412553 0.20927889046620696 1.0935152065251232 26 17 18 1.31 6 105 7 114 8 123 9 128 10 116 12 102 18 88 20 47 21 41 22 41 23 33 35 75 36 41 37 74 38 80 40 111 41 111 42 112 43 113 46 123 47 125 48 125 49 122 
212 0.26594883500605554 0.10645708707587699 1.4832094027771683 122 115 109 0.31 40 112 41 112 42 113 43 114 46 124 47 126 48 126 49 123 
213 0.37947925667577515 0.3274924176650672 1.3944222492775595 51 32 32 0.38 21 42 35 76 37 75 38 81 39 86 40 113 41 113 42 114 43 115 46 125 47 127 48 127 49 124 
214 0.49815833123535685 0.3714277009651696 1.4262241502136788 46 40 42 1.01 43 116 46 126 47 128 48 128 49 125 
215 0.3596182873391159 0.287209461268053 1.331232494947651 27 36 42 0.78 6 106 22 42 35 77 37 76 38 82 39 87 40 114 41 114 42 115 43 117 46 127 47 129 48 129 49 126 
216 0.3698369408731276 0.34240334670936373 1.421852827493988 111 102 96 0.37 35 78 37 77 38 83 39 88 40 115 41 115 42 116 43 118 46 128 47 130 48 130 49 127 
217 0.4538231262924623 -0.09127122260829146 0.8482763696054618 18 14 18 1.63 4 64 11 110 12 103 13 103 14 96 15 91 16 82 17 85 18 89 20 48 23 34 26 17 36 42 38 84 39 89 40 116 41 116 42 117 46 129 47 131 48 131 49 128 
218 0.47804590259567514 0.10457723955877295 1.1874357207520774 68 52 45 1.4 8 124 9 129 10 117 11 111 12 104 13 104 14 97 16 83 17 86 18 90 19 64 20 49 21 43 22 43 23 35 26 18 35 79 36 43 37 78 38 85 39 90 40 117 41 117 42 118 43 119 46 130 47 132 48 132 49 129 
219 0.3759695319033121 0.27085522584406074 1.406383874292168 111 104 102 0.56 20 50 35 80 37 79 38 86 39 91 40 118 41 118 42 119 43 120 46 131 47 133 48 133 49 130 
220 0.02599525071144102 0.10999987095641438 1.4982212234904102 122 120 118 0.41 40 119 41 119 42 120 43 121 46 132 47 134 48 134 49 131 
221 0.36139268295042337 0.2350444316171904 1.3404902947431454 101 119 143 1.16 6 107 7 115 8 125 9 130 20 51 22 44 35 81 36 44 37 80 38 87 39 92 40 120 41 120 42 121 43 122 46 133 47 135 48 135 49 132 
222 0.3535761644766883 0.08184223207796412 1.3944601242128989 154 169 175 0.65 6 108 7 116 10 118 22 45 35 82 36 45 37 81 38 88 39 93 40 121 41 121 42 122 43 123 46 134 47 136 48 136 49 133 
223 0.4910977012276094 0.3483808376573525 1.3307332793994475 48 47 49 0.68 35 83 41 122 42 123 43 124 46 135 47 137 48 137 49 134 
224 0.4678718666402105 0.02713214219129703 1.078480544499839 55 56 60 0.95 7 117 8 126 9 131 10 119 11 112 12 105 13 105 14 98 15 92 16 84 17 87 18 91 19 65 20 52 21 44 22 46 23 36 36 46 37 82 38 89 39 94 40 122 41 123 42 124 43 125 46 136 47 138 48 138 49 135 
225 0.3700904308619083 0.15113200222037465 1.4074723309152624 130 155 172 0.6 6 109 8 127 9 132 21 45 35 84 37 83 38 90 39 95 40 123 41 124 42 125 43 126 46 137 47 139 48 139 49 136 
226 0.37560677810378446 0.3111749653451975 1.318285985340765 62 60 62 0.69 6 110 22 47 35 85 37 84 38 91 39 96 40 124 41 125 42 126 43 127 46 138 47 140 48 140 49 137 
227 0.4947149551847971 0.27267477267500273 1.0568526120990136 131 133 135 1.29 4 65 13 106 20 53 21 46 36 47 38 92 39 97 40 125 41 126 42 127 43 128 46 139 
228 0.044176504635381406 0.21354170266506478 1.4696345079427682 123 118 114 0.32 40 126 41 127 42 128 43 129 46 140 47 141 48 141 49 138 
229 0.4761939315600273 0.06474571931597166 1.1999081905816888 97 99 105 0.85 7 118 8 128 9 133 10 120 11 113 12 106 13 107 14 99 15 93 16 85 17 88 18 92 19 66 20 54 21 47 22 48 23 37 35 86 36 48 37 85 38 93 39 98 40 127 41 128 42 129 43 130 46 141 47 142 48 142 49 139 
230 0.3788239023168347 0.32596631659576075 1.3959420395181887 109 107 107 0.28 35 87 37 86 38 94 39 99 40 128 41 129 42 130 43 131 46 142 47 143 48 143 49 140 
231 0.3677084529574131 0.34638188497552397 1.4213041797645516 102 93 88 0.52 35 88 37 87 38 95 39 100 40 129 41 130 42 131 43 132 46 143 47 144 48 144 49 141 
232 0.4628965785268192 0.3437423290030919 1.4055874904806944 39 42 41 1.2 35 89 39 101 40 130 42 132 43 133 46 144 47 145 48 145 49 142 
233 0.3555602912733372 0.1307280986187936 1.2430987232072361 93 96 104 0.68 6 111 7 119 8 129 9 134 10 121 11 114 18 93 21 48 22 49 23 38 35 90 36 49 37 88 38 96 39 102 40 131 41 131 42 133 43 134 46 145 47 146 48 146 49 143 
234 0.3612319441107061 0.19784215941428365 1.2577329413366793 17 16 15 0.85 6 112 7 120 8 130 9 135 10 122 17 89 18 94 20 55 22 50 23 39 35 91 36 50 37 89 38 97 39 103 40 132 41 132 42 134 43 135 46 146 47 147 48 147 49 144 
235 0.45581658550880005 0.1315907174334931 1.0771734736627825 62 60 60 1.75 8 131 11 115 13 108 17 90 18 95 19 67 20 56 21 49 22 51 23 40 26 19 35 92 36 51 37 90 38 98 39 104 40 133 41 133 42 135 43 136 
236 0.443904949250897 0.18686061757744654 0.8375993231929809 70 62 64 1.85 4 66 7 121 8 132 9 136 12 107 13 109 15 94 16 86 17 91 18 96 36 52 38 99 39 105 40 134 41 134 42 136 43 137 46 147 47 148 48 148 49 145 
237 0.3610130448283086 0.15559741125098261 1.381380955601439 36 43 41 0.92 6 113 8 133 9 137 19 68 22 52 23 41 35 93 36 53 37 91 38 100 39 106 40 135 41 135 42 137 43 138 46 148 47 149 48 149 49 146 
238 0.4592229361134315 0.2373899760151988 1.0611102218777195 101 88 80 1.35 4 67 15 95 17 92 18 97 20 57 21 50 22 53 23 42 39 107 40 136 41 136 42 138 43 139 
239 0.4624628074707739 -0.06095108417873229 0.9885967835983798 186 195 195 1.58 7 122 8 134 9 138 10 123 11 116 12 108 13 110 14 100 15 96 16 87 17 93 18 98 19 69 20 58 21 51 22 54 36 54 37 92 38 101 39 108 40 137 41 137 42 139 43 140 46 149 47 150 48 150 49 147 
240 0.3256259438488575 0.369062087700292 1.4661872418237656 28 22 19 0.45 42 140 43 141 46 150 47 151 48 151 49 148 
241 0.3658224307717691 0.1007336565464416 1.4174525887098575 169 193 204 0.89 6 114 7 123 9 139 19 70 21 52 22 55 23 43 35 94 37 93 38 102 39 109 40 138 41 138 42 141 43 142 46 151 47 152 48 152 49 149 
242 0.3704899931810577 0.28900908015124294 1.2836519288050547 118 118 117 0.93 6 115 7 124 8 135 9 140 20 59 35 95 37 94 38 103 39 110 40 139 41 139 42 142 43 143 46 152 47 153 48 153 49 150 
243 0.3132409350706543 0.19670955613219052 1.4589177993069933 116 108 99 0.24 40 140 41 140 42 143 43 144 46 153 47 154 48 154 49 151 
244 0.36112246312869034 0.27317414272811896 1.339205166241784 31 39 42 1.02 6 116 8 136 19 71 20 60 22 56 35 96 36 55 37 95 38 104 39 111 40 141 41 141 42 144 43 145 46 154 47 155 48 155 49 152 
245 0.3697553315324891 0.07774350749545128 1.4601138429071687 100 106 110 0.51 20 61 35 97 37 96 38 105 39 112 40 142 41 142 42 145 43 146 46 155 47 156 48 156 49 153 
246 0.36885444181564525 0.2306515033044697 1.1741228386223597 65 60 57 1.07 6 117 7 125 8 137 9 141 10 124 11 117 18 99 19 72 22 57 23 44 26 20 35 98 36 56 37 97 38 106 39 113 40 143 41 143 42 146 43 147 46 156 47 157 48 157 49 154 
247 0.37587135964892127 0.23530026372177404 1.4277887029266008 128 127 128 0.61 6 118 7 126 8 138 20 62 35 99 37 98 38 107 39 114 40 144 41 144 42 147 43 148 46 157 47 158 48 158 49 155 
248 0.39768838436773796 0.39151226400196926 1.5483985594490661 52 44 50 0.6 46 158 47 159 48 159 
249 0.282831689825794 0.20656592684692138 1.459150568870103 126 125 123 0.31 40 145 41 145 42 148 43 149 46 159 47 160 48 160 49 156 
250 0.46424107982433377 0.3299128236341157 1.284837178831508 41 39 40 1.13 36 57 37 99 38 108 39 115 40 146 41 146 42 149 43 150 46 160 47 161 48 161 49 157 
251 0.465391460006976 0.20793982653901544 1.1845676319368454 84 88 90 1.31 4 68 9 142 13 111 14 101 17 94 18 100 20 63 22 58 23 45 35 100 36 58 37 100 38 109 39 116 40 147 41 147 42 150 43 151 46 161 
252 0.36265912919116183 0.26664760365918977 1.3339034352597066 116 136 158 1.11 6 119 7 127 8 139 19 73 20 64 22 59 35 101 36 59 37 101 38 110 39 117 40 148 41 148 42 151 43 152 46 162 47 162 48 162 49 158 
253 0.45473744957125883 0.31204033987663904 1.261392571463859 50 45 45 1.21 21 53 22 60 23 46 38 111 39 118 40 149 41 149 42 152 43 153 46 163 47 163 48 163 49 159 
254 -0.2091172431427198 0.12001273508540487 1.509478427286911 94 88 83 0.68 40 150 41 150 42 153 43 154 46 164 47 164 48 164 49 160 
255 0.364650376906881 0.22102180536932742 1.3488713368244596 32 28 27 1.0 6 120 7 128 9 143 19 74 20 65 22 61 23 47 35 102 36 60 37 102 38 112 39 119 40 151 41 151 42 154 43 155 46 165 47 165 48 165 49 161 
256 0.3782063369956663 0.3072399796106093 1.4034794354448128 125 122 119 0.26 35 103 37 103 38 113 39 120 40 152 41 152 42 155 43 156 46 166 47 166 48 166 49 162 
257 0.4692557769578078 0.3796888695878861 1.5179956710198317 54 54 59 0.54 46 167 47 167 48 167 
258 0.35992936965407946 0.055296727229192995 1.2299354461608198 111 126 139 1.2 5 50 6 121 7 129 8 140 9 144 10 125 11 118 18 101 19 75 21 54 22 62 23 48 26 21 35 104 36 61 37 104 38 114 39 121 40 153 41 153 42 156 43 157 46 168 47 168 48 168 49 163 
259 0.45350208918949464 0.08668299018794325 1.0866667612523901 87 75 65 1.45 12 109 16 88 21 55 22 63 23 49 26 22 36 62 37 105 38 115 39 122 40 154 41 154 42 157 43 158 
260 0.3236998252210158 0.19331134212554613 1.4584230267971687 110 104 99 0.21 40 155 41 155 42 158 43 159 46 169 47 169 48 169 49 164 
261 0.3354834267196407 -0.010158692819086079 1.0200986733107666 8 5 5 1.3 6 122 7 130 8 141 9 145 10 126 11 119 12 110 14 102 15 97 19 76 20 66 21 56 26 23 39 123 40 156 41 156 42 159 46 170 47 170 48 170 49 165 
262 0.01861066531924245 0.4004785638937361 1.4186957298715777 69 76 72 0.3 46 171 47 171 48 171 49 166 
263 0.3674353456987103 0.16282206861238657 1.3989834608113487 49 68 78 0.8 6 123 8 142 9 146 21 57 22 64 23 50 35 105 37 106 38 116 39 124 40 157 41 157 42 160 43 160 46 172 47 172 48 172 49 167 
264 0.3554373946892548 0.10306212042370307 1.381150203477828 143 164 178 0.63 6 124 8 143 9 147 20 67 22 65 23 51 35 106 36 63 37 107 38 117 39 125 40 158 41 158 42 161 43 161 46 173 47 173 48 173 49 168 
265 -0.22212114068466918 0.08685479435958027 1.5181263323457017 107 98 95 0.92 40 159 41 159 42 162 43 162 46 174 47 174 48 174 49 169 
266 -0.11199898332723189 0.42370053890479326 1.4652301016109723 68 74 89 0.78 43 163 46 175 47 175 48 175 49 170 
267 0.4660018891189676 0.02662711972210627 1.0610531263609357 129 129 130 0.97 7 131 8 144 9 148 10 127 11 120 12 111 13 112 14 103 15 98 16 89 17 95 18 102 19 77 20 68 21 58 36 64 37 108 38 118 39 126 40 160 41 160 42 163 43 164 46 176 47 176 48 176 49 171 
268 0.3764220058498619 0.25372724466308355 1.4404808179476103 122 112 109 0.56 6 125 20 69 35 107 37 109 38 119 39 127 40 161 41 161 42 164 43 165 46 177 47 177 48 177 49 172 
269 0.35872112427261654 0.07035153016599066 1.382482065589204 15 13 14 0.57 6 126 7 132 9 149 22 66 35 108 36 65 37 110 38 120 39 128 40 162 41 162 42 165 43 166 46 178 47 178 48 178 49 173 
270 0.08153955850047839 0.24791637754124676 1.4588564804358848 104 100 98 0.29 40 163 41 163 46 179 47 179 48 179 49 174 
271 0.3717157248767073 0.1490384662339748 1.4283802856975834 138 139 138 0.73 7 133 8 145 35 109 37 111 38 121 39 129 40 164 41 164 42 166 43 167 46 180 47 180 48 180 49 175 
272 0.5023355203985824 0.2703658590916116 1.1024300349621992 62 60 62 1.26 10 128 11 121 20 70 21 59 
273 0.5454019220592343 0.31829631355055393 1.2226693265425903 52 57 54 0.83 35 110 36 66 38 122 39 130 40 165 41 165 42 167 43 168 46 181 47 181 48 181 
274 0.3587510043867032 0.12485185871203841 1.3909519615460375 100 117 135 0.91 6 127 8 146 9 150 22 67 35 111 36 67 37 112 38 123 39 131 40 166 41 166 42 168 43 169 46 182 47 182 48 182 49 176 
275 0.3734897263406538 0.18033682857321218 1.4145891071911034 112 113 119 0.84 6 128 7 134 8 147 9 151 35 112 37 113 38 124 39 132 40 167 41 167 42 169 43 170 46 183 47 183 48 183 49 177 
276 0.3729161494367898 0.18156127342725367 1.4121117113109871 68 67 75 0.77 6 129 7 135 8 148 9 152 21 60 35 113 37 114 38 125 39 133 40 168 41 168 42 170 43 171 46 184 47 184 48 184 49 178 
277 0.5299622217193027 0.3118655417818962 1.0776364925117858 32 30 32 1.31 20 71 23 52 35 114 40 169 41 169 42 171 43 172 46 185 47 185 48 185 
278 0.36264168745189096 0.14376870539086908 1.2806104314165194 84 78 79 0.8 6 130 7 136 8 149 9 153 10 129 17 96 20 72 21 61 22 68 23 53 26 24 35 115 36 68 37 115 38 126 39 134 40 170 41 170 42 172 43 173 46 186 47 186 48 186 49 179 
279 0.35572951374519646 0.11407149750166809 1.3756392758033757 238 251 255 0.75 6 131 8 150 9 154 10 130 20 73 22 69 23 54 35 116 36 69 37 116 38 127 39 135 40 171 41 171 42 173 43 174 46 187 47 187 48 187 49 180 
280 0.3748337860155332 0.19802340670537538 1.453246744856218 99 85 86 0.69 7 137 8 151 20 74 35 117 37 117 38 128 39 136 40 172 41 172 42 174 43 175 46 188 47 188 48 188 49 181 
281 0.37404166555039436 0.18157825029099273 1.4404785485760623 125 126 126 0.62 6 132 8 152 20 75 35 118 37 118 38 129 39 137 40 173 41 173 42 175 43 176 46 189 47 189 48 189 49 182 
282 0.37233273816795653 0.15661330107517504 1.4633138366092981 107 100 101 0.9 6 133 7 138 8 153 9 155 18 103 20 76 35 119 37 119 39 138 40 174 41 174 42 176 43 177 46 190 47 190 48 190 49 183 
283 0.5013388750852888 0.37038106393321163 1.4515384985415491 66 53 54 0.72 46 191 47 191 48 191 49 184 
284 0.3707842174691533 0.09408733363811671 1.4702057611477874 81 79 82 0.56 20 77 35 120 37 120 38 130 39 139 40 175 41 175 42 177 43 178 46 192 47 192 48 192 49 185 
285 0.3479959470213386 0.24754895862188106 1.0881882672409295 27 17 16 1.25 6 134 7 139 8 154 9 156 12 112 20 78 21 62 22 70 35 121 36 70 37 121 38 131 40 176 41 176 42 178 43 179 46 193 47 193 48 193 49 186 
286 0.34496876847758623 0.06763261038661895 1.4909538452286566 78 76 75 0.32 35 122 37 122 40 177 41 177 42 179 43 180 46 194 47 194 48 194 49 187 
287 0.45989975099820557 -0.011086628743496429 1.0110335671485997 216 226 228 1.12 7 140 8 155 9 157 10 131 11 122 12 113 13 113 14 104 15 99 16 90 17 97 18 104 19 78 20 79 21 63 36 71 37 123 38 132 39 140 40 178 41 178 42 180 43 181 46 195 47 195 48 195 49 188 
288 0.3530028739924451 0.20543999226847548 1.22074962390835 72 76 87 0.62 6 135 7 141 8 156 9 158 10 132 11 123 18 105 21 64 22 71 23 55 35 123 36 72 37 124 38 133 39 141 40 179 41 179 42 181 43 182 46 196 47 196 48 196 49 189 
289 0.35338976491489965 0.07586541834121416 1.3837219291746297 175 192 200 0.75 7 142 8 157 9 159 10 133 20 80 22 72 23 56 35 124 36 73 37 125 38 134 39 142 40 180 41 180 42 182 43 183 46 197 47 197 48 197 49 190 
290 0.37410718001421955 0.21597260708669924 1.396825004140617 117 106 105 0.72 6 136 7 143 8 158 9 160 21 65 35 125 37 126 38 135 39 143 40 181 41 181 42 183 43 184 46 198 47 198 48 198 49 191 
291 0.37690096283893737 0.2536654645652561 1.4209203956584315 118 119 119 0.6 6 137 7 144 8 159 20 81 35 126 37 127 38 136 39 144 40 182 41 182 42 184 43 185 46 199 47 199 48 199 49 192 
292 0.47571580460298496 0.05757884415322278 1.182561194504548 55 64 71 0.94 7 145 8 160 9 161 10 134 11 124 12 114 13 114 14 105 15 100 16 91 17 98 18 106 19 79 20 82 21 66 22 73 23 57 35 127 37 128 38 137 39 145 40 183 41 183 42 185 43 186 46 200 47 200 48 200 49 193 
293 0.21761219418024838 0.24087416266991304 1.4556505786601834 101 91 83 0.45 40 184 41 184 42 186 43 187 46 201 47 201 48 201 49 194 
294 0.3500414062925118 0.12399254326349556 1.2492636239656412 22 25 27 0.85 6 138 7 146 8 161 9 162 10 135 11 125 18 107 21 67 22 74 23 58 35 128 36 74 37 129 38 138 39 146 40 185 41 185 42 187 43 188 46 202 47 202 48 202 49 195 
295 0.37349460907802734 0.20526964098100495 1.399241535373076 141 143 144 0.71 6 139 8 162 9 163 21 68 35 129 37 130 38 139 39 147 40 186 41 186 42 188 43 189 46 203 47 203 48 203 49 196 
296 0.35599135351926703 0.19614538137673432 1.4576280884280752 117 110 103 0.48 21 69 35 130 37 131 38 140 39 148 40 187 41 187 42 189 43 190 46 204 47 204 48 204 49 197 
297 0.45596072500380014 0.01065783564413889 0.963136321545139 94 93 93 1.21 7 147 8 163 9 164 10 136 11 126 12 115 13 115 14 106 15 101 16 92 17 99 18 108 19 80 20 83 21 70 22 75 23 59 26 25 36 75 38 141 39 149 40 188 41 188 42 190 43 191 46 205 47 205 48 205 49 198 
298 0.11854955542623816 0.26198639161789444 1.4577128803939192 146 156 152 0.48 40 189 41 189 46 206 47 206 48 206 49 199 
299 0.3796258712922191 0.32629863629579964 1.4234252586768388 105 98 95 0.47 35 131 37 132 38 142 39 150 40 190 41 190 42 191 43 192 46 207 47 207 48 207 49 200 
300 0.4637352604940777 0.37640144397340564 1.5045828635079226 48 47 49 2.73 46 208 47 208 
301 0.35661498682948906 0.12448053021739046 1.168440255995991 47 40 34 0.93 5 51 6 140 7 148 8 164 9 165 10 137 11 127 12 116 16 93 19 81 20 84 21 71 26 26 38 143 39 151 40 191 41 191 42 192 43 193 46 209 47 209 48 208 49 201 
302 0.35462650114779887 0.13621947961182426 1.368678190124678 36 46 56 0.97 6 141 8 165 20 85 22 76 23 60 35 132 36 76 37 133 38 144 39 152 40 192 41 192 42 193 43 194 46 210 47 210 48 209 49 202 
