# 3D point list with one line of data per point:
#   POINT3D_ID, X, Y, Z, R, G, B, ERROR, TRACK[] as (IMAGE_ID, POINT2D_IDX)
# Number of points: 283, mean track length: 7.81
431 0.05501966891899557 -0.0904253907883496 1.0346293104130841 0 0 0 0.49 18 186 30 45 46 158 47 24 57 107 58 215 59 96 125 202 144 106 149 110 154 160 166 165 167 431 171 122 186 74 189 85 202 84 210 47 228 187 
432 0.052354329845239786 -0.07154819324748428 1.0307883446451103 0 0 0 0.35 18 187 23 65 57 108 58 216 59 97 94 173 116 162 125 203 143 44 144 107 149 111 151 155 154 161 166 166 167 432 171 123 178 35 186 75 189 86 191 73 211 139 212 98 228 188 
433 -0.37261642036969567 0.004949629793841393 0.839798142063828 0 0 0 0.3 18 188 51 43 57 109 58 217 59 98 86 184 125 204 151 156 167 433 178 36 180 131 202 85 212 99 
434 -0.3179760859592971 0.013952004704312996 0.7411798143805707 0 0 0 0.67 18 189 51 44 59 99 167 434 180 132 
435 -0.30209867220924486 0.07263597118206971 0.6798676493277216 0 0 0 0.22 18 190 51 45 86 185 125 205 151 157 166 167 167 435 202 86 
436 -0.18813618891760223 0.06013936612696491 0.6999064446267835 0 0 0 0.31 18 191 46 159 58 218 59 100 86 186 94 174 116 163 125 206 143 45 144 108 151 158 166 168 167 436 171 124 180 133 189 87 191 74 193 134 202 87 212 100 218 128 
437 -0.3236801338538628 0.08466184675361488 0.7100771914296536 0 0 0 0.24 18 192 34 90 46 160 48 13 51 46 57 110 58 219 59 101 86 187 125 207 139 62 151 159 154 162 166 169 167 437 178 37 180 134 186 76 202 88 211 140 212 101 228 189 
438 -0.3236674537462561 0.08465190486963003 0.7100445399706874 0 0 0 0.15 18 193 58 220 86 188 167 438 186 77 211 141 212 102 
439 -0.2559770273349172 0.06689930867171223 0.6083842045211333 0 0 0 0.29 18 194 34 91 46 161 58 221 59 102 86 189 94 175 102 32 125 208 132 52 139 63 144 109 151 160 153 78 166 170 167 439 171 125 180 135 189 88 193 135 202 89 211 142 212 103 216 80 218 129 225 26 228 190 
440 -0.21713838095230867 0.08355768944526884 0.6593055187915039 0 0 0 0.45 18 195 86 190 143 46 151 161 167 440 178 38 186 78 191 75 212 104 
441 -0.24804161403847133 0.08856343622522515 0.6043392265865521 0 0 0 0.33 18 196 46 162 57 111 58 222 59 103 86 191 94 176 125 209 166 171 167 441 180 136 189 89 193 136 202 90 211 143 218 130 225 27 228 191 
442 -0.24214621539706596 0.09008642092743271 0.6090853033407769 0 0 0 0.32 18 197 51 47 58 223 59 104 125 210 144 110 151 162 167 442 171 126 178 39 180 137 202 91 225 28 228 192 
443 -0.1627933722416366 0.11317352167261005 0.6820261009314825 0 0 0 0.28 18 198 46 163 86 192 116 164 153 79 167 443 191 76 218 131 225 29 
444 -0.21048808157759263 0.1138446311056095 0.6497740579615173 0 0 0 0.31 18 199 34 92 37 156 51 48 55 26 57 112 58 224 59 105 72 61 86 193 94 177 116 165 119 39 125 211 131 32 139 64 143 47 144 111 151 163 153 80 154 163 166 172 167 444 171 127 173 62 180 138 189 90 191 77 193 137 202 92 211 144 212 105 216 81 218 132 225 30 226 58 
445 -0.32210864118775173 0.1475593691220616 0.6794522032861229 0 0 0 0.28 18 200 48 14 51 49 58 225 59 106 86 194 125 212 151 164 166 173 167 445 178 40 180 139 202 93 212 106 228 193 
446 -0.28025460811038594 0.12918722005514152 0.5968197558567081 0 0 0 0.39 18 201 59 107 119 40 167 446 178 41 
447 -0.2043311024003195 0.1342638937440637 0.6482338488843757 0 0 0 0.17 18 202 58 226 59 108 86 195 116 166 131 33 166 174 167 447 171 128 180 140 202 94 
448 -0.14225911259754104 0.1527932893730663 0.6881264077025905 0 0 0 0.21 18 203 23 66 46 164 55 27 59 109 94 178 166 175 167 448 171 129 178 42 180 141 189 91 193 138 202 95 
449 -0.321871932137179 0.17465164246092307 0.6686944004733195 0 0 0 0.44 18 204 34 93 48 15 51 50 58 227 59 110 125 213 151 165 154 164 166 176 167 449 178 43 180 142 202 96 211 145 212 107 228 194 
450 -0.2038759688902924 0.16301730277658136 0.6381850913804002 0 0 0 0.25 37 157 46 165 131 34 167 450 186 79 189 92 191 78 202 97 212 108 218 133 
451 -0.282953941376309 0.16793189578749834 0.585624999932055 0 0 0 0.37 18 205 51 51 59 111 167 451 180 143 202 98 
452 -0.2794084438787576 0.179258049967236 0.5776432754242644 0 0 0 0.37 18 206 51 52 57 113 58 228 59 112 125 214 167 452 191 79 228 195 
453 -0.26732029450799843 0.17711576737900797 0.5642895802748769 0 0 0 0.3 18 207 46 166 51 53 57 114 58 229 59 113 125 215 167 453 202 99 212 109 215 20 228 196 
454 -0.2218170707779193 0.1768052612878827 0.573634776711058 0 0 0 0.36 18 208 57 115 58 230 116 167 125 216 151 166 154 165 166 177 167 454 171 130 211 146 212 110 228 197 
455 -0.36360994725329066 -0.15313556305413156 0.9225703756331451 0 0 0 0.29 18 209 37 158 48 16 51 54 59 114 151 167 153 81 167 455 180 144 191 80 202 100 
456 -0.27316152040587 -0.03326705800598712 0.6444969803606408 0 0 0 0.38 18 210 51 55 57 116 58 231 59 115 86 196 125 217 151 168 154 166 166 178 167 456 178 44 180 145 202 101 212 111 216 82 228 198 
457 0.046367132103902774 -0.07602771515085754 1.0405328357830925 0 0 0 0.82 18 211 47 25 59 116 94 179 116 168 166 179 167 457 171 131 180 146 191 81 
458 -0.3244967962332021 -0.0018919396503143354 0.7499835777158721 0 0 0 0.34 18 212 48 17 51 56 58 232 59 117 86 197 125 218 131 35 144 112 151 169 154 167 166 180 167 458 178 45 180 147 193 139 202 102 212 112 
459 -0.21203066238303328 -0.0010590248765665591 0.7007780061709651 0 0 0 0.36 18 213 34 94 37 159 46 167 57 117 58 233 59 118 86 198 90 19 94 180 116 169 125 219 132 53 145 30 151 170 166 181 167 459 171 132 178 46 202 103 211 147 212 113 218 134 225 31 228 199 
460 -0.22729539290709472 0.0009441937852540461 0.6919059492727713 0 0 0 0.3 18 214 37 160 46 168 51 57 58 234 59 119 86 199 94 181 116 170 125 220 139 65 144 113 145 31 151 171 154 168 166 182 167 460 178 47 180 148 186 80 189 93 191 82 193 140 202 104 211 148 212 114 225 32 228 200 
461 -0.2799068692422537 0.022449222979817187 0.6350557862398876 0 0 0 0.37 18 215 46 169 48 18 51 58 58 235 59 120 86 200 119 41 125 221 131 36 151 172 153 82 154 169 167 461 173 63 180 149 211 149 212 115 228 201 
462 -0.2589108899122864 0.021843229987358152 0.6283977269594088 0 0 0 0.53 18 216 46 170 51 59 55 28 58 236 59 121 102 33 119 42 125 222 137 10 139 66 144 114 145 32 153 83 154 170 161 46 166 183 167 462 171 133 178 48 180 150 183 54 186 81 193 141 202 105 211 150 212 116 216 83 218 135 
463 -0.28552797820005876 0.04502762772184302 0.6335266540347463 0 0 0 0.46 18 217 48 19 59 122 86 201 125 223 153 84 166 184 167 463 180 151 202 106 
464 -0.32371832502314324 0.05688953500357152 0.7190332419014531 0 0 0 0.25 18 218 48 20 59 123 86 202 125 224 151 173 153 85 154 171 166 185 167 464 180 152 202 107 212 117 
465 -0.26022148451524546 0.043467122615237504 0.6219091293832529 0 0 0 0.35 18 219 51 60 167 465 171 134 
466 -0.2748237259998781 0.04756737522718408 0.6209410443636014 0 0 0 0.22 18 220 34 95 51 61 57 118 58 237 59 124 86 203 119 43 125 225 139 67 144 115 151 174 154 172 166 186 167 466 180 153 186 82 202 108 211 151 212 118 225 33 228 202 
467 -0.22895153282892178 0.09641208712747272 0.6371233139517165 0 0 0 0.41 18 221 46 171 86 204 102 34 167 467 180 154 228 203 
468 -0.32264938311480235 0.11791768148991133 0.6930104387380699 0 0 0 0.35 18 222 59 125 86 205 151 175 154 173 166 187 167 468 180 155 202 109 228 204 
469 -0.3208950059179392 0.15984631591260992 0.6677328604437129 0 0 0 0.17 18 223 125 226 167 469 
470 -0.1001008280136649 0.18180894521124175 0.6969816150625363 0 0 0 0.22 18 224 23 67 34 96 59 126 72 62 125 227 131 37 151 176 153 86 167 470 171 135 173 64 180 156 191 83 193 142 202 110 212 119 218 136 226 59 
471 -0.23626008144046579 0.16378181596273753 0.5713969192960873 0 0 0 0.24 18 225 46 172 58 238 59 127 125 228 151 177 154 174 166 188 167 471 171 136 173 65 202 111 228 205 
472 -0.2814310399329703 0.1825950286741534 0.5781289235223284 0 0 0 0.55 18 226 57 119 58 239 59 128 125 229 167 472 191 84 202 112 211 152 212 120 215 21 228 206 
473 -0.33753090590853485 -0.12383156040084597 0.8725363034425314 0 0 0 0.52 18 227 58 240 59 129 86 206 166 189 167 473 186 83 191 85 202 113 
474 -0.3341675923249648 0.025942310214509063 0.7556319112042279 0 0 0 0.58 18 228 34 97 58 241 59 130 86 207 125 230 151 178 154 175 166 190 167 474 178 49 180 157 186 84 189 94 191 86 202 114 211 153 212 121 228 207 
475 -0.18080786432434737 0.14827292520410018 0.6631696418953454 0 0 0 0.34 18 229 116 171 125 231 167 475 180 158 191 87 202 115 228 208 
476 -0.2609096724107966 0.16192274707375745 0.5652246989102317 0 0 0 0.4 18 230 57 120 58 242 59 131 119 44 125 232 131 38 144 116 153 87 166 191 167 476 180 159 191 88 202 116 211 154 212 122 
477 -0.3223487073090749 0.02507680376669381 0.7335074659350983 0 0 0 0.31 18 231 34 98 46 173 48 21 51 62 58 243 59 132 86 208 125 233 151 179 154 176 166 192 167 477 178 50 180 160 202 117 212 123 
478 -0.3151760351539218 0.05383299631172063 0.7166046591825699 0 0 0 0.51 18 232 48 22 59 133 167 478 180 161 202 118 
479 -0.2774404352211995 0.09582160091321845 0.606678419764522 0 0 0 0.41 18 233 51 63 57 121 58 244 59 134 119 45 125 234 144 117 151 180 154 177 166 193 167 479 178 51 180 162 202 119 212 124 228 209 
480 -0.14657843845345356 0.1256625098065693 0.6945335617495448 0 0 0 0.52 18 234 23 68 46 174 57 122 58 245 59 135 72 63 86 209 94 182 116 172 119 46 131 39 143 48 144 118 149 112 151 181 154 178 167 480 173 66 178 52 180 163 183 55 191 89 193 143 202 120 211 155 212 125 215 22 218 137 226 60 
481 -0.27723350193787927 0.12190479880360568 0.5967908650052168 0 0 0 0.31 18 235 34 99 51 64 58 246 59 136 86 210 119 47 125 235 144 119 151 182 154 179 166 194 167 481 178 53 180 164 202 121 211 156 212 126 228 210 
482 -0.27665467288087897 0.1370401758336565 0.5881750073121469 0 0 0 0.4 18 236 46 175 57 123 58 247 59 137 119 48 125 236 144 120 151 183 154 180 167 482 180 165 202 122 211 157 212 127 228 211 
483 -0.27670184218560784 0.15294341110684745 0.5822438116121579 0 0 0 0.36 18 237 57 124 58 248 59 138 119 49 125 237 144 121 151 184 154 181 166 195 167 483 180 166 202 123 212 128 228 212 
484 -0.2762222115531947 0.16343884384357027 0.5759121887456872 0 0 0 0.38 18 238 51 65 57 125 58 249 59 139 119 50 125 238 144 122 151 185 154 182 166 196 167 484 202 124 212 129 215 23 228 213 
485 -0.24575636696556225 0.0014402952860080277 0.6517929682682515 0 0 0 0.74 18 239 34 100 37 161 46 176 51 66 58 250 59 140 86 211 94 183 119 51 125 239 131 40 132 54 144 123 166 197 167 485 171 137 180 167 189 95 191 90 202 125 211 158 212 130 218 138 228 214 
486 -0.26414191459920344 0.02259861371314894 0.63386040739446 0 0 0 0.65 18 240 58 251 59 141 86 212 153 88 166 198 167 486 173 67 178 54 186 85 189 96 193 144 202 126 225 34 
487 -0.26414067403931324 0.02230927249345266 0.6325878458272981 0 0 0 0.66 18 241 58 252 59 142 86 213 153 89 166 199 167 487 173 68 178 55 186 86 189 97 193 145 202 127 216 84 225 35 228 215 
488 -0.2934648825180303 0.12626629334933273 0.6315307214823204 0 0 0 0.52 18 242 57 126 59 143 86 214 119 52 151 186 154 183 166 200 167 488 178 56 180 168 202 128 212 131 
489 -0.2654955432907238 -1.576038379198254e-05 0.6440034482298651 0 0 0 0.76 18 243 34 101 51 67 57 127 58 253 59 144 86 215 125 240 131 41 139 68 144 124 151 187 154 184 166 201 167 489 180 169 189 98 202 129 211 159 212 132 225 36 
490 -0.20624875554979447 0.05376454133968913 0.6824611048508282 0 0 0 0.47 18 244 37 162 46 177 57 128 58 254 59 145 72 64 86 216 116 173 125 241 131 42 139 69 143 49 145 33 153 90 166 202 167 490 171 138 180 170 189 99 191 91 193 146 202 130 211 160 212 133 218 139 228 216 
491 -0.20623670525986157 0.05377055589802881 0.6825856489625188 0 0 0 0.46 18 245 37 163 46 178 51 68 57 129 58 255 59 146 72 65 86 217 94 184 116 174 125 242 131 43 139 70 143 50 145 34 153 91 166 203 167 491 171 139 180 171 189 100 191 92 193 147 202 131 211 161 212 134 218 140 228 217 
492 -0.2665900046011009 0.15891848096789687 0.5753052941997688 0 0 0 0.28 18 246 57 130 59 147 119 53 125 243 151 188 167 492 180 172 211 162 212 135 
493 -0.26853769023383445 0.032930812097543116 0.6293557864058356 0 0 0 0.6 18 247 58 256 86 218 125 244 166 204 167 493 178 57 180 173 202 132 212 136 
494 0.05798427202862752 -0.23456291828989317 1.1267277950858543 0 0 0 0.39 23 69 47 26 167 494 177 50 180 174 193 148 216 85 
495 0.05361970257805875 -0.1987230630768167 1.095034592406061 0 0 0 0.36 23 70 37 164 153 92 167 495 177 51 193 149 
496 0.0286504672457081 -0.19247835345095513 1.1102962327018542 0 0 0 0.22 23 71 86 219 167 496 177 52 218 141 
497 -0.13332056923288224 -0.057732127849992446 0.8470122601681037 0 0 0 0.27 23 72 58 257 125 245 145 35 167 497 211 163 228 218 
498 0.0453445534632736 -0.06642407377004496 1.0401909875571669 0 0 0 0.23 23 73 58 258 149 113 150 14 154 185 167 498 180 175 228 219 
499 0.027981701860569034 -0.043509332787947747 0.9898355661575876 0 0 0 0.39 23 74 58 259 116 175 125 246 131 44 150 15 167 499 177 53 180 176 228 220 
500 -0.012101102633924077 -0.027313852489087347 0.9267756115135611 0 0 0 0.31 23 75 58 260 125 247 145 36 153 93 167 500 173 69 180 177 193 150 218 142 
501 -0.011914605316268286 -0.027065527634680505 0.9285213669683507 0 0 0 0.31 23 76 34 102 58 261 116 176 125 248 153 94 167 501 180 178 186 87 193 151 
502 -0.0148145671979719 -0.02452996382343895 0.9233363282991708 0 0 0 0.36 23 77 30 46 58 262 125 249 153 95 154 186 167 502 180 179 183 56 
503 -0.19610825959359143 -0.007539729447179274 0.7122086068502519 0 0 0 0.24 23 78 154 187 167 503 
504 -0.1652490500626817 0.0043947013558503925 0.7278194734192555 0 0 0 0.27 23 79 34 103 37 165 46 179 51 69 57 131 151 189 154 188 166 205 167 504 183 57 211 164 228 221 
505 -0.13592951498052272 0.0076114601778573265 0.7511133062890838 0 0 0 0.27 23 80 167 505 228 222 
506 -0.08580136136523434 0.00645463080874355 0.7875546954433157 0 0 0 0.3 23 81 116 177 150 16 154 189 167 506 193 152 228 223 
507 -0.022249022384368957 0.021869394944272515 0.830569631174109 0 0 0 0.16 23 82 94 185 116 178 151 190 167 507 193 153 228 224 
508 -0.060966888028108956 0.02207884450466003 0.7987363200151554 0 0 0 0.28 23 83 58 263 167 508 193 154 228 225 
509 -0.06095447624222454 0.022088449874249686 0.7988312435697905 0 0 0 0.24 23 84 58 264 150 17 167 509 193 155 228 226 
510 -0.015916084551167272 0.037957994160777275 0.8296613226120683 0 0 0 0.22 23 85 94 186 154 190 167 510 
511 0.031134719583112726 0.051742447340315884 0.8547550875715016 0 0 0 0.25 23 86 116 179 153 96 167 511 218 143 
512 -0.021091900581042402 0.06065640802466657 0.8160069322880863 0 0 0 0.25 23 87 116 180 125 250 145 37 161 47 167 512 183 58 210 48 
513 0.015008702280841685 0.06954213779197277 0.8388643806295841 0 0 0 0.34 23 88 30 47 34 104 94 187 125 251 150 18 151 191 153 97 161 48 167 513 177 54 183 59 210 49 218 144 226 61 
514 -0.0697643557228247 0.06982966116039087 0.7683830229552532 0 0 0 0.2 23 89 37 166 46 180 72 66 86 220 116 181 125 252 145 38 151 192 167 514 180 180 193 156 218 145 226 62 
515 -0.07257905654211584 0.07152070898885049 0.7646445202553472 0 0 0 0.25 23 90 46 181 166 206 167 515 
516 0.0016060810234230741 0.08022334291635656 0.8314799547931662 0 0 0 0.36 23 91 154 191 166 207 167 516 180 181 218 146 
517 -0.00998069410932155 0.09181022048257366 0.8109914917125223 0 0 0 0.26 23 92 116 182 167 517 177 55 193 157 
518 -0.001675563186031268 0.13019715980632227 0.8040981675171558 0 0 0 0.45 23 93 116 183 149 114 167 518 193 158 218 147 
519 -0.11745084530670563 0.13828998731299588 0.7075858556229522 0 0 0 0.43 23 94 45 26 46 182 51 70 72 67 94 188 116 184 154 192 161 49 167 519 183 60 186 88 205 39 218 148 226 63 
520 -0.027250037494516016 0.16541337657388896 0.7641433548293709 0 0 0 0.17 23 95 46 183 86 221 167 520 177 56 193 159 218 149 
521 -0.008013572620733697 0.1674939160909608 0.7754895932865974 0 0 0 0.42 23 96 37 167 58 265 167 521 171 140 216 86 
522 -0.007812642889087156 0.1676993502865738 0.776841707855778 0 0 0 0.3 23 97 30 48 37 168 58 266 99 48 151 193 153 98 154 193 167 522 171 141 205 40 210 50 216 87 228 227 
523 -0.04730308850293119 0.16354934054238185 0.7486617017107965 0 0 0 0.2 23 98 30 49 34 105 46 184 58 267 72 68 90 20 94 189 116 185 125 253 151 194 154 194 161 50 167 523 177 57 183 61 186 89 193 160 218 150 233 40 
524 -0.0609471080523646 0.1659504997200746 0.7406892505829681 0 0 0 0.2 23 99 116 186 149 115 151 195 167 524 193 161 228 228 
525 0.041136189046571806 0.18507612193222842 0.8045664628908926 0 0 0 0.24 23 100 37 169 94 190 116 187 125 254 149 116 151 196 154 195 166 208 167 525 183 62 193 162 205 41 212 137 228 229 
526 -0.20074872946234798 0.1507643671484559 0.6409088316300253 0 0 0 0.29 23 101 37 170 46 185 57 132 72 69 116 188 125 255 139 71 143 51 151 197 153 99 166 209 167 526 180 182 186 90 189 101 193 163 211 165 218 151 226 64 228 230 
527 -0.13878438961046097 0.16155865613352016 0.6830811435108584 0 0 0 0.3 23 102 46 186 57 133 72 70 166 210 167 527 216 88 218 152 228 231 
528 -0.09728144634058686 0.18329439857525473 0.69977095936785 0 0 0 0.19 23 103 34 106 37 171 46 187 58 268 125 256 154 196 161 51 167 528 205 42 228 232 
529 -0.05579303123460157 0.21033147515246176 0.6828270153461783 0 0 0 0.38 23 104 37 172 119 54 166 211 167 529 193 164 218 153 
530 -0.08098739646712355 0.20747667945469286 0.6686621426786494 0 0 0 0.24 23 105 58 269 72 71 154 197 166 212 167 530 216 89 218 154 
531 -0.022692563993530184 0.22556847968371682 0.7015940115736858 0 0 0 0.42 23 106 30 50 37 173 72 72 116 189 149 117 151 198 167 531 211 166 218 155 
532 0.013136073507446942 0.252166016576172 0.7168962957879363 0 0 0 0.33 23 107 167 532 218 156 226 65 
533 -0.000598050482522072 0.25116550643022395 0.7060038110767671 0 0 0 0.43 23 108 72 73 167 533 226 66 233 41 
534 0.012485443663076412 0.2587830430074161 0.7102617240020708 0 0 0 0.32 23 109 30 51 116 190 151 199 154 198 167 534 177 58 183 63 218 157 226 67 233 42 
535 0.07884689493449652 -0.24690951539629846 1.0602604618018714 0 0 0 0.51 23 110 47 27 167 535 189 102 
536 0.057910862890947754 -0.23013266231246143 1.1182195241388169 0 0 0 0.31 23 111 34 107 46 188 47 28 55 29 86 222 143 52 154 199 167 536 173 70 193 165 
537 0.07324367452368687 -0.2226986320952391 1.0448662328441163 0 0 0 0.64 23 112 46 189 47 29 167 537 186 91 189 103 
538 0.07070349872353046 -0.12985592326203133 1.0042151201008436 0 0 0 0.35 23 113 46 190 47 30 59 148 86 223 94 191 125 257 144 125 145 39 151 200 154 200 161 52 167 538 173 71 180 183 193 166 211 167 
539 0.05497274383507179 -0.11934589685832099 1.0418640914728192 0 0 0 0.26 23 114 47 31 94 192 167 539 173 72 177 59 193 167 
540 -0.21213010566326912 -0.0744726052339686 0.8141773721455985 0 0 0 0.21 23 115 58 270 86 224 153 100 167 540 173 73 180 184 218 158 
541 -0.1311766787668598 -0.08201796066544433 0.8906770079974171 0 0 0 0.24 23 116 94 193 116 191 151 201 153 101 167 541 186 92 193 168 228 233 
542 -0.20587546329916065 -0.06548898090588873 0.8021224891006558 0 0 0 0.41 23 117 51 71 58 271 94 194 116 192 119 55 151 202 154 201 167 542 180 185 186 93 211 168 218 159 228 234 
543 -0.1336105028761597 -0.0604272466722825 0.8533289460407183 0 0 0 0.21 23 118 46 191 58 272 86 225 94 195 116 193 125 258 139 72 145 40 151 203 154 202 167 543 173 74 183 64 186 94 193 169 211 169 228 235 
544 -0.08119483851920639 -0.028137063896216993 0.877090179332001 0 0 0 0.33 23 119 30 52 58 273 150 19 167 544 
545 -0.07221371301256371 -0.027269293553042275 0.885307949158883 0 0 0 0.32 23 120 55 30 57 134 58 274 59 149 86 226 102 35 116 194 119 56 125 259 137 11 151 204 154 203 166 213 167 545 177 60 183 65 202 133 218 160 228 236 
546 -0.15455896598207278 -0.010649386060482135 0.7471387582064308 0 0 0 0.22 23 121 86 227 151 205 167 546 
547 -0.1487392947058401 -0.0086201958546995 0.7480051628137938 0 0 0 0.43 23 122 116 195 154 204 167 547 
548 -0.11702647199068524 -0.0017052976430897075 0.7670166923316336 0 0 0 0.27 23 123 46 192 116 196 167 548 218 161 
549 -0.13928836897718308 0.007898259260770969 0.7498169718217346 0 0 0 0.21 23 124 57 135 167 549 211 170 228 237 
550 -0.0917655951445597 0.01920777237943683 0.7805275054226815 0 0 0 0.31 23 125 94 196 166 214 167 550 180 186 193 170 228 238 
551 0.02567778399260461 0.029223522700281314 0.859268112655224 0 0 0 0.21 23 126 30 53 46 193 58 275 86 228 94 197 116 197 150 20 153 102 154 205 167 551 177 61 186 95 193 171 205 43 216 90 218 162 228 239 
552 0.05090093963194531 0.03701904155277833 0.8770616487160791 0 0 0 0.29 23 127 46 194 57 136 86 229 116 198 125 260 144 126 145 41 151 206 167 552 218 163 228 240 
553 -0.015511960859986655 0.09060968519443012 0.8133015867032755 0 0 0 0.28 23 128 58 276 99 49 102 36 149 118 151 207 167 553 177 62 183 66 191 93 211 171 212 138 218 164 228 241 
554 -0.0698200855193587 0.09768420679070183 0.7598187055378312 0 0 0 0.26 23 129 34 108 37 174 58 277 59 150 86 230 94 198 99 50 116 199 125 261 143 53 150 21 154 206 167 554 177 63 191 94 202 134 218 165 
555 -0.1060205857249129 0.09542155628417606 0.73097602910898 0 0 0 0.27 23 130 151 208 167 555 193 172 233 43 
556 -0.16288064309729622 0.10892213883745346 0.6790987825876758 0 0 0 0.2 23 131 72 74 167 556 
557 -0.025200495225873757 0.1277343701924995 0.7881842083913531 0 0 0 0.21 23 132 59 151 72 75 131 45 145 42 154 207 167 557 173 75 210 51 215 24 218 166 
558 -0.0056628654889336015 0.13202546732206644 0.7986789165713596 0 0 0 0.53 23 133 72 76 116 200 167 558 177 64 210 52 
559 0.012833624550360497 0.13730751502860677 0.8106814175508914 0 0 0 0.36 23 134 57 137 58 278 86 231 94 199 143 54 151 209 167 559 189 104 191 95 193 173 212 139 
560 0.0016731558928568101 0.13873902050876222 0.7983499065272727 0 0 0 0.32 23 135 99 51 125 262 167 560 171 142 226 68 
561 -0.09705723471340022 0.14110048615503526 0.7226220299960746 0 0 0 0.25 23 136 37 175 58 279 72 77 86 232 94 200 116 201 125 263 151 210 153 103 154 208 166 215 167 561 171 143 180 187 183 67 193 174 226 69 228 242 
562 -0.17953750356504353 0.13090772974063017 0.6643169923383433 0 0 0 0.23 23 137 86 233 94 201 116 202 125 264 154 209 161 53 166 216 167 562 171 144 180 188 193 175 211 172 228 243 
563 -0.019069576050568266 0.15464655521642884 0.7724188263391855 0 0 0 0.4 23 138 30 54 58 280 90 21 116 203 145 43 149 119 161 54 166 217 167 563 177 65 183 68 193 176 205 44 210 53 216 91 228 244 
564 -0.06956597699481526 0.14879427872464868 0.7400194599521113 0 0 0 0.23 23 139 151 211 167 564 171 145 183 69 193 177 205 45 216 92 
565 -0.16047461246002934 0.1374951154417561 0.672328990109467 0 0 0 0.31 23 140 34 109 37 176 46 195 51 72 58 281 94 202 116 204 125 265 139 73 144 127 151 212 161 55 166 218 167 565 171 146 183 70 193 178 211 173 216 93 226 70 228 245 
566 -0.0074704743500500735 0.16335792809251348 0.7774936212078339 0 0 0 0.38 23 141 30 55 34 110 37 177 55 31 57 138 59 152 86 234 125 266 132 55 143 55 151 213 167 566 177 66 183 71 189 105 191 96 205 46 211 174 212 140 218 167 
567 -0.017716191721683972 0.170974892461421 0.7683117773792766 0 0 0 0.33 23 142 34 111 46 196 58 282 72 78 86 235 94 203 99 52 102 37 116 205 125 267 132 56 144 128 149 120 151 214 153 104 166 219 167 567 171 147 177 67 180 189 183 72 193 179 210 54 211 175 212 141 216 94 218 168 
568 -0.17066616140048874 0.14691810963342847 0.6583870843178656 0 0 0 0.18 23 143 34 112 37 178 45 27 46 197 58 283 86 236 116 206 125 268 149 121 151 215 154 210 166 220 167 568 171 148 180 190 193 180 211 176 216 95 226 71 
569 -0.029774669801713713 0.17046265320780632 0.7461873464854069 0 0 0 0.38 23 144 34 113 154 211 167 569 193 181 
570 -0.08077015575131365 0.18596868911962156 0.727057478449694 0 0 0 0.48 23 145 37 179 46 198 57 139 58 284 72 79 94 204 116 207 125 269 132 57 154 212 166 221 167 570 191 97 193 182 212 142 218 169 
571 0.002427283890350361 0.20453030813144732 0.7780669771629597 0 0 0 0.33 23 146 30 56 34 114 46 199 55 32 58 285 94 205 99 53 116 208 119 57 125 270 139 74 143 56 144 129 151 216 154 213 166 222 167 571 177 68 189 106 191 98 193 183 210 55 211 177 212 143 215 25 216 96 218 170 226 72 228 246 
572 -0.10011768704012171 0.19619743060940734 0.689917858761231 0 0 0 0.29 23 147 34 115 58 286 94 206 116 209 119 58 125 271 144 130 151 217 166 223 167 572 173 76 218 171 226 73 
573 -0.10470639388355577 0.2105536185269334 0.6510738496536079 0 0 0 0.27 23 148 37 180 46 200 144 131 149 122 151 218 154 214 167 573 171 149 216 97 218 172 228 247 233 44 
574 -0.039291348126539685 0.22660262806969017 0.6899385334420147 0 0 0 0.13 23 149 154 215 167 574 171 150 
575 0.004780512605422603 0.2380173519133118 0.7198769401136493 0 0 0 0.16 23 150 34 116 37 181 154 216 167 575 177 69 226 74 233 45 
576 0.00912808140809892 0.2409544752414865 0.7204553750117049 0 0 0 0.3 23 151 131 46 154 217 167 576 193 184 
577 0.05865034737650901 -0.12494166123641465 1.0237548503597886 0 0 0 0.33 23 152 47 32 86 237 116 210 125 272 143 57 151 219 153 105 167 577 177 70 
578 0.048580314773830804 -0.04537207639858902 1.0250575332037417 0 0 0 0.34 23 153 37 182 46 201 86 238 125 273 149 123 150 22 151 220 154 218 161 56 167 578 186 96 193 185 211 178 228 248 
579 -0.18044545651790533 -0.0026191260481358805 0.723908922066355 0 0 0 0.19 23 154 46 202 58 287 86 239 154 219 167 579 212 144 228 249 
580 -0.02467006172084712 0.005913039587482478 0.8804466318282403 0 0 0 0.2 23 155 58 288 167 580 193 186 202 135 
581 0.02821449032470914 0.025898777914596303 0.8599356793937541 0 0 0 0.26 23 156 58 289 59 153 86 240 116 211 151 221 167 581 193 187 218 173 228 250 
582 -0.18839054751520803 0.03669408058608765 0.7076400140510971 0 0 0 0.27 23 157 34 117 37 183 72 80 86 241 119 59 154 220 167 582 226 75 
583 0.008758937161995668 0.04769671034764858 0.842586073128842 0 0 0 0.27 23 158 46 203 58 290 86 242 94 207 116 212 125 274 132 58 151 222 154 221 166 224 167 583 177 71 180 191 183 73 202 136 205 47 211 179 212 145 218 174 228 251 
584 0.044075506079115076 0.05659763429790888 0.8649530213312131 0 0 0 0.22 23 159 131 47 154 222 167 584 177 72 228 252 
585 -0.1931389752706229 0.05104559852179278 0.6988379164767196 0 0 0 0.27 48 23 144 132 153 106 167 585 189 107 218 175 
586 -0.13892938766127197 0.056176197074071 0.7240362233418106 0 0 0 0.14 23 160 37 184 46 204 116 213 125 275 151 223 167 586 189 108 193 188 226 76 
587 -0.18369099418962942 0.0610126297411979 0.7015369097500551 0 0 0 0.19 23 161 46 205 58 291 125 276 167 587 171 151 180 192 191 99 202 137 
588 -0.11762796249258779 0.07700732541289215 0.7421167973981815 0 0 0 0.25 23 162 46 206 58 292 59 154 86 243 116 214 143 58 154 223 167 588 171 152 180 193 189 109 218 176 228 253 
589 -0.1930907690568294 0.07677070790049974 0.6898868241074919 0 0 0 0.24 23 163 167 589 218 177 
590 -0.17192687361133996 0.08320350747772906 0.6888068078460936 0 0 0 0.23 23 164 37 185 46 207 51 73 86 244 94 208 102 38 125 277 153 107 166 225 167 590 171 153 173 77 180 194 186 97 189 110 202 138 212 146 
591 -0.1565359322728388 0.08984403280560788 0.7145808680012605 0 0 0 0.28 23 165 58 293 59 155 86 245 119 60 167 591 178 58 180 195 202 139 212 147 225 37 
592 -0.13454401785594783 0.09556240675655162 0.7233317209755572 0 0 0 0.6 23 166 57 140 59 156 72 81 86 246 94 209 116 215 119 61 125 278 143 59 144 133 151 224 166 226 167 592 178 59 183 74 191 100 193 189 202 140 212 148 215 26 218 178 226 77 228 254 
593 -0.12969530625178363 0.09968716213195081 0.7316223907594924 0 0 0 0.35 23 167 57 141 58 294 116 216 131 48 143 60 151 225 153 108 166 227 167 593 173 78 178 60 180 196 193 190 218 179 
594 -0.10504630868473586 0.10031150448286308 0.7314388737780759 0 0 0 0.25 23 168 34 118 37 186 46 208 59 157 72 82 86 247 94 210 102 39 131 49 143 61 151 226 154 224 166 228 167 594 173 79 180 197 191 101 202 141 212 149 218 180 225 38 226 78 
595 0.0463816358655624 0.11786275352278548 0.849335249664115 0 0 0 0.24 23 169 34 119 154 225 167 595 193 191 210 56 218 181 
596 -0.08156700006940766 0.10627297768141973 0.7589882567773758 0 0 0 0.4 23 170 59 158 99 54 125 279 150 23 167 596 180 198 212 150 
597 -0.05085016536173199 0.11334227720725622 0.7786245298843546 0 0 0 0.26 23 171 58 295 94 211 99 55 116 217 151 227 154 226 166 229 167 597 177 73 212 151 228 255 
598 -0.03853702406954001 0.11649612303989733 0.7731023494651985 0 0 0 0.22 23 172 57 142 58 296 72 83 86 248 94 212 99 56 116 218 166 230 167 598 171 154 180 199 
599 0.006312939659544128 0.13547288208531413 0.809057508598085 0 0 0 0.3 23 173 37 187 46 209 55 33 59 159 72 84 86 249 94 213 125 280 144 134 149 124 151 228 167 599 173 80 177 74 183 75 186 98 191 102 193 192 211 180 212 152 218 182 233 46 
600 0.027039444789969433 0.13857571200064864 0.8105425376885622 0 0 0 0.56 23 174 37 188 46 210 57 143 59 160 86 250 99 57 132 59 137 12 149 125 153 109 154 227 161 57 167 600 177 75 180 200 193 193 202 142 205 48 211 181 212 153 215 27 226 79 228 256 233 47 
601 -0.08788581649824886 0.13215362691524213 0.7327659819657346 0 0 0 0.28 23 175 34 120 37 189 46 211 58 297 59 161 86 251 94 214 116 219 119 62 125 281 131 50 132 60 149 126 151 229 153 110 154 228 166 231 167 601 186 99 189 111 193 194 205 49 212 154 225 39 226 80 228 257 233 48 
602 -0.005972221971916923 0.15278870834678027 0.7848823449246264 0 0 0 0.15 23 176 34 121 37 190 46 212 58 298 59 162 86 252 94 215 116 220 145 44 149 127 167 602 171 155 177 76 183 76 191 103 202 143 228 258 
603 -0.19847660448522886 0.1294543247133873 0.6542036350362233 0 0 0 0.17 23 177 94 216 116 221 154 229 167 603 191 104 193 195 202 144 
604 -0.15462689430156185 0.14076757744955784 0.6815731059136956 0 0 0 0.24 23 178 58 299 94 217 125 282 154 230 167 604 189 112 193 196 211 182 212 155 
605 -0.12028725720843482 0.14483068639420787 0.7015530828903112 0 0 0 0.48 23 179 34 122 46 213 58 300 59 163 86 253 94 218 116 222 119 63 125 283 131 51 144 135 151 230 167 605 173 81 178 61 180 201 183 77 193 197 211 183 212 156 225 40 228 259 
606 -0.0752354300275385 0.1593627677354882 0.7301158038879 0 0 0 0.23 23 180 34 123 58 301 59 164 144 136 151 231 167 606 173 82 183 78 189 113 191 105 193 198 205 50 212 157 215 28 218 183 
607 -0.057567679898858 0.16450763177165814 0.7440322950214185 0 0 0 0.35 23 181 34 124 58 302 59 165 72 85 86 254 94 219 99 58 116 223 119 64 125 284 139 75 144 137 149 128 151 232 153 111 154 231 161 58 166 232 167 607 177 77 180 202 183 79 193 199 205 51 210 57 211 184 212 158 216 98 226 81 228 260 
608 -0.14792037990307014 0.15581452310676686 0.6849626778495952 0 0 0 0.19 23 182 167 608 171 156 180 203 
609 -0.05021093359711153 0.19277809173461394 0.7439216549151207 0 0 0 0.42 23 183 46 214 58 303 59 166 72 86 99 59 125 285 151 233 153 112 154 232 166 233 167 609 171 157 173 83 191 106 193 200 202 145 212 159 216 99 218 184 228 261 
610 -0.014441671053091711 0.2027166580873565 0.7682451255934327 0 0 0 0.51 23 184 46 215 72 87 99 60 153 113 154 233 167 610 178 62 180 204 
611 -0.07121089112849469 0.19515636990981994 0.7205890800599585 0 0 0 0.25 23 185 37 191 46 216 72 88 167 611 173 84 191 107 212 160 218 185 226 82 
612 -0.1954796876383469 0.16910329291972143 0.5943520148626491 0 0 0 0.93 23 186 166 234 167 612 218 186 225 41 
613 -0.15079291617018203 0.1967905053903129 0.6709955017862145 0 0 0 0.33 116 224 143 62 151 234 167 613 193 201 202 146 218 187 
614 -0.13261564264004708 0.2036865409576736 0.6338703796134135 0 0 0 0.23 23 187 37 192 46 217 154 234 166 235 167 614 171 158 191 108 212 161 228 262 
615 -0.12730097985542185 0.20434638366285424 0.6338865635825673 0 0 0 0.49 23 188 37 193 116 225 166 236 167 615 
616 -0.03291729070132558 0.2310247262995204 0.6918870762188774 0 0 0 0.2 23 189 46 218 59 167 167 616 171 159 177 78 
617 0.01352667108649628 0.2622450166769214 0.707615388139161 0 0 0 0.39 23 190 30 57 37 194 57 144 99 61 116 226 125 286 131 52 151 235 154 235 166 237 167 617 173 85 177 79 180 205 216 100 218 188 233 49 
618 -0.13962526749074827 -0.05876760880633951 0.8449455724666424 0 0 0 0.31 23 191 51 74 58 304 116 227 125 287 167 618 183 80 193 202 211 185 218 189 228 263 
619 -0.15495238655811314 0.007438156370589135 0.7391251618695922 0 0 0 0.42 23 192 46 219 58 305 59 168 86 255 132 61 144 138 145 45 151 236 154 236 167 619 186 100 191 109 193 203 202 147 216 101 218 190 225 42 
620 -0.03891947179791416 0.037473128301620084 0.8051867320322624 0 0 0 0.54 23 193 58 306 149 129 154 237 167 620 171 160 189 114 191 110 193 204 
621 -0.03851393325737886 0.0380174442585624 0.8079421629056014 0 0 0 0.48 23 194 30 58 57 145 58 307 59 169 94 220 116 228 119 65 125 288 151 237 166 238 167 621 189 115 191 111 193 205 228 264 
622 -0.19706709939905004 0.042891423392471095 0.7003843278894097 0 0 0 0.27 23 195 86 256 125 289 131 53 151 238 153 114 167 622 173 86 178 63 180 206 191 112 225 43 
623 -0.1975378243498205 0.049891341824212405 0.697047846527693 0 0 0 0.31 23 196 46 220 59 170 72 89 94 221 102 40 125 290 143 63 144 139 151 239 167 623 191 113 218 191 225 44 
624 -0.13723870868234478 0.0727857867609915 0.7205438128295992 0 0 0 0.17 23 197 37 195 59 171 86 257 94 222 116 229 125 291 143 64 144 140 151 240 167 624 178 64 189 116 191 114 193 206 202 148 211 186 212 162 218 192 
625 -0.1217967297891934 0.07721014637797098 0.7451396372999709 0 0 0 0.3 23 198 46 221 57 146 59 172 94 223 131 54 143 65 144 141 151 241 167 625 178 65 189 117 202 149 212 163 218 193 228 265 
626 -0.19701955377027397 0.07590354145396887 0.689995755618544 0 0 0 0.35 23 199 59 173 72 90 94 224 125 292 143 66 145 46 154 238 166 239 167 626 191 115 193 207 202 150 212 164 
627 -0.17203754639339222 0.07460837908694243 0.6900503215167806 0 0 0 0.17 23 200 34 125 51 75 57 147 72 91 86 258 102 41 131 55 166 240 167 627 171 161 180 207 193 208 211 187 212 165 226 83 
628 -0.07096819935684245 0.08639585720748173 0.7614752849880674 0 0 0 0.29 23 201 34 126 37 196 46 222 55 34 57 148 58 308 59 174 86 259 99 62 116 230 119 66 125 293 131 56 149 130 150 24 154 239 167 628 189 118 191 116 211 188 212 166 215 29 228 266 
629 -0.12097591869532039 0.10132978797208791 0.7372593706662988 0 0 0 0.23 23 202 57 149 59 175 86 260 131 57 143 67 144 142 153 115 167 629 173 87 202 151 212 167 218 194 
630 -0.08546936312640199 0.11016089761651819 0.7584129109256356 0 0 0 0.24 23 203 59 176 86 261 94 225 116 231 125 294 131 58 143 68 166 241 167 630 178 66 191 117 193 209 211 189 212 168 218 195 
631 -0.12306222292156446 0.12343733787296324 0.7100832981663382 0 0 0 0.18 23 204 37 197 46 223 125 295 144 143 149 131 167 631 186 101 189 119 193 210 
632 -0.0960948542185679 0.1301729688932464 0.7260919492820894 0 0 0 0.15 23 205 46 224 59 177 86 262 167 632 218 196 
633 -0.09601446365598115 0.13035224545085766 0.7266277501794339 0 0 0 0.2 23 206 37 198 59 178 86 263 94 226 116 232 119 67 125 296 144 144 154 240 167 633 183 81 189 120 211 190 212 169 216 102 218 197 228 267 
634 -0.04961875987871088 0.18235036208230124 0.74982673565432 0 0 0 0.39 23 207 30 59 34 127 57 150 58 309 59 179 90 22 94 227 99 63 116 233 125 297 151 242 154 241 166 242 167 634 177 80 180 208 189 121 211 191 212 170 216 103 218 198 226 84 228 268 233 50 
635 -0.0706122686955283 0.18222930447502197 0.7240413596536137 0 0 0 0.25 23 208 30 60 34 128 57 151 58 310 59 180 72 92 94 228 99 64 116 234 125 298 143 69 144 145 151 243 153 116 154 242 167 635 173 88 180 209 189 122 191 118 193 211 202 152 211 192 212 171 218 199 228 269 
636 -0.1613722225612664 0.17471533007782453 0.6645310217712983 0 0 0 0.29 23 209 34 129 46 225 59 181 72 93 94 229 125 299 131 59 143 70 151 244 166 243 167 636 191 119 193 212 212 172 218 200 226 85 
637 -0.1750459871123142 0.17968556904065722 0.610708456685689 0 0 0 0.3 23 210 59 182 131 60 167 637 
638 -0.1638654001425383 0.1827374071908356 0.6189456339661374 0 0 0 0.38 23 211 59 183 166 244 167 638 178 67 191 120 202 153 
639 -0.11397064724215292 0.19463720497968226 0.6478906490939654 0 0 0 0.25 23 212 59 184 167 639 193 213 202 154 212 173 218 201 
640 -0.19943077853568011 0.0022816727343732703 0.7108869292715446 0 0 0 0.43 23 213 34 130 37 199 46 226 86 264 131 61 144 146 167 640 193 214 202 155 218 202 225 45 
641 -0.19931178670130462 0.002081361151632404 0.7091105070877187 0 0 0 0.45 23 214 34 131 37 200 46 227 51 76 59 185 86 265 125 300 144 147 145 47 151 245 154 243 166 245 167 641 171 162 178 68 186 102 193 215 202 156 211 193 212 174 216 104 218 203 225 46 228 270 
642 -0.16676538767091342 0.07202848554023925 0.6951089015541869 0 0 0 0.34 23 215 37 201 46 228 59 186 72 94 86 266 94 230 102 42 116 235 131 62 166 246 167 642 171 163 178 69 180 210 191 121 193 216 202 157 212 175 218 204 225 47 
643 -0.18738936983619722 0.08437905078418531 0.69245764133223 0 0 0 0.23 23 216 37 202 46 229 167 643 189 123 218 205 
644 -0.16650672267023295 0.14939539353538966 0.6669149607147361 0 0 0 0.37 23 217 46 230 58 311 59 187 72 95 116 236 125 301 153 117 167 644 173 89 178 70 180 211 191 122 202 158 212 176 218 206 
645 -0.09978696127159303 0.1743750576469862 0.6980279971797182 0 0 0 0.44 23 218 34 132 46 231 58 312 59 188 72 96 94 231 116 237 125 302 143 71 154 244 166 247 167 645 173 90 180 212 189 124 191 123 193 217 202 159 212 177 218 207 225 48 226 86 
646 -0.1655464359906208 0.1658229746554177 0.6566767441525952 0 0 0 0.43 23 219 34 133 37 203 46 232 57 152 58 313 59 189 72 97 94 232 102 43 116 238 125 303 131 63 144 148 151 246 153 118 166 248 167 646 171 164 173 91 178 71 180 213 186 103 189 125 191 124 193 218 202 160 211 194 212 178 218 208 225 49 226 87 
647 -0.1871225146734819 0.18223425267255589 0.6483256511864767 0 0 0 0.14 23 220 167 647 218 209 
648 -0.08013531390655129 0.20498407518544967 0.6735556322316909 0 0 0 0.52 23 221 72 98 116 239 143 72 151 247 153 119 166 249 167 648 173 92 180 214 193 219 202 161 218 210 
649 0.00820538396410477 0.055451892993377945 0.8437156354660817 0 0 0 0.39 23 222 30 61 37 204 57 153 58 314 94 233 116 240 125 304 132 62 144 149 149 132 151 248 154 245 166 250 167 649 177 81 189 126 211 195 212 179 228 271 233 51 
650 -0.02284490191631636 0.06464561803929945 0.8105908946878267 0 0 0 0.49 23 223 34 134 59 190 131 64 153 120 167 650 178 72 180 215 193 220 202 162 218 211 225 50 
651 -0.03498042212529492 0.13616407763741445 0.7625697207295674 0 0 0 0.34 23 224 86 267 149 133 166 251 167 651 177 82 193 221 211 196 218 212 228 272 233 52 
652 -0.05944108059736004 0.15593236814735495 0.7416528129505672 0 0 0 0.51 23 225 37 205 57 154 58 315 59 191 72 99 86 268 94 234 116 241 119 68 125 305 144 150 149 134 151 249 153 121 154 246 166 252 167 652 171 165 173 93 178 73 189 127 191 125 193 222 210 58 211 197 215 30 218 213 228 273 
653 -0.03451777085810418 0.22339718216777024 0.6888210337054004 0 0 0 0.41 23 226 72 100 102 44 167 653 177 83 178 74 186 104 
654 -0.03353993806697715 0.22514328428339006 0.6933115686477672 0 0 0 0.36 23 227 58 316 72 101 144 151 167 654 177 84 178 75 193 223 218 214 
655 -0.08941842058711268 0.182222599341258 0.7100174799298506 0 0 0 0.41 23 228 59 192 72 102 116 242 125 306 131 65 143 73 153 122 166 253 167 655 173 94 193 224 202 163 218 215 
656 -0.15304105535278942 0.07596875349774423 0.7453203470673329 0 0 0 0.42 59 193 131 66 166 254 167 656 202 164 218 216 
657 -0.07432602499044796 0.20451685144081425 0.7145304103126854 0 0 0 0.78 23 229 34 135 37 206 46 233 116 243 144 152 151 250 166 255 167 657 180 216 186 105 193 225 202 165 218 217 
658 -0.05825333571736926 0.20787306628530494 0.7289365384201025 0 0 0 0.37 23 230 37 207 46 234 59 194 116 244 125 307 144 153 151 251 166 256 167 658 202 166 218 218 228 274 
659 -0.04040519092294647 0.21199139856509758 0.7319717567222227 0 0 0 0.48 23 231 34 136 46 235 57 155 58 317 116 245 125 308 151 252 166 257 167 659 180 217 186 106 189 128 191 126 193 226 218 219 
660 0.07741611872612363 -0.151941544294864 1.0159986446648002 0 0 0 0.37 30 62 37 208 47 33 58 318 86 269 125 309 145 48 151 253 154 247 161 59 167 660 193 227 216 105 
661 0.04180165157279254 -0.12554002790802557 1.0590823666990257 0 0 0 0.44 30 63 58 319 94 235 116 246 125 310 149 135 150 25 151 254 166 258 167 661 186 107 
662 -0.10010422328041492 -0.08667052620674405 0.937425047179902 0 0 0 0.25 30 64 46 236 58 320 116 247 167 662 193 228 
663 0.05067945649157326 -0.0722041066454086 1.0316152549427853 0 0 0 0.32 30 65 58 321 116 248 149 136 153 123 154 248 167 663 180 218 228 275 
664 -0.013625542366777757 -0.05208856876524124 0.982415566887176 0 0 0 0.2 30 66 58 322 167 664 218 220 
665 -0.08396269773249199 -0.0083469458094314 0.8427212671340303 0 0 0 0.48 30 67 46 237 58 323 167 665 193 229 211 198 228 276 
666 -0.07350111638220266 0.04187235611331659 0.783312603889851 0 0 0 0.23 30 68 94 236 116 249 150 26 151 255 154 249 161 60 167 666 171 166 205 52 228 277 233 53 
667 -0.10523617734126865 0.08041119749974036 0.7337045608008859 0 0 0 0.28 30 69 58 324 72 103 94 237 116 250 166 259 167 667 171 167 180 219 216 106 218 221 226 88 
668 0.027740941221204723 0.15173274189594343 0.8061797507102346 0 0 0 0.24 30 70 149 137 167 668 
669 0.027657053958209662 0.1514110967415902 0.8055561180689277 0 0 0 0.18 30 71 94 238 167 669 180 220 
670 0.016230385282478766 0.15752280723081807 0.7977018524164975 0 0 0 0.27 30 72 37 209 46 238 58 325 86 270 99 65 149 138 167 670 177 85 193 230 211 199 
671 0.016751455538636512 0.1733424661557973 0.7929212224443919 0 0 0 0.14 30 73 94 239 154 250 167 671 193 231 228 278 
672 -0.04514514574437843 0.16685348308561507 0.7497311952983139 0 0 0 0.18 30 74 99 66 116 251 151 256 167 672 210 59 
673 0.008733552217900065 0.17660186140073791 0.7858105925914791 0 0 0 0.4 30 75 58 326 94 240 99 67 116 252 167 673 
674 0.02528983782329387 0.1982556136115465 0.783024434476774 0 0 0 0.2 30 76 116 253 154 251 167 674 210 60 
675 -0.023343847083749952 0.2443199300237717 0.6908958544289876 0 0 0 0.3 30 77 37 210 58 327 116 254 167 675 171 168 177 86 
676 0.04340818964203661 -0.1293647043771951 1.063298320007998 0 0 0 0.47 30 78 47 34 58 328 86 271 94 241 116 255 125 311 144 154 149 139 150 27 153 124 154 252 161 61 166 260 167 676 180 221 191 127 193 232 205 53 
677 0.023390095194498233 -0.120198175547527 1.071292440891391 0 0 0 0.35 30 79 37 211 46 239 47 35 59 195 86 272 94 242 125 312 143 74 149 140 151 257 153 125 154 253 166 261 167 677 171 169 180 222 186 108 189 129 193 233 211 200 212 180 218 222 
678 -0.08566776845875974 -0.03990872703266959 0.8862255848503828 0 0 0 0.31 30 80 57 156 58 329 116 256 150 28 154 254 166 262 167 678 180 223 186 109 202 167 218 223 
679 0.020683259787825606 -0.04108491831924403 0.9934851955294832 0 0 0 0.37 30 81 47 36 59 196 125 313 151 258 154 255 167 679 186 110 193 234 218 224 228 279 
680 -0.0796636094258047 -0.032412166477273144 0.8809792445881245 0 0 0 0.32 30 82 59 197 94 243 125 314 154 256 166 263 167 680 180 224 228 280 
681 -0.11149227966955745 -0.02634512870063671 0.8203863343486079 0 0 0 0.29 30 83 154 257 161 62 166 264 167 681 180 225 
682 -0.03526986231623239 -0.012547691866527724 0.899583765557725 0 0 0 0.36 30 84 86 273 145 49 154 258 166 265 167 682 177 87 193 235 218 225 
683 -0.020143878739457815 0.00047098679772962813 0.8953623484209062 0 0 0 0.33 30 85 58 330 116 257 167 683 177 88 218 226 
684 -0.0689348454481988 0.028223879446224315 0.789585193684324 0 0 0 0.35 30 86 46 240 58 331 86 274 125 315 139 76 151 259 167 684 193 236 211 201 218 227 228 281 
685 -0.013392871825005113 0.037903402012575915 0.8281978593865285 0 0 0 0.18 30 87 46 241 167 685 193 237 211 202 
686 -0.01322857606318756 0.03816820854609311 0.8290481697413399 0 0 0 0.23 30 88 86 275 167 686 211 203 216 107 228 282 
687 -0.0070964832680760976 0.039860674583155196 0.83237806296789 0 0 0 0.19 30 89 37 212 86 276 125 316 151 260 167 687 211 204 
688 0.02187808264674556 0.04201231480652181 0.851757831068236 0 0 0 0.32 30 90 58 332 154 259 166 266 167 688 
689 0.003229790715488278 0.046433739793817215 0.8376843419575153 0 0 0 0.27 30 91 37 213 58 333 86 277 94 244 116 258 144 155 145 50 151 261 153 126 154 260 161 63 166 267 167 689 173 95 177 89 180 226 186 111 193 238 202 168 205 54 211 205 216 108 218 228 228 283 233 54 
690 -0.1210718514129933 0.04353168329467457 0.7524426742909728 0 0 0 0.32 30 92 119 69 154 261 167 690 191 128 
691 -0.11268356454776916 0.10603125358554831 0.7301141240240104 0 0 0 0.35 30 93 46 242 86 278 151 262 161 64 166 268 167 691 216 109 218 229 228 284 
692 0.015752032329706647 0.12501326653295103 0.8198945646013985 0 0 0 0.37 30 94 46 243 58 334 154 262 167 692 177 90 186 112 228 285 233 55 
693 -0.11464213360867735 0.1381137511942403 0.7096111129975134 0 0 0 0.25 30 95 46 244 58 335 86 279 153 127 154 263 161 65 167 693 180 227 218 230 228 286 233 56 
694 -0.10547830786527838 0.14148179382974047 0.710605521921636 0 0 0 0.36 30 96 149 141 153 128 167 694 193 239 218 231 226 89 
695 0.03199210688795121 0.17667985549458906 0.7956302570183211 0 0 0 0.34 30 97 34 137 57 157 72 104 94 245 99 68 116 259 125 317 139 77 154 264 167 695 180 228 183 82 216 110 226 90 228 287 233 57 
696 -0.02777099838517348 0.17043091450913966 0.7580738881482797 0 0 0 0.32 30 98 37 214 46 245 58 336 72 105 86 280 94 246 116 260 125 318 139 78 149 142 166 269 167 696 177 91 210 61 211 206 216 111 
697 -0.08117624474826263 0.1720427600280058 0.7286987174070793 0 0 0 0.27 30 99 167 697 171 170 178 76 202 169 
698 -0.08111711876234706 0.19147780678940196 0.7221759796461534 0 0 0 0.32 30 100 46 246 57 158 58 337 59 198 72 106 143 75 166 270 167 698 171 171 173 96 180 229 191 129 193 240 216 112 218 232 226 91 228 288 
699 -0.030571599454941766 0.21739801578776474 0.7193475344012479 0 0 0 0.24 72 107 166 271 167 699 177 92 218 233 
700 -0.09433424872661597 0.2078423864491912 0.6596903389200951 0 0 0 0.26 30 101 57 159 167 700 
701 -0.09819093762523311 0.013489762938538666 0.7817146514853585 0 0 0 0.32 30 102 116 261 167 701 193 241 
702 -0.01649615941394806 0.04122527458211595 0.8267884464979313 0 0 0 0.3 30 103 46 247 58 338 59 199 86 281 94 247 116 262 125 319 132 63 144 156 151 263 154 265 166 272 167 702 177 93 180 230 183 83 189 130 193 242 202 170 211 207 218 234 228 289 
703 0.016269728102062522 0.11339912630445295 0.829770820024468 0 0 0 0.46 30 104 34 138 46 248 58 339 59 200 99 69 116 263 149 143 153 129 161 66 166 273 167 703 173 97 180 231 189 131 202 171 215 31 
704 0.015757174092616476 0.12007683447338575 0.8225959657623707 0 0 0 0.29 30 105 34 139 46 249 94 248 99 70 102 45 166 274 167 704 186 113 233 58 
705 -0.009899621488006594 0.1846443417665092 0.7703772815062412 0 0 0 0.2 30 106 34 140 37 215 58 340 116 264 125 320 167 705 193 243 
706 -0.010009859179026019 0.18436492749880862 0.769546304561879 0 0 0 0.27 30 107 34 141 116 265 125 321 145 51 167 706 189 132 193 244 233 59 
707 0.07036276640732159 -0.13539889914467867 1.0007179175969705 0 0 0 0.36 30 108 34 142 45 28 57 160 58 341 59 201 86 282 125 322 139 79 144 157 151 264 167 707 178 77 180 232 189 133 212 181 
708 -0.020837569389151194 0.01518880636847608 0.8544150801638382 0 0 0 0.46 30 109 58 342 116 266 167 708 177 94 
709 -0.1212874859878042 0.13445290720314837 0.706054855404439 0 0 0 0.44 30 110 45 29 51 77 55 35 59 202 86 283 116 267 119 70 125 323 131 67 137 13 144 158 151 265 154 266 161 67 166 275 167 709 171 172 183 84 193 245 205 55 211 208 212 182 216 113 218 235 225 51 226 92 228 290 233 60 
710 -0.033692686020274296 0.1650987652132559 0.7524417681999548 0 0 0 0.3 30 111 37 216 45 30 59 203 72 108 86 284 94 249 99 71 119 71 125 324 132 64 149 144 153 130 167 710 177 95 178 78 189 134 191 130 193 246 202 172 210 62 212 183 216 114 226 93 228 291 233 61 
711 -0.1516446750756794 0.19137241029624716 0.670411879359812 0 0 0 0.19 153 131 178 79 191 131 202 173 
712 -0.06470734997354424 0.04280306928442479 0.7943957623616622 0 0 0 0.66 30 112 37 217 57 161 58 343 94 250 116 268 125 325 132 65 139 80 151 266 154 267 166 276 167 711 171 173 177 96 178 80 180 233 191 132 202 174 212 184 225 52 228 292 233 62 
713 -0.055524710490713385 0.07092550123793522 0.7935862533395946 0 0 0 0.37 30 113 46 250 86 285 94 251 116 269 166 277 167 712 177 97 189 135 202 175 212 185 228 293 233 63 
