# 3D point list with one line of data per point:
#   POINT3D_ID, X, Y, Z, R, G, B, ERROR, TRACK[] as (IMAGE_ID, POINT2D_IDX)
# Number of points: 388, mean track length: 5.69
1798 -0.1018759603241364 0.03560476951576553 1.0747964251716413 0 0 0 0.28 93 1217 109 807 194 338 
1799 0.17830090974053409 0.04014394015140561 0.9543702057806112 0 0 0 0.15 109 808 164 428 194 339 
1800 -0.20159791912142988 0.03775554694754998 1.1258810163009394 0 0 0 0.32 109 809 159 268 196 431 
1801 -0.1697289429166041 0.041641177560903096 1.098997594814465 0 0 0 0.16 109 810 146 528 159 269 185 193 213 528 214 565 
1802 -0.22705542789986502 0.05184363557060672 1.1315136234600014 0 0 0 0.37 93 1218 109 811 126 67 136 199 148 356 159 270 164 429 172 66 185 194 196 432 204 95 214 566 
1803 -0.2955983270312997 0.0583544458885263 1.1682084564140414 0 0 0 0.18 52 425 109 812 185 195 
1804 -0.6125182713417704 0.06675195323105207 1.3624097277042135 0 0 0 0.31 52 426 109 813 159 271 196 433 224 205 
1805 -0.07709037720895527 0.0748671259421046 1.0505169763052635 0 0 0 0.3 109 814 164 430 223 78 
1806 0.25042173260618267 0.07525579496321991 0.9021052174687776 0 0 0 0.18 109 815 165 39 184 45 
1807 0.2820539283856367 0.08329748431493655 0.8853581792141234 0 0 0 0.14 109 816 159 272 165 40 235 128 
1808 0.23360384016900826 0.08490451192990577 0.9066025750916169 0 0 0 0.29 109 817 136 200 164 431 185 196 235 129 
1809 0.28020488259554804 0.0856096520630215 0.8889685173808336 0 0 0 0.09 109 818 165 41 185 197 235 130 
1810 0.09372667683135161 0.08788650313327813 0.9543312755785911 0 0 0 0.22 109 819 146 529 164 432 197 95 223 79 
1811 0.20800406733120932 0.08790583130420818 0.9209855230975622 0 0 0 0.21 52 427 109 820 196 434 235 131 
1812 0.12372969586170625 0.09130275825057294 0.9530348928612136 0 0 0 0.25 109 821 148 357 223 80 
1813 0.13692847893540752 0.09266944965663326 0.9430426883094204 0 0 0 0.24 109 822 185 198 223 81 
1814 0.1252689533535635 0.09511576849016969 0.95201334385843 0 0 0 0.12 109 823 196 435 223 82 
1815 0.18749364498840276 0.0931813145885918 0.919761932402448 0 0 0 0.26 109 824 185 199 213 529 235 132 
1816 0.09631527231995506 0.09762014362224457 0.9511875301727459 0 0 0 0.37 109 825 164 433 214 567 
1817 0.14247475776869742 0.09657844534850431 0.9320039098165379 0 0 0 0.14 109 826 164 434 214 568 
1818 0.20048854465198646 0.09996048288191409 0.9132147622250333 0 0 0 0.2 109 827 136 201 146 530 148 358 157 293 
1819 -0.5003256592862096 0.12434050922958058 1.2725153534727445 0 0 0 0.26 109 828 159 273 196 436 
1820 -0.5767147148360245 0.1337718086506813 1.3119056965256393 0 0 0 0.15 159 274 196 437 224 206 
1821 0.15298730894009857 0.10719476013927434 0.9336551035141918 0 0 0 0.21 109 829 148 359 159 275 220 117 
1822 -0.09560829913578452 0.11628046627713826 1.0340564465484892 0 0 0 0.19 109 830 185 200 214 569 
1823 0.10462095459590694 0.11079890189172806 0.9477231637680161 0 0 0 0.19 109 831 146 531 223 83 
1824 -0.543263016582351 0.13694510981345354 1.28487623415321 0 0 0 0.6 148 360 162 107 164 435 224 207 
1825 -0.5056151348185883 0.14126552740729342 1.2662929548924988 0 0 0 0.4 148 361 159 276 162 108 164 436 196 438 224 208 232 131 
1826 0.23255962475526853 0.11255183386356005 0.8979700344212097 0 0 0 0.11 109 832 128 63 235 133 
1827 -0.2683402770710924 0.13699806292975544 1.1251202717825284 0 0 0 0.35 109 833 126 68 159 277 185 201 196 439 
1828 0.052872182212190165 0.12351365390731488 0.9650911137191803 0 0 0 0.24 109 834 194 340 197 96 
1829 0.13047851567815041 0.12166486996189571 0.9383063100417772 0 0 0 0.33 109 835 148 362 164 437 197 97 214 570 
1830 0.04261964598947252 0.1246163042389658 0.9703211760996974 0 0 0 0.2 109 836 148 363 164 438 194 341 213 530 214 571 223 84 
1831 0.11615419877383204 0.12315973836373505 0.9449444692835106 0 0 0 0.17 109 837 213 531 214 572 223 85 
1832 0.11045839650963772 0.12390941092157085 0.9441324612812363 0 0 0 0.08 109 838 148 364 164 439 
1833 0.01132404547771875 0.12893195615252528 0.9881524336489755 0 0 0 0.31 109 839 197 98 232 132 
1834 0.23241470622867003 0.12156741641274096 0.8952846191005936 0 0 0 0.28 93 1219 109 840 136 202 148 365 164 440 221 68 
1835 0.06917834314582509 0.1282151552790162 0.9674971429270018 0 0 0 0.05 109 841 214 573 223 86 
1836 0.15187222957798244 0.12450933131221908 0.9262508129279806 0 0 0 0.17 109 842 148 366 213 532 214 574 
1837 0.13573666249653307 0.1258817298556982 0.9321274621813347 0 0 0 0.17 109 843 128 64 136 203 146 532 148 367 164 441 213 533 214 575 
1838 0.017738115717142552 0.13660227583057938 0.9889153165561936 0 0 0 0.26 109 844 197 99 223 87 
1839 0.09128773970465671 0.13455897670488806 0.9471945734552215 0 0 0 0.25 109 845 164 442 213 534 223 88 
1840 -0.18902602615377473 0.14637134016295827 1.0626060669070163 0 0 0 0.2 109 846 146 533 148 368 176 270 204 96 213 535 
1841 0.07394917230354256 0.1389368031394864 0.9662517496021341 0 0 0 0.04 109 847 126 69 148 369 
1842 0.14201545484556805 0.13495406872514937 0.927168776439223 0 0 0 0.23 109 848 148 370 234 103 
1843 0.2802974297573183 0.13438241733147843 0.8697582384057306 0 0 0 0.27 52 428 109 849 136 204 148 371 165 42 235 134 
1844 -0.3469155869873212 0.16890921652419685 1.1540542897346284 0 0 0 0.18 93 1220 109 850 164 443 176 271 196 440 
1845 0.040551683328674336 0.1568263138035315 0.9636692538454144 0 0 0 0.3 52 429 109 851 148 372 223 89 232 133 234 104 
1846 0.2514487177696784 0.14823550141978278 0.881981696795993 0 0 0 0.26 109 852 136 205 165 43 184 46 194 342 235 135 
1847 0.25776846832282785 0.148859582390259 0.8771611560001876 0 0 0 0.27 109 853 136 206 164 444 165 44 184 47 
1848 0.27756654000014613 0.1479707575045165 0.8685920585033844 0 0 0 0.22 52 430 109 854 136 207 146 534 165 45 235 136 
1849 0.2709952697933116 0.14944170297911677 0.8748456841459156 0 0 0 0.24 109 855 136 208 148 373 165 46 184 48 
1850 -0.4845091812810647 0.19979237876072897 1.2345503217640756 0 0 0 0.31 148 374 159 278 164 445 196 441 
1851 0.2804781894927837 0.15072093704302048 0.8664562924525268 0 0 0 0.33 52 431 109 856 146 535 148 375 164 446 194 343 213 536 
1852 0.06028293190213213 0.16745037127822174 0.9543288360302176 0 0 0 0.37 109 857 164 447 194 344 196 442 
1853 0.2677126070523966 0.15593227167343657 0.8749576990746148 0 0 0 0.48 93 1221 109 858 175 212 200 565 213 537 
1854 0.25073366689032095 0.15798390878389937 0.8776117966979149 0 0 0 0.42 109 859 127 93 136 209 165 47 184 49 194 345 235 137 
1855 0.25756014433876695 0.15792790385363162 0.8756844956371878 0 0 0 0.22 52 432 93 1222 109 860 165 48 184 50 194 346 235 138 
1856 0.21885078794792615 0.16209587925114502 0.890627839981678 0 0 0 0.09 109 861 148 376 164 448 
1857 0.09346606203030691 0.17004420573059886 0.934469405984685 0 0 0 0.35 52 433 93 1223 109 862 148 377 194 347 213 538 214 576 223 90 234 105 
1858 0.27811527131430125 0.16004110062493937 0.8641575983582113 0 0 0 0.62 109 863 194 348 235 139 
1859 0.2701887911976315 0.16276109259374816 0.8703224458309649 0 0 0 0.44 52 434 136 210 148 378 184 51 185 202 220 118 
1860 -0.11785981435322421 0.1876450060704419 1.029887698895155 0 0 0 0.31 109 864 176 272 214 577 
1861 0.14174250045970874 0.1717450018836353 0.9156029496712852 0 0 0 0.12 109 865 194 349 214 578 
1862 0.23126135003463483 0.16629115668415484 0.8819468198003879 0 0 0 0.38 52 435 109 866 235 140 
1863 -0.5466295697542958 0.2270237609608402 1.265462090745286 0 0 0 0.29 159 279 162 109 164 449 
1864 0.09587974504103099 0.17656857276222274 0.9312223306124136 0 0 0 0.19 109 867 194 350 213 539 214 579 
1865 0.09581830815943973 0.1765773092567332 0.9310089527805723 0 0 0 0.19 52 436 109 868 146 536 194 351 213 540 214 580 
1866 0.209975985968836 0.1694605984185709 0.8849479224577596 0 0 0 0.63 109 869 146 537 196 443 213 541 
1867 0.1867558359581713 0.17360170408423403 0.8948048674267464 0 0 0 0.17 109 870 148 379 194 352 220 119 
1868 0.09232760289695897 0.18060122856342764 0.9284479345170505 0 0 0 0.25 109 871 164 450 194 353 
1869 0.22219330489978195 0.1733559683025942 0.8818793018628541 0 0 0 0.47 93 1224 109 872 148 380 164 451 194 354 196 444 200 566 213 542 
1870 0.20797799680550877 0.17902438310639984 0.8837115168917261 0 0 0 0.32 52 437 109 873 148 381 175 213 194 355 196 445 213 543 235 141 
1871 0.22462514392164099 0.18057372928711088 0.8801410589491786 0 0 0 0.45 93 1225 109 874 135 245 148 382 158 108 164 452 194 356 196 446 227 63 
1872 0.09546233220572856 0.18971881042480437 0.9272453646809241 0 0 0 0.25 109 875 146 538 148 383 164 453 194 357 213 544 
1873 0.039365623252310744 0.19574237045054813 0.9506666952841275 0 0 0 0.17 109 876 162 110 175 214 194 358 214 581 231 71 
1874 0.08867555117340031 0.19646986739731845 0.9285057847684841 0 0 0 0.32 52 438 109 877 126 70 148 384 194 359 196 447 234 106 
1875 0.09207260737549344 0.1970857623404887 0.9265058636040053 0 0 0 0.27 52 439 109 878 146 539 148 385 194 360 234 107 
1876 0.08870284531997571 0.2012442754761143 0.926902156077999 0 0 0 0.27 52 440 109 879 146 540 148 386 194 361 196 448 234 108 
1877 0.14083481867945138 0.1993137519785698 0.9073155584524176 0 0 0 0.19 52 441 109 880 148 387 194 362 213 545 214 582 
1878 -0.010985001760108325 0.2103748009164745 0.9655354149504972 0 0 0 0.41 109 881 164 454 194 363 213 546 
1879 0.043633994334721815 0.21104838142183363 0.9447672206664874 0 0 0 0.24 109 882 148 388 194 364 196 449 213 547 234 109 
1880 0.14064792061083425 0.2140353580634642 0.904659167680727 0 0 0 0.14 109 883 148 389 194 365 
1881 0.29375584661241966 -0.19124442591660248 1.0197550663669568 0 0 0 0.37 109 884 165 49 235 142 
1882 0.17823520509759702 -0.1952764502686521 1.0176265111588314 0 0 0 0.3 109 885 157 294 159 280 164 455 172 67 176 273 185 203 196 450 235 143 
1883 -0.08936179251301037 -0.2093701136736359 1.138414980592212 0 0 0 0.27 109 886 159 281 185 204 
1884 -0.18358886292957954 -0.19318817616050465 1.1774472299167118 0 0 0 0.35 109 887 126 71 185 205 224 209 
1885 0.003427973665779364 -0.15953307513884463 1.0708716781521141 0 0 0 0.17 109 888 164 456 220 120 
1886 0.021584627508174047 -0.1545575775460496 1.0598475365042601 0 0 0 0.37 52 442 109 889 126 72 146 541 148 390 159 282 164 457 185 206 196 451 200 567 214 583 234 110 
1887 0.028339845297075967 -0.1530167569313495 1.056008854435709 0 0 0 0.2 109 890 146 542 159 283 164 458 214 584 234 111 
1888 -0.18108537497720748 -0.17546980795218123 1.1744080801400096 0 0 0 0.59 52 443 109 891 200 568 214 585 
1889 0.06121554386160333 -0.1413283982927338 1.0407558678293682 0 0 0 0.21 109 892 148 391 159 284 
1890 -0.0341899455947474 -0.14245494354090862 1.0902025129677577 0 0 0 0.28 109 893 126 73 159 285 214 586 220 121 
1891 0.16913452971665963 -0.12157683842265381 0.9978231956343395 0 0 0 0.65 52 444 109 894 165 50 235 144 
1892 0.008326794082641795 -0.13129222669109905 1.0714996468626676 0 0 0 0.71 109 895 176 274 213 548 232 134 234 112 
1893 0.2852989406267702 -0.10183573694115482 0.9463679322328338 0 0 0 0.29 52 445 109 896 184 52 194 366 235 145 
1894 0.2851094902772316 -0.10179819663093759 0.9457096397487578 0 0 0 0.27 52 446 109 897 194 367 197 100 235 146 
1895 -0.05981324937599703 -0.1310016886417837 1.1004187570563506 0 0 0 0.31 93 1226 109 898 126 74 135 246 146 543 147 56 148 392 158 109 159 286 162 111 164 459 176 275 185 207 190 38 204 97 213 549 214 587 219 45 222 87 224 210 232 135 
1896 0.11788221350203903 -0.11269659184983007 1.0076848330147719 0 0 0 0.22 109 899 185 208 197 101 
1897 0.28796775651568113 -0.09419462278939811 0.9422099017859855 0 0 0 0.28 109 900 126 75 136 211 146 544 165 51 172 68 176 276 184 53 
1898 0.2798006937343669 -0.09130303470861861 0.9455058662573455 0 0 0 0.23 109 901 148 393 165 52 176 277 
1899 0.025089449285561737 -0.11290171119168346 1.0598207978345262 0 0 0 0.37 93 1227 109 902 135 247 146 545 176 278 194 368 214 588 
1900 0.10593625648317395 -0.10456187728782433 1.013061693126917 0 0 0 0.26 109 903 146 546 175 215 176 279 194 369 197 102 213 550 214 589 234 113 
1901 0.012445579610110655 -0.11133637108275876 1.0620981998393066 0 0 0 0.31 109 904 194 370 214 590 
1902 0.04435331629429285 -0.10945104653495398 1.0477380404662757 0 0 0 0.5 109 905 135 248 157 295 214 591 
1903 0.09470718062587696 -0.10144565842929183 1.021312352247937 0 0 0 0.5 52 447 109 906 152 34 157 296 176 280 197 103 213 551 234 114 
1904 0.1029285253232833 -0.09631219975368305 1.0167861436297547 0 0 0 0.26 109 907 146 547 152 35 159 287 185 209 196 452 197 104 221 69 222 88 232 136 234 115 
1905 0.2281999427605809 -0.0858529257020637 0.9660759143059531 0 0 0 0.34 52 448 109 908 126 76 136 212 146 548 148 394 157 297 159 288 164 460 185 210 194 371 196 453 200 569 213 552 220 122 232 137 
1906 0.07063673620137134 -0.09405479732459823 1.033891610511888 0 0 0 0.19 109 909 219 46 220 123 232 138 
1907 0.17440604442732402 -0.08135241789531246 0.9865408327801259 0 0 0 0.29 93 1228 109 910 126 77 135 249 146 549 148 395 157 298 159 289 164 461 176 281 185 211 194 372 196 454 197 105 200 570 213 553 232 139 
1908 -0.005012239648291155 -0.08835189068660747 1.0639277751465976 0 0 0 0.39 109 911 146 550 147 57 152 36 157 299 213 554 221 70 
1909 -0.10020464782431075 -0.08867773538074575 1.105138906550114 0 0 0 0.35 109 912 126 78 128 65 135 250 172 69 200 571 204 98 219 47 220 124 221 71 224 211 232 140 
1910 0.006773844520132552 -0.08107446078558157 1.0554044968777057 0 0 0 0.29 52 449 109 913 126 79 128 66 135 251 146 551 147 58 148 396 152 37 159 290 164 462 176 282 185 212 194 373 213 555 217 52 219 48 221 72 222 89 227 64 232 141 234 116 
1911 -0.16589967821587587 -0.08633394852490714 1.1304535655896153 0 0 0 0.35 109 914 164 463 172 70 
1912 0.15241974384685675 -0.0606588060986322 0.9914299414957989 0 0 0 0.44 109 915 148 397 158 110 232 142 
1913 0.12999719410882388 -0.05749134974162713 1.0055246882381663 0 0 0 0.11 109 916 185 213 194 374 
1914 -0.2475389999244853 -0.074637772752646 1.1688245839939 0 0 0 0.41 109 917 200 572 214 592 
1915 -0.08350359190873397 -0.06031341117114418 1.0885888176336114 0 0 0 0.32 93 1229 109 918 126 80 135 252 148 398 159 291 164 464 194 375 196 455 214 593 220 125 224 212 
1916 -0.053335721997518744 -0.05743915141148094 1.072189120613237 0 0 0 0.19 109 919 146 552 157 300 164 465 185 214 194 376 196 456 
1917 -0.09371924116273923 -0.05934612311184347 1.0945424977098916 0 0 0 0.11 109 920 159 292 194 377 
1918 -0.21760427248148242 -0.06290801789664262 1.1580193274834414 0 0 0 0.21 109 921 213 556 232 143 
1919 -0.2992041605612015 -0.05213252891557045 1.202301112922806 0 0 0 0.58 109 922 146 553 157 301 159 293 164 466 176 283 196 457 213 557 224 213 232 144 
1920 0.26855660714273566 -0.01918771263694325 0.93162302156754 0 0 0 0.21 109 923 148 399 159 294 
1921 0.2689936470597723 -0.019176955293380222 0.9327448985668059 0 0 0 0.28 109 924 136 213 148 400 159 295 162 112 163 28 
1922 -0.043665414614272806 -0.022236103256033295 1.0615316417479703 0 0 0 0.47 109 925 148 401 159 296 176 284 185 215 194 378 
1923 0.21083904814380622 -0.007221368399246899 0.9492409357919422 0 0 0 0.43 93 1230 109 926 135 253 148 402 159 297 163 29 164 467 176 285 185 216 197 106 200 573 204 99 
1924 0.1378090189601543 -0.006534964960974231 0.9806841976706678 0 0 0 0.19 109 927 159 298 197 107 
1925 0.2820688460868773 0.0010021648380155522 0.9215046896995573 0 0 0 0.3 109 928 194 379 196 458 197 108 
1926 -0.3901192485178743 -0.0207197212644652 1.247836913648005 0 0 0 0.4 109 929 126 81 148 403 159 299 164 468 172 71 176 286 
1927 0.25908578829685924 0.0031100713960002155 0.9294020199070913 0 0 0 0.3 52 450 109 930 126 82 159 300 162 113 164 469 165 53 185 217 196 459 235 147 
1928 -0.5556522368498298 -0.020324707260029783 1.3502106788839991 0 0 0 0.24 109 931 159 301 196 460 
1929 0.20941780882515926 0.00744758053409402 0.946241129924534 0 0 0 0.24 109 932 135 254 148 404 162 114 220 126 232 145 235 148 
1930 -0.5367292294903928 -0.01391136196170642 1.3350755009641893 0 0 0 0.51 93 1231 148 405 159 302 164 470 196 461 219 49 224 214 
1931 0.0758209169157298 0.0043311876515175415 1.001461693730428 0 0 0 0.27 109 933 126 83 127 94 128 67 146 554 147 59 159 303 164 471 185 218 200 574 213 558 214 594 217 53 219 50 221 73 223 91 232 146 
1932 0.07562638446115011 0.00430764165768273 1.0008763453007954 0 0 0 0.19 109 934 126 84 146 555 159 304 172 72 194 380 204 100 214 595 219 51 221 74 232 147 
1933 0.11193007411023659 0.010491101760847206 0.9854110405792774 0 0 0 0.22 52 451 109 935 164 472 185 219 196 462 213 559 
1934 0.08871419121660272 0.017604935732231642 0.9941020771918919 0 0 0 0.2 109 936 127 95 136 214 146 556 157 302 223 92 
1935 -0.0435128935673374 0.01833042711772866 1.050317238165865 0 0 0 0.49 109 937 214 596 223 93 
1936 0.064920567436633 0.01990493414056875 1.004286328158981 0 0 0 0.24 109 938 176 287 197 109 213 560 223 94 
1937 -0.050768759231044354 0.023346366984588997 1.0489680054176753 0 0 0 0.28 109 939 135 255 146 557 172 73 194 381 204 101 214 597 
1938 -0.6220920227698316 0.015665938814397817 1.3816977560655601 0 0 0 0.27 159 305 196 463 224 215 
1939 -0.14749748916773694 0.02492790086147313 1.0926155139624092 0 0 0 0.05 109 940 126 85 159 306 185 220 
1940 -0.142631401306865 0.03383252814470016 1.0890896976408024 0 0 0 0.72 93 1232 109 941 127 96 135 256 148 406 159 307 164 473 185 221 196 464 200 575 214 598 
1941 -0.07850261936475621 0.03364850273294479 1.063628502044068 0 0 0 0.32 109 942 146 558 158 111 175 216 176 288 185 222 194 382 213 561 223 95 
1942 -0.12389000952694085 0.038177977166043424 1.0815834397424287 0 0 0 0.13 109 943 126 86 194 383 196 465 
1943 0.11344652954783763 0.0413325972753175 0.9786147658436832 0 0 0 0.2 109 944 164 474 185 223 
1944 -0.09047390351332195 0.04224305751254679 1.060320735185012 0 0 0 0.11 109 945 194 384 214 599 
1945 -0.18260252632694596 0.042798434924876956 1.1000912699348642 0 0 0 0.32 109 946 147 60 148 407 159 308 194 385 204 102 219 52 221 75 222 90 232 148 
1946 -0.1888124822406344 0.04327623632713643 1.1025321404744632 0 0 0 0.26 109 947 126 87 148 408 159 309 185 224 214 600 
1947 -0.24795475381312207 0.053786524118669306 1.1431505224969452 0 0 0 0.26 52 452 93 1233 109 948 126 88 196 466 
1948 0.1743764306049221 0.055926090204615475 0.9511452842056431 0 0 0 0.27 109 949 135 257 221 76 
1949 -0.6237706262905535 0.06798942428901263 1.3654478342978271 0 0 0 0.24 52 453 109 950 159 310 196 467 
1950 -0.37588903181257444 0.07101648932770266 1.21747390861317 0 0 0 0.44 109 951 126 89 157 303 158 112 159 311 190 39 213 562 
1951 0.17276158096098068 0.08765685976600072 0.9405288933945436 0 0 0 0.26 52 454 109 952 136 215 194 386 
1952 0.2125048145300137 0.08773461497786753 0.9197811542176954 0 0 0 0.1 52 455 109 953 136 216 148 409 196 468 
1953 -0.5060766076646792 0.10433359490055062 1.2836989946082669 0 0 0 0.18 109 954 159 312 198 34 
1954 -0.5056552483101584 0.10374579948390888 1.2798356062459695 0 0 0 0.4 126 90 148 410 162 115 196 469 198 35 199 27 224 216 
1955 0.1608886242285626 0.0925016682923176 0.9392416319032483 0 0 0 0.33 109 955 164 475 214 601 
1956 0.00914762119752034 0.09807168261505202 1.0005852919118627 0 0 0 0.37 109 956 220 127 223 96 
1957 -0.5577400916298245 0.1249537607841165 1.301114898667089 0 0 0 0.19 109 957 148 411 196 470 224 217 
1958 0.1746738845460185 0.10593845676151654 0.9269262223362004 0 0 0 0.26 109 958 197 110 214 602 
1959 0.17501456991823405 0.10595507520334074 0.9276945938243588 0 0 0 0.33 109 959 194 387 197 111 221 77 
1960 0.2803789713992543 0.10346064548368313 0.879442824000804 0 0 0 0.33 93 1234 184 54 194 388 197 112 
1961 0.2809050086802619 0.10372629365647965 0.8792109330619827 0 0 0 0.42 109 960 165 54 194 389 197 113 235 149 
1962 0.27537967409544484 0.1058602594467875 0.883758829726283 0 0 0 0.11 165 55 194 390 235 150 
1963 -0.040539108260789054 0.11483294008717979 1.0122149888924827 0 0 0 0.7 52 456 109 961 126 91 
1964 -0.011331184964963395 0.11506910943438009 0.9973234996412302 0 0 0 0.44 109 962 194 391 223 97 
1965 0.05648762867883467 0.11503149099005269 0.9763196154244392 0 0 0 0.43 109 963 136 217 148 412 194 392 
1966 0.21374029694757873 0.11164839571309221 0.910293780689569 0 0 0 0.2 109 964 148 413 194 393 213 563 235 151 
1967 0.01629713844975463 0.11771941984766225 0.991386426155168 0 0 0 0.31 109 965 148 414 175 217 185 225 194 394 231 72 
1968 0.20385294211540686 0.11239446168053906 0.9114817028960911 0 0 0 0.28 109 966 148 415 194 395 196 471 235 152 
1969 0.14183828388548406 0.11565658289793226 0.930685011546561 0 0 0 0.23 93 1235 109 967 135 258 146 559 148 416 157 304 159 313 164 476 175 218 176 289 194 396 200 576 204 103 213 564 214 603 234 117 
1970 0.10104788803085257 0.11955276604131394 0.947171207703983 0 0 0 0.54 93 1236 109 968 146 560 197 114 213 565 223 98 
1971 0.10660335793276512 0.11943615684623897 0.9445689637358828 0 0 0 0.27 109 969 126 92 128 68 221 78 231 73 232 149 
1972 0.1805413032321935 0.12002483186110709 0.9158545313888817 0 0 0 0.16 109 970 194 397 220 128 
1973 0.284605737090543 0.11753632625720481 0.8753857953935683 0 0 0 0.28 52 457 109 971 165 56 194 398 235 153 
1974 0.1569023299614141 0.1233471144734563 0.9299060983734379 0 0 0 0.17 109 972 148 417 162 116 194 399 
1975 0.10370509718411074 0.13042251762824167 0.9442487023742447 0 0 0 0.28 109 973 148 418 213 566 214 604 221 79 223 99 
1976 -0.09891105262104494 0.13863129366117347 1.028515075277444 0 0 0 0.2 109 974 146 561 188 29 194 400 213 567 214 605 222 91 
1977 -0.09893681617375376 0.138678145188033 1.0286670158359779 0 0 0 0.19 109 975 148 419 194 401 213 568 214 606 
1978 -0.10929164928466097 0.14129616840551668 1.039302731553465 0 0 0 0.16 109 976 148 420 223 100 
1979 -0.19867607181941582 0.14614679419097676 1.066822200990512 0 0 0 0.13 109 977 126 93 185 226 
1980 -0.09445535424918484 0.16396188327590244 1.0207798220448945 0 0 0 0.3 52 458 109 978 194 402 196 472 204 104 214 607 223 101 
1981 0.20269881726396688 0.14901156167618113 0.9002530287847075 0 0 0 0.45 109 979 148 421 163 30 194 403 196 473 213 569 
1982 0.2144477131073484 0.15037128543475706 0.9036224714692469 0 0 0 0.29 109 980 194 404 235 154 
1983 0.23955162909859304 0.14984872177835576 0.8841629759263671 0 0 0 0.21 52 459 128 69 146 562 148 422 185 227 196 474 234 118 
1984 -0.5118310643752659 0.20648166484085098 1.2466651161894957 0 0 0 0.52 52 460 109 981 159 314 196 475 
1985 -0.5369651393377557 0.2132362000315267 1.270529967422513 0 0 0 0.32 148 423 159 315 162 117 196 476 
1986 0.2784104613772041 0.15563167654948118 0.8669233591570195 0 0 0 0.26 93 1237 109 982 136 218 164 477 165 57 184 55 197 115 232 150 235 155 
1987 0.15198326922403718 0.162644617731653 0.9110883345444551 0 0 0 0.25 109 983 126 94 172 74 
1988 0.24737512036510007 0.15857142211622693 0.8779138777190628 0 0 0 0.29 52 461 93 1238 184 56 185 228 213 570 222 92 
1989 0.2588872206734789 0.15844253781923648 0.8705426525408702 0 0 0 0.26 109 984 148 424 196 477 
1990 0.13826540752216696 0.1686543726481233 0.9166138841185253 0 0 0 0.41 109 985 126 95 136 219 194 405 
1991 0.044452217454015286 0.1754219275037902 0.9552991159451376 0 0 0 0.23 109 986 146 563 148 425 194 406 214 608 232 151 
1992 0.1580202207144224 0.16995812020835657 0.9148898507264102 0 0 0 0.31 52 462 109 987 148 426 194 407 196 478 214 609 
1993 0.08969776014440863 0.17474716242939772 0.9345752440122854 0 0 0 0.24 52 463 109 988 126 96 148 427 234 119 
1994 0.06272146773293838 0.17973516845552265 0.9546406275098792 0 0 0 0.22 109 989 194 408 214 610 
1995 0.17998646198918217 0.1727618450228517 0.9051844266995408 0 0 0 0.58 52 464 93 1239 109 990 126 97 135 259 146 564 147 61 148 428 162 118 163 31 164 478 172 75 182 62 194 409 196 479 200 577 213 571 217 54 220 129 222 93 227 65 232 152 
1996 0.25946332194689503 0.16571341782873472 0.8683101381269087 0 0 0 0.23 109 991 148 429 165 58 235 156 
1997 0.09278028761939812 0.17998167638453408 0.9322744556423327 0 0 0 0.31 109 992 197 116 222 94 232 153 
1998 0.10112499231625957 0.17973580889188234 0.9257594129325868 0 0 0 0.12 52 465 109 993 126 98 196 480 
1999 0.1600208480096678 0.17900301014951442 0.9179634200800115 0 0 0 0.07 109 994 148 430 196 481 220 130 
2000 0.2669661112328784 0.1706189555649304 0.8639369154840225 0 0 0 0.17 109 995 146 565 164 479 165 59 184 57 213 572 235 157 
2001 0.25933019636557647 0.17480384152524892 0.8650332407456742 0 0 0 0.32 109 996 146 566 164 480 165 60 184 58 213 573 235 158 
2002 0.09194244688066744 0.20371597021033774 0.9245283542302168 0 0 0 0.16 52 466 109 997 146 567 148 431 196 482 234 120 
2003 0.19081992371512363 -0.19615061329031486 1.0103698716691618 0 0 0 0.2 52 467 109 998 200 578 
2004 0.25462547949419334 -0.15402398425518907 0.9770563067640641 0 0 0 0.09 109 999 165 61 235 159 
2005 0.18580688860857514 -0.15325943025760425 1.0036530793368361 0 0 0 0.39 52 468 109 1000 157 305 159 316 164 481 197 117 213 574 219 53 221 80 232 154 
2006 -0.1759313014392178 -0.18980062522775618 1.1774806789010177 0 0 0 0.34 52 469 109 1001 146 568 196 483 224 218 
2007 -0.181429383935077 -0.18318488432930877 1.1747203229657068 0 0 0 0.41 52 470 109 1002 146 569 159 317 
2008 0.05178895439689975 -0.14476889283528036 1.0429632309683687 0 0 0 0.4 93 1240 109 1003 146 570 176 290 200 579 213 575 214 611 234 121 
2009 0.0011560729176836562 -0.1395691723302975 1.076157992737655 0 0 0 0.45 109 1004 135 260 147 62 148 432 157 306 164 482 172 76 176 291 196 484 200 580 204 105 221 81 232 155 
2010 0.041712917493933084 -0.1281039203522002 1.056268155969013 0 0 0 0.7 52 471 109 1005 135 261 146 571 147 63 148 433 152 38 157 307 158 113 159 318 164 483 172 77 185 229 204 106 213 576 217 55 219 54 220 131 221 82 227 66 232 156 234 122 
2011 -0.06517963109689395 -0.13702856746758202 1.1048906896534703 0 0 0 0.71 52 472 109 1006 146 572 147 64 148 434 158 114 164 484 214 612 219 55 221 83 232 157 
2012 0.23455013282706 -0.10275738266951599 0.969613854916388 0 0 0 0.36 109 1007 146 573 159 319 184 59 194 410 197 118 213 577 221 84 232 158 235 160 
2013 0.07873858654203036 -0.11352205670577961 1.0337329352763533 0 0 0 0.39 109 1008 152 39 157 308 164 485 175 219 176 292 185 230 200 581 213 578 214 613 219 56 
2014 0.08772621428885907 -0.10711403798848165 1.0266656259109792 0 0 0 0.49 109 1009 146 574 157 309 159 320 176 293 185 231 197 119 200 582 214 614 219 57 234 123 
2015 -0.018580200591935304 -0.11541039907410162 1.0786626146826837 0 0 0 0.32 52 473 109 1010 159 321 164 486 196 485 214 615 
2016 0.15038935829004937 -0.09488291385899987 1.0001675108283394 0 0 0 0.33 109 1011 146 575 147 65 148 435 164 487 176 294 185 232 194 411 197 120 213 579 214 616 219 58 222 95 
2017 0.06008911823471957 -0.10025568555049201 1.039446928058088 0 0 0 0.37 109 1012 190 40 194 412 219 59 232 159 
2018 -0.24671205982746122 -0.1271492959917858 1.1998823307226851 0 0 0 0.35 109 1013 148 436 159 322 185 233 196 486 224 219 
2019 0.05170720795020624 -0.10007765942652354 1.0434381957016423 0 0 0 0.27 109 1014 135 262 157 310 221 85 
2020 -0.016686113738238778 -0.098765197489117 1.0715716041772194 0 0 0 0.25 109 1015 172 78 194 413 
2021 -0.016533075140237944 -0.0986606105107976 1.0706082654346547 0 0 0 0.34 109 1016 135 263 158 115 164 488 172 79 194 414 214 617 219 60 
2022 -0.25868389246466034 -0.11275617596170591 1.2003579730373553 0 0 0 0.41 109 1017 159 323 185 234 214 618 
2023 -0.11421452265968887 -0.08523400917780345 1.1106622471939849 0 0 0 0.4 52 474 109 1018 127 97 146 576 147 66 148 437 152 40 157 311 158 116 164 489 176 295 194 415 196 487 200 583 213 580 214 619 217 56 221 86 222 96 224 220 232 160 
2024 -0.05906545412582816 -0.05511153319684159 1.0749423914418503 0 0 0 0.29 109 1019 146 577 157 312 
2025 -0.1353668509121518 -0.0432657111831611 1.0994037953865354 0 0 0 0.42 109 1020 159 324 185 235 
2026 -0.5620653540368518 -0.059364184865011924 1.3693796188992515 0 0 0 0.33 52 475 109 1021 159 325 
2027 0.28212139520631074 -0.015049827107596059 0.9244408549533257 0 0 0 0.42 109 1022 194 416 217 57 
2028 0.20472711641908095 0.00916037293069111 0.9484946318955397 0 0 0 0.21 109 1023 147 67 172 80 194 417 219 61 232 161 
2029 0.01028383566900294 0.007258550297967779 1.0281457110149488 0 0 0 0.1 109 1024 194 418 223 102 
2030 0.16332060543781038 0.012697668154721136 0.9640888537880857 0 0 0 0.5 52 476 109 1025 126 99 190 41 198 36 199 28 213 581 217 58 221 87 222 97 227 67 
2031 0.0457136574410174 0.013975857285731022 1.0106084000487912 0 0 0 0.37 52 477 109 1026 136 220 148 438 159 326 194 419 196 488 214 620 223 103 
2032 0.1082030697339986 0.023231078311860616 0.9836723479114312 0 0 0 0.63 109 1027 158 117 185 236 
2033 -0.057598678773361334 0.03107365449380513 1.0549320143911447 0 0 0 0.19 109 1028 126 100 159 327 
2034 -0.2473519641853737 0.03580392092436489 1.148294642849878 0 0 0 0.33 109 1029 126 101 196 489 224 221 
2035 -0.09668628982210771 0.03749713162771563 1.0657859059088872 0 0 0 0.18 109 1030 148 439 194 420 214 621 
2036 -0.13071862322101985 0.04019384173015177 1.0830518728170397 0 0 0 0.44 52 478 93 1241 109 1031 126 102 159 328 162 119 194 421 
2037 -0.17578931986937518 0.042136627986264816 1.0990779524914294 0 0 0 0.16 109 1032 126 103 146 578 159 329 213 582 214 622 
2038 0.08794515316250548 0.08283273036211007 0.9633393629931618 0 0 0 0.26 109 1033 220 132 223 104 
2039 -0.6072979789746267 0.08370504412626247 1.1107543478826323 0 0 0 0.22 148 440 159 330 164 490 196 490 
2040 0.13730508347987047 0.08734755377110737 0.9415569487178338 0 0 0 0.61 109 1034 196 491 223 105 
2041 0.1325777483351042 0.09952834630316679 0.9464449722409874 0 0 0 0.22 109 1035 126 104 136 221 223 106 232 162 
2042 0.19092926286678544 0.09790994369888824 0.9144660564579079 0 0 0 0.3 93 1242 109 1036 146 579 147 68 157 313 159 331 176 296 182 63 204 107 213 583 214 623 221 88 222 98 227 68 232 163 
2043 0.02183960369607141 0.11254515566367171 0.9917921040245632 0 0 0 0.3 52 479 109 1037 126 105 127 98 146 580 148 441 152 41 164 491 190 42 194 422 197 121 204 108 213 584 214 624 219 62 220 133 222 99 223 107 232 164 
2044 0.25355751985809327 0.10827165074091272 0.8932065282285163 0 0 0 0.27 109 1038 185 237 194 423 235 161 
2045 0.2305068482574405 0.11029491994061788 0.9022187811308985 0 0 0 0.19 93 1243 109 1039 135 264 164 492 204 109 213 585 222 100 232 165 
2046 -0.1320465376378758 0.12474022767488842 1.0515178921762816 0 0 0 0.55 109 1040 147 69 159 332 
2047 0.20350017662186054 0.1191277390727105 0.9062596716776566 0 0 0 0.54 109 1041 146 581 148 442 158 118 175 220 185 238 190 43 213 586 222 101 
2048 -0.6219336447908155 0.16832235198029483 1.3401504025967839 0 0 0 0.25 159 333 196 492 224 222 
2049 0.10898979834730961 0.12884548771804666 0.9457827767509832 0 0 0 0.4 109 1042 148 443 214 625 220 134 221 89 
2050 0.07311417458166813 0.13138651967865267 0.9636047884900308 0 0 0 0.2 109 1043 148 444 223 108 
2051 -0.2862501531746291 0.14975766157904813 1.1305308575273494 0 0 0 0.4 109 1044 126 106 214 626 
2052 0.19256905596827176 0.1456468107206423 0.903263098502519 0 0 0 0.3 109 1045 127 99 185 239 221 90 
2053 0.25194379459297267 0.15385448194259252 0.8781303032129139 0 0 0 0.42 148 445 162 120 165 62 172 81 184 60 185 240 194 424 196 493 213 587 220 135 222 102 235 162 
2054 -0.5296320238279263 0.2158277632806009 1.2777804760536233 0 0 0 0.36 148 446 159 334 196 494 
2055 0.2383299616171685 0.15744538862523566 0.8828676277267842 0 0 0 0.32 52 480 109 1046 128 70 146 582 148 447 172 82 185 241 194 425 196 495 213 588 232 166 235 163 
2056 0.274119165744517 0.15937316754146297 0.8653863481345249 0 0 0 0.44 93 1244 109 1047 135 265 136 222 147 70 158 119 163 32 164 493 182 64 184 61 200 584 222 103 232 167 235 164 
2057 0.07718381803752185 0.17708211793227782 0.9455910580080698 0 0 0 0.27 109 1048 136 223 164 494 172 83 213 589 214 627 
2058 0.06741609334850639 0.17830768271688233 0.9494885013299864 0 0 0 0.28 109 1049 214 628 222 104 
2059 0.12999792245357128 0.1756208191996186 0.9176323472534716 0 0 0 0.62 109 1050 164 495 214 629 
2060 0.15524617650658673 0.17441319142330697 0.913343017955413 0 0 0 0.24 109 1051 148 448 194 426 196 496 214 630 
2061 0.10731694587707497 0.17973881724237717 0.9327482719969676 0 0 0 0.23 109 1052 136 224 164 496 194 427 214 631 
2062 0.03145115795122324 0.18624568005752748 0.9582830923011146 0 0 0 0.18 109 1053 126 107 196 497 
2063 0.18505962672988518 -0.20608288406283204 1.015030644786637 0 0 0 0.53 109 1054 165 63 235 165 
2064 0.11016189109801214 -0.21770875862918912 1.0582496349438109 0 0 0 0.4 52 481 109 1055 146 583 157 314 
2065 0.18299947861529053 -0.16060777543485777 1.0060988136597415 0 0 0 0.29 109 1056 126 108 136 225 163 33 196 498 235 166 
2066 0.08861268009018188 -0.13497256669954705 1.0348202805906588 0 0 0 1.26 93 1245 109 1057 135 266 147 71 158 120 164 497 176 297 190 44 197 122 198 37 200 585 213 590 214 632 
2067 0.2934807417354725 -0.10806878570406624 0.946269419066294 0 0 0 0.45 93 1246 109 1058 126 109 136 226 162 121 164 498 172 84 175 221 182 65 184 62 185 242 196 499 200 586 217 59 
2068 -0.0800194211618474 -0.13164417358689076 1.1070908469469087 0 0 0 0.4 109 1059 128 71 146 584 147 72 148 449 152 42 157 315 158 121 159 335 164 499 172 85 176 298 185 243 196 500 198 38 204 110 213 591 214 633 219 63 220 136 221 91 
2069 -0.056227513241714974 -0.12287708887578881 1.0957240834909758 0 0 0 0.22 109 1060 127 100 147 73 164 500 185 244 190 45 198 39 213 592 214 634 220 137 221 92 222 105 224 223 232 168 
2070 -0.1011697656298101 -0.12248971389295162 1.1162702372552562 0 0 0 0.69 93 1247 109 1061 126 110 152 43 157 316 176 299 185 245 190 46 200 587 204 111 214 635 219 64 222 106 
2071 -0.04837643851544932 -0.10323510269628715 1.0862109541802738 0 0 0 0.17 109 1062 221 93 234 124 
2072 -0.2550475904708162 -0.12057107111097203 1.2027066164317564 0 0 0 0.24 109 1063 136 227 159 336 
2073 -0.09100523018204941 -0.0980790529308064 1.103471825712268 0 0 0 0.64 52 482 109 1064 148 450 157 317 172 86 194 428 214 636 219 65 232 169 
2074 0.291122830119027 -0.06333224575293893 0.9417437368152586 0 0 0 0.18 109 1065 165 64 235 167 
2075 0.08748706127567439 -0.06869579987474281 1.0217946858728084 0 0 0 0.13 109 1066 159 337 198 40 
2076 0.23838914378276382 -0.05939986275413149 0.9604439801281426 0 0 0 0.2 52 483 109 1067 165 65 235 168 
2077 0.06813105165639909 -0.0665702280588845 1.0258270146702693 0 0 0 0.47 52 484 109 1068 126 111 127 101 159 338 163 34 164 501 194 429 197 123 198 41 199 29 200 588 213 593 
2078 0.03758767496040228 -0.06406912136198052 1.0385188032248556 0 0 0 0.09 109 1069 159 339 198 42 
2079 0.019495074207160713 -0.061896473746913094 1.0452616523027043 0 0 0 0.4 52 485 109 1070 126 112 127 102 146 585 148 451 159 340 194 430 196 501 198 43 199 30 200 589 214 637 220 138 
2080 0.151753869712439 -0.05397591058841542 0.9872845579901756 0 0 0 0.44 109 1071 126 113 159 341 194 431 214 638 
2081 0.12998012624713567 -0.04972187254835696 1.0047634993205703 0 0 0 0.22 109 1072 148 452 185 246 
2082 0.1297400002639033 -0.04970384042740759 1.0040176005873915 0 0 0 0.24 109 1073 185 247 199 31 
2083 -0.028647921619302207 -0.05775967706249825 1.0669961566107298 0 0 0 0.28 109 1074 194 432 213 594 214 639 220 139 
2084 0.12530220072809506 -0.04234120704802839 1.0091415238589276 0 0 0 0.39 109 1075 159 342 163 35 
2085 0.1292367604093264 -0.029262713704427915 0.9983028649415021 0 0 0 0.16 109 1076 159 343 185 248 
2086 -0.3185245591115016 -0.033284982864871256 1.207132618305641 0 0 0 0.19 109 1077 159 344 185 249 
2087 0.16404425341041393 -0.004999999362036262 0.9708870535384261 0 0 0 0.2 52 486 109 1078 135 267 147 74 148 453 152 44 157 318 159 345 162 122 176 300 194 433 196 502 197 124 198 44 200 590 204 112 213 595 217 60 219 66 220 140 
2088 0.06646425743739852 -0.0075197751345989945 1.0131220912764047 0 0 0 0.43 109 1079 127 103 223 109 
2089 0.24087275785082576 -0.0019075670251056105 0.9320451592723846 0 0 0 0.25 93 1248 109 1080 135 268 194 434 197 125 227 69 
2090 -0.6385247851721181 -0.032207578661590734 1.4124063399569935 0 0 0 0.54 159 346 196 503 224 224 
2091 -0.41663171006217337 -0.017960877239579114 1.261414144886053 0 0 0 0.28 93 1249 109 1081 148 454 196 504 
2092 0.2531795713364361 0.004278069872831688 0.931303068571932 0 0 0 0.53 52 487 109 1082 162 123 163 36 185 250 199 32 220 141 
2093 0.10962198101652433 0.009712258896243858 0.9850416904287335 0 0 0 0.31 109 1083 157 319 172 87 197 126 198 45 213 596 
2094 0.15660715959200674 0.013760740015513742 0.9668991886785095 0 0 0 0.08 109 1084 194 435 232 170 
2095 -0.5190046077570863 0.009506649050684676 1.3259205192617034 0 0 0 0.33 52 488 109 1085 148 455 196 505 224 225 
2096 0.05786865838955549 0.022806719398321112 1.0044984734587536 0 0 0 0.48 52 489 93 1250 109 1086 147 75 159 347 162 124 164 502 185 251 194 436 198 46 214 640 219 67 220 142 221 94 222 107 223 110 
2097 0.0022352733435582416 0.03145622857079682 1.024831587314609 0 0 0 0.42 93 1251 109 1087 148 456 159 348 162 125 164 503 176 301 185 252 194 437 204 113 214 641 219 68 222 108 223 111 232 171 
2098 -0.20793464046207327 0.033019890263452714 1.1245548925910034 0 0 0 0.19 109 1088 159 349 185 253 199 33 214 642 220 143 224 226 
2099 -0.5222023984793973 0.04200217423115253 1.3098181949488736 0 0 0 0.21 196 506 198 47 199 34 224 227 
2100 -0.6161223614481212 0.05781472477347128 1.3609989167144312 0 0 0 0.36 52 490 109 1089 159 350 196 507 
2101 0.17435291143185325 0.0637435031452231 0.9498945562661417 0 0 0 0.16 109 1090 164 504 196 508 214 643 
2102 0.17370096383678016 0.0634579444218666 0.9480256242723627 0 0 0 0.29 109 1091 214 644 221 95 
2103 0.20122773380570488 0.08371925488404776 0.9228879480766247 0 0 0 0.22 136 228 196 509 220 144 
2104 0.1810074028122008 0.10671551831617714 0.9226440926299133 0 0 0 0.2 109 1092 159 351 185 254 
2105 0.18125656017263922 0.10688552276877174 0.9234882015657494 0 0 0 0.2 109 1093 159 352 185 255 235 169 
2106 0.1925298016190428 0.12082249310329109 0.9109804775172446 0 0 0 0.47 52 491 109 1094 147 76 148 457 159 353 164 505 185 256 190 47 194 438 204 114 213 597 217 61 222 109 232 172 234 125 
2107 0.04556140650921797 0.13378643917641467 0.9678568633700595 0 0 0 0.46 109 1095 146 586 213 598 234 126 
2108 0.18710710718562168 0.14171455454817766 0.9086019347735105 0 0 0 0.34 52 492 109 1096 148 458 185 257 194 439 235 170 
2109 -0.5746493865532651 0.20184980356421445 1.2973832324636494 0 0 0 0.51 52 493 109 1097 148 459 
2110 0.2032766774221082 0.15467161157425824 0.8985604037484093 0 0 0 0.59 93 1252 109 1098 127 104 135 269 147 77 182 66 194 440 213 599 221 96 
2111 0.22857530595373807 0.1542886238920639 0.891404979293728 0 0 0 0.64 93 1253 109 1099 127 105 135 270 164 506 182 67 190 48 196 510 200 591 213 600 220 145 222 110 232 173 235 171 
2112 0.25565759130590754 0.1646216621807339 0.8723408012872501 0 0 0 0.32 93 1254 109 1100 135 271 147 78 184 63 200 592 222 111 235 172 
2113 0.25526948516773984 0.1645746082798476 0.8714641267002263 0 0 0 0.28 109 1101 165 66 184 64 235 173 
2114 0.20259006986407432 0.17122452281951056 0.8908838680953749 0 0 0 0.39 109 1102 147 79 162 126 190 49 194 441 196 511 200 593 217 62 220 146 221 97 222 112 
2115 0.20250994887930854 0.1713412984316001 0.8905778272211277 0 0 0 0.31 52 494 109 1103 147 80 162 127 194 442 200 594 220 147 222 113 227 70 
2116 0.21968456756608196 0.16945328598965803 0.8833917050954797 0 0 0 0.45 109 1104 127 106 148 460 162 128 163 37 164 507 185 258 194 443 213 601 217 63 220 148 235 174 
2117 0.07905384927819517 0.18138711577023592 0.9374834879931382 0 0 0 0.25 109 1105 147 81 194 444 214 645 
2118 0.27111923648742026 0.17201307661287082 0.8610725764877948 0 0 0 0.3 52 495 109 1106 136 229 163 38 165 67 184 65 194 445 222 114 235 175 
2119 0.14476064918793272 -0.132011307104413 1.0140113018686834 0 0 0 0.54 93 1255 127 107 159 354 163 39 164 508 165 68 196 512 235 176 
2120 0.08908679271431061 -0.13731470814319158 1.0485970554879154 0 0 0 0.9 109 1107 148 461 159 355 185 259 199 35 
2121 0.11837754174625988 -0.12942324420333845 1.027424050042688 0 0 0 0.4 109 1108 126 114 127 108 136 230 147 82 148 462 159 356 185 260 196 513 198 48 
2122 0.22182288195962138 -0.06682461260567826 0.9734822150995204 0 0 0 0.22 109 1109 164 509 199 36 220 149 
2123 0.11727682272922821 -0.0687581218368889 1.0069083451739194 0 0 0 0.45 109 1110 148 463 159 357 162 129 163 40 196 514 214 646 220 150 
2124 -0.5462779247734254 -0.0827367718794549 1.367093150590712 0 0 0 0.75 126 115 127 109 148 464 159 358 176 302 196 515 198 49 199 37 224 228 
2125 -0.5484587483376471 -0.0824475879397068 1.3767699734990773 0 0 0 0.11 148 465 196 516 199 38 
2126 -0.56689059374278 -0.0743550306282559 1.3853262819628647 0 0 0 0.47 159 359 199 39 224 229 
2127 -0.5737825069029864 -0.04195182336032372 1.3755215611044935 0 0 0 0.31 52 496 148 466 164 510 196 517 224 230 
2128 0.18499113332822673 0.01085323231699833 0.9544929406492324 0 0 0 0.35 109 1111 126 116 159 360 163 41 185 261 
2129 0.13652673509217308 0.014637098105690152 0.9765833948034633 0 0 0 0.35 109 1112 152 45 157 320 172 88 198 50 220 151 
2130 0.05946627474623048 0.01409521071471903 1.0058468643318375 0 0 0 0.38 93 1256 109 1113 136 231 146 587 147 83 148 467 152 46 157 321 164 511 172 89 175 222 176 303 190 50 197 127 200 595 204 115 213 602 214 647 219 69 220 152 221 98 222 115 223 112 232 174 
2131 0.11592830746313208 0.015654370900862226 0.982756839700658 0 0 0 0.25 109 1114 162 130 198 51 199 40 232 175 
2132 0.1867385548628546 0.034777629959000855 0.9546819123768133 0 0 0 0.24 109 1115 163 42 222 116 
2133 -0.6369174409688745 0.08743724870737052 1.3739113366133493 0 0 0 0.81 52 497 109 1116 196 518 
2134 0.24949764482596762 0.07990923190446783 0.90328231961982 0 0 0 0.36 109 1117 148 468 165 69 198 52 199 41 
2135 0.05338429785380529 0.11159702378166236 0.9730140322045044 0 0 0 0.25 109 1118 146 588 152 47 157 322 190 51 204 116 213 603 221 99 223 113 232 176 
2136 0.16316627924197005 0.11521361856063415 0.9277300321927497 0 0 0 0.36 52 498 109 1119 136 232 147 84 198 53 199 42 222 117 
2137 0.10779654260976748 0.1797908967156831 0.9283925193171653 0 0 0 0.16 109 1120 164 512 198 54 199 43 
2138 0.11502227765562952 0.1861967677642754 0.9192561531643452 0 0 0 0.33 109 1121 164 513 220 153 
2139 0.17548454653898382 0.1883840951506204 0.8932011151917439 0 0 0 0.33 109 1122 194 446 196 519 
2140 0.1361360932128226 0.1955043864284184 0.9111134777442357 0 0 0 0.35 109 1123 198 55 199 44 222 118 
2141 0.2713154975622302 -0.09414676574368656 0.9493749512805316 0 0 0 0.38 93 1257 109 1124 164 514 176 304 184 66 200 596 220 154 235 177 
2142 0.2807538379320917 -0.08483534253504611 0.9461917608090408 0 0 0 0.25 109 1125 165 70 185 262 235 178 
2143 0.2642037753995578 -0.08338615226570949 0.9484953335334011 0 0 0 0.68 109 1126 163 43 196 520 
2144 0.06367038932140749 -0.07684324038830999 1.0272418638920287 0 0 0 0.37 109 1127 148 469 214 648 221 100 
2145 0.13652521712589544 -0.07071846777728902 0.9984113789345274 0 0 0 0.56 109 1128 128 72 159 361 220 155 221 101 
2146 0.23250552574611302 0.006026482858793102 0.9373342098206792 0 0 0 0.37 52 499 109 1129 235 179 
2147 0.17662306452591386 0.022171788168285897 0.9629640166916473 0 0 0 0.55 109 1130 164 515 198 56 214 649 
2148 0.12568814181500074 0.025039260987429045 0.9757779828350847 0 0 0 0.75 109 1131 135 272 146 589 159 362 176 305 185 263 190 52 197 128 199 45 200 597 219 70 220 156 221 102 222 119 
2149 0.23672469269315272 0.09747221296814948 0.8897885002411434 0 0 0 0.22 109 1132 196 521 199 46 
2150 0.14043304708783558 0.10458785568999217 0.9293418798998458 0 0 0 0.38 109 1133 198 57 199 47 214 650 
2151 -0.07671620284335703 0.12276186101231103 1.0344769710835329 0 0 0 0.15 109 1134 126 117 223 114 
2152 -0.5215222669115462 0.19157856519013772 1.267665180073981 0 0 0 0.48 164 516 199 48 224 231 
2153 0.24495176302361096 0.15647156224240633 0.8796128429525768 0 0 0 0.42 52 500 148 470 164 517 165 71 185 264 194 447 196 522 220 157 235 180 
2154 0.18665310502803484 0.1657850442937473 0.8975533879187299 0 0 0 0.28 109 1135 148 471 194 448 235 181 
2155 0.19878727374201502 0.1688907378194512 0.8898965426546509 0 0 0 0.27 109 1136 148 472 163 44 164 518 196 523 198 58 199 49 217 64 
2156 0.06111824343318071 0.1852257892774187 0.9475583374902702 0 0 0 0.46 109 1137 172 90 194 449 196 524 198 59 217 65 220 158 
2157 -0.23605022972368048 -0.0932533964217681 1.1848421555655588 0 0 0 0.21 109 1138 185 265 214 651 
2158 -0.2363102843012435 -0.09331911141145376 1.1863758532324835 0 0 0 0.12 109 1139 126 118 159 363 185 266 
2159 -0.2810406756996548 -0.08632079214429808 1.2077475164160056 0 0 0 0.61 109 1140 126 119 159 364 185 267 196 525 214 652 
2160 -0.28135338736510607 -0.08655862011751407 1.2095670969341314 0 0 0 0.36 109 1141 126 120 159 365 164 519 185 268 
2161 -0.19036112644995268 -0.07220853163834218 1.135597869105994 0 0 0 0.41 109 1142 146 590 199 50 214 653 
2162 -0.2797197269197051 -0.06473122162627104 1.1993127628006484 0 0 0 0.6 109 1143 126 121 146 591 159 366 164 520 185 269 196 526 214 654 224 232 
2163 -0.2793038368187734 -0.06459522941554298 1.1954678851494016 0 0 0 0.58 109 1144 196 527 214 655 224 233 
2164 0.21564051681704285 -0.008184328021591785 0.9463884456817823 0 0 0 0.43 109 1145 136 233 165 72 
2165 0.2185826649003048 0.10919827283547442 0.9065247462123913 0 0 0 0.35 93 1258 109 1146 147 85 163 45 164 521 185 270 190 53 194 450 199 51 235 182 
2166 0.1195435055020916 0.11666657318291802 0.9421812950936587 0 0 0 0.13 109 1147 214 656 223 115 
2167 0.16653985602273655 0.16136806979776408 0.9068027979215385 0 0 0 0.41 52 501 109 1148 148 473 194 451 196 528 199 52 213 604 
2168 0.16679614906682833 0.1614099392128342 0.9076070987779215 0 0 0 0.3 109 1149 194 452 214 657 
2169 0.11864918374796078 0.16680457300147056 0.9265918173944366 0 0 0 0.41 109 1150 146 592 158 122 190 54 223 116 232 177 
2170 0.1578972697337691 -0.1332082300267586 1.0127328359411993 0 0 0 0.64 52 502 109 1151 159 367 219 71 
2171 0.15139162050437785 -0.10761173324474821 0.9906293271671124 0 0 0 0.84 109 1152 159 368 196 529 
2172 0.15166826982970424 -0.10753719788049114 0.9910117655477853 0 0 0 0.89 109 1153 196 530 198 60 
2173 0.2258748093080636 -0.09505083948628021 0.9647591470035648 0 0 0 0.49 93 1259 109 1154 127 110 159 369 164 522 182 68 185 271 194 453 197 129 213 605 217 66 221 103 222 120 
2174 0.1736369936379029 -0.08990786169686245 0.9863496197626402 0 0 0 0.28 109 1155 194 454 214 658 
2175 -0.1720363018617045 -0.061113030028550876 1.1303878865184784 0 0 0 0.74 52 503 93 1260 109 1156 126 122 196 531 199 53 200 598 214 659 221 104 
2176 -0.5482437701473639 -0.059191765020360367 1.3616814039602443 0 0 0 1.17 52 504 109 1157 126 123 148 474 159 370 
2177 -0.293583029175684 -0.03881316803426701 1.1964218140095715 0 0 0 0.38 109 1158 196 532 224 234 
2178 -0.08927163295394754 -0.014433213340578236 1.081142616273539 0 0 0 0.32 109 1159 127 111 176 306 185 272 214 660 
2179 -0.08926053189391052 -0.01444338218700493 1.081291578286324 0 0 0 0.3 109 1160 127 112 176 307 185 273 214 661 232 178 
2180 -0.11174930639005005 -0.004161650453768153 1.0883202222202244 0 0 0 0.52 93 1261 109 1161 158 123 159 371 162 131 176 308 185 274 194 455 196 533 204 117 214 662 217 67 219 72 231 74 
2181 -0.11173624463170455 -0.004379674841547579 1.088723307639035 0 0 0 0.75 93 1262 109 1162 136 234 158 124 159 372 162 132 185 275 194 456 196 534 214 663 217 68 231 75 
2182 -0.15720740029119032 0.002672811851456597 1.1041979471367591 0 0 0 0.89 52 505 109 1163 185 276 196 535 
2183 -0.1607350868771774 0.09458210786252384 1.0970678840572115 0 0 0 0.54 109 1164 126 124 159 373 
2184 -0.1607350868771774 0.09458210786252384 1.0970678840572115 0 0 0 0.54 109 1165 126 125 159 374 
2185 0.09697858380359504 0.10828548747679773 0.9517447829174711 0 0 0 0.65 109 1166 126 126 214 664 223 117 
