# 3D point list with one line of data per point:
#   POINT3D_ID, X, Y, Z, R, G, B, ERROR, TRACK[] as (IMAGE_ID, POINT2D_IDX)
# Number of points: 369, mean track length: 10.13
525 0.12651800448994863 0.1784700781536179 0.8154955412644463 0 0 0 0.15 7 520 90 26 122 130 149 279 233 182 
526 -0.1727015537452909 0.1437430389498881 0.65441967602077 0 0 0 0.36 7 521 94 200 149 280 
527 0.09551729643924334 0.18194719720537483 0.8290882248104908 0 0 0 0.32 7 522 140 90 149 281 233 183 
528 0.4355863249906033 0.23591310462321485 1.0630214215755496 0 0 0 0.26 7 523 99 116 149 282 
529 0.057728368811033465 0.17991728664621304 0.8130241986124777 0 0 0 0.31 7 524 94 201 140 91 233 184 99 117 210 144 
530 0.21973449463319153 0.19456571150720897 0.8763954085902107 0 0 0 0.25 7 525 22 12 94 202 99 118 122 131 149 283 233 185 203 105 
531 0.09726716447151117 0.18249197949093626 0.8231475004989416 0 0 0 0.27 7 526 94 203 149 284 
532 0.11036317063372433 0.1789026039567335 0.8027191880024085 0 0 0 0.17 7 527 99 119 122 132 149 285 233 186 
533 0.0004189125838554682 0.1719262166533607 0.7714778279226198 0 0 0 0.36 7 528 154 57 233 187 
534 0.07341760792500583 0.1833271621233725 0.8224747939932681 0 0 0 0.35 7 529 94 204 99 120 122 133 
535 -0.13760884946731206 0.15198804479332476 0.6776045258733467 0 0 0 0.14 7 530 149 286 233 188 
536 0.10992737185647324 0.1809449552492477 0.8017624455984146 0 0 0 0.34 7 531 94 205 99 121 140 92 149 287 210 145 233 189 18 77 203 106 
537 0.15395321151748312 0.188732023575281 0.8352858402495695 0 0 0 0.16 7 532 122 134 233 190 149 288 
538 0.28115016504545903 0.2176395103102209 0.9585347670211561 0 0 0 0.08 7 533 122 135 233 191 228 43 
539 0.026271708688152068 0.17757403256523877 0.7827797306700183 0 0 0 0.33 7 534 122 136 149 289 210 146 99 122 203 107 
540 0.19425209172739225 0.1955133168083076 0.8607498165514587 0 0 0 0.27 7 535 122 137 233 192 
541 0.19781054601153616 0.1957318249024193 0.8612798120157158 0 0 0 0.09 7 536 140 93 149 290 
542 -0.1382389357929725 0.1544704267332134 0.6792314266771817 0 0 0 0.31 7 537 149 291 233 193 94 206 171 51 203 108 205 39 
543 -0.09938817335201117 0.15850317440629125 0.6973819197883828 0 0 0 0.22 7 538 149 292 233 194 
544 -0.038243412508830024 0.16737944812424274 0.7388537227764416 0 0 0 0.38 7 539 99 123 149 293 233 195 203 109 
545 -0.031387710325451824 0.16854072897916755 0.7423168038768773 0 0 0 0.49 7 540 149 294 210 147 233 196 
546 0.16669126129133358 0.19106087598432966 0.8378598110463414 0 0 0 0.19 7 541 94 207 122 138 149 295 216 59 233 197 
547 0.2969312159942053 0.2199131370659232 0.9632862983090942 0 0 0 0.21 7 542 99 124 122 139 149 296 233 198 
548 0.07331352101751971 0.18671906968370225 0.8200555849958462 0 0 0 0.27 7 543 94 208 99 125 122 140 140 94 149 297 
549 -0.022056245201657138 0.17267723120468256 0.7576047648241779 0 0 0 0.39 7 544 22 13 149 298 99 126 203 110 210 148 
550 0.1084832728324026 0.18310427354660627 0.8009340358172026 0 0 0 0.39 7 545 140 95 145 16 149 299 233 199 18 78 106 27 99 127 203 111 210 149 
551 -0.1033655293213705 0.159301444473852 0.6966776805112401 0 0 0 0.22 7 546 18 79 30 25 149 300 203 112 
552 0.1021704381244603 0.18401057859842054 0.8071790901126705 0 0 0 0.68 7 547 94 209 122 141 177 27 106 28 116 70 171 52 205 40 
553 0.11109721841540232 0.1834535708070485 0.8006517009694477 0 0 0 0.2 7 548 22 14 122 142 149 301 233 200 
554 0.15837252452947 0.19171857262122402 0.8355548887746962 0 0 0 0.3 7 549 94 210 122 143 203 113 
555 0.3867374872394813 0.23542830738774448 1.0239654582553737 0 0 0 0.19 7 550 122 144 140 96 
556 -0.03292056673420487 0.16990556013293748 0.7397846446872102 0 0 0 0.32 7 551 210 150 233 201 
557 -0.03084514741877916 0.1703274452078343 0.7427831470223313 0 0 0 0.37 7 552 149 302 210 151 
558 0.0975671708363891 0.18528255519833836 0.8079006224889577 0 0 0 0.57 7 553 18 80 94 211 140 97 151 26 177 28 193 98 216 60 31 18 72 20 145 17 173 21 106 29 166 13 
559 0.20267874042417344 0.19952682072263556 0.8669552373260206 0 0 0 0.18 7 554 99 128 122 145 149 303 210 152 
560 0.27574227195664647 0.22127625135004975 0.9573581368337609 0 0 0 0.17 7 555 30 26 122 146 
561 0.222573349017301 0.20216157768727933 0.8740100448868825 0 0 0 0.34 7 556 99 129 122 147 149 304 210 153 203 114 
562 -0.011567218269370967 0.1769564105136326 0.7659953534574833 0 0 0 0.4 7 557 94 212 99 130 149 305 210 154 
563 0.20481067604499936 0.20100820170602593 0.8666458130820937 0 0 0 0.2 7 558 99 131 122 148 140 98 149 306 210 155 233 202 203 115 
564 0.2250880669383183 0.2025980861005867 0.8732843415407724 0 0 0 0.11 7 559 94 213 122 149 149 307 
565 0.09803827768320758 0.19140041145428194 0.8261148290966217 0 0 0 0.35 7 560 94 214 216 61 
566 0.4458279316841843 0.24462755447143394 1.051253804873253 0 0 0 0.26 7 561 116 71 193 99 
567 -0.03738131745539399 0.1710412307709049 0.7373949806588197 0 0 0 0.47 7 562 140 99 210 156 233 203 
568 0.2674839320421603 0.2213297099999634 0.9506755880204415 0 0 0 0.24 7 563 122 150 149 308 233 204 
569 0.14671035684826922 0.19358288500042728 0.8284617107063998 0 0 0 0.16 7 564 122 151 149 309 233 205 
570 0.15760109895698074 0.19548449754323693 0.836169442378831 0 0 0 0.28 7 565 122 152 149 310 
571 0.19425823239862214 0.20146763428349962 0.8612185161834442 0 0 0 0.32 7 566 122 153 233 206 
572 0.18689324041100927 0.20047887022872632 0.8525669427264015 0 0 0 0.3 7 567 122 154 233 207 
573 -0.1393379297122957 0.16019145625937256 0.6762119166893077 0 0 0 0.29 7 568 94 215 149 311 233 208 18 81 171 53 203 116 
574 0.04435630881643311 0.1887357198983774 0.7964931656259094 0 0 0 0.27 7 569 94 216 99 132 
575 0.294526962379095 0.22912961087370784 0.9605765157819741 0 0 0 0.17 7 570 149 312 210 157 
576 -0.03718357908132594 0.17545656067159188 0.7385405249626503 0 0 0 0.26 7 571 94 217 99 133 149 313 233 209 203 117 210 158 
577 -0.040906523886279404 0.17549463324671968 0.7376320847705226 0 0 0 0.29 7 572 18 82 94 218 99 134 140 100 149 314 210 159 216 62 226 35 
578 0.02628265597736231 0.185762914645119 0.7784417021708779 0 0 0 0.3 7 573 94 219 99 135 149 315 210 160 116 72 203 118 171 54 
579 0.05144504960301537 0.19119491196278676 0.8027795540384894 0 0 0 0.33 7 574 99 136 149 316 210 161 203 119 
580 0.15861611093741948 0.19866275701748198 0.8330521380122936 0 0 0 0.27 7 575 18 83 94 220 99 137 122 155 149 317 210 162 31 19 37 17 90 27 116 73 140 101 151 27 177 29 226 36 203 120 
581 0.18672197230537224 0.2038866671833736 0.8533192547975093 0 0 0 0.2 7 576 116 74 122 156 149 318 233 210 
582 -0.10528799490997902 0.16533356518749193 0.6911862093542875 0 0 0 0.33 7 577 94 221 140 102 149 319 216 63 
583 0.20307235319722194 0.20708967347805154 0.8655745092184826 0 0 0 0.4 7 578 122 157 233 211 18 84 37 18 94 222 116 75 149 320 150 24 203 121 210 163 
584 0.1127535436109726 0.1915165740239716 0.7990768510248568 0 0 0 0.3 7 579 122 158 210 164 
585 0.12266986226645467 0.19306866755336477 0.8045853306912769 0 0 0 0.27 7 580 149 321 233 212 122 159 205 41 99 138 203 122 
586 -0.04301565673101068 0.177034846900703 0.738512659847158 0 0 0 0.27 7 581 46 23 94 223 99 139 116 76 140 103 154 58 183 30 193 100 226 37 203 123 
587 0.20533002307573817 0.20810068213180608 0.8642001925185124 0 0 0 0.3 7 582 94 224 140 104 210 165 233 213 
588 0.33869464841481317 0.23826587037361582 0.9879583193789749 0 0 0 0.29 7 583 37 19 94 225 122 160 140 105 183 31 216 64 
589 0.024327677980574884 0.18774452548886134 0.7798773862477989 0 0 0 0.26 7 584 94 226 99 140 116 77 140 106 180 54 193 101 210 166 226 38 
590 0.028807630206438863 0.1875786652285833 0.7798093333530841 0 0 0 0.4 7 585 99 141 149 322 210 167 203 124 
591 0.06441457121108113 0.19543781812731945 0.8098575478183258 0 0 0 0.19 7 586 94 227 233 214 
592 0.026680076494371624 0.18830738299730612 0.7787804796818366 0 0 0 0.39 7 587 122 161 149 323 233 215 99 142 203 125 
593 0.03090903626020087 0.1889960718294157 0.7808692779955235 0 0 0 0.32 7 588 99 143 149 324 233 216 203 126 210 168 
594 0.19787167264488179 0.20865703209183206 0.8580580379128017 0 0 0 0.17 7 589 149 325 233 217 203 127 
595 0.353826126845443 0.24246850796333833 0.9966015793047099 0 0 0 0.12 7 590 122 162 149 326 
596 0.20563340546843284 0.21107808935649192 0.8622819637888475 0 0 0 0.32 7 591 18 85 22 15 94 228 99 144 122 163 149 327 203 128 
597 0.22022902273160602 0.21248234100908603 0.8683795771123242 0 0 0 0.18 7 592 122 164 210 169 233 218 
598 0.10568333768782628 0.1953451560863038 0.8001658292932932 0 0 0 0.25 7 593 99 145 122 165 149 328 210 170 
599 0.02502679047207473 0.19118728866973195 0.7804609344476902 0 0 0 0.34 7 594 94 229 99 146 149 329 154 59 171 55 193 102 210 171 233 219 23 30 140 107 180 55 203 129 
600 0.3859624877318276 0.25004247709180977 1.0153670321151844 0 0 0 0.19 7 595 94 230 193 103 210 172 
601 -0.14001476847878017 0.16561981388900754 0.6733633348087616 0 0 0 0.25 7 596 94 231 149 330 
602 0.11195823847327911 0.1965281692242917 0.7987942284751705 0 0 0 0.24 7 597 22 16 122 166 149 331 
603 0.10762863181042746 0.19689576142823015 0.7994818582596572 0 0 0 0.4 7 598 18 86 99 147 122 167 140 108 210 173 226 39 233 220 203 130 
604 0.11592707235588083 0.19718240698395173 0.8003059477332216 0 0 0 0.28 7 599 99 148 122 168 149 332 233 221 203 131 
605 0.2164293361308096 0.21403913152123993 0.8663277056282029 0 0 0 0.27 7 600 99 149 122 169 140 109 149 333 210 174 233 222 203 132 
606 0.3559902526380333 0.24663631684247705 0.9963918344894754 0 0 0 0.2 7 601 122 170 210 175 
607 -0.16700054285902233 0.16030954251185847 0.6484672312024601 0 0 0 0.4 7 602 74 3 94 232 149 334 203 133 
608 0.05678497685789882 0.1995748380590058 0.8048173984476837 0 0 0 0.24 7 603 99 150 140 110 
609 0.025567472063507134 0.19309397720613858 0.7771122718889223 0 0 0 0.39 7 604 94 233 99 151 180 56 233 223 18 87 23 31 30 27 37 20 72 21 102 8 116 78 119 2 125 28 140 111 149 335 153 7 154 60 171 56 173 22 177 30 183 32 193 104 210 176 216 65 218 20 226 40 46 24 167 11 203 134 
610 0.43033309508037293 0.26032204732513065 1.0447508062527424 0 0 0 0.13 7 605 122 171 233 224 
611 0.1922937290007713 0.21360302746686488 0.8569042526263031 0 0 0 0.11 7 606 94 234 122 172 149 336 
612 0.20490152990110602 0.21452958945145836 0.861123723498558 0 0 0 0.21 7 607 22 17 122 173 149 337 
613 0.1173431557451886 0.19966421023742603 0.8010693868980808 0 0 0 0.36 7 608 122 174 149 338 
614 0.15657370397484555 0.20950438864796114 0.834176907678058 0 0 0 0.35 7 609 149 339 233 225 23 32 106 30 140 112 226 41 122 175 203 135 
615 0.22644800182330516 0.21809938648765229 0.8683088266530072 0 0 0 0.24 7 610 149 340 233 226 99 152 210 177 122 176 203 136 
616 -0.03331731885983712 0.18465894052561663 0.7349539547034762 0 0 0 0.32 7 611 149 341 233 227 
617 0.17028988905566345 0.209019316061057 0.8301414428594526 0 0 0 0.24 7 612 99 153 210 178 233 228 
618 0.16520877642323598 0.2104850838018214 0.8290730037078139 0 0 0 0.24 7 613 99 154 122 177 149 342 210 179 140 113 203 137 
619 0.05885866937096486 0.20422175739254708 0.8036091760162232 0 0 0 0.21 7 614 122 178 149 343 
620 0.11017062989845226 0.20330188867584187 0.8007512576503272 0 0 0 0.25 7 615 122 179 210 180 180 57 203 138 
621 0.16235792743927768 0.21155976105298777 0.8327760105805682 0 0 0 0.19 7 616 149 344 210 181 
622 0.2752065544535164 0.24355590262983776 0.9455369716449338 0 0 0 0.22 7 617 122 180 233 229 
623 0.164217322670866 0.21311531513722687 0.8296938528535545 0 0 0 0.2 7 618 18 88 94 235 99 155 122 181 140 114 149 345 233 230 
624 0.3463743196355697 0.25749571986524794 0.9962680158765437 0 0 0 0.11 7 619 122 182 149 346 
625 0.11127190560455122 0.2074018085822992 0.7993623577151369 0 0 0 0.6 7 620 122 183 149 347 216 66 233 231 23 33 30 28 31 20 72 22 177 31 171 57 203 139 
626 0.1663227138875154 0.215042292175548 0.8275535189035585 0 0 0 0.23 7 621 94 236 99 156 122 184 140 115 193 105 18 89 149 348 226 42 203 140 
627 0.3431897876145173 0.25876857313552576 0.9934290975708759 0 0 0 0.09 7 622 122 185 233 232 
628 0.2052307446224334 0.22405866758725057 0.8578177653103808 0 0 0 0.41 7 623 94 237 122 186 193 106 216 67 233 233 18 90 23 34 106 31 116 79 125 29 161 41 183 33 205 42 
629 0.3013886339900573 0.24900400615159243 0.9520893188553499 0 0 0 0.14 7 624 122 187 228 44 
630 -0.07030486232105543 0.1856490191740448 0.71111248395292 0 0 0 0.33 7 625 149 349 233 234 
631 0.20269553160616136 0.2248913111881592 0.856988347809637 0 0 0 0.33 7 626 18 91 46 25 94 238 122 188 161 42 233 235 203 141 
632 -0.14115622646990494 0.17544243300198137 0.6696469893599893 0 0 0 0.16 7 627 94 239 216 68 
633 0.09290822945536818 0.21411279374062991 0.8156386837674788 0 0 0 0.32 7 628 99 157 210 182 
634 0.40744757001722953 0.27143758851527533 1.0303841510043648 0 0 0 0.2 7 629 140 116 233 236 
635 -0.07376216087359025 0.1876668117065521 0.7115226358423575 0 0 0 0.34 7 630 149 350 210 183 203 142 
636 0.2176771110961499 0.22999806024796596 0.8669731883040113 0 0 0 0.33 7 631 22 18 70 2 99 158 122 189 140 117 149 351 193 107 233 237 203 143 
637 0.22143797509908686 0.23038628036343936 0.8678736989741807 0 0 0 0.39 7 632 22 19 99 159 122 190 149 352 233 238 
638 0.3282863416825338 0.26010545024066656 0.9729105805464923 0 0 0 0.12 7 633 122 191 149 353 
639 0.06733480158327905 0.2176447178885978 0.8091847035949744 0 0 0 0.69 7 634 94 240 161 43 193 108 228 45 23 35 31 21 99 160 139 4 140 118 177 32 216 69 30 29 68 3 122 192 233 239 203 144 
640 0.16340740893468614 0.22242637047936747 0.8222868234795718 0 0 0 0.46 7 635 122 193 149 354 18 92 23 36 31 22 72 23 140 119 151 28 180 58 226 43 228 46 102 9 106 32 203 145 
641 0.03384108703854469 0.21037285279013865 0.7730974032498596 0 0 0 0.93 7 636 94 241 99 161 149 355 233 240 122 194 203 146 210 184 
642 0.30084822903359204 0.2596795775444332 0.9485591013750992 0 0 0 0.33 7 637 99 162 122 195 149 356 233 241 
643 0.3876679304453606 0.2756658759467638 1.002191578458297 0 0 0 0.13 7 638 122 196 149 357 210 185 
644 0.034585445827014276 0.21316360120617422 0.7737459197129228 0 0 0 0.44 7 639 149 358 233 242 
645 -0.0037863023306378522 0.20726149365734317 0.751892204149955 0 0 0 0.45 7 640 149 359 233 243 
646 0.3874954761401753 0.279479393245238 1.0098579482508139 0 0 0 0.16 7 641 116 80 193 109 
647 0.2504326208441803 0.25623629792994634 0.9230022327627954 0 0 0 0.21 7 642 122 197 233 244 
648 0.2759926747514764 0.2609566770555629 0.9400100101257329 0 0 0 0.44 7 643 94 242 122 198 149 360 161 44 233 245 
649 0.3074956021297254 0.2658612478639681 0.9544260360665022 0 0 0 0.27 7 644 122 199 149 361 233 246 
650 0.3036295908080159 0.26506649697915685 0.9510298494533003 0 0 0 0.41 7 645 122 200 149 362 
651 0.2959357320402962 0.2649411685987084 0.945983568891308 0 0 0 0.24 7 646 18 93 122 201 149 363 
652 0.0977838903798102 0.22744707360820082 0.8109083274674503 0 0 0 0.39 7 647 122 202 149 364 31 23 154 61 171 58 180 59 210 186 226 44 233 247 203 147 
653 0.17401962596251735 0.22992965336285098 0.8201076218742988 0 0 0 0.23 7 648 149 365 233 248 
654 0.16340381297434553 0.2319998691326517 0.8237319275989208 0 0 0 0.39 7 649 94 243 116 81 149 366 18 94 203 148 
655 0.26674478294887116 0.2614719038229909 0.9288476890954719 0 0 0 0.21 7 650 99 163 210 187 
656 -0.10242455497246776 0.19256980716610073 0.6834325308665545 0 0 0 0.53 7 651 149 367 233 249 
657 0.093022706594243 0.22892445622462249 0.8096290019906847 0 0 0 0.13 7 652 210 188 233 250 
658 0.1262228696510934 0.22659158612318442 0.8017133615598994 0 0 0 0.39 7 653 18 95 22 20 99 164 122 203 149 368 171 59 233 251 203 149 
659 0.09062250611337992 0.22999747985322372 0.8107092946648258 0 0 0 0.17 7 654 99 165 210 189 
660 0.16536242962916517 0.23290175504761085 0.8198673266430071 0 0 0 0.32 7 655 94 244 99 166 116 82 149 369 171 60 180 60 193 110 210 190 233 252 18 96 23 37 106 33 151 29 173 23 203 150 
661 0.29483117666329023 0.27062454187426893 0.9446925838899667 0 0 0 0.21 7 656 99 167 149 370 180 61 193 111 210 191 233 253 
662 0.39360321421418354 0.284418994503952 0.9916597847702839 0 0 0 0.07 7 657 46 26 233 254 
663 0.20295212598327242 0.24429255084109494 0.8497297002873742 0 0 0 0.19 7 658 99 168 116 83 122 204 149 371 193 112 18 97 203 151 210 192 
664 0.3867563809680307 0.28796030231841985 0.9990139222507715 0 0 0 0.22 7 659 18 98 122 205 149 372 193 113 
665 0.12685603238519488 0.23143041367321435 0.7996794788202006 0 0 0 0.56 7 660 22 21 122 206 149 373 233 255 
666 0.3077892844924728 0.27502793071064957 0.9474966743212223 0 0 0 0.19 7 661 94 245 116 84 122 207 140 120 149 374 193 114 228 47 233 256 117 20 
667 0.335424000289507 0.28110002503621134 0.9683335726358382 0 0 0 0.21 7 662 122 208 149 375 
668 0.09350087182105687 0.23510119130830903 0.8103143455285655 0 0 0 0.37 7 663 18 99 99 169 122 209 149 376 210 193 233 257 
669 0.20140082358845035 0.24637296578777204 0.8484302311386377 0 0 0 0.26 7 664 94 246 99 170 122 210 149 377 
670 0.19998573806749348 0.24845260081745846 0.8489240071855626 0 0 0 0.28 7 665 99 171 122 211 149 378 210 194 233 258 203 152 
671 0.27962079456494254 0.27629528545301985 0.938799534644263 0 0 0 0.36 7 666 122 212 233 259 
672 0.16145626969349863 0.24113727787511705 0.8212813001805999 0 0 0 0.27 7 667 122 213 149 379 
673 0.3015942874482341 0.2777665952566947 0.9427646102367971 0 0 0 0.46 7 668 18 100 94 247 122 214 149 380 193 115 
674 0.3924417027163313 0.2947035570014598 0.9958095689331627 0 0 0 0.17 7 669 122 215 210 195 
675 0.12290594063304928 0.23685397479806822 0.7970627597629366 0 0 0 0.26 7 670 46 27 233 260 
676 0.29446617402621966 0.28228670216485247 0.9393040592553733 0 0 0 0.3 7 671 122 216 149 381 
677 0.12231768089618357 0.2388796398042335 0.792533946058465 0 0 0 0.32 7 672 94 248 99 172 140 121 149 382 210 196 216 70 233 261 171 61 193 116 203 153 
678 0.36023445941583676 0.2949685559501645 0.9766568501642054 0 0 0 0.26 7 673 122 217 233 262 
679 0.03348969225473951 0.2330539051660006 0.771120269927005 0 0 0 0.36 7 674 149 383 233 263 
680 0.3574993792522922 0.2975304736492397 0.9776086188413301 0 0 0 0.29 7 675 99 173 149 384 193 117 
681 -0.0782982646075436 0.2054018459478402 0.6692792556703423 0 0 0 0.39 7 676 99 174 149 385 233 264 
682 0.06608889921781189 0.242611206344183 0.7859159414406169 0 0 0 0.37 7 677 151 30 161 45 228 48 
683 0.10324133250041952 0.24582951980529236 0.7926301035830765 0 0 0 0.6 7 678 18 101 23 38 72 24 140 122 180 62 210 197 216 71 218 21 90 28 149 386 193 118 203 154 
684 0.10000454821984357 0.24623687797872312 0.7888215295189895 0 0 0 0.85 7 679 18 102 99 175 149 387 210 198 218 22 140 123 151 31 166 14 193 119 228 49 203 155 
685 0.000798614244978862 0.22497823992551794 0.7144720980719061 0 0 0 0.31 7 680 149 388 233 265 203 156 
686 0.30214321913716435 0.3019745856682213 0.933778790469288 0 0 0 0.21 7 681 99 176 149 389 
687 0.061248084983669945 0.24495687054577567 0.7532189685398526 0 0 0 0.2 7 682 99 177 233 266 
688 0.1582001324231344 0.2626745102802746 0.8092330735168102 0 0 0 0.33 7 683 99 178 233 267 
689 0.3655589237804849 0.31274007046901753 0.9612941669126109 0 0 0 0.18 7 684 150 25 166 15 233 268 
690 0.160051668373781 0.2640867349582354 0.8085263827087469 0 0 0 0.39 7 685 99 179 122 218 149 390 
691 0.1339924312609779 0.2601068130945299 0.7939272177601066 0 0 0 0.29 7 686 149 391 193 120 
692 0.17444500116189665 0.26916357997600876 0.819114046133834 0 0 0 0.4 7 687 122 219 233 269 
693 0.4095827680717902 0.32481320997127533 0.9877408981718812 0 0 0 0.14 7 688 116 85 149 392 154 62 
694 0.19903029277128248 0.2746178867995084 0.8304163726490672 0 0 0 0.12 7 689 122 220 140 124 
695 0.13985485448787505 0.26454277835205375 0.7961095140745696 0 0 0 0.32 7 690 122 221 149 393 
696 0.09459992522123875 0.2570377099927362 0.7735689913649453 0 0 0 0.59 7 691 193 121 233 270 
697 -0.07500530397593434 0.2201274283826357 0.6607130084287629 0 0 0 0.53 7 692 149 394 233 271 
698 -0.07344051821631764 0.2211717679387229 0.6618283931685491 0 0 0 0.46 7 693 18 103 99 180 149 395 233 272 
699 -0.06555763009850477 0.22462508575855855 0.669018350163313 0 0 0 0.54 7 694 99 181 149 396 
700 0.058107781161772676 0.24923502848002335 0.7389612598094623 0 0 0 0.47 7 695 149 397 233 273 
701 0.29155813869260444 0.30009042715242223 0.8889830742687944 0 0 0 0.38 7 696 122 222 233 274 
702 0.2227993695350134 0.28722392874789054 0.8492117315472479 0 0 0 0.07 7 697 99 182 122 223 
703 0.23896906616542854 0.2942464573123709 0.8586456993366363 0 0 0 0.65 7 698 22 22 122 224 
704 -0.13863071554633896 0.21307619999687918 0.616604463106224 0 0 0 0.36 7 699 74 4 171 62 
705 0.0668012843291244 0.2591691553405958 0.7444853961404195 0 0 0 0.37 7 700 149 398 233 275 
706 0.18014336535882627 0.2872862297213199 0.8171252598203227 0 0 0 0.66 7 701 122 225 233 276 23 39 72 25 106 34 151 32 216 72 226 45 
707 -0.14601397108679676 0.21481309711860563 0.6090463831265245 0 0 0 0.43 7 702 216 73 233 277 
708 -0.023719962829915814 0.24267834753883738 0.6856454542386528 0 0 0 0.4 7 703 140 125 149 399 
709 0.12155414822808931 0.2747865151186311 0.774480835976556 0 0 0 0.38 7 704 18 104 233 278 
710 0.07517039804034037 0.2660996170600328 0.7456125461460447 0 0 0 0.45 7 705 149 400 233 279 
711 0.12343992725256993 0.2768557355154775 0.774110295065732 0 0 0 0.34 7 706 99 183 149 401 
712 0.1767521367714346 0.29628238171463556 0.8235756018622529 0 0 0 0.19 7 707 149 402 233 280 
713 0.1781768673767248 0.2953386327686907 0.817349853553458 0 0 0 0.27 7 708 149 403 233 281 
714 0.20269341080701844 0.2984091995340258 0.8200743629402675 0 0 0 0.73 7 709 99 184 193 122 228 50 106 35 
715 0.2340891097902583 0.3081815083348875 0.8470320989927616 0 0 0 0.37 7 710 99 185 193 123 233 282 
716 0.17717388608936824 0.29885125256260203 0.8187561583710772 0 0 0 0.33 7 711 149 404 233 283 
717 0.0753544944686911 -0.3471021212280371 1.0798737324345358 0 0 0 0.31 7 712 46 28 94 249 125 30 143 6 151 33 161 46 173 24 205 43 211 6 218 23 226 46 
718 0.16270092376197948 -0.3337169202571615 1.0575123288779213 0 0 0 0.28 7 713 151 34 205 44 216 74 
719 0.11125453440314323 -0.3077268087604301 1.0009178310380304 0 0 0 0.43 7 714 125 31 166 16 
720 0.10011644583174736 -0.30703957125455095 1.0039715667592843 0 0 0 0.13 7 715 34 6 94 250 
721 0.07381731514897268 -0.3280781740050025 1.0771151592081114 0 0 0 0.52 7 716 18 105 46 29 47 16 116 86 
722 0.1552578600983391 -0.324197992627135 1.0682472412973671 0 0 0 0.39 7 717 37 21 94 251 125 32 166 17 218 24 186 4 139 5 
723 0.2179237071808006 -0.33119379674458443 1.1042381061036384 0 0 0 0.33 7 718 37 22 151 35 161 47 177 33 183 34 193 124 205 45 212 3 226 47 24 2 55 7 171 63 216 75 45 7 117 21 139 6 166 18 173 25 218 25 90 29 116 87 
724 0.0698630274199381 -0.3170049423158755 1.0751990886782978 0 0 0 0.52 7 719 47 17 94 252 116 88 122 226 125 33 149 405 90 30 117 22 
725 0.2207764096658555 -0.32554352708187806 1.1017275168782494 0 0 0 0.47 7 720 55 8 183 35 24 3 116 89 144 4 
726 0.08400566409900825 -0.3130209688092851 1.0839157620958786 0 0 0 0.25 7 721 46 30 94 253 116 90 125 34 211 7 
727 0.1980294313384329 -0.31939057749893446 1.104169240345805 0 0 0 0.39 7 722 94 254 161 48 193 125 
728 0.1493318266026269 -0.3015802543459853 1.0578628131146888 0 0 0 0.29 7 723 37 23 45 8 94 255 116 91 125 35 151 36 161 49 173 26 177 34 193 126 218 26 
729 0.04195523374512734 -0.3147683332198156 1.1416105250786688 0 0 0 0.24 7 724 58 15 173 27 205 46 
730 0.1618604447381924 -0.2879130719613545 1.051239108447966 0 0 0 0.44 7 725 46 31 151 37 161 50 166 19 193 127 205 47 55 9 116 92 
731 0.1587894951050673 -0.28014436196970105 1.045565544433037 0 0 0 0.37 7 726 86 11 116 93 173 28 177 35 193 128 216 76 218 27 
732 0.09702112972466209 -0.2844827864995164 1.0653782508503598 0 0 0 0.17 7 727 205 48 211 8 
733 0.13817318357067845 -0.2794487173469081 1.0509620976139362 0 0 0 0.31 7 728 45 9 90 31 125 36 139 7 151 38 205 49 211 9 37 24 94 256 116 94 117 23 145 18 183 36 191 1 193 129 215 0 226 48 
734 0.08898811211377296 -0.27974473603163075 1.065909763304383 0 0 0 0.49 7 729 18 106 116 95 
735 0.2065998881988314 -0.28304429315152496 1.08130020742961 0 0 0 0.26 7 730 154 63 216 77 94 257 116 96 161 51 173 29 
736 0.1496422540008156 -0.2690878589418507 1.0447469077400688 0 0 0 0.52 7 731 34 7 166 20 193 130 57 2 59 3 86 12 116 97 137 1 143 7 145 19 173 30 177 36 202 1 205 50 218 28 226 49 
737 0.08161212344552739 -0.2731142696027379 1.0630140279713804 0 0 0 0.38 7 732 18 107 86 13 116 98 125 37 149 406 151 39 161 52 205 51 212 4 
738 0.1656977767053416 -0.25833047387641606 1.0152463239476313 0 0 0 0.25 7 733 94 258 151 40 177 37 193 131 218 29 
739 0.15564623074685296 -0.2605631098492117 1.0286767552840106 0 0 0 0.44 7 734 94 259 116 99 23 40 24 4 86 14 131 4 166 21 173 31 212 5 218 30 46 32 117 24 125 38 151 41 177 38 193 132 211 10 215 1 216 78 
740 0.21838328657560496 -0.26838227232700457 1.065387596259232 0 0 0 0.25 7 735 86 15 94 260 193 133 218 31 
741 0.21415518876497389 -0.26833986547162925 1.0674437108204793 0 0 0 0.46 7 736 46 33 116 100 122 227 166 22 193 134 205 52 210 199 34 8 86 16 102 10 117 25 119 3 149 407 151 42 161 53 183 37 216 79 
742 -0.24416673743158926 -0.1834837896951081 0.7231179423152371 0 0 0 0.19 37 25 46 34 193 135 
743 0.22582482048344696 -0.26810946812619557 1.0709457815032857 0 0 0 0.15 7 737 94 261 116 101 161 54 183 38 
744 -0.27024302559844726 -0.18080159968128318 0.7158658451188044 0 0 0 0.46 34 9 37 26 161 55 8 1 18 108 24 5 55 10 57 3 116 102 125 39 143 8 180 63 
745 0.0720825204183453 -0.25603417021819763 1.039561796771239 0 0 0 0.29 7 738 58 16 94 262 149 408 154 64 
746 0.10302707743471363 -0.23857575252421576 0.9694543654583537 0 0 0 0.25 7 739 90 32 186 5 
747 0.07972827331519043 -0.25485763715631454 1.0455565196871572 0 0 0 0.09 7 740 94 263 205 53 
748 0.08497998853944048 -0.2561655946070332 1.0539237777242134 0 0 0 0.41 7 741 46 35 47 18 57 4 58 17 94 264 116 103 149 409 205 54 
749 -0.26079905030199707 -0.17608570633367404 0.7119958589893008 0 0 0 0.53 34 10 37 27 58 18 86 17 116 104 143 9 193 136 55 11 72 26 94 265 125 40 151 43 154 65 161 56 166 23 167 12 173 32 180 64 211 11 218 32 216 80 18 109 24 6 153 8 
750 0.16235012085006334 -0.24270467504587553 1.017015940087129 0 0 0 0.48 7 742 18 110 46 36 86 18 94 266 122 228 125 41 154 66 166 24 171 64 180 65 193 137 210 200 212 6 215 2 218 33 55 12 216 81 45 10 149 410 161 57 173 33 
751 0.10875428331397514 -0.22551878604436287 0.9721110929341568 0 0 0 0.82 7 743 72 27 90 33 125 42 149 411 161 58 210 201 117 26 145 20 180 66 
752 0.07422395588371858 -0.23812583252265587 1.0366914926446658 0 0 0 0.21 7 744 58 19 116 105 
753 0.04195612725767978 -0.25156406700827333 1.104564051216117 0 0 0 0.34 7 745 18 111 46 37 58 20 94 267 149 412 154 67 161 59 171 65 180 67 205 55 211 12 37 28 47 19 86 19 167 13 
754 0.09003156040161855 -0.24095910018766764 1.0527182308754248 0 0 0 0.41 7 746 37 29 47 20 94 268 154 68 180 68 205 56 
755 0.1584122996786905 -0.23493435827254977 1.0308208684756552 0 0 0 0.28 7 747 94 269 149 413 151 44 161 60 171 66 24 7 46 38 86 20 116 106 173 34 177 39 216 82 218 34 23 41 117 27 
756 0.09384802133178585 -0.2376522552160497 1.0539846848994845 0 0 0 0.2 7 748 94 270 116 107 149 414 
757 0.09002768188990398 -0.2367737939968565 1.0520318024460045 0 0 0 0.45 7 749 94 271 116 108 149 415 151 45 47 21 180 69 193 138 205 57 
758 0.11566356843193222 -0.2173472699470084 0.9695694281637146 0 0 0 0.04 7 750 161 61 180 70 
759 0.20499105306721246 -0.23533931821680945 1.066914417132336 0 0 0 0.37 7 751 37 30 46 39 94 272 116 109 125 43 143 10 149 416 151 46 161 62 166 25 205 58 211 13 216 83 117 28 119 4 154 69 
760 0.08968228724440262 -0.22864932777233005 1.0482097025806743 0 0 0 0.41 7 752 23 42 47 22 149 417 154 70 177 40 180 71 193 139 
761 0.10386956922197543 -0.21326985349456717 0.9719625126992731 0 0 0 0.39 7 753 23 43 149 418 166 26 180 72 34 11 94 273 116 110 151 47 
762 0.09324315651598222 -0.22569961691446425 1.0484530084015486 0 0 0 0.49 7 754 154 71 180 73 117 29 210 202 
763 0.22254105616866365 -0.2233590960794262 1.0400943134172969 0 0 0 0.37 7 755 122 229 216 84 226 50 
764 0.05649777103046387 -0.23430129825549842 1.1049281815976433 0 0 0 0.51 7 756 23 44 149 419 171 67 193 140 47 23 167 14 177 41 180 74 216 85 37 31 145 21 
765 0.08958292626774604 -0.2228478734131259 1.0468725503332768 0 0 0 0.43 7 757 18 112 37 32 46 40 47 24 116 111 149 420 161 63 173 35 193 141 210 203 23 45 154 72 180 75 205 59 226 51 
766 0.21260503619343082 -0.22102343752118592 1.0405101870234459 0 0 0 0.26 7 758 37 33 122 230 149 421 117 30 161 64 173 36 180 76 183 39 218 35 
767 0.11350038265873273 -0.2041306021970153 0.9632485562180916 0 0 0 0.62 7 759 132 2 180 77 
768 0.05772907707742694 -0.2302472391307738 1.1035529405766067 0 0 0 0.34 7 760 18 113 34 12 37 34 46 41 55 13 58 21 86 21 94 274 116 112 125 44 143 11 171 68 193 142 205 60 211 14 23 46 47 25 154 73 167 15 173 37 166 27 145 22 216 86 
769 0.053533952561693805 -0.2291676584231385 1.1047583993200512 0 0 0 0.34 7 761 46 42 58 22 86 22 116 113 193 143 18 114 167 16 94 275 
770 0.21972395352660323 -0.21484988482845827 1.039988491768246 0 0 0 0.41 7 762 46 43 149 422 211 15 116 114 117 31 151 48 193 144 216 87 226 52 
771 0.21241203685877424 -0.2128520376785672 1.0367959259216661 0 0 0 0.18 7 763 94 276 125 45 211 16 218 36 
772 0.20784180096724503 -0.21248335771940538 1.0461718369410635 0 0 0 0.48 7 764 94 277 116 115 125 46 149 423 161 65 173 38 177 42 180 78 205 61 218 37 117 32 193 145 
773 0.05599080602162706 -0.22131216627377698 1.1005237940483688 0 0 0 0.32 7 765 18 115 37 35 58 23 86 23 125 47 139 8 166 28 180 79 193 146 205 62 211 17 216 88 218 38 47 26 94 278 167 17 116 116 154 74 173 39 177 43 
774 0.05246139753069247 -0.21896479868707053 1.1001996784631993 0 0 0 0.36 7 766 18 116 58 24 116 117 144 5 180 80 205 63 216 89 167 18 
775 0.09003697597117469 -0.20514175192833126 1.0399509386649595 0 0 0 0.22 7 767 18 117 37 36 46 44 86 24 94 279 116 118 125 48 149 424 180 81 211 18 
776 0.040791091762555465 -0.20446409599839288 1.077547149198157 0 0 0 0.36 7 768 47 27 58 25 94 280 116 119 125 49 149 425 186 6 154 75 167 19 173 40 
777 0.0495297294480407 -0.19711120827012307 1.0801602486277617 0 0 0 0.28 7 769 116 120 149 426 154 76 161 66 177 44 205 64 
778 0.20624903121824847 -0.19138452943884338 1.0539027903417808 0 0 0 0.36 7 770 37 37 55 14 125 50 140 126 145 23 193 147 211 19 216 90 59 4 119 5 161 67 173 41 212 7 117 33 
779 0.027069747819345714 -0.19318071731751846 1.0811003122422485 0 0 0 0.37 7 771 55 15 186 7 205 65 
780 0.1108313673896928 -0.16671511861884608 0.9381130768660157 0 0 0 0.44 7 772 34 13 57 5 90 34 94 281 116 121 125 51 145 24 149 427 161 68 166 29 180 82 
781 0.10368184992701444 -0.16593006610363056 0.9378205473549891 0 0 0 0.41 7 773 90 35 116 122 125 52 151 49 161 69 
782 0.09859053703542908 -0.1660629502268679 0.9395849356906316 0 0 0 0.29 7 774 149 428 161 70 205 66 
783 0.18792970013468885 -0.183229179941218 1.0487263166965897 0 0 0 0.11 7 775 37 38 161 71 205 67 
784 0.11181671677419647 -0.15755657761208983 0.9321323311021189 0 0 0 0.17 7 776 45 11 46 45 140 127 149 429 
785 0.10401186006564385 -0.1533273912441971 0.9325053506017638 0 0 0 0.46 7 777 18 118 30 30 149 430 154 77 161 72 166 30 205 68 8 2 131 5 144 6 
786 0.03345057135114996 -0.17324916201420232 1.0807674946662538 0 0 0 0.37 7 778 102 11 166 31 46 46 59 5 86 25 153 9 167 20 186 8 94 282 125 53 131 6 144 7 154 78 177 45 180 83 193 148 218 39 23 47 34 14 116 123 173 42 
787 -0.27026384649527824 -0.10703713812499534 0.6816808585731423 0 0 0 0.54 94 283 154 79 186 9 18 119 166 32 167 21 211 20 8 3 24 8 57 6 58 26 116 124 125 54 228 51 
788 0.10999142029700013 -0.1433210103125782 0.931469623101655 0 0 0 0.62 7 779 18 120 23 48 94 284 166 33 
789 0.11576283469956897 -0.1429478891783101 0.9299156850246231 0 0 0 0.55 7 780 116 125 193 149 210 204 18 121 22 23 72 28 86 26 94 285 171 69 106 36 140 128 173 43 
790 0.16997617945578777 -0.14788733763408052 0.969139544455462 0 0 0 0.48 7 781 94 286 140 129 161 73 216 91 37 39 46 47 86 27 90 36 117 34 125 55 149 431 150 26 154 80 180 84 186 10 193 150 211 21 215 3 
791 -0.24339515675606638 -0.10518611963842905 0.6883010044700694 0 0 0 0.72 18 122 37 40 46 48 94 287 154 81 171 70 180 85 193 151 72 29 167 22 186 11 218 40 161 74 8 4 24 9 55 16 57 7 58 27 86 28 116 126 119 6 125 56 137 2 143 12 144 8 145 25 151 50 166 34 189 3 191 2 
792 -0.2604977697924283 -0.10300427043562313 0.6776557849060155 0 0 0 0.39 18 123 37 41 46 49 58 28 86 29 94 288 102 12 116 127 151 51 154 82 166 35 180 86 193 152 218 41 143 13 161 75 167 23 24 10 55 17 145 26 153 10 228 52 
793 -0.26810875822750013 -0.10235128059114977 0.6793105138653324 0 0 0 0.45 34 15 46 50 58 29 151 52 161 76 18 124 37 42 55 18 94 289 102 13 116 128 143 14 154 83 166 36 167 24 173 44 180 87 193 153 216 92 218 42 228 53 24 11 
794 -0.25148146636615065 -0.10250375220988134 0.6804766737953832 0 0 0 0.51 18 125 72 30 161 77 171 71 180 88 193 154 228 54 
795 0.16320897753012978 -0.14409965646317144 0.9730187100033113 0 0 0 0.02 7 782 116 129 218 43 
796 0.10525933800233386 -0.13782391439936614 0.9332795760492776 0 0 0 0.38 7 783 18 126 37 43 86 30 
797 0.21943410399768096 -0.14776990020072375 1.0026780150556218 0 0 0 0.36 7 784 116 130 122 231 140 130 149 432 150 27 151 53 216 93 117 35 
798 -0.2636542667416844 -0.10095810186950258 0.6804974202345234 0 0 0 0.73 18 127 58 30 145 27 161 78 166 37 
799 -0.2461687317310834 -0.10132860923798173 0.682879361073201 0 0 0 0.49 18 128 58 31 116 131 154 84 161 79 171 72 180 89 193 155 216 94 218 44 228 55 
800 0.06382008911304979 -0.14407949906085116 0.9918696439121212 0 0 0 0.13 7 785 149 433 154 85 
801 0.10004914941737338 -0.13595014517072893 0.9358466906805966 0 0 0 0.38 7 786 30 31 46 51 94 290 116 132 125 57 186 12 
802 0.16445560627430567 -0.1401861486922894 0.9670734101059386 0 0 0 0.35 7 787 18 129 23 49 86 31 94 291 116 133 125 58 140 131 144 9 149 434 150 28 151 54 154 86 161 80 166 38 171 73 173 45 177 46 180 90 193 156 205 69 216 95 218 45 55 19 106 37 215 4 117 36 
803 0.11386484429347875 -0.13277779278336166 0.9322345176472618 0 0 0 0.29 7 788 122 232 150 29 180 91 193 157 
804 -0.2639378613581601 -0.09807552390980777 0.6795745467130023 0 0 0 0.35 58 32 94 292 116 134 151 55 154 87 171 74 193 158 218 46 153 11 167 25 173 46 228 56 8 5 18 130 24 12 45 12 
805 0.10453644410269594 -0.13196766944470043 0.9342076003699333 0 0 0 0.19 7 789 122 233 149 435 180 92 
806 0.22150409873844093 -0.1412489085725548 1.0007171116669726 0 0 0 0.21 7 790 37 44 86 32 140 132 149 436 193 159 226 53 117 37 
807 -0.2492383168307981 -0.09724101488369956 0.6825329803670647 0 0 0 0.36 37 45 46 52 94 293 116 135 171 75 
808 0.10942096608299769 -0.1285945373618121 0.9320342874648264 0 0 0 0.54 7 791 30 32 90 37 94 294 122 234 125 59 166 39 180 93 
809 0.12633384694386265 -0.1312935817064425 0.9490217550044634 0 0 0 0.71 7 792 30 33 37 46 45 13 55 20 122 235 125 60 132 3 149 437 150 30 177 47 186 13 8 6 24 13 57 8 144 10 46 53 94 295 117 38 145 28 218 47 
810 0.07208818176081142 -0.13425959171625104 0.9899167946929532 0 0 0 0.63 7 793 90 38 94 296 149 438 186 14 205 70 23 50 47 28 211 22 
811 0.1693743130427471 -0.130602871157401 0.9646367476416177 0 0 0 0.28 7 794 149 439 180 94 183 40 22 24 122 236 150 31 193 160 210 205 
812 0.19363773131237882 -0.13431025261314958 0.9926437318310796 0 0 0 0.26 7 795 37 47 46 54 122 237 149 440 150 32 205 71 216 96 
813 0.10257994512704299 -0.12626835428684996 0.9363202095639154 0 0 0 0.24 7 796 46 55 94 297 116 136 149 441 154 88 180 95 
814 0.09123345498889435 -0.12971837597568298 0.968667050506811 0 0 0 0.23 7 797 18 131 94 298 140 133 149 442 166 40 173 47 193 161 106 38 171 76 177 48 
815 0.20040174775265512 -0.1321346969314716 0.9957147079551152 0 0 0 0.2 7 798 122 238 161 81 205 72 
816 0.13261758081701408 -0.12498087104886824 0.9489837421963636 0 0 0 0.27 7 799 23 51 30 34 37 48 46 56 90 39 94 299 116 137 140 134 149 443 150 33 154 89 161 82 180 96 183 41 193 162 210 206 226 54 18 132 106 39 145 29 117 39 216 97 
817 0.2115071793322387 -0.13139599937187746 1.0003193131616668 0 0 0 0.32 7 800 34 16 37 49 46 57 86 33 90 40 94 300 116 138 122 239 125 61 132 4 149 444 154 90 161 83 177 49 186 15 205 73 211 23 215 5 216 98 226 55 23 52 24 14 102 14 140 135 150 34 151 56 171 77 173 48 180 97 193 163 210 207 218 48 18 133 72 31 106 40 143 15 117 40 144 11 
818 0.17380028120125643 -0.1265577965353684 0.9677394612584562 0 0 0 0.18 7 801 116 139 183 42 
819 -0.18086558057161606 -0.11420049236630493 0.877909916226198 0 0 0 0.38 7 802 46 58 161 84 37 50 86 34 94 301 125 62 166 41 167 26 180 98 211 24 24 15 58 33 116 140 189 4 
820 0.1514823046637453 -0.1256690783227771 0.9647634934616369 0 0 0 0.46 7 803 122 240 186 16 
821 0.21146362615017242 -0.12711895326590728 0.9981141939450434 0 0 0 0.38 7 804 37 51 90 41 94 302 122 241 161 85 173 49 210 208 106 41 
822 0.22888477481691677 -0.12688201494887244 1.0017224653337131 0 0 0 0.5 7 805 34 17 46 59 94 303 140 136 149 445 150 35 180 99 218 49 226 56 117 41 125 63 166 42 
823 0.10602131388955123 -0.1141421061010055 0.9255124339396043 0 0 0 0.27 7 806 30 35 46 60 86 35 90 42 94 304 116 141 125 64 149 446 151 57 154 91 180 100 34 18 106 42 140 137 145 30 150 36 171 78 173 50 193 164 218 50 
824 0.11285921981504124 -0.11235672197797732 0.9246440891393908 0 0 0 0.16 7 807 149 447 180 101 
825 0.07863998722298085 -0.11880581189811311 0.9838826197685338 0 0 0 0.44 7 808 47 29 94 305 149 448 150 37 151 58 161 86 171 79 218 51 
826 0.041083678195392034 -0.12249594804215258 1.0437610951178145 0 0 0 0.34 7 809 140 138 186 17 193 165 
827 0.20885275492769062 -0.11715525760852541 0.9979958985739005 0 0 0 0.63 7 810 122 242 140 139 145 31 149 449 193 166 
828 0.04479364846796991 -0.11669421427363393 1.035125464239724 0 0 0 0.64 7 811 34 19 86 36 125 65 144 12 149 450 166 43 186 18 211 25 205 74 46 61 94 306 116 142 139 9 151 59 167 27 
829 0.1063507712935054 -0.10478626392659247 0.9233580700784485 0 0 0 0.26 7 812 90 43 94 307 149 451 
830 0.20351339644516175 -0.11052824072978958 0.9938169766197155 0 0 0 0.42 7 813 30 36 90 44 116 143 140 140 149 452 150 38 173 51 183 43 216 99 
831 0.2254924668707992 -0.11170268338062614 1.0015063731351024 0 0 0 0.19 7 814 45 14 125 66 140 141 193 167 
832 0.04176922820957911 -0.11486028388976255 1.0425908710406402 0 0 0 0.3 7 815 34 20 94 308 116 144 125 67 149 453 151 60 186 19 211 26 47 30 58 34 59 6 86 37 161 87 167 28 205 75 212 8 
833 0.16799505611790394 -0.10516800184188853 0.9587520566098164 0 0 0 0.2 7 816 72 32 210 209 226 57 228 57 
834 0.23597178567926896 -0.11135613707843428 1.0143325793372335 0 0 0 0.44 7 817 37 52 90 45 94 309 140 142 149 454 150 39 186 20 193 168 
835 0.23975441434378156 -0.11186319205812827 1.0153009674315006 0 0 0 0.3 7 818 72 33 116 145 150 40 161 88 216 100 
836 0.040280603340979215 -0.10982550867301431 1.037754339283067 0 0 0 0.42 7 819 18 134 45 15 90 46 149 455 166 44 46 62 47 31 58 35 86 38 94 310 116 146 167 29 34 21 144 13 186 21 189 5 
837 0.0828940975886593 -0.10394868148307562 0.9717333069610409 0 0 0 0.16 7 820 37 53 116 147 145 32 149 456 150 41 228 58 
838 0.221501334559652 -0.10664979870178327 1.0000529816453525 0 0 0 0.34 7 821 140 143 149 457 228 59 
839 0.14015284485773083 -0.10154760273520488 0.9494632400133272 0 0 0 0.68 7 822 30 37 47 32 94 311 140 144 149 458 161 89 193 169 117 42 
840 0.0357891696808155 -0.10957141638258916 1.0419206711488873 0 0 0 0.46 7 823 18 135 37 54 46 63 47 33 94 312 116 148 149 459 154 92 
841 0.23549492196357383 -0.10744185519932026 1.0137212004159317 0 0 0 0.43 7 824 45 16 55 21 116 149 125 68 140 145 149 460 151 61 161 90 211 27 94 313 117 43 150 42 177 50 193 170 216 101 226 58 
842 0.080166118802288 -0.10006163074134969 0.9715443079294774 0 0 0 0.55 7 825 23 53 47 34 86 39 94 314 151 62 173 52 228 60 34 22 45 17 59 7 90 47 117 44 125 69 131 7 132 5 144 14 202 2 
843 0.22441182131733142 -0.10123053166614328 0.9991189594481876 0 0 0 0.45 7 826 90 48 149 461 
844 0.22829941130708997 -0.09952478958922975 1.0018486972252436 0 0 0 0.25 7 827 140 146 149 462 211 28 
845 0.04383394279679236 -0.09984315358431335 1.0383209395227653 0 0 0 0.34 7 828 18 136 47 35 58 36 90 49 140 147 149 463 153 12 166 45 171 80 177 51 193 171 205 76 228 61 86 40 94 315 116 150 125 70 154 93 161 91 167 30 218 52 
846 0.09691373824876667 -0.09096935354153708 0.9399734338789595 0 0 0 0.26 7 829 94 316 149 464 211 29 
847 -0.36098324338875776 -0.08307244924778732 0.873560524606522 0 0 0 0.38 7 830 46 64 58 37 86 41 
848 0.051932063766068286 -0.09715964965814487 1.0259775109520526 0 0 0 0.26 7 831 18 137 58 38 86 42 94 317 116 151 153 13 154 94 161 92 171 81 211 30 228 62 55 22 125 71 151 63 167 31 173 53 186 22 8 7 145 33 
849 -0.24976481136108367 -0.06487112809778932 0.6676989287854335 0 0 0 0.27 18 138 94 318 161 93 216 102 
850 0.03306719896943954 -0.0980206766200951 1.0404126707970172 0 0 0 0.29 7 832 116 152 149 465 
851 0.12996803980642785 -0.087946297995739 0.9318231880839173 0 0 0 0.47 7 833 30 38 37 55 139 10 149 466 151 64 
852 0.10756952843886275 -0.08461637837157109 0.914641767002721 0 0 0 0.34 7 834 30 39 46 65 86 43 94 319 116 153 122 243 132 6 144 15 149 467 150 43 154 95 166 46 171 82 180 102 211 31 228 63 23 54 106 43 140 148 173 54 193 172 216 103 177 52 218 53 
853 -0.3640153021631442 -0.07958192565481133 0.869281265628148 0 0 0 0.77 7 835 57 9 58 39 153 14 228 64 18 139 48 0 51 0 59 8 86 44 139 11 154 96 166 47 167 32 171 83 173 55 180 103 183 44 186 23 193 173 202 3 218 54 37 56 46 66 
854 -0.029641206463078697 -0.08930210148297368 0.9945871851037085 0 0 0 0.16 7 836 166 48 228 65 
855 0.060372396830680214 -0.08957243380520857 1.0074471547212294 0 0 0 0.21 7 837 116 154 166 49 228 66 
856 -0.01070103766867146 -0.08490417115962114 1.0051588246088645 0 0 0 0.33 7 838 37 57 153 15 180 104 183 45 193 174 228 67 
857 0.05176067934034581 -0.08531452745720675 1.020687506555011 0 0 0 0.24 7 839 18 140 47 36 57 10 58 40 86 45 94 320 116 155 144 16 149 468 154 97 171 84 186 24 189 6 210 210 212 9 228 68 102 15 167 33 180 105 23 55 37 58 46 67 125 72 145 34 151 65 153 16 193 175 205 77 218 55 8 8 132 7 
858 0.08772982616455785 -0.07872618615586517 0.9521849531233775 0 0 0 0.39 7 840 18 141 30 40 90 50 166 50 210 211 23 56 37 59 86 46 94 321 116 156 125 73 140 149 143 16 149 469 151 66 171 85 173 56 180 106 186 25 193 176 228 69 106 44 
859 0.06068500994268742 -0.08065400882476234 1.0009553484512268 0 0 0 0.39 7 841 37 60 59 9 86 47 125 74 143 17 186 26 167 34 189 7 117 45 132 8 151 67 173 57 228 70 
860 -0.028784270633754716 -0.07496707206026393 0.9638548329101756 0 0 0 0.34 7 842 151 68 180 107 
861 0.11785700713370453 -0.06685517101867719 0.9072596854391844 0 0 0 0.34 7 843 149 470 216 104 31 24 177 53 180 108 86 48 106 45 116 157 140 150 154 98 173 58 37 61 90 51 117 46 125 75 151 69 132 9 144 17 
862 0.10268987521753527 -0.06538110387937403 0.9110023013758771 0 0 0 0.4 7 844 94 322 122 244 149 471 154 99 161 94 173 59 180 109 205 78 216 105 8 9 18 142 31 25 86 49 116 158 145 35 23 57 37 62 55 23 102 16 106 46 125 76 132 10 140 151 143 18 150 44 171 86 177 54 193 177 218 56 
863 0.00978762758649102 -0.06559211483199588 0.990433318746509 0 0 0 0.34 7 845 140 152 228 71 46 68 125 77 151 70 167 35 180 110 
864 0.10272892172712265 -0.06027781967284503 0.9084507590735161 0 0 0 0.29 7 846 94 323 125 78 151 71 154 100 161 95 173 60 216 106 228 72 23 58 37 63 90 52 116 159 150 45 193 178 102 17 106 47 177 55 218 57 140 153 
865 -0.2617636279365136 -0.042622778947726016 0.6464702360245741 0 0 0 0.29 7 847 171 87 193 179 
866 0.2068316471287604 -0.06062348315274205 0.9763702912892326 0 0 0 0.26 7 848 46 69 90 53 94 324 116 160 140 154 149 472 45 18 122 245 150 46 161 96 193 180 210 212 228 73 
867 0.218369387515315 -0.059061314439137085 0.9795298073515498 0 0 0 0.23 7 849 90 54 94 325 116 161 122 246 140 155 149 473 218 58 226 59 228 74 117 47 151 72 193 181 
868 0.08030186592114755 -0.05750917977212035 0.9561795168179462 0 0 0 0.67 7 850 37 64 47 37 86 50 94 326 116 162 143 19 145 36 166 51 226 60 8 10 31 26 34 23 59 10 189 8 212 10 23 59 106 48 
869 0.2039051311604925 -0.057323260087695546 0.9721002150243935 0 0 0 0.34 7 851 30 41 45 19 94 327 140 156 149 474 150 47 151 73 193 182 211 32 228 75 23 60 72 34 106 49 116 163 205 79 
870 0.06404245588848949 -0.05485746213335472 0.9862405516435893 0 0 0 0.44 7 852 47 38 86 51 150 48 153 17 173 61 177 56 218 59 228 76 
871 0.11784822026578787 -0.04852151504779604 0.9002404460287766 0 0 0 0.32 7 853 140 157 149 475 
872 -0.07156913582600552 -0.04541108822816896 0.8775724727567915 0 0 0 0.25 7 854 116 164 210 213 58 41 94 328 145 37 151 74 167 36 183 46 193 183 228 77 
873 0.06363260827885055 -0.0502259194652821 0.9841350221334441 0 0 0 0.35 7 855 23 61 46 70 58 42 153 18 37 65 47 39 94 329 166 52 210 214 59 11 72 35 116 165 139 12 143 20 151 75 154 101 161 97 167 37 173 62 186 27 205 80 228 78 
874 0.4817429364031837 -0.05894643048224009 1.2073603442852967 0 0 0 0.35 18 143 122 247 216 107 31 27 37 66 94 330 150 49 151 76 173 63 180 111 205 81 
875 0.47286530567376267 -0.057629337259692694 1.2093136102837176 0 0 0 0.38 37 67 46 71 122 248 7 856 23 62 94 331 125 79 151 77 166 53 31 28 116 166 154 102 180 112 211 33 216 108 45 20 55 24 90 55 106 50 150 50 161 98 173 64 205 82 
876 0.02699283192957215 -0.04523669857535447 0.9738762426634526 0 0 0 0.45 7 857 180 113 228 79 23 63 58 43 116 167 125 80 131 8 150 51 167 38 177 57 
877 -0.1642177667317327 -0.036439686719708805 0.7839582184524818 0 0 0 0.49 7 858 149 476 180 114 
878 0.4733874515079207 -0.05284881914374376 1.2074980483972926 0 0 0 0.34 7 859 94 332 125 81 90 56 166 54 
879 -0.23529218054857023 -0.029285717337597612 0.6534534320608866 0 0 0 0.44 7 860 58 44 154 103 
880 0.10498326271433939 -0.03845973756224149 0.8954627085213672 0 0 0 0.26 7 861 23 64 30 42 46 72 90 57 94 333 116 168 122 249 149 477 154 104 161 99 180 115 228 80 37 68 140 158 150 52 171 88 183 47 193 184 210 215 216 109 18 144 31 29 106 51 
881 0.1146302566829793 -0.03866049688773567 0.8936150033277643 0 0 0 0.23 7 862 23 65 30 43 94 334 122 250 140 159 149 478 151 78 154 105 161 100 180 116 193 185 205 83 228 81 46 73 86 52 90 58 116 169 150 53 171 89 216 110 218 60 31 30 18 145 173 65 57 11 106 52 145 38 117 48 183 48 
882 0.0855939203266745 -0.039604081976445445 0.942069754066144 0 0 0 0.42 7 863 34 24 37 69 57 12 59 12 116 170 125 82 143 21 151 79 173 66 183 49 191 3 205 84 212 11 216 111 228 82 31 31 186 28 106 53 140 160 117 49 132 11 
883 0.4688754138625507 -0.04371554642254015 1.196218740385044 0 0 0 0.26 7 864 94 335 125 83 
884 0.19509557891448312 -0.03534381566374657 0.9616019545624561 0 0 0 0.4 7 865 90 59 161 101 205 85 31 32 116 171 140 161 151 80 210 216 212 12 202 4 215 6 
885 0.1397107212484247 -0.031726547621110865 0.9148514921988541 0 0 0 0.24 7 866 90 60 216 112 149 479 154 106 
886 -0.012592238326086608 -0.028902454487888973 0.9135544673664485 0 0 0 0.34 7 867 58 45 116 172 125 84 186 29 23 66 145 39 153 19 167 39 173 67 180 117 193 186 218 61 34 25 
887 0.19478332652880279 -0.03018394692859749 0.9523626952483661 0 0 0 0.07 7 868 30 44 37 70 
888 0.47243036714942954 -0.03398998853387082 1.2060328730155943 0 0 0 0.18 116 173 125 85 151 81 166 55 
889 -0.23026750928538586 -0.01966236290370355 0.6496465966503405 0 0 0 0.57 7 869 154 107 211 34 
890 0.14598367394152345 -0.02664165915508986 0.9182564457930005 0 0 0 0.23 7 870 47 40 90 61 
891 -0.2522268464583833 -0.018570207166195812 0.6368726398627118 0 0 0 0.33 74 5 94 336 116 174 154 108 228 83 
892 0.4481086107355272 -0.0318790630889944 1.2869624481567976 0 0 0 0.58 7 871 45 21 116 175 125 86 150 54 151 82 161 102 180 118 233 284 
893 0.4415541073476805 -0.030715667231060773 1.2865058803786047 0 0 0 0.65 7 872 46 74 57 13 151 83 154 109 180 119 216 113 8 11 31 33 34 26 145 40 
