# 3D point list with one line of data per point:
#   POINT3D_ID, X, Y, Z, R, G, B, ERROR, TRACK[] as (IMAGE_ID, POINT2D_IDX)
# Number of points: 354, mean track length: 8.86
308 -0.01327899172429683 0.02886999477635005 1.2827203878370028 0 0 0 0.37 24 65 68 308 99 54 202 85 
309 -0.47556635414270904 0.024175759567129803 0.925080234856742 0 0 0 0.42 24 66 34 94 68 309 122 54 151 93 180 56 
310 -0.04614930735345275 0.038996690257292 1.2876921337881004 0 0 0 0.18 24 67 68 310 140 102 
311 -0.20483998765626765 0.043176294743364756 1.3088019891135745 0 0 0 0.07 24 68 68 311 139 77 
312 -0.3399734870723961 0.06634203389862986 1.340037396326433 0 0 0 0.39 24 69 59 80 68 312 115 26 139 78 144 92 171 20 177 78 178 47 191 53 202 86 212 76 
313 -0.33802839738842994 0.08248982006722214 1.331547983306262 0 0 0 0.34 24 70 30 70 31 89 59 81 68 313 72 33 99 55 119 53 137 66 140 103 143 53 144 93 150 80 178 48 180 57 191 54 212 77 216 104 
314 -0.28859830148460447 0.08643025600624497 1.3200362846408418 0 0 0 0.33 24 71 55 58 57 91 59 82 68 314 102 14 161 46 171 21 177 79 180 58 212 78 228 104 
315 -0.28551700598730445 0.08776053021638185 1.339943586271249 0 0 0 0.16 24 72 68 315 140 104 
316 -0.3109820528563418 0.09689443553150151 1.3352163137402342 0 0 0 0.25 24 73 68 316 180 59 
317 -0.26377640582951245 0.10474994321715629 1.312154430750544 0 0 0 0.31 24 74 31 90 57 92 59 83 68 317 99 56 131 59 150 81 171 22 180 60 191 55 228 105 
318 -0.275919800001458 0.10637923817100232 1.3192471690489407 0 0 0 0.37 24 75 31 91 68 318 180 61 
319 -0.10905347072552324 -0.13253378566341087 1.2985201741901715 0 0 0 0.06 24 76 31 92 68 319 
320 -0.10952545891498709 -0.1342059845287033 1.3157732916658231 0 0 0 0.31 24 77 31 93 55 59 68 320 202 87 
321 -0.28230354655776696 -0.07274203122832383 1.334855458893931 0 0 0 0.3 24 78 30 71 31 94 57 93 59 84 68 321 99 57 115 27 116 73 144 94 150 82 154 38 171 23 178 49 180 62 189 42 202 88 216 105 225 21 233 108 
322 -0.160087187556389 -0.041246687498277215 1.3059075837094853 0 0 0 0.43 24 79 30 72 31 95 59 85 68 322 99 58 106 103 137 67 139 79 140 105 150 83 171 24 180 63 189 43 202 89 225 22 233 109 
323 -0.2349560099845146 -0.016068511212307717 1.314468374933098 0 0 0 0.29 24 80 30 73 55 60 59 86 68 323 106 104 140 106 150 84 228 106 
324 -0.41625204485649586 -0.00027641356253492634 1.367742670815047 0 0 0 0.25 24 81 30 74 59 87 68 324 99 59 122 55 139 80 143 54 150 85 186 17 189 44 191 56 202 90 212 79 226 36 233 110 
325 -0.388519453660189 0.005768299547607895 1.3588674009817572 0 0 0 0.23 24 82 30 75 59 88 68 325 72 34 99 60 106 105 119 54 122 56 137 68 150 86 154 39 177 80 178 50 180 64 186 18 189 45 191 57 202 91 210 14 215 41 226 37 
326 -0.04160024885332664 0.01197801892380225 1.2848695850209497 0 0 0 0.25 24 83 68 326 177 81 
327 -0.34896217084316233 0.0359858149277884 1.3383146460252437 0 0 0 0.33 24 84 68 327 72 35 143 55 150 87 177 82 189 46 191 58 193 86 216 106 
328 -0.50094677432489 0.06987365850905389 0.8268727818180008 0 0 0 0.34 24 85 68 328 139 81 143 56 
329 -0.4591020048558014 -0.2564481042544958 1.263003744182311 0 0 0 0.55 24 86 68 329 116 74 173 56 212 80 225 23 
330 -0.4220353001353158 -0.1721721079100893 1.2493959840054454 0 0 0 0.34 24 87 34 95 37 57 57 94 68 330 94 47 99 61 106 106 115 28 122 57 133 20 151 94 173 57 178 51 215 42 216 107 218 49 233 111 
331 -0.18542761946860298 -0.09283123665710923 1.3124726610224124 0 0 0 0.48 24 88 31 96 55 61 59 89 68 331 143 57 171 25 180 65 225 24 
332 -0.14271308083318984 -0.0650378035553956 1.3067011676100786 0 0 0 0.29 24 89 68 332 177 83 
333 -0.03633376320444513 -0.05750496244448469 1.2964051393768732 0 0 0 0.76 24 90 68 333 99 62 106 107 189 47 225 25 
334 -0.3247030458687181 -0.05731688128535082 1.3449520409011937 0 0 0 0.32 24 91 30 76 57 95 59 90 68 334 99 63 106 108 115 29 116 75 119 55 131 60 137 69 139 82 144 95 150 88 166 65 171 26 178 52 180 66 189 48 191 59 210 15 212 81 216 108 225 26 228 107 
335 -0.31878368951717306 -0.04748386855011731 1.3474030507487493 0 0 0 0.63 24 92 31 97 57 96 68 335 99 64 140 107 150 89 154 40 178 53 180 67 
336 -0.18785686812512198 -0.03416395785059692 1.3147295636057386 0 0 0 0.27 24 93 68 336 177 84 233 112 
337 -0.21070701667303715 -0.03350819903245289 1.313330932142648 0 0 0 0.22 24 94 68 337 177 85 189 49 
338 -0.34293223501889863 0.012531180571546048 1.343437777194436 0 0 0 0.26 24 95 31 98 57 97 59 91 68 338 99 65 171 27 211 69 212 82 
339 -0.18486511271196224 0.03066534015711882 1.3023153323959353 0 0 0 0.2 24 96 59 92 68 339 233 113 
340 -0.25007126573582783 0.10805942384248127 1.3070058125376327 0 0 0 0.47 24 97 59 93 68 340 216 109 
341 -0.45298503183711236 -0.22036307722354623 1.2460753675335379 0 0 0 0.89 24 98 68 341 94 48 116 76 122 58 144 96 151 95 212 83 216 110 
342 -0.18039100369276975 -0.1023276586137596 1.312714357299412 0 0 0 0.3 24 99 31 99 68 342 106 109 180 68 216 111 233 114 
343 -0.3057584649610143 -0.036305693371534054 1.3390846228492912 0 0 0 0.57 24 100 57 98 68 343 99 66 115 30 131 61 139 83 216 112 
344 -0.29442854936520235 -0.03011448511758821 1.3364385955756968 0 0 0 0.38 24 101 68 344 99 67 139 84 171 28 
345 -0.2944602648321074 -0.030493478468225494 1.3366172170494437 0 0 0 0.34 24 102 68 345 119 56 139 85 154 41 171 29 205 43 228 108 
346 -0.40591518158123996 -0.02317073301321176 1.3709291845155596 0 0 0 0.41 24 103 59 94 68 346 106 110 115 31 119 57 122 59 125 67 131 62 137 70 139 86 144 97 150 90 166 66 180 69 186 19 189 50 202 92 212 84 215 43 225 27 228 109 233 115 
347 -0.30687939797264585 -0.018970467133330313 1.3463362519039386 0 0 0 0.33 24 104 68 347 131 63 
348 -0.1737024774260204 -0.007877053424116874 1.3055523679887082 0 0 0 0.55 24 105 30 77 68 348 115 32 139 87 140 108 
349 -0.36789107543040184 0.02181312666648456 1.3930663894931048 0 0 0 0.83 24 106 68 349 225 28 
350 -0.36567746726539374 0.07862711352317994 1.337593700752794 0 0 0 0.32 24 107 31 100 57 99 59 95 68 350 72 36 140 109 150 91 178 54 180 70 193 87 202 93 228 110 
351 -0.1727410912568008 0.10482665105492527 1.2920938911477298 0 0 0 0.5 24 108 31 101 68 351 72 37 99 68 140 110 150 92 
352 -0.20786146911526565 -0.10161489331249035 1.301453158843883 0 0 0 0.79 24 109 59 96 68 352 72 38 99 69 137 71 140 111 145 36 180 71 189 51 216 113 225 29 233 116 
353 -0.39353533935877255 -0.08195123786429895 1.3669940249618089 0 0 0 0.49 24 110 57 100 59 97 68 353 106 111 115 33 131 64 137 72 151 96 178 55 180 72 193 88 202 94 212 85 215 44 216 114 225 30 228 111 
354 -0.2811545994297159 -0.016928573116819782 1.3325143206890346 0 0 0 0.39 24 111 68 354 171 30 
355 -0.4520717159882343 -0.010448083979721348 1.1373060472029572 0 0 0 0.41 24 112 68 355 202 95 212 86 
356 -0.2925264244839584 0.01203704953183704 1.3307447333013305 0 0 0 0.49 24 113 30 78 31 102 59 98 68 356 99 70 137 73 139 88 140 112 150 93 161 47 212 87 216 115 
357 -0.4174342133958799 0.05091388324154019 1.21918115008471 0 0 0 0.43 24 114 30 79 34 96 57 101 59 99 68 357 99 71 125 68 131 65 137 74 143 58 144 98 150 94 166 67 180 73 189 52 191 60 202 96 211 70 212 88 215 45 216 116 226 38 
358 -0.38512104298995875 0.08988916709196769 1.350022493905568 0 0 0 0.34 24 115 57 102 59 100 68 358 137 75 150 95 202 97 228 112 
359 -0.22825407757455501 0.09359513390823786 1.2919228726906513 0 0 0 0.37 24 116 30 80 57 103 59 101 68 359 140 113 150 96 189 53 216 117 
360 -0.3561342024676626 -0.048458754761279886 1.3492505051083867 0 0 0 0.4 24 117 59 102 68 360 99 72 115 34 119 58 131 66 137 76 150 97 166 68 171 31 178 56 180 74 191 61 202 98 210 16 212 89 216 118 225 31 228 113 
361 -0.3314603951095264 -0.04020591662575073 1.349666872515207 0 0 0 0.63 24 118 31 103 57 104 59 103 68 361 99 73 106 112 115 35 119 59 131 67 139 89 144 99 150 98 166 69 171 32 178 57 180 75 202 99 210 17 212 90 225 32 228 114 
362 -0.2819112282910504 -0.04086264276690896 1.3313619243379953 0 0 0 0.48 24 119 57 105 68 362 106 113 131 68 140 114 143 59 144 100 150 99 161 48 171 33 177 86 180 76 189 54 205 44 216 119 225 33 228 115 
363 -0.024372914421591535 0.027869786459432114 1.2768252312237476 0 0 0 0.46 24 120 68 363 140 115 
364 -0.3221370724224781 -0.11309703111443276 1.3505400594690908 0 0 0 1.11 24 121 31 104 59 104 68 364 99 74 131 69 137 77 139 90 144 101 166 70 171 34 180 77 212 91 216 120 233 117 
365 -0.2914004347013946 -0.1101121270686642 1.3316378369714885 0 0 0 0.72 24 122 31 105 68 365 212 92 216 121 225 34 233 118 
366 -0.2446994260131314 0.002625326354485919 1.313984892528474 0 0 0 0.54 24 123 31 106 57 106 59 105 68 366 102 15 115 36 133 21 137 78 139 91 140 116 144 102 150 100 177 87 180 78 216 122 
367 -0.29943552208550805 -0.1638668823393451 1.3300291533314168 0 0 0 1.1 24 124 31 107 59 106 68 367 106 114 137 79 144 103 150 101 225 35 228 116 
368 -0.4115263969507147 -0.23337191953593048 1.2624274610137618 0 0 0 0.66 24 125 31 108 34 97 55 62 68 368 99 75 116 77 122 60 125 69 144 104 149 77 150 102 154 42 166 71 171 35 173 58 180 79 202 100 216 123 233 119 
369 -0.4271074247326046 -0.19788881245150416 1.254329362366797 0 0 0 0.95 24 126 31 109 59 107 68 369 94 49 99 76 106 115 115 37 122 61 125 70 131 70 139 92 144 105 149 78 166 72 171 36 173 59 178 58 189 55 191 62 193 89 202 101 212 93 216 124 218 50 228 117 233 120 
370 -0.517752045290715 -0.13447088289288978 0.8496408932278156 0 0 0 0.34 30 81 46 50 68 370 125 71 154 43 161 49 193 90 205 45 211 71 228 118 233 121 
371 -0.5286543683409636 -0.03585842638150543 0.7973639991789888 0 0 0 0.24 30 82 68 371 177 88 183 30 
372 -0.16025590252344685 5.55256617720592e-06 1.3031779303685194 0 0 0 0.25 30 83 55 63 68 372 106 116 150 103 177 89 180 80 216 125 233 122 
373 -0.3666898741089089 -0.0021307795637642234 1.33632951895732 0 0 0 0.15 30 84 68 373 216 126 
374 -0.3579416515187766 0.0003420003103578584 1.3462990494783913 0 0 0 0.64 30 85 68 374 137 80 144 106 150 104 180 81 193 91 212 94 
375 -0.521716870449478 0.002612119019330384 0.8366576845170005 0 0 0 0.19 30 86 68 375 99 77 228 119 
376 -0.3686213325639121 0.05887310326127132 1.3392041768131975 0 0 0 0.18 30 87 31 110 68 376 212 95 226 39 228 120 
377 -0.5163936706998918 0.04059292124141735 0.7353075712355818 0 0 0 0.63 30 88 68 377 211 72 
378 -0.49156536532020484 -0.21422203986449156 0.8932476602088042 0 0 0 0.36 30 89 37 58 68 378 119 60 139 93 228 121 233 123 
379 -0.49291416589479214 -0.1262577184305236 1.052998084391051 0 0 0 0.35 30 90 68 379 161 50 
380 -0.44925242184011577 -0.11123728724722287 1.2023375963945804 0 0 0 0.26 30 91 45 24 68 380 116 78 131 71 140 117 177 90 189 56 216 127 
381 -0.4625802700050815 -0.08441382603820093 1.1435629972667434 0 0 0 0.33 30 92 37 59 46 51 68 381 125 72 166 73 215 46 233 124 
382 -0.4685540389630717 -0.0794459696617074 1.0621687389820986 0 0 0 0.43 30 93 46 52 47 15 68 382 119 61 191 63 
383 -0.24331966548611378 -0.06893678639130876 1.3125885779116824 0 0 0 0.26 30 94 68 383 202 102 212 96 228 122 
384 -0.3083303642974617 -0.06264519986527393 1.33856190410263 0 0 0 0.17 30 95 68 384 116 79 154 44 202 103 212 97 
385 -0.4450644177447409 -0.04079397191383488 1.211321754098124 0 0 0 0.37 30 96 31 111 55 64 68 385 72 39 102 16 131 72 140 118 143 60 166 74 177 91 210 18 215 47 216 128 218 51 226 40 228 123 
386 -0.4793183096198753 -0.031759705300839616 1.0339077270539245 0 0 0 0.51 30 97 47 16 68 386 140 119 161 51 193 92 202 104 216 129 
387 -0.5324968736132016 -0.033539769906639906 0.7986530918060083 0 0 0 0.32 30 98 68 387 119 62 145 37 177 92 183 31 218 52 226 41 
388 -0.533962493471141 -0.0159279149365023 0.8191018324113826 0 0 0 0.37 30 99 31 112 68 388 94 50 116 80 125 73 132 48 180 82 183 32 193 93 216 130 226 42 
389 -0.3706368260899897 0.004571785214097089 1.3539275600707557 0 0 0 0.34 30 100 57 107 59 108 68 389 72 40 99 78 102 17 119 63 137 81 139 94 140 120 144 107 150 105 154 45 166 75 178 59 180 83 186 20 189 57 191 64 210 19 212 98 215 48 226 43 
390 -0.26167490818494477 0.00917996834013098 1.3134629529336534 0 0 0 0.21 30 101 31 113 57 108 59 109 68 390 99 79 102 18 119 64 131 73 137 82 139 95 140 121 150 106 177 93 205 46 216 131 228 124 
391 -0.38490791059747276 0.012437912680993446 1.35632936020407 0 0 0 0.33 30 102 31 114 57 109 59 110 68 391 72 41 99 80 102 19 106 117 119 65 122 62 131 74 143 61 144 108 154 46 166 76 177 94 180 84 186 21 189 58 191 65 215 49 228 125 
392 -0.4964658178298908 -0.0007687865032922607 0.8729809331399633 0 0 0 0.59 30 103 34 98 46 53 68 392 186 22 211 73 
393 -0.5287999226468169 -0.003659532689416711 0.7609528401141866 0 0 0 0.22 30 104 68 393 139 96 161 52 211 74 216 132 
394 -0.4317937097799184 0.03844918471293497 1.3681870062915724 0 0 0 0.28 30 105 37 60 46 54 68 394 116 81 119 66 137 83 139 97 150 107 154 47 166 77 186 23 212 99 
395 -0.539292699316021 0.011703768725952867 0.7839482237095422 0 0 0 0.38 30 106 68 395 116 82 139 98 211 75 216 133 228 126 
396 -0.42290819221732157 0.04307277246805222 1.3633722016880097 0 0 0 0.33 30 107 31 115 37 61 46 55 57 110 59 111 68 396 72 42 116 83 119 67 131 75 137 84 143 62 144 109 150 108 151 97 154 48 189 59 191 66 212 100 215 50 226 44 228 127 233 125 
397 -0.49455447941550423 0.0199450713572962 0.8416038354715957 0 0 0 0.32 30 108 55 65 68 397 72 43 119 68 125 74 143 63 173 60 205 47 215 51 
398 -0.42417348134031657 0.05462672718397058 1.2150414336220796 0 0 0 0.35 30 109 68 398 119 69 139 99 150 109 178 60 191 67 193 94 211 76 216 134 
399 -0.2750788062010075 0.09550893816678561 1.3155520666317795 0 0 0 0.29 30 110 31 116 55 66 59 112 68 399 106 118 137 85 140 122 150 110 177 95 
400 -0.5021823642876937 0.0730554255973656 0.791821286479207 0 0 0 0.32 30 111 34 99 55 67 68 400 139 100 140 123 
401 -0.4916289591570553 0.07894061942789873 0.8429390355221248 0 0 0 0.3 30 112 68 401 125 75 139 101 144 110 228 128 233 126 
402 -0.5286635227431469 -0.1568858187704969 0.8341626737090851 0 0 0 0.5 30 113 31 117 47 17 68 402 125 76 140 124 149 79 154 49 180 85 218 53 228 129 233 127 
403 -0.48393045630591486 -0.10597634441788435 0.9310275511787377 0 0 0 0.25 30 114 34 100 47 18 55 68 68 403 94 51 116 84 131 76 139 102 140 125 145 38 150 111 151 98 177 96 211 77 215 52 216 135 218 54 226 45 228 130 
404 -0.45670852212460655 -0.11407066633359761 1.1736938016963445 0 0 0 0.35 30 115 68 404 154 50 
405 -0.28219557934491224 -0.07274350898225289 1.3347286728695313 0 0 0 0.35 30 116 68 405 99 81 150 112 191 68 
406 -0.5279821181978156 -0.053255791181028425 0.8375028205097547 0 0 0 0.12 30 117 68 406 144 111 191 69 193 95 228 131 
407 -0.4789168976542848 -0.0409186758522588 1.0295763150130457 0 0 0 0.41 30 118 47 19 59 113 68 407 140 126 161 53 183 33 189 60 191 70 205 48 228 132 
408 -0.4685283030240533 -0.03771010880146469 1.0881468202412126 0 0 0 0.53 30 119 47 20 68 408 193 96 
409 -0.16644532671975554 -0.02018123030978422 1.3094276485613616 0 0 0 0.5 30 120 68 409 106 119 115 38 139 103 150 113 189 61 202 105 
410 -0.47066988566027224 -0.012315320769986619 0.9477421537158269 0 0 0 0.2 30 121 37 62 46 56 68 410 106 120 119 70 177 97 191 71 212 101 218 55 228 133 
411 -0.4944408673099802 0.014868902842697778 0.8806293227429154 0 0 0 0.17 30 122 37 63 46 57 68 411 122 63 132 49 139 104 140 127 149 80 166 78 211 78 216 136 228 134 233 128 
412 -0.48622075772069717 0.07845619476399815 0.9059728110990339 0 0 0 0.44 30 123 37 64 68 412 132 50 180 86 233 129 
413 -0.533188570701501 -0.08651349189021453 0.7782259322020736 0 0 0 0.29 30 124 68 413 139 105 205 49 233 130 
414 -0.4679131944078847 0.03708569492552814 1.0049495093702059 0 0 0 0.21 30 125 34 101 57 111 68 414 125 77 137 86 140 128 144 112 151 99 193 97 202 106 216 137 228 135 233 131 
415 -0.46935399844797016 0.042948082743541074 1.0908353157128639 0 0 0 0.25 30 126 37 65 57 112 68 415 72 44 90 24 106 121 131 77 140 129 143 64 144 113 150 114 151 100 173 61 177 98 178 61 191 72 193 98 202 107 218 56 226 46 228 136 233 132 
416 -0.48107812937969274 0.07641019731809148 0.9107913803918847 0 0 0 0.36 30 127 34 102 37 66 57 113 68 416 90 25 132 51 144 114 145 39 180 87 191 73 193 99 211 79 233 133 
417 -0.5227444801653595 0.07553252282127886 0.7881082607776486 0 0 0 0.16 30 128 68 417 228 137 
418 -0.48506606366540356 -0.23236886157451156 0.898492039846163 0 0 0 0.22 30 129 68 418 140 130 149 81 
419 -0.47765451826824007 -0.0977807409511556 0.9082895467881993 0 0 0 0.21 30 130 68 419 149 82 
420 -0.5213526643945371 -0.052176274140029594 0.8426076643033009 0 0 0 0.3 30 131 34 103 46 58 68 420 119 71 131 78 132 52 149 83 154 51 177 99 186 24 189 62 202 108 210 20 211 80 218 57 228 138 233 134 
421 -0.4909195630200564 0.0788019913245575 0.9019224479409479 0 0 0 0.52 30 132 46 59 68 421 125 78 132 53 228 139 
422 -0.47192379691473263 -0.10201344107546095 0.9458242073397707 0 0 0 0.37 30 133 34 104 57 114 59 114 68 422 72 45 94 52 106 122 116 85 125 79 131 79 149 84 150 115 151 101 154 52 177 100 193 100 202 109 218 58 226 47 233 135 
423 -0.5054263909897713 0.07487562594139258 0.7927097850714296 0 0 0 0.32 30 134 68 423 144 115 183 34 
424 -0.46406632291172734 0.0073255831395319364 0.9298612938209716 0 0 0 0.78 30 135 57 115 68 424 119 72 132 54 137 87 145 40 151 102 183 35 211 81 215 53 228 140 233 136 
425 -0.4694522083566911 0.0752666577325267 0.9687411764814226 0 0 0 0.52 30 136 46 60 57 116 68 425 90 26 99 82 125 80 139 106 144 116 186 25 202 110 228 141 233 137 
426 -0.503567421362712 0.06097969282927068 0.8120857270085966 0 0 0 0.56 30 137 31 118 68 426 183 36 
427 -0.536727310685616 -0.16435748632439326 0.8175068123750909 0 0 0 0.64 31 119 47 21 68 427 149 85 
428 -0.4930878663625223 -0.17257171303977276 0.8634046359425047 0 0 0 0.29 31 120 34 105 46 61 68 428 106 123 145 41 
429 -0.47971186600697074 -0.16944204702729485 0.9422783050502896 0 0 0 0.33 31 121 68 429 106 124 218 59 
430 -0.49542179103047407 -0.10383160250751354 0.8883455323427056 0 0 0 0.31 31 122 68 430 166 79 
431 -0.08014619206300977 -0.07295110489914253 1.2977979805855862 0 0 0 0.15 31 123 68 431 106 125 150 116 
432 -0.14648727255229313 -0.07212757629103646 1.3075630863497603 0 0 0 0.31 31 124 68 432 72 46 99 83 106 126 140 131 143 65 150 117 180 88 233 138 
433 -0.486844686738873 -0.029248592500834385 0.8769353032433068 0 0 0 0.27 31 125 37 67 46 62 68 433 90 27 125 81 215 54 
434 -0.534546294931692 -0.02013242060507649 0.8256150489674103 0 0 0 0.31 31 126 68 434 151 103 183 37 
435 -0.4683666748754683 -0.01713885934585191 0.9474219298862158 0 0 0 0.2 31 127 37 68 68 435 90 28 99 84 106 127 122 64 125 82 216 138 233 139 
436 -0.1315242162277817 -0.010729184530101783 1.2954296272280506 0 0 0 0.17 31 128 68 436 143 66 171 37 
437 -0.4768325995318311 -0.001177648977056144 1.0710546233774907 0 0 0 0.13 31 129 68 437 173 62 177 101 218 60 
438 -0.08700461364269117 0.0008351758056999288 1.292591045211605 0 0 0 0.38 31 130 57 117 68 438 106 128 202 111 
439 -0.49135928542650625 0.002274347130173223 1.0179960372742878 0 0 0 0.3 31 131 68 439 106 129 149 86 161 54 
440 -0.47254019755465015 0.05247325205672492 0.9475766663034624 0 0 0 0.18 31 132 68 440 106 130 151 104 161 55 180 89 205 50 216 139 218 61 
441 -0.16383255235204794 0.10610101199264763 1.2731887596432798 0 0 0 0.39 31 133 68 441 99 85 
442 -0.2592451266407216 0.11547804351845016 1.303049506096647 0 0 0 0.34 31 134 59 115 68 442 137 88 
443 -0.49193984959547987 0.08439436701781393 0.8438636242233105 0 0 0 0.39 31 135 68 443 132 55 186 26 193 101 218 62 228 142 
444 -0.4959066174768344 -0.12079605843366883 0.8440890102931111 0 0 0 0.19 31 136 68 444 161 56 180 90 
445 -0.4833198210645223 -0.10562952979242952 0.9300057973489471 0 0 0 0.28 31 137 34 106 68 445 116 86 143 67 150 118 211 82 215 55 216 140 218 63 226 48 233 140 
446 -0.4648359787085692 -0.12200017167150982 1.1245713643800794 0 0 0 0.46 31 138 68 446 90 29 228 143 
447 -0.53262487393312 -0.08430972734138992 0.8176640742836617 0 0 0 0.38 31 139 68 447 122 65 139 107 140 132 149 87 166 80 177 102 183 38 216 141 228 144 
448 -0.49183673887237866 -0.08343781470381949 0.8643403583265846 0 0 0 0.31 31 140 34 107 37 69 46 63 47 22 68 448 94 53 122 66 125 83 132 56 145 42 161 57 166 81 183 39 186 27 193 102 205 51 215 56 233 141 
449 -0.5300595099825226 -0.04478443931541239 0.8090354885001361 0 0 0 0.53 31 141 46 64 68 449 94 54 99 86 116 87 131 80 180 91 183 40 186 28 210 21 216 142 218 64 233 142 
450 -0.5262329522622494 -0.04279403397416594 0.8244236038961785 0 0 0 0.35 31 142 34 108 55 69 68 450 94 55 131 81 132 57 140 133 143 68 144 117 149 88 151 105 166 82 173 63 177 103 193 103 
451 -0.3074219288416014 -0.062475945835897835 1.3338253925236272 0 0 0 0.28 31 143 59 116 68 451 99 87 119 73 131 82 140 134 154 53 202 112 216 143 
452 -0.4165738223326814 -0.059734090811110106 1.3695120886331476 0 0 0 0.25 31 144 59 117 68 452 99 88 122 67 125 84 137 89 150 119 166 83 180 92 186 29 211 83 228 145 233 143 
453 -0.5330102209792417 -0.02745431168466175 0.809716321054342 0 0 0 0.25 31 145 68 453 122 68 
454 -0.4918811743327956 -0.002405653737259297 0.8853834946803553 0 0 0 0.2 31 146 68 454 72 47 106 131 132 58 143 69 218 65 
455 -0.394842749614781 0.014979551139943887 1.3609285788680368 0 0 0 0.36 31 147 68 455 106 132 119 74 122 69 228 146 
456 -0.2510601007551305 0.05096761622113191 1.3171144911252837 0 0 0 0.2 31 148 55 70 68 456 154 54 177 104 228 147 
457 -0.4763427325604509 0.051654882985455404 0.9468416802345384 0 0 0 0.38 31 149 68 457 151 106 
458 -0.4638335432905712 -0.12811130269495336 0.9695056963655413 0 0 0 1.12 31 150 68 458 161 58 178 62 205 52 233 144 
459 -0.10165458081396485 -0.1330350492602814 1.296302424460649 0 0 0 0.23 31 151 68 459 99 89 
460 -0.21281130428697975 -0.10503858058007977 1.3071275742196413 0 0 0 0.35 31 152 59 118 68 460 72 48 106 133 119 75 137 90 140 135 150 120 161 59 177 105 189 63 212 102 216 144 225 36 
461 -0.22382933872928246 -0.0994526185265606 1.3156383967399867 0 0 0 0.55 31 153 57 118 59 119 68 461 99 90 106 134 137 91 139 108 144 118 145 43 150 121 161 60 171 38 180 93 189 64 216 145 233 145 
462 -0.3148348503731264 -0.06067730980675 1.3385580330011275 0 0 0 0.38 31 154 68 462 116 88 137 92 144 119 154 55 166 84 180 94 216 146 
463 -0.49201007935284014 0.019564720219815066 0.8712462131617077 0 0 0 0.34 31 155 37 70 46 65 68 463 90 30 122 70 140 136 178 63 183 41 186 30 211 84 212 103 233 146 
464 -0.44092663306670515 0.0452950034788433 1.2096245370354917 0 0 0 0.39 31 156 68 464 119 76 202 113 
465 -0.4394905665324482 -0.125756185314807 1.2199471033835365 0 0 0 0.26 31 157 34 109 68 465 106 135 131 83 140 137 150 122 151 107 173 64 177 106 178 64 216 147 218 66 233 147 
466 -0.23633013885516851 -0.12249968957460902 1.3135311520218411 0 0 0 0.38 31 158 68 466 180 95 233 148 
467 -0.478207840155094 -0.04798133893535378 1.0515088654036953 0 0 0 0.4 31 159 47 23 55 71 57 119 59 120 68 467 106 136 115 39 116 89 122 71 125 85 140 138 143 70 149 89 150 123 151 108 154 56 161 61 173 65 177 107 180 96 193 104 205 53 212 104 215 57 216 148 228 148 233 149 
468 -0.4388318742012169 -0.0536645281134655 1.2145554327336612 0 0 0 0.25 31 160 34 110 37 71 45 25 46 66 68 468 94 56 106 137 122 72 125 86 131 84 133 22 149 90 151 109 173 66 178 65 180 97 211 85 212 105 216 149 218 67 226 49 
469 -0.4140050710092017 0.0016550394667538821 1.2325235284404663 0 0 0 0.38 31 161 34 111 37 72 57 120 59 121 68 469 72 49 115 40 116 90 143 71 144 120 151 110 166 85 178 66 189 65 191 74 202 114 212 106 215 58 226 50 233 150 
470 -0.18793493861841265 -0.12518955147003863 1.3243052615846351 0 0 0 0.41 31 162 68 470 180 98 
471 -0.49394372319492974 0.014040137909633692 0.8564946236984557 0 0 0 0.37 31 163 68 471 122 73 140 139 144 121 145 44 178 67 211 86 
472 -0.5258608350155287 -0.10810945315223199 0.8417894592441388 0 0 0 0.52 31 164 46 67 47 24 59 122 68 472 86 18 94 57 99 91 131 85 140 140 144 122 149 91 154 57 177 108 183 42 189 66 193 105 202 115 210 22 215 59 218 68 228 149 233 151 
473 -0.4699615774068178 -0.033250632702717116 0.9563862380078795 0 0 0 0.62 31 165 34 112 57 121 59 123 68 473 94 58 116 91 119 77 132 59 140 141 144 123 145 45 151 111 161 62 177 109 178 68 202 116 205 54 216 150 218 69 228 150 
474 -0.27934105430839407 0.09911736410362881 1.3175297899597394 0 0 0 0.28 31 166 68 474 150 124 216 151 228 151 
475 -0.30020132197863625 -0.163331782559483 1.3298273900336897 0 0 0 1.0 31 167 68 475 106 138 137 93 144 124 150 125 180 99 212 107 225 37 
476 -0.5198742572746212 -0.2739586692758284 1.268159437259672 0 0 0 0.71 31 168 68 476 106 139 131 86 133 23 149 92 173 67 233 152 
477 -0.48425950516726307 -0.25977772517203124 0.9466960176894863 0 0 0 0.48 34 113 46 68 68 477 132 60 137 94 150 126 161 63 205 55 211 87 228 152 
478 -0.5367153575388994 -0.18181943591270452 0.7830181792740823 0 0 0 0.31 34 114 68 478 131 87 140 142 150 127 161 64 180 100 
479 -0.5342483226826018 -0.1782417066893368 0.7853724090330196 0 0 0 0.34 34 115 47 25 68 479 150 128 
480 -0.5342896794722723 -0.17747700873257655 0.7906117921282739 0 0 0 0.36 34 116 46 69 47 26 68 480 94 59 150 129 
481 -0.52878781233163 -0.1761919654514464 0.8434945046928163 0 0 0 0.14 34 117 68 481 116 92 140 143 193 106 216 152 
482 -0.5346573761956871 -0.16152143596736743 0.7849575664474249 0 0 0 0.29 34 118 68 482 125 87 140 144 
483 -0.4376026532696001 -0.18495659590716684 1.2365418922046578 0 0 0 0.26 34 119 46 70 55 72 68 483 86 19 145 46 150 130 151 112 216 153 
484 -0.5471500427858497 -0.08834097159314615 0.7608589226224238 0 0 0 0.44 34 120 46 71 68 484 210 23 228 153 233 153 
485 -0.5483056773023272 -0.08843747359335134 0.7621555565202515 0 0 0 0.49 34 121 46 72 68 485 177 110 233 154 
486 -0.5163732990224265 -0.07240994122449175 0.8431567290881958 0 0 0 0.23 34 122 46 73 68 486 94 60 125 88 140 145 161 65 177 111 233 155 
487 -0.5328349503438035 -0.05292284675602638 0.7686920380877754 0 0 0 0.33 34 123 68 487 90 31 132 61 177 112 
488 -0.5311083029811366 -0.04263766700151539 0.7719304805010107 0 0 0 0.31 34 124 68 488 183 43 
489 -0.4883821459607567 -0.03776881190701487 0.874611774816404 0 0 0 0.27 34 125 68 489 122 74 140 146 149 93 151 113 233 156 
490 -0.5274531034389546 -0.031826721616564815 0.8117649983711185 0 0 0 0.09 34 126 68 490 205 56 
491 -0.489198118942605 -0.030211713869944166 0.8448864985223493 0 0 0 0.21 34 127 68 491 132 62 144 125 151 114 161 66 233 157 
492 -0.5309946589230157 -0.031071637923836288 0.8272422533600399 0 0 0 0.38 34 128 68 492 90 32 161 67 173 68 205 57 233 158 
493 -0.49020651475537386 -0.028685683359193304 0.8406466627929338 0 0 0 0.22 34 129 68 493 90 33 99 92 122 75 139 109 149 94 151 115 161 68 166 86 177 113 205 58 211 88 216 154 226 51 228 154 233 159 
494 -0.4931664224391474 -0.027333500638187933 0.8386195609722916 0 0 0 0.18 34 130 68 494 151 116 161 69 180 101 
495 -0.4480877657893328 -0.01839924921218777 1.1953676745936115 0 0 0 0.3 34 131 68 495 116 93 149 95 177 114 178 69 193 107 215 60 218 70 226 52 
496 -0.5303418149147245 -0.0005733733931407997 0.798272966339498 0 0 0 0.43 34 132 46 74 68 496 218 71 
497 -0.4775851040959032 0.009212849159146164 0.887556580337641 0 0 0 0.18 34 133 68 497 90 34 125 89 151 117 211 89 216 155 
498 -0.46783489709798465 0.020599559482404724 1.0790512145030422 0 0 0 0.19 34 134 68 498 140 147 149 96 151 118 216 156 228 155 
499 -0.4704392007411021 0.027093384245533696 1.0833988476285197 0 0 0 0.35 34 135 68 499 106 140 149 97 151 119 
500 -0.4933683895842738 0.02448418611727135 0.8847330869469796 0 0 0 0.32 34 136 68 500 139 110 154 58 211 90 
501 -0.48991078118361653 0.027785727792868305 0.8765153083861116 0 0 0 0.19 34 137 45 26 68 501 90 35 166 87 
502 -0.43242460194820764 0.0427087514215948 1.214676557441773 0 0 0 0.23 34 138 37 73 55 73 68 502 102 20 106 141 125 90 171 39 177 115 218 72 
503 -0.5153556621654107 0.03848881427566162 0.7395239527160424 0 0 0 0.09 34 139 68 503 151 120 
504 -0.5144230965032539 0.03860203285116465 0.7384387037850738 0 0 0 0.13 34 140 68 504 140 148 216 157 
505 -0.5017607852868244 0.04706669510268386 0.7924868382931939 0 0 0 0.13 34 141 68 505 90 36 205 59 
506 -0.46632021054959993 0.05674720775724219 0.9524665054484586 0 0 0 0.19 34 142 68 506 177 116 
507 -0.49356410816380347 0.05793209083063249 0.888244962826221 0 0 0 0.23 34 143 46 75 68 507 149 98 151 121 211 91 
508 -0.47078048086455176 0.07164675659603055 0.9569660120499286 0 0 0 0.35 34 144 68 508 166 88 177 117 
509 -0.4381872292419157 -0.3244873194516266 1.2672060065003927 0 0 0 0.93 68 509 150 131 180 102 191 75 
510 -0.5299496360432779 -0.22676414314325832 0.8616306096001374 0 0 0 0.3 34 145 68 510 161 70 205 60 
511 -0.5577282528716038 -0.21637144733685218 0.8688408662593498 0 0 0 0.46 34 146 46 76 68 511 90 37 119 78 122 76 137 95 139 111 140 149 161 71 205 61 
512 -0.4106214938437976 -0.12585376504776025 1.2491501869181827 0 0 0 0.33 34 147 68 512 94 61 166 89 215 61 
513 -0.43271072383201237 -0.1174794067926158 1.2220337784438622 0 0 0 0.33 34 148 46 77 59 124 68 513 86 20 106 142 140 150 150 132 151 122 171 40 173 69 180 103 186 31 193 108 202 117 218 73 228 156 233 160 
514 -0.46141055570262424 -0.10241767202588475 1.1040792496901561 0 0 0 0.46 34 149 68 514 193 109 
515 -0.4462990587390471 -0.10098078916148052 1.1973256696700938 0 0 0 0.14 34 150 68 515 143 72 150 133 202 118 212 108 228 157 
516 -0.4736795732057234 -0.08363006077741635 0.9487233458744325 0 0 0 0.31 34 151 59 125 68 516 106 143 131 88 140 151 145 47 151 123 154 59 161 72 180 104 183 44 205 62 
517 -0.47168352763362176 -0.08628905620767914 1.1093699568390465 0 0 0 0.34 34 152 68 517 86 21 94 62 116 94 131 89 149 99 151 124 154 60 177 118 189 67 216 158 226 53 
518 -0.44607300236526964 -0.050810806884910464 1.246646192430563 0 0 0 0.37 34 153 57 122 68 518 
519 -0.4723903366125103 -0.03237308089154405 0.921228827071136 0 0 0 0.18 34 154 59 126 68 519 144 126 
520 -0.44453983516172 -0.03438827739847087 1.3857638607237002 0 0 0 0.15 34 155 68 520 125 91 144 127 151 125 
521 -0.5303341950327993 -0.03121675904252302 0.8092142167134431 0 0 0 0.43 34 156 37 74 55 74 68 521 99 93 116 95 144 128 149 100 166 90 183 45 233 161 
522 -0.4528754459280401 -0.01851866015358144 1.1491561714618472 0 0 0 0.29 34 157 68 522 72 50 122 77 140 152 143 73 149 101 151 126 154 61 166 91 173 70 189 68 212 109 
523 -0.44403800460995935 0.0005300021755311037 1.2086125481950307 0 0 0 0.39 34 158 37 75 46 78 57 123 59 127 68 523 94 63 122 78 140 153 150 134 154 62 186 32 191 76 193 110 212 110 218 74 
524 -0.4315821013788079 0.010046774153777466 1.3125961345913062 0 0 0 0.56 34 159 59 128 68 524 151 127 189 69 216 159 
525 -0.43592116384528556 0.020547726114297272 1.2106719001718347 0 0 0 0.45 34 160 59 129 68 525 122 79 140 154 143 74 144 129 150 135 154 63 166 92 178 70 191 77 193 111 211 92 212 111 215 62 216 160 218 75 226 54 
526 -0.4478460400909629 0.02897609558499331 1.171293128042662 0 0 0 0.23 34 161 55 75 59 130 68 526 119 79 140 155 144 130 151 128 154 64 177 119 189 70 193 112 202 119 215 63 218 76 
527 -0.4608665577404311 0.02781344274416292 1.1027761109530325 0 0 0 0.27 34 162 68 527 212 112 
528 -0.4925691197876919 0.027222951740477515 0.8614066228652705 0 0 0 0.13 34 163 57 124 68 528 90 38 122 80 144 131 
529 -0.4303702220702307 0.05331102106685092 1.2089895572649065 0 0 0 0.45 34 164 68 529 119 80 122 81 139 112 151 129 154 65 166 93 177 120 189 71 193 113 216 161 
530 -0.49154307907457645 0.054541868108647716 0.8247254634660086 0 0 0 0.38 34 165 55 76 68 530 132 63 137 96 139 113 143 75 144 132 151 130 183 46 193 114 215 64 228 158 
531 -0.4970657618126966 -0.18819392502031043 0.8932548792053273 0 0 0 0.38 34 166 46 79 47 27 68 531 94 64 150 136 189 72 193 115 
532 -0.42398166188348885 -0.1173164864514612 1.2375166670324176 0 0 0 0.23 34 167 59 131 68 532 140 156 202 120 
533 -0.42480635272260364 -0.05707401281108886 1.2557689376570602 0 0 0 0.28 34 168 68 533 215 65 216 162 226 55 
534 -0.44150139910845543 -0.043298404174784866 1.2166561246507952 0 0 0 0.39 34 169 57 125 59 132 68 534 94 65 122 82 131 90 137 97 139 114 140 157 143 76 144 133 150 137 166 94 177 121 193 116 202 121 211 93 212 113 215 66 
535 -0.4824300830321936 0.0002896187400995596 0.917363308833218 0 0 0 0.27 34 170 68 535 132 64 137 98 144 134 149 102 151 131 202 122 216 163 228 159 
536 -0.4947703755292327 0.027876731521372718 0.8419654553108268 0 0 0 0.38 34 171 57 126 68 536 72 51 90 39 102 21 116 96 122 83 143 77 144 135 151 132 228 160 
537 -0.4683470477367605 0.0643808312832211 0.9147387064894443 0 0 0 0.3 34 172 68 537 125 92 215 67 228 161 
538 -0.5304632669644742 -0.15198423920439483 0.8490498499670733 0 0 0 0.31 34 173 68 538 131 91 180 105 
539 -0.5001164199397443 -0.08122098735051989 0.8397968020442625 0 0 0 0.2 34 174 68 539 161 73 205 63 228 162 
540 -0.4644006232428497 -0.05287736215741219 1.0713012523689665 0 0 0 0.42 34 175 68 540 144 136 145 48 
541 -0.5398756507220593 -0.04598394592798776 0.7689146289413251 0 0 0 0.51 34 176 59 133 68 541 132 65 140 158 144 137 149 103 151 133 154 66 161 74 177 122 180 106 212 114 228 163 
542 -0.4195122858726817 -0.0250648007274944 1.2235815168502875 0 0 0 0.3 34 177 37 76 46 80 59 134 68 542 94 66 116 97 125 93 139 115 144 138 150 138 166 95 177 123 180 107 189 73 202 123 211 94 212 115 228 164 233 162 
543 -0.4694088179718466 -0.023440219969831772 0.921042826946645 0 0 0 0.41 34 178 68 543 122 84 228 165 
544 -0.44603888727403473 0.011944994751144548 1.1226285389600286 0 0 0 0.15 34 179 68 544 212 116 
545 -0.48931850332859483 -0.2224107823202178 0.8925946172192576 0 0 0 0.34 34 180 47 28 55 77 68 545 140 159 144 139 150 139 151 134 161 75 178 71 193 117 205 64 233 163 
546 -0.4868015139665181 -0.20667392137821516 0.9436162642480422 0 0 0 0.46 34 181 68 546 133 24 144 140 189 74 211 95 228 166 
547 -0.4842459593551797 -0.2052609357591752 0.939029404678589 0 0 0 0.42 34 182 68 547 211 96 
548 -0.5280336514400453 -0.1330280334748341 0.832180937826483 0 0 0 0.37 34 183 68 548 173 71 180 108 233 164 
549 -0.45766387052761803 -0.062308145408902074 1.3933309701059224 0 0 0 0.42 34 184 59 135 68 549 151 135 166 96 212 117 216 164 
550 -0.4804958722194362 -0.1740632932945576 1.0101564868014066 0 0 0 0.8 34 185 46 81 68 550 140 160 149 104 205 65 216 165 
551 -0.5037985726554158 -0.020510151321623815 0.8450244724341763 0 0 0 0.46 34 186 45 27 68 551 115 41 139 116 161 76 
552 -0.4461059400356054 -0.15338447758459683 1.2033924405129683 0 0 0 0.56 34 187 55 78 57 127 59 136 68 552 86 22 94 67 115 42 119 81 131 92 140 161 144 141 166 97 191 78 193 118 202 124 212 118 215 68 216 166 218 77 
553 -0.5369644311132892 -0.1950306223825165 0.8219164443969913 0 0 0 0.69 34 188 46 82 68 553 115 43 119 82 125 94 144 142 145 49 151 136 186 33 211 97 228 167 
554 -0.48875386466493764 -0.0913890109187632 0.9441320981189472 0 0 0 0.31 37 77 68 554 151 137 
555 -0.4598176237642322 -0.01932407481443907 1.1476118024801694 0 0 0 0.18 37 78 68 555 139 117 212 119 
556 -0.4848234576946108 -0.15384165996691626 0.9370329727203929 0 0 0 0.23 37 79 46 83 68 556 183 47 205 66 211 98 216 167 228 168 
557 -0.5365115242246755 -0.09117535955931116 0.7771477187997602 0 0 0 0.24 37 80 68 557 154 67 180 109 193 119 211 99 
558 -0.4352493366979473 -0.19764894734449767 1.2358008455550005 0 0 0 0.19 37 81 68 558 233 165 
559 -0.41510320065303824 -0.1456452222342426 1.2503500728613075 0 0 0 0.25 37 82 55 79 68 559 94 68 106 144 119 83 137 99 139 118 150 140 151 138 177 124 215 69 218 78 233 166 
560 -0.4406565006667276 -0.09097601675416712 1.384803715854913 0 0 0 0.21 37 83 46 84 55 80 57 128 59 137 68 560 119 84 125 95 131 93 137 100 143 78 150 141 151 139 166 98 191 79 193 120 202 125 211 100 216 168 233 167 
561 -0.48541283666907964 -0.03376015506044391 0.8596360011718799 0 0 0 0.23 37 84 59 138 68 561 125 96 
562 -0.42902180764894243 0.017486230477657565 1.2192495349166688 0 0 0 0.41 37 85 46 85 57 129 68 562 99 94 116 98 122 85 137 101 139 119 150 142 151 140 180 110 211 101 215 70 218 79 228 169 
563 -0.43861598026914805 0.03910065354178962 1.3678437729635988 0 0 0 0.25 37 86 68 563 139 120 202 126 233 168 
564 -0.43870512954289315 0.049363102321012715 1.3613513141248357 0 0 0 0.35 37 87 68 564 226 56 233 169 
565 -0.42771570639517065 0.060598914359791305 1.1523969687398614 0 0 0 0.32 37 88 46 86 59 139 68 565 140 162 144 143 151 141 186 34 228 170 233 170 
566 -0.4788173058457583 0.03502300249676677 0.9215374791983781 0 0 0 0.21 37 89 68 566 115 44 191 80 
567 -0.44276035596785895 -0.11566934632332967 1.2271235372413618 0 0 0 0.41 37 90 46 87 68 567 150 143 193 121 202 127 218 80 228 171 
568 -0.46907147905286245 -0.0708272614358639 0.9576573306959261 0 0 0 0.37 45 28 68 568 106 145 125 97 137 102 
569 -0.4611592685164454 -0.12528292617198655 1.145705165465844 0 0 0 0.4 45 29 59 140 68 569 149 105 154 68 216 169 228 172 233 171 
570 -0.47785386266523 -0.04779035134123858 0.933530724696036 0 0 0 0.26 45 30 68 570 140 163 205 67 
571 -0.4457246587282909 -0.018377770760075414 1.1900604915025774 0 0 0 0.28 45 31 57 130 68 571 131 94 191 81 193 122 216 170 233 172 
572 -0.443391758872616 0.06079438599492725 1.0800194421124563 0 0 0 0.23 45 32 68 572 140 164 150 144 151 142 180 111 228 173 
573 -0.5023153222758693 0.05154031025441091 0.7932590074720832 0 0 0 0.26 45 33 68 573 143 79 161 77 193 123 
574 -0.5325553838232187 -0.1524735441042091 0.8502821044572273 0 0 0 0.53 45 34 68 574 149 106 161 78 205 68 218 81 
575 -0.4907362274794676 -0.1395905337570091 0.8881664874721273 0 0 0 0.42 45 35 47 29 68 575 90 40 228 174 
576 -0.4786822786774777 -0.09452650888465901 1.0573120706750427 0 0 0 0.4 45 36 68 576 150 145 154 69 202 128 
577 -0.4417712228584378 -0.07659268485161076 1.2201363673721073 0 0 0 0.32 45 37 55 81 68 577 137 103 
578 -0.472554694710609 -0.07521436016820753 0.9500473139534863 0 0 0 0.4 45 38 68 578 122 86 161 79 
579 -0.5336586568391463 -0.05285628340497165 0.773797608307119 0 0 0 0.4 45 39 57 131 68 579 94 69 116 99 131 95 132 66 145 50 233 173 
580 -0.54024602130324 -0.16957935490912623 0.7873538877247822 0 0 0 0.57 45 40 57 132 68 580 94 70 
581 -0.5071730318474063 -0.16182808271587068 0.874190441235303 0 0 0 1.34 45 41 68 581 106 146 173 72 212 120 
582 -0.5252664547297154 -0.1372726348456203 0.8554932478688148 0 0 0 0.21 46 88 68 582 228 175 
583 -0.468202199334691 -0.08028355620622665 0.9147217795372096 0 0 0 1.13 46 89 68 583 125 98 228 176 
584 -0.5534696841438104 -0.3069386012751214 1.197013965033424 0 0 0 0.38 46 90 68 584 90 41 139 121 150 146 161 80 186 35 205 69 211 102 228 177 233 174 
585 -0.4934955244465189 -0.24180793136580409 0.8984047838889155 0 0 0 0.44 46 91 47 30 68 585 131 96 139 122 154 70 161 81 180 112 216 171 
586 -0.4947080501756343 -0.21344161279652593 0.9035775066735767 0 0 0 0.31 46 92 68 586 139 123 166 99 205 70 
587 -0.5289143431373952 -0.17625386204927654 0.8437897817838558 0 0 0 0.2 46 93 68 587 140 165 193 124 216 172 
588 -0.5269297273877842 -0.13394572546226352 0.8494695905511301 0 0 0 0.45 46 94 68 588 86 23 106 147 154 71 205 71 
589 -0.52605246076592 -0.13380712385199356 0.8484981259394133 0 0 0 0.1 46 95 68 589 171 41 
590 -0.5420507282317584 -0.10584361150376617 0.7557691415780805 0 0 0 0.81 46 96 68 590 186 36 189 75 215 71 
591 -0.5292738656723824 -0.045140482024835095 0.807879275062802 0 0 0 0.46 46 97 68 591 161 82 180 113 183 48 233 175 
592 -0.4883376202883342 -0.018660134273778828 1.022975200859643 0 0 0 0.45 46 98 68 592 122 87 150 147 166 100 228 178 
593 -0.41349634051528317 0.09689156259335974 1.1748372464300023 0 0 0 0.34 46 99 68 593 106 148 139 124 144 144 151 143 177 125 191 82 211 103 218 82 
594 -0.4095256663960416 -0.05376242763326034 1.3515690411964396 0 0 0 0.44 46 100 68 594 144 145 150 148 151 144 178 72 
595 -0.4116673772602688 -0.042110788242521194 1.37608377967022 0 0 0 0.3 46 101 68 595 72 52 99 95 125 99 150 149 173 73 202 129 225 38 233 176 
596 -0.4119697516628542 -0.04220375757052912 1.3780418845182103 0 0 0 0.09 46 102 68 596 72 53 
597 -0.43384778024348597 0.006451131091439258 1.356843912693252 0 0 0 0.33 46 103 59 141 68 597 119 85 166 101 
598 -0.42370170711961813 0.019522936675585432 1.3499946979897173 0 0 0 0.3 46 104 68 598 233 177 
599 -0.4840827428984575 0.10062097590610612 1.017267675458664 0 0 0 0.14 46 105 68 599 137 104 228 179 
600 -0.40878192931568047 -0.07431667822071865 1.3550988308959533 0 0 0 0.33 46 106 68 600 137 105 144 146 151 145 166 102 186 37 212 121 
601 -0.4544782221759388 -0.14592029649589022 1.1569268469381022 0 0 0 0.31 46 107 68 601 106 149 140 166 173 74 180 114 193 125 233 178 
602 -0.4065260341102832 -0.13155785182225418 1.3714835844283866 0 0 0 0.36 46 108 59 142 68 602 106 150 115 45 119 86 125 100 131 97 150 150 151 146 166 103 202 130 211 104 215 72 216 173 233 179 
603 -0.4227845399968684 0.09120156337741483 1.281619262896962 0 0 0 0.38 46 109 57 133 68 603 144 147 
604 -0.5164132933338099 -0.21971726086500742 1.0784251461917005 0 0 0 1.02 46 110 68 604 216 174 233 180 
605 -0.47206917088767086 -0.20827306550212704 1.2682597881245996 0 0 0 0.68 46 111 55 82 57 134 68 605 94 71 145 51 149 107 202 131 211 105 215 73 216 175 228 180 233 181 
606 -0.4841385228656833 -0.10634740157044707 1.0798007668051135 0 0 0 0.34 46 112 68 606 161 83 
607 -0.46941275164015334 -0.009428004639758032 1.1223122296454595 0 0 0 0.4 46 113 68 607 150 151 191 83 228 181 
608 -0.4642625859346483 -0.00945392415963938 1.110871263140874 0 0 0 0.45 46 114 68 608 150 152 186 38 
609 -0.47778821161670376 -0.16892997551544503 1.1279757224533087 0 0 0 0.95 46 115 68 609 86 24 131 98 151 147 161 84 173 75 211 106 233 182 
610 -0.4579265313209117 -0.16142829204373335 1.155676754398283 0 0 0 0.59 46 116 57 135 68 610 94 72 125 101 144 148 166 104 202 132 218 83 
611 -0.4864103816886385 0.08256586118518197 1.070722553585375 0 0 0 0.27 46 117 68 611 119 87 
612 -0.5407927662335537 -0.17969250450632637 0.7830289592635884 0 0 0 0.41 47 31 68 612 171 42 
613 -0.4686174128892167 -0.07509839901048174 0.9593783095829217 0 0 0 0.43 47 32 55 83 68 613 106 151 122 88 125 102 139 125 144 149 183 49 205 72 211 107 216 176 
614 -0.473806791714625 -0.07916104923827667 1.0804166309843863 0 0 0 0.5 47 33 68 614 149 108 161 85 193 126 
615 -0.47771478276108226 -0.037612882987438874 0.9457046166141334 0 0 0 0.45 47 34 68 615 125 103 145 52 149 109 161 86 216 177 228 182 
616 -0.4785500167379837 -0.033510439481318696 0.9909354524499644 0 0 0 0.35 47 35 68 616 215 74 
617 -0.4873970885170439 -0.033475085451952956 1.027140872257953 0 0 0 0.61 47 36 57 136 68 617 122 89 144 150 205 73 211 108 216 178 218 84 
618 -0.4872957328191699 -0.23830881481129362 0.9001867394750428 0 0 0 0.77 68 618 122 90 132 67 139 126 144 151 180 115 205 74 
619 -0.46287881192249175 -0.12608132167813108 1.1317705921248724 0 0 0 0.24 68 619 116 100 131 99 233 183 
620 -0.46994758391362607 -0.11802078572589224 1.0898340241481963 0 0 0 0.36 47 37 68 620 140 167 151 148 161 87 183 50 193 127 205 75 
621 -0.43898094799118326 -0.18380633159698792 1.226741419271663 0 0 0 0.46 68 621 144 152 151 149 212 122 216 179 
622 -0.4710928941613812 -0.11609449241873873 1.077513496600426 0 0 0 0.45 47 38 68 622 161 88 183 51 193 128 205 76 215 75 
623 -0.4404583905457144 -0.11806282084141906 1.2176088555251876 0 0 0 0.28 68 623 140 168 150 153 151 150 177 126 180 116 193 129 
624 -0.48048195401637256 -0.03873818000688148 1.0007225516151979 0 0 0 0.37 47 39 55 84 59 143 68 624 94 73 137 106 140 169 149 110 166 105 193 130 215 76 216 180 
625 -0.4533610420161238 -0.16140575238995739 1.1467947417057438 0 0 0 0.32 47 40 68 625 125 104 144 153 
626 -0.5007519884828209 -0.18089026228799465 0.9072875446771216 0 0 0 1.04 47 41 68 626 215 77 
627 -0.4641817568608104 -0.13676605474939757 1.1758862859125785 0 0 0 0.92 68 627 102 22 131 100 144 154 166 106 173 76 177 127 178 73 180 117 216 181 218 85 
628 -0.5349444550967447 -0.19520946250012156 0.8617103535078362 0 0 0 0.23 55 85 68 628 90 42 137 107 144 155 183 52 
629 -0.48719082623113497 -0.12396158760413567 1.0516029070143345 0 0 0 0.14 55 86 68 629 137 108 
630 -0.23654610968248602 -0.025111632531231914 1.3184967003005708 0 0 0 0.57 55 87 68 630 99 96 115 46 228 183 
631 -0.05852405163099223 -0.005556758229663021 1.2931939809160726 0 0 0 0.24 55 88 68 631 72 54 140 170 177 128 189 76 202 133 
632 -0.15461126700150335 0.0014400891787638161 1.3004580330196491 0 0 0 0.13 55 89 57 137 68 632 72 55 106 152 137 109 150 154 
633 -0.4541241538123158 0.015763326058716855 1.158294596139607 0 0 0 0.37 55 90 68 633 125 105 228 184 233 184 
634 -0.4597871175432664 0.08188634617782764 1.0709469580837474 0 0 0 0.35 55 91 57 138 68 634 189 77 216 182 
635 -0.3356767308375885 -0.12635586589555511 1.3594802524333471 0 0 0 0.39 55 92 59 144 68 635 166 107 171 43 189 78 
636 -0.21546131501764695 -0.09062741023101836 1.3107890787763106 0 0 0 0.35 55 93 68 636 72 56 102 23 106 153 119 88 137 110 216 183 233 185 
637 -0.21662608179448448 -0.09117904478281347 1.3174495951257228 0 0 0 0.22 55 94 68 637 106 154 137 111 139 127 140 171 145 53 150 155 161 89 180 118 189 79 216 184 233 186 
638 -0.4649496036085894 -0.07533376565281413 1.137654060388655 0 0 0 0.33 55 95 68 638 137 112 140 172 145 54 233 187 
639 -0.4893974052954297 -0.04276420840957404 1.0095087452100293 0 0 0 0.37 55 96 68 639 116 101 149 111 205 77 216 185 228 185 
640 -0.4548928444281559 -0.030768750096957505 1.1636548480865598 0 0 0 0.16 55 97 68 640 139 128 144 156 212 123 
641 -0.536923359482996 -0.0339332144028493 0.7953705231865745 0 0 0 0.27 55 98 57 139 68 641 119 89 137 113 144 157 149 112 151 151 177 129 183 53 216 186 226 57 233 188 
642 -0.45254043456931053 -0.026615040901234916 1.1677379767623588 0 0 0 0.22 55 99 57 140 68 642 143 80 
643 -0.42773331485374577 0.01770271200958732 1.2159578521814396 0 0 0 0.22 55 100 68 643 116 102 137 114 140 173 151 152 
644 -0.4937701898222568 0.015588853794209188 0.8425543851374147 0 0 0 0.41 55 101 59 145 68 644 106 155 132 68 137 115 205 78 212 124 
645 -0.15363442560473273 0.06371195521349825 1.2909686964440068 0 0 0 0.44 55 102 68 645 72 57 106 156 137 116 139 129 177 130 189 80 216 187 233 189 
646 -0.04519350695286083 0.09275436214275966 1.275990388658469 0 0 0 0.4 55 103 57 141 68 646 202 134 
647 -0.2045826801084061 0.10544709829104296 1.2902771706652671 0 0 0 0.23 55 104 68 647 102 24 137 117 140 174 150 156 177 131 
648 -0.46403584408314735 -0.08403976619048001 1.13534001644745 0 0 0 0.38 55 105 68 648 131 101 140 175 193 131 215 78 218 86 226 58 
649 -0.5111484248265258 0.02685896260866609 0.8058283949801543 0 0 0 0.42 55 106 68 649 132 69 144 158 151 153 161 90 228 186 
650 -0.09833545075885701 -0.1013515453532771 1.3117748521042052 0 0 0 0.4 55 107 68 650 106 157 
651 -0.49520428564238 0.020789481104659613 0.8329458488848185 0 0 0 0.42 55 108 68 651 115 47 139 130 145 55 151 154 205 79 215 79 228 187 
652 -0.46870118290930834 -0.11037372982145428 0.9607820585121647 0 0 0 0.42 55 109 57 142 68 652 144 159 215 80 226 59 
653 -0.46642059138296926 0.025782344043016367 0.9984964618776185 0 0 0 0.33 55 110 68 653 125 106 144 160 
654 -0.4896876255794478 -0.14334742747140072 0.8940902702856104 0 0 0 0.24 57 143 68 654 145 56 151 155 173 77 180 119 
655 -0.10494528721830519 -0.09756638398441056 1.3049146525394335 0 0 0 0.23 57 144 68 655 150 157 
656 -0.46944456582938016 -0.0876394915387757 1.1145848582442874 0 0 0 0.34 57 145 59 146 68 656 72 58 140 176 143 81 226 60 
657 -0.4867394462792184 -0.04073771127395336 1.0242494454231834 0 0 0 0.29 57 146 68 657 191 84 193 132 
658 -0.5001507448496083 -0.024205569106065132 0.8872091564830205 0 0 0 0.17 57 147 68 658 144 161 
659 -0.4835512222120113 -0.01858803276827328 0.9256984989018673 0 0 0 0.47 57 148 68 659 145 57 183 54 
660 -0.47845128965565203 -0.01386320471796496 0.9319210888107231 0 0 0 0.34 57 149 68 660 90 43 119 90 212 125 
661 -0.06591870406792612 0.0002862935149467579 1.3002007958965025 0 0 0 0.23 57 150 68 661 191 85 
