# 3D point list with one line of data per point:
#   POINT3D_ID, X, Y, Z, R, G, B, ERROR, TRACK[] as (IMAGE_ID, POINT2D_IDX)
# Number of points: 357, mean track length: 7.1
480 0.18296946859599816 0.03508635113156942 0.7952243982873632 0 0 0 0.27 13 97 112 128 187 424 
481 0.5058090418102045 0.05288804809457448 0.945892567859969 0 0 0 0.53 13 98 124 126 187 425 175 95 201 65 
482 -0.12471035553969113 0.05522114717606485 0.6543789819393834 0 0 0 0.1 13 99 93 89 98 141 
483 -0.05995159652906314 0.058101437140088634 0.6839500379908885 0 0 0 0.17 13 100 33 94 93 90 124 127 187 426 146 230 175 96 176 126 214 138 
484 -0.1330183876820909 0.05500481278718282 0.6519431741507102 0 0 0 0.3 13 101 98 142 187 427 39 65 124 128 200 88 
485 -0.13156031035928592 0.05782272030996366 0.6519930803015079 0 0 0 0.25 13 102 98 143 187 428 
486 0.38121850644537036 0.07875669163928695 0.8710031724551601 0 0 0 0.29 13 103 93 91 112 129 187 429 28 61 146 231 201 66 213 201 
487 0.18664377171217958 0.07642604865749497 0.7852326814380611 0 0 0 0.19 13 104 109 59 187 430 28 62 38 149 146 232 201 67 213 202 214 139 
488 0.32379516943149056 0.08411221859645555 0.8467586216704639 0 0 0 0.33 13 105 98 144 124 129 187 431 
489 0.24293556665879826 0.08135769245244844 0.8085105363489073 0 0 0 0.28 13 106 91 23 124 130 187 432 28 63 201 68 
490 0.3046720523222399 0.08464470816198487 0.8334034192306228 0 0 0 0.18 13 107 98 145 124 131 187 433 201 69 175 97 
491 0.44293650948373914 0.09450554042571085 0.8994207786174792 0 0 0 0.37 13 108 124 132 187 434 28 64 38 150 85 80 93 92 175 98 201 70 214 140 176 127 
492 0.4351193025908773 0.09672342510257832 0.8951344597825458 0 0 0 0.22 13 109 93 93 124 133 187 435 
493 0.4407849555748103 0.09728701348131881 0.8973065015725187 0 0 0 0.2 13 110 124 134 187 436 28 65 93 94 146 233 175 99 201 71 200 89 
494 0.3787889491167926 0.09430747398124845 0.867544240328423 0 0 0 0.2 13 111 33 95 187 437 175 100 200 90 
495 0.4945116460537981 0.10381015257442787 0.9199406536166655 0 0 0 0.31 13 112 33 96 124 135 187 438 
496 0.43225823306958416 0.10253101677148505 0.8926840805736126 0 0 0 0.21 13 113 93 95 98 146 124 136 187 439 4 282 11 236 28 66 38 151 146 234 148 60 157 121 175 101 201 72 213 203 214 141 
497 0.5106556034275097 0.1100653019379681 0.927041630676555 0 0 0 0.29 13 114 98 147 124 137 187 440 201 73 
498 0.19183512216416132 0.1103794817917666 0.7756360793168445 0 0 0 0.25 13 115 33 97 187 441 146 235 213 204 214 142 
499 0.38805505368060805 0.1250108578350954 0.8615824860609137 0 0 0 0.31 13 116 93 96 187 442 124 138 146 236 175 102 201 74 
500 0.059385952485780547 0.11530096738881632 0.7172318429847341 0 0 0 0.16 13 117 124 139 187 443 28 67 175 103 
501 0.38298240105476855 0.13645618604546056 0.8562045133393105 0 0 0 0.23 13 118 124 140 187 444 
502 0.12629589804436192 0.12699188660105 0.7422868894003884 0 0 0 0.46 13 119 38 152 85 81 187 445 146 237 148 61 214 143 223 32 234 72 
503 0.3837059760526861 0.14044352684749029 0.853741306132883 0 0 0 0.17 13 120 33 98 93 97 187 446 
504 -0.005267076437683406 0.1262816853903875 0.6847189020545101 0 0 0 0.41 13 121 93 98 187 447 146 238 214 144 
505 0.3820698033399797 0.1503601068522835 0.8504717992112651 0 0 0 0.19 13 122 93 99 124 141 187 448 175 104 201 75 
506 0.3854886624946657 0.1509913157586907 0.8510889642552302 0 0 0 0.23 13 123 124 142 187 449 28 68 93 100 201 76 
507 0.20085087946869187 0.14149938621858724 0.7648392372820176 0 0 0 0.18 13 124 124 143 187 450 
508 0.3767812195447538 0.1610306158998256 0.8420314472130112 0 0 0 0.32 13 125 98 148 187 451 146 239 175 105 
509 0.005755141113753998 0.1475151383932167 0.6816718618983086 0 0 0 0.32 13 126 98 149 187 452 
510 0.00823034411006391 0.15254583637629043 0.6731653203331014 0 0 0 0.26 13 127 124 144 187 453 
511 -0.060169261640103416 0.1530586301084772 0.6496837487955482 0 0 0 0.41 13 128 16 277 187 454 146 240 214 145 
512 0.061572360034192704 0.16288834926595944 0.6995356846891175 0 0 0 0.26 13 129 16 278 33 99 124 145 187 455 146 241 175 106 
513 0.06545519916520219 0.16263227590728133 0.6981011004434465 0 0 0 0.27 13 130 98 150 124 146 187 456 
514 0.12163749544875478 0.17118626093305364 0.7207289609039503 0 0 0 0.32 13 131 124 147 187 457 
515 0.06912828857375922 0.16986536853558132 0.6967736370767604 0 0 0 0.09 13 132 124 148 187 458 
516 0.18768250928516336 0.19584747194402827 0.7425100819594359 0 0 0 0.27 13 133 109 60 187 459 146 242 175 107 
517 0.38345932009339084 0.21936050094001877 0.8256808833669537 0 0 0 0.31 13 134 93 101 187 460 
518 -0.1958581496570869 -0.22971514076241387 0.7542507741541528 0 0 0 0.3 13 135 93 102 98 151 112 130 39 66 124 149 200 91 
519 0.026791111666633616 -0.20761350458583497 0.8286353820905924 0 0 0 0.29 13 136 16 279 93 103 98 152 124 150 187 461 201 77 146 243 164 105 194 59 200 92 213 205 224 20 231 39 
520 0.5900959941934016 -0.16209261233266886 1.0746268680295994 0 0 0 0.19 13 137 98 153 187 462 
521 -0.12325486509393821 -0.09371614817277546 0.7257170762376426 0 0 0 0.34 13 138 93 104 98 154 109 61 124 151 187 463 39 67 157 122 200 93 214 146 
522 0.11849498497941964 -0.08439910149263628 0.8322843278228667 0 0 0 0.19 13 139 124 152 187 464 
523 0.4180212748211865 0.03515767572965488 0.9234767345995636 0 0 0 0.31 13 140 98 155 112 131 187 465 124 153 201 78 
524 -0.10733776738817052 0.01945934775621423 0.6881052742866822 0 0 0 0.16 13 141 16 280 33 100 187 466 157 123 176 128 213 206 214 147 
525 0.14175223210706514 0.04153863135754214 0.7892536823786944 0 0 0 0.13 13 142 112 132 124 154 187 467 146 244 175 108 214 148 
526 0.1283612935192047 0.048994619017453216 0.7702853714316794 0 0 0 0.21 13 143 112 133 187 468 
527 -0.12879609408328657 0.05517565873909007 0.6536600852378815 0 0 0 0.23 13 144 16 281 33 101 93 105 98 156 124 155 39 68 146 245 200 94 
528 0.4352452147746076 0.0838714807040015 0.8951857711098372 0 0 0 0.45 13 145 33 102 92 149 93 106 98 157 187 469 38 153 85 82 91 24 112 134 157 124 194 60 201 79 213 207 214 149 175 109 176 129 
529 0.3804621283286647 0.08843588509463361 0.8707432587970689 0 0 0 0.36 13 146 36 42 92 150 187 470 
530 0.3856280063060691 0.09601586427999713 0.8722716588814513 0 0 0 0.27 13 147 44 135 187 471 
531 0.4365355616081288 0.10028460297717892 0.8954434880445784 0 0 0 0.2 13 148 93 107 98 158 109 62 124 156 187 472 28 69 146 246 157 125 175 110 194 61 201 80 213 208 214 150 
532 0.12030078752485329 0.09274311080570796 0.7524180068429115 0 0 0 0.21 13 149 93 108 110 72 187 473 4 283 11 237 28 70 38 154 146 247 194 62 201 81 223 33 188 31 213 209 
533 0.5656019327658387 0.11635676366780953 0.952162153467674 0 0 0 0.47 13 150 124 157 187 474 146 248 158 69 201 82 213 210 
534 0.034424702699812446 0.10513479876222429 0.7212405718956391 0 0 0 0.17 13 151 16 282 98 159 187 475 146 249 175 111 213 211 
535 0.03143240867358254 0.10829121386050064 0.7201936820752535 0 0 0 0.19 13 152 16 283 124 158 187 476 146 250 175 112 213 212 214 151 
536 0.39240675086137505 0.134086355606838 0.8623610501143395 0 0 0 0.24 13 153 124 159 187 477 28 71 135 58 146 251 175 113 201 83 
537 0.41419557692831294 0.14421143743067258 0.8801740625217271 0 0 0 0.33 13 154 98 160 187 478 175 114 200 95 234 73 
538 0.06248260664663203 0.1245076640183227 0.7156009619258729 0 0 0 0.22 13 155 16 284 38 155 187 479 11 238 28 72 93 109 146 252 175 115 201 84 213 213 214 152 136 24 231 40 
539 0.3970803931814307 0.1588502050976582 0.8510456886827018 0 0 0 0.32 13 156 44 136 124 160 187 480 175 116 213 214 
540 0.3811075130457018 0.16948857244408225 0.8404887236576357 0 0 0 0.19 13 157 98 161 187 481 146 253 175 117 213 215 
541 0.25500329834519164 0.1622428630266833 0.7823574675670653 0 0 0 0.18 13 158 85 83 187 482 
542 0.39844988776182083 0.1750056810810783 0.8467685188522893 0 0 0 0.33 13 159 50 156 98 162 187 483 146 254 175 118 
543 0.2555226038484959 0.17345108074017426 0.7782658725814686 0 0 0 0.33 13 160 33 103 85 84 187 484 146 255 194 63 196 32 234 74 
544 -0.05688272440265404 0.157050903544026 0.6496887224413286 0 0 0 0.32 13 161 16 285 93 110 187 485 146 256 213 216 
545 -0.06007437897687866 0.1600445562339128 0.6470003407024805 0 0 0 0.39 13 162 92 151 93 111 124 161 187 486 146 257 213 217 214 153 
546 0.25618903721551345 0.18203474945166784 0.7754942632574527 0 0 0 0.28 13 163 50 157 85 85 187 487 146 258 148 62 175 119 194 64 196 33 
547 0.1313706736699135 0.17920148192794425 0.7223311752414766 0 0 0 0.16 13 164 38 156 187 488 
548 0.26079493995186276 0.18978491872969022 0.7748883109964377 0 0 0 0.18 13 165 52 21 187 489 146 259 194 65 
549 0.05351698311819319 0.17862902353827184 0.6873702032411863 0 0 0 0.36 13 166 50 158 98 163 124 162 187 490 158 70 231 41 
550 -0.06287202540169344 0.1732436027222297 0.6412183195039969 0 0 0 0.38 13 167 16 286 93 112 187 491 146 260 176 130 214 154 
551 0.2644432955927202 0.19437110810676844 0.774691040345083 0 0 0 0.23 13 168 52 22 187 492 146 261 223 34 
552 -0.20247292771323605 -0.2253439756910956 0.7496009589707384 0 0 0 0.2 13 169 16 287 17 118 77 154 98 164 112 135 124 163 2 145 4 284 9 100 11 239 28 73 32 32 33 104 38 157 39 69 44 137 50 159 61 90 85 86 92 152 93 113 109 63 110 73 113 48 136 25 148 63 157 126 159 32 164 106 185 32 194 66 196 34 200 96 213 218 214 155 
553 -0.19754561350343355 -0.22086508647983955 0.7488730412283288 0 0 0 0.32 13 170 38 158 92 153 98 165 112 136 124 164 28 74 39 70 44 138 135 59 136 26 146 262 148 64 185 33 214 156 
554 0.13173040906182124 -0.20028514707545592 0.8735571541759796 0 0 0 0.26 13 171 16 288 61 91 110 74 112 137 124 165 187 493 77 155 118 117 148 65 176 131 194 67 201 85 213 219 214 157 234 75 
555 0.25611636034566554 -0.19410108125968348 0.9294970491782403 0 0 0 0.32 13 172 17 119 38 159 44 139 91 25 92 154 93 114 98 166 109 64 118 118 124 166 187 494 4 285 9 101 28 75 33 105 39 71 61 92 71 7 85 87 112 138 146 263 157 127 164 107 175 120 176 132 196 35 200 97 213 220 214 158 234 76 16 289 135 60 201 86 
556 0.5245469038961889 -0.17230529016838797 1.0449163690766683 0 0 0 0.29 13 173 98 167 187 495 201 87 232 63 234 77 146 264 213 221 
557 0.41831020513971195 0.027557709763891526 0.9263682228966046 0 0 0 0.32 13 174 98 168 187 496 28 76 112 139 146 265 157 128 175 121 201 88 234 78 
558 0.1254932687961962 0.06839495887004914 0.7614482065392452 0 0 0 0.27 13 175 36 43 187 497 157 129 188 32 
559 0.4997331814046762 0.09400378749956718 0.9257846403416273 0 0 0 0.25 13 176 61 93 85 88 98 169 124 167 187 498 4 286 28 77 38 160 110 75 148 66 164 108 194 68 201 89 
560 0.30280851411977927 0.08960641914632805 0.8334798068574993 0 0 0 0.28 13 177 36 44 124 168 187 499 128 32 146 266 201 90 213 222 158 71 
561 0.42836602300503135 0.1058762852733891 0.8907279140284108 0 0 0 0.22 13 178 98 170 187 500 175 122 201 91 
562 0.5129458330739871 0.14099365048774112 0.9153682687666218 0 0 0 0.41 13 179 17 120 61 94 98 171 187 501 
563 0.37938831672172085 0.1414153566908966 0.8524702520317557 0 0 0 0.24 13 180 33 106 44 140 53 63 61 95 93 115 187 502 146 267 234 79 172 47 
564 0.46920113960113724 0.17024084899689462 0.8824789750928856 0 0 0 0.31 13 181 124 169 187 503 175 123 234 80 
565 0.12539253900273242 0.17605157236186852 0.7222945487730235 0 0 0 0.18 13 182 16 290 93 116 187 504 146 268 213 223 234 81 
566 0.2564982889068762 0.18951789179379772 0.7730825619597911 0 0 0 0.26 13 183 50 160 85 89 124 170 187 505 146 269 175 124 194 69 223 35 234 82 
567 0.25783840715436523 0.21526980512859015 0.7638874525952414 0 0 0 0.31 13 184 118 119 187 506 
568 -0.06475330710593145 0.19910379633273767 0.6319989237000175 0 0 0 0.78 13 185 44 141 85 90 92 155 187 507 
569 0.1213436939401785 0.16147889774823715 0.7227950278423081 0 0 0 0.08 13 186 17 121 187 508 
570 0.06775494091081827 0.16573163230910357 0.6992813982774477 0 0 0 0.26 13 187 53 64 77 156 98 172 187 509 152 23 223 36 227 14 
571 0.1728500282639668 0.08373360380675418 0.7795457493904939 0 0 0 0.27 13 188 15 46 118 120 187 510 147 32 213 224 219 30 234 83 
572 0.376256065054745 0.09681284281779094 0.8677824890282257 0 0 0 0.37 13 189 15 47 50 161 187 511 4 287 11 240 28 78 53 65 77 157 118 121 146 270 194 70 201 92 204 50 213 225 214 159 234 84 
573 0.21253468974207243 0.14236981076627125 0.775904531796943 0 0 0 0.47 13 190 53 66 187 512 
574 0.39608339788450553 0.16344021683936394 0.8476959397466516 0 0 0 0.51 13 191 50 162 61 96 124 171 187 513 158 72 175 125 214 160 232 64 234 85 
575 0.017019077555436097 0.22679317202322222 0.5935680633442347 0 0 0 0.68 13 192 77 158 187 514 
576 0.2085937849915568 0.14932641319485565 0.7671225711281751 0 0 0 0.36 13 193 17 122 50 163 61 97 96 48 124 172 187 515 146 271 172 48 175 126 200 98 227 15 234 86 158 73 232 65 
577 0.3597126247371421 0.163672545137303 0.8458672605753057 0 0 0 0.39 13 194 53 67 187 516 124 173 158 74 234 87 
578 0.2366926074648044 0.22000012444524034 0.7628927174292865 0 0 0 0.4 13 195 61 98 187 517 146 272 234 88 
579 0.0434742139920835 -0.2288628064570592 0.8427308238099478 0 0 0 0.38 13 196 98 173 124 174 187 518 
580 0.3090456539152618 -0.3549342757390837 1.021098295673718 0 0 0 0.23 15 48 85 91 98 174 187 519 96 49 
581 -0.06479682944457188 -0.20651150627168136 0.7905897099012198 0 0 0 0.55 15 49 85 92 113 49 118 122 187 520 28 79 39 72 98 175 109 65 128 33 146 273 158 75 232 66 
582 0.28590144869188594 -0.06472400608027121 0.897420629361434 0 0 0 0.29 15 50 61 99 91 26 96 50 98 176 118 123 187 521 152 24 176 133 213 226 234 89 
583 0.15227572280171192 -0.06785398721246375 0.8392048380053588 0 0 0 0.16 15 51 112 140 187 522 
584 -0.12868661144417418 0.015130581279852777 0.6648496556112524 0 0 0 0.34 15 52 16 291 50 164 118 124 187 523 77 159 128 34 221 27 232 67 164 109 222 36 
585 0.08968086779259948 -0.24254376530689645 0.8721728271911936 0 0 0 0.57 15 53 50 165 98 177 112 141 187 524 146 274 158 76 213 227 
586 -0.001929348414043614 0.0182079900107059 0.7278210279312692 0 0 0 0.49 15 54 50 166 61 100 187 525 175 127 219 31 
587 0.34917890475199925 0.06840868960716176 0.8707245707614769 0 0 0 0.36 15 55 50 167 98 178 112 142 187 526 13 197 28 80 53 68 152 25 158 77 175 128 201 93 204 51 234 90 124 175 
588 0.11565893768642753 0.08215773648297724 0.7539124177389387 0 0 0 0.23 15 56 16 292 17 123 118 125 187 527 4 288 11 241 28 81 53 69 77 160 85 93 146 275 148 67 164 110 176 134 194 71 201 94 213 228 214 161 223 37 232 68 234 91 
589 0.17038860990844212 0.02999368067881353 0.7974574781313071 0 0 0 0.38 15 57 17 124 50 168 61 101 98 179 112 143 118 126 187 528 16 293 146 276 176 135 201 95 204 52 128 35 152 26 175 129 213 229 221 28 
590 0.48489912630843374 0.15306418240816283 0.9050975330672637 0 0 0 0.49 15 58 32 33 53 70 77 161 98 180 118 127 124 176 187 529 158 78 175 130 200 99 221 29 234 92 
591 0.35847688684327644 -0.15080047641941283 0.9605854584044663 0 0 0 0.33 15 59 44 142 187 530 146 277 164 111 190 21 
592 0.05985071484608958 0.027643082974833564 0.7513246289246097 0 0 0 0.59 15 60 112 144 187 531 157 130 158 79 232 69 
593 0.07897060513643757 0.14259179365530153 0.71821330978812 0 0 0 0.43 15 61 52 23 53 71 61 102 96 51 103 20 187 532 19 28 98 181 147 33 221 30 172 49 190 22 223 38 
594 0.10403549998421548 -0.25619036945649054 0.8819552248339659 0 0 0 0.55 15 62 92 156 93 117 98 182 187 533 39 73 214 162 146 278 222 37 
595 0.08873064382120315 0.0867447186914702 0.7418749460248872 0 0 0 0.32 15 63 16 294 17 125 98 183 118 128 187 534 
596 0.058699604226531414 -0.28512273580351577 0.8741050629939587 0 0 0 0.2 16 295 112 145 187 535 
597 -0.02317173265085515 -0.2821200868932862 0.835650929168747 0 0 0 0.61 16 296 98 184 187 536 38 161 39 74 109 66 157 131 146 279 200 100 213 230 
598 0.035513643825887876 -0.2722579019160819 0.8590223739944061 0 0 0 0.25 16 297 112 146 187 537 136 27 146 280 213 231 
599 -0.015072329321972954 -0.2689388493707733 0.8343409038423721 0 0 0 0.22 16 298 38 162 187 538 146 281 213 232 
600 0.1304818344483362 -0.2598898694847629 0.8973370660781718 0 0 0 0.21 16 299 33 107 38 163 112 147 187 539 28 82 39 75 136 28 213 233 98 185 200 101 214 163 
601 0.015370716121876972 -0.2548124820205597 0.8423594134775986 0 0 0 0.28 16 300 50 169 98 186 187 540 112 148 146 282 157 132 
602 -0.1502085287486145 -0.26196098815269586 0.7607682655480701 0 0 0 0.27 16 301 33 108 38 164 98 187 
603 -0.14375536996162266 -0.2529435994407418 0.7665638522395334 0 0 0 0.25 16 302 33 109 98 188 
604 0.011952195488911433 -0.24601345935213037 0.8380328808926537 0 0 0 0.16 16 303 50 170 98 189 112 149 118 129 124 177 187 541 28 83 39 76 146 283 157 133 200 102 213 234 
605 0.09013032831309764 -0.23557217708855938 0.8690552239012562 0 0 0 0.32 16 304 33 110 124 178 187 542 112 150 
606 0.1733737429736427 -0.23002248479394494 0.9028101089519162 0 0 0 0.31 16 305 98 190 187 543 
607 -0.18152736993924068 -0.24378210345597912 0.7581880911381566 0 0 0 0.25 16 306 109 67 112 151 187 544 
608 0.0377590317795763 -0.23410565722966123 0.8458761092850596 0 0 0 0.29 16 307 112 152 187 545 146 284 157 134 
609 0.027997647485934682 -0.23227869198783627 0.8409491367716629 0 0 0 0.43 16 308 50 171 98 191 124 179 187 546 39 77 146 285 176 136 13 198 201 96 157 135 200 103 
610 -0.030052894250006047 -0.2339242086775695 0.816201388115277 0 0 0 0.16 16 309 98 192 187 547 146 286 157 136 213 235 
611 0.12744336139019413 -0.2260221617631309 0.8845103800341102 0 0 0 0.26 16 310 33 111 187 548 175 131 213 236 
612 0.14094422213256266 -0.22153812063300957 0.888374186904275 0 0 0 0.14 16 311 112 153 187 549 146 287 157 137 175 132 213 237 
613 -0.10778850486193255 -0.23228428614954383 0.7807628682506735 0 0 0 0.4 16 312 112 154 187 550 13 199 39 78 200 104 231 42 
614 -0.009215760668129092 -0.22730165941978953 0.8212138222577335 0 0 0 0.1 16 313 109 68 187 551 
615 -0.14635579556415837 -0.2321217127074781 0.7651825894491787 0 0 0 0.34 16 314 109 69 112 155 124 180 187 552 
616 -0.13265749204961075 -0.2304470048947519 0.7699693568435969 0 0 0 0.27 16 315 33 112 38 165 98 193 187 553 109 70 112 156 146 288 157 138 213 238 
617 0.22918036822068713 -0.2127364634792786 0.9163653198314547 0 0 0 0.25 16 316 33 113 93 118 98 194 109 71 112 157 124 181 187 554 146 289 175 133 
618 -0.13520662166632463 -0.22802905914009497 0.7677822309008927 0 0 0 0.3 16 317 33 114 112 158 187 555 
619 -0.05726355796595212 -0.2225924441680136 0.797952431581563 0 0 0 0.08 16 318 36 45 187 556 
620 -0.14255429271770423 -0.2253591302764536 0.7633681945542835 0 0 0 0.2 16 319 124 182 187 557 98 195 157 139 176 137 214 164 231 43 
621 -0.07990097389962135 -0.22056688047858639 0.7881544138894898 0 0 0 0.22 16 320 98 196 112 159 124 183 187 558 28 84 39 79 146 290 231 44 
622 0.20276555031396937 -0.2066457478096037 0.9063908770871912 0 0 0 0.52 16 321 91 27 93 119 98 197 112 160 124 184 187 559 39 80 146 291 200 105 213 239 
623 0.10439544219339394 -0.20170647213544915 0.861103605332249 0 0 0 0.3 16 322 38 166 187 560 98 198 124 185 146 292 201 97 213 240 214 165 
624 -0.1445424113853262 -0.17715645537210536 0.7444260037192282 0 0 0 0.22 16 323 38 167 109 72 112 161 187 561 
625 0.21893093070196037 -0.15373780887781333 0.897040444009122 0 0 0 0.21 16 324 98 199 187 562 112 162 146 293 176 138 175 134 234 93 
626 -0.14376135797881678 -0.16678833257817507 0.7405259915307247 0 0 0 0.4 16 325 98 200 187 563 
627 -0.027644267973365104 -0.15125146111936227 0.7865255530637384 0 0 0 0.3 16 326 112 163 187 564 
628 0.09417768195175764 -0.12887488407275083 0.8308955662710974 0 0 0 0.34 16 327 112 164 187 565 146 294 175 135 200 106 
629 0.1716603225439862 -0.11160900590581645 0.8596899020062202 0 0 0 0.44 16 328 112 165 187 566 
630 -0.029247332206602403 -0.11664361745836485 0.7704597471041472 0 0 0 0.32 16 329 98 201 112 166 187 567 
631 0.09230278962247127 -0.10294362077074028 0.8234748001654981 0 0 0 0.19 16 330 112 167 187 568 146 295 157 140 175 136 
632 -0.03776265199431714 -0.10867511880142644 0.7710281630993333 0 0 0 0.2 16 331 98 202 187 569 
633 0.22337144340470078 -0.09294089319241848 0.8753539646561791 0 0 0 0.33 16 332 98 203 112 168 187 570 146 296 157 141 175 137 213 241 
634 0.0719490727783861 -0.09703336709258625 0.8087155557867969 0 0 0 0.27 16 333 44 143 98 204 112 169 124 186 187 571 146 297 157 142 175 138 200 107 
635 0.20756602276638153 -0.08245116407516827 0.8646062802653208 0 0 0 0.27 16 334 52 24 93 120 112 170 187 572 146 298 157 143 175 139 200 108 214 166 
636 -0.20130746040336242 -0.09851952980898336 0.7070573744036607 0 0 0 0.44 16 335 98 205 187 573 146 299 213 242 
637 -0.21464555183121226 -0.09819779291870609 0.7017221857418584 0 0 0 0.23 16 336 38 168 187 574 
638 -0.21050817291389357 -0.09711841518535955 0.7036799701560809 0 0 0 0.2 16 337 33 115 112 171 187 575 
639 -0.17765698601267427 -0.09548337463017502 0.7123639788526358 0 0 0 0.23 16 338 98 206 112 172 9 102 33 116 38 169 39 81 109 73 113 50 124 187 146 300 157 144 213 243 214 167 231 45 176 139 187 576 
640 0.38731835867410763 -0.06517661309332907 0.9439474870399973 0 0 0 0.22 38 170 44 144 98 207 112 173 187 577 146 301 194 72 
641 0.017167209744511986 -0.08327977908353587 0.7855023144282415 0 0 0 0.19 16 339 112 174 187 578 175 140 213 244 214 168 231 46 
642 0.215246840031823 -0.06859902139125759 0.8648667294648662 0 0 0 0.31 16 340 91 28 124 188 187 579 157 145 175 141 
643 0.10221906694723565 -0.06835026251504474 0.8127810278250038 0 0 0 0.08 16 341 112 175 187 580 
644 0.16457207030034185 -0.06370502025359122 0.8367224310420995 0 0 0 0.32 16 342 112 176 187 581 
645 0.09886605259077967 -0.06616908117689674 0.8088199521947063 0 0 0 0.28 16 343 112 177 187 582 146 302 175 142 200 109 
646 0.11602275140680401 0.029933105788068824 0.7670119315124623 0 0 0 0.27 16 344 112 178 187 583 13 200 28 85 98 208 146 303 175 143 201 98 213 245 234 94 
647 -0.05047412956561147 0.025628226219265592 0.7103060786474071 0 0 0 0.11 16 345 98 209 187 584 157 146 175 144 213 246 
648 -0.076889044752346 0.021830546402513775 0.6887577680649988 0 0 0 0.3 16 346 98 210 124 189 187 585 157 147 175 145 
649 -0.020595152316548477 0.026195513799384833 0.7155074772317406 0 0 0 0.24 16 347 98 211 112 179 187 586 28 86 39 82 146 304 214 169 157 148 200 110 
650 -0.21275361475964902 0.01758363243783467 0.6419731589910878 0 0 0 0.17 16 348 38 171 50 172 98 212 
651 0.17956174796052196 0.039309842325780296 0.7893769028863692 0 0 0 0.26 16 349 112 180 187 587 175 146 176 140 
652 -0.11039943652653847 0.027287925617542036 0.6849587397087908 0 0 0 0.13 16 350 92 157 187 588 176 141 214 170 213 247 
653 -0.10430524645874525 0.02804741934249013 0.6887815875640203 0 0 0 0.11 16 351 98 213 187 589 
654 0.1580283096109271 0.04268690363344334 0.7928721761662139 0 0 0 0.32 16 352 112 181 124 190 187 590 28 87 39 83 93 121 136 29 175 147 200 111 201 99 
655 0.35465762130300493 0.05833032506084629 0.8772391609563087 0 0 0 0.19 112 182 124 191 187 591 28 88 175 148 201 100 
656 0.18456646600314505 0.04593758665121613 0.7874719451299256 0 0 0 0.33 16 353 112 183 187 592 13 201 146 305 176 142 201 101 
657 -0.00912854108684217 0.04308339385654531 0.708810540702964 0 0 0 0.18 16 354 50 173 92 158 187 593 146 306 157 149 175 149 213 248 214 171 
658 0.24726619806316238 0.06123594592931988 0.8102411357585899 0 0 0 0.29 16 355 93 122 187 594 146 307 176 143 214 172 231 47 
659 -0.03692995163638513 0.05980751562567671 0.7049247098311007 0 0 0 0.11 16 356 92 159 187 595 146 308 176 144 188 33 214 173 
660 0.09439901374121452 0.07002234657278558 0.7610229432798551 0 0 0 0.22 16 357 98 214 187 596 
661 -0.20238789139571184 0.05673297210039354 0.6371416174447465 0 0 0 0.17 16 358 38 172 187 597 
662 -0.007485582761480958 0.0684719666010879 0.7054021960519913 0 0 0 0.16 16 359 109 74 187 598 146 309 214 174 
663 0.057633347161185254 0.09473624822693309 0.7247166286209299 0 0 0 0.19 16 360 98 215 187 599 28 89 
664 0.38329571656591693 0.1305434513129024 0.8583609547972832 0 0 0 0.46 93 123 124 192 187 600 
665 -0.13255239136196495 0.0975169151941371 0.6357065045220835 0 0 0 0.11 16 361 33 117 93 124 
666 -0.030036418066524555 0.1161340064519559 0.6906259047292345 0 0 0 0.13 16 362 38 173 187 601 
667 -0.005850821635912817 0.11572876710553559 0.6895969709963737 0 0 0 0.24 16 363 109 75 187 602 146 310 157 150 175 150 188 34 213 249 
668 -0.005793097251991652 0.12076048787500948 0.6870126986042548 0 0 0 0.29 16 364 38 174 93 125 187 603 146 311 157 151 213 250 214 175 224 21 
669 0.11712104679405122 0.1297538479394815 0.7371202868207674 0 0 0 0.19 16 365 38 175 92 160 93 126 187 604 28 90 201 102 214 176 136 30 146 312 213 251 
670 -0.05935077679150544 0.1342232289434354 0.657906072607461 0 0 0 0.16 16 366 93 127 187 605 
671 -0.05873925039540217 0.1417106264051917 0.6555506264461641 0 0 0 0.3 16 367 33 118 38 176 93 128 98 216 187 606 146 313 176 145 213 252 
672 0.259366411217191 0.17158180532045975 0.7807656305620709 0 0 0 0.17 85 94 109 76 187 607 
673 -0.19569589234465498 0.17219393509003578 0.5984490609135191 0 0 0 0.42 16 368 33 119 92 161 
674 0.09820781000638812 -0.27556673476396437 0.8881180569358863 0 0 0 0.34 16 369 32 34 77 162 98 217 187 608 
675 0.10717332574635174 -0.2582652131112378 0.8880008971579989 0 0 0 0.26 16 370 19 29 77 163 96 52 98 218 111 18 187 609 135 61 136 31 146 314 158 80 176 146 200 112 227 16 
676 0.09496710945013012 -0.2363033076129123 0.8727596661893802 0 0 0 0.21 16 371 33 120 44 145 50 174 93 129 98 219 187 610 146 315 200 113 213 253 
677 0.020728478977889802 -0.23768016218894614 0.8385538368527042 0 0 0 0.22 16 372 44 146 77 164 112 184 187 611 
678 0.19150063730765937 -0.22561336608400553 0.9109289292201894 0 0 0 0.35 16 373 17 126 38 177 110 76 112 185 187 612 4 289 39 84 214 177 164 112 176 147 185 34 213 254 
679 -0.17027014622056613 -0.23187959619977683 0.7629853101544172 0 0 0 0.69 16 374 53 72 96 53 98 220 112 186 
680 -0.012493700344914094 -0.21486467258412725 0.8134332096177619 0 0 0 0.26 16 375 92 162 98 221 112 187 124 193 187 613 135 62 231 48 
681 -0.05011609613179119 -0.21339548877947134 0.7976575821882083 0 0 0 0.42 16 376 61 103 98 222 112 188 187 614 157 152 200 114 213 255 
682 0.11917446038890166 -0.20573443193830487 0.8694639532851389 0 0 0 0.27 16 377 112 189 187 615 4 290 11 242 28 91 109 77 146 316 201 103 38 178 176 148 194 73 214 178 219 32 234 95 
683 0.20680973026430594 -0.1986928872022428 0.9054916156175258 0 0 0 0.45 16 378 38 179 77 165 85 95 92 163 109 78 112 190 187 616 50 175 91 29 39 85 146 317 148 68 164 113 194 74 200 115 213 256 214 179 197 12 201 104 135 63 185 35 159 33 
684 0.37516175524201123 -0.18407563693286189 0.9791187115838227 0 0 0 0.34 44 147 77 166 93 130 98 223 112 191 124 194 187 617 39 86 61 104 146 318 200 116 175 151 176 149 
685 0.21278800859571884 -0.18004755131051045 0.9013707097295327 0 0 0 0.22 16 379 112 192 187 618 146 319 234 96 
686 0.3574078748798219 -0.15207097193864766 0.9597137230953444 0 0 0 0.18 50 176 77 167 187 619 146 320 175 152 234 97 
687 0.15790597731535908 -0.15178591514687706 0.8687118980087685 0 0 0 0.25 16 380 98 224 112 193 187 620 164 114 213 257 234 98 
688 0.09945176121028354 -0.1173206013264823 0.8298061646205818 0 0 0 0.29 16 381 50 177 112 194 187 621 164 115 176 150 234 99 
689 0.09561259834721636 -0.11507236156342801 0.8265173663477772 0 0 0 0.21 16 382 50 178 112 195 187 622 146 321 157 153 164 116 175 153 200 117 
690 -0.005552611046472305 -0.09993123165471855 0.7784537407232851 0 0 0 0.12 16 383 44 148 50 179 92 164 187 623 146 322 175 154 176 151 213 258 231 49 
691 0.06597187097466332 -0.0936250109868392 0.8072156493213319 0 0 0 0.3 16 384 44 149 50 180 61 105 92 165 93 131 124 195 187 624 36 46 39 87 110 77 113 51 13 202 201 105 146 323 157 154 158 81 175 155 176 152 200 118 213 259 231 50 
692 0.007498150699951019 -0.09319084058934188 0.7814642095261833 0 0 0 0.32 16 385 61 106 77 168 187 625 146 324 157 155 159 34 194 75 200 119 213 260 224 22 
693 -0.1192884546299922 -0.08390794587839125 0.7308593222129738 0 0 0 0.21 16 386 77 169 113 52 187 626 
694 0.03493034744194273 -0.07386392401769579 0.7844219739148546 0 0 0 0.39 16 387 98 225 187 627 124 196 
695 0.16502247040191073 -0.05729874626835318 0.8336153413295974 0 0 0 0.3 16 388 38 180 187 628 175 156 200 120 234 100 
696 -0.2554829370583033 0.021394718221348374 0.6421419113246358 0 0 0 0.29 16 389 98 226 124 197 28 92 39 88 136 32 
697 -0.07725253580866244 0.0491827858645524 0.6802330093503707 0 0 0 0.17 16 390 36 47 50 181 92 166 187 629 146 325 157 156 175 157 176 153 
698 0.04524413373622394 0.05792987772659034 0.7307123718606752 0 0 0 0.16 16 391 38 181 77 170 187 630 146 326 159 35 213 261 188 35 214 180 
699 0.35333523558039587 0.07949960249166953 0.8681815320762378 0 0 0 0.21 38 182 77 171 112 196 187 631 2 146 4 291 11 243 85 96 146 327 157 157 158 82 201 106 213 262 234 101 
700 0.15672690769447406 0.06798929967663181 0.7827301237267763 0 0 0 0.4 16 392 17 127 33 121 77 172 187 632 146 328 213 263 234 102 
701 -0.11384927391387507 0.056943573711565436 0.664935337692728 0 0 0 0.31 16 393 92 167 98 227 124 198 187 633 
702 -0.06979776967344369 0.1125798451568061 0.6608110810095088 0 0 0 0.18 16 394 77 173 110 78 187 634 146 329 176 154 214 181 
703 0.2537212814890548 0.13835297279757072 0.7911547638473375 0 0 0 0.33 92 168 93 132 109 79 187 635 110 79 148 69 194 76 201 107 213 264 214 182 223 39 234 103 146 330 164 117 
704 -0.10864305720198059 0.11972173101560178 0.6474670754596877 0 0 0 0.23 16 395 85 97 187 636 
705 -0.19544036837289572 0.14074241273017826 0.6068491784097245 0 0 0 0.2 16 396 92 169 110 80 113 53 
706 0.12271769720091896 -0.25959912478930913 0.8959147874058259 0 0 0 0.37 16 397 33 122 44 150 50 182 98 228 112 197 187 637 135 64 157 158 176 155 213 265 
707 0.11804438826343326 -0.24992793019246357 0.8890084561941731 0 0 0 0.38 16 398 61 107 85 98 93 133 98 229 187 638 39 89 53 73 109 80 110 81 124 199 135 65 146 331 176 156 194 77 214 183 152 27 157 159 159 36 164 118 232 70 
708 0.09018178917984657 -0.2132624914534107 0.8591658851482933 0 0 0 0.23 16 399 98 230 109 81 187 639 135 66 146 332 214 184 
709 -0.13700531739317776 -0.2203613134828517 0.7630626172455399 0 0 0 0.36 16 400 98 231 112 198 118 130 124 200 187 640 
710 0.2837141115796326 -0.1914647323351584 0.9402435466723815 0 0 0 0.3 92 170 112 199 187 641 13 203 38 183 39 90 44 151 93 134 124 201 146 333 164 119 175 158 176 157 213 266 214 185 234 104 221 31 
711 -0.1767045272684153 -0.11484010057515551 0.7189031480025463 0 0 0 0.21 16 401 17 128 27 27 44 152 61 108 98 232 112 200 4 292 9 103 19 30 32 35 39 91 50 183 77 174 85 99 92 171 93 135 110 82 113 54 118 131 124 202 136 33 157 160 158 83 159 37 164 120 172 50 176 158 185 36 194 78 200 121 213 267 214 186 219 33 231 51 135 67 146 334 227 17 
712 -0.197078724025332 -0.10290538300735784 0.7088994786249815 0 0 0 0.22 16 402 44 153 50 184 53 74 61 109 98 233 118 132 
713 -0.031685381938159896 0.022216029951585062 0.7209427933901483 0 0 0 0.28 16 403 50 185 187 642 146 335 157 161 175 159 221 32 
714 0.05139608326565473 0.028503151672114604 0.7402428918638922 0 0 0 0.12 16 404 50 186 61 110 187 643 175 160 213 268 
715 0.11051450059642469 0.03620441870569792 0.7663933327480429 0 0 0 0.19 16 405 50 187 61 111 98 234 112 201 187 644 4 293 11 244 201 108 204 53 213 269 232 71 28 93 92 172 118 133 128 36 146 336 175 161 176 159 231 52 222 38 234 105 
716 -0.05534562094673905 0.03630238740164734 0.7028723432306504 0 0 0 0.2 16 406 98 235 118 134 187 645 158 84 204 54 213 270 222 39 232 72 
717 -0.0837176717615812 0.0498810491140047 0.6787358471459998 0 0 0 0.11 16 407 17 129 187 646 176 160 213 271 
718 -0.02399776681802945 0.05502234515210799 0.7047518369594531 0 0 0 0.18 16 408 50 188 77 175 92 173 187 647 146 337 157 162 175 162 176 161 214 187 
719 -0.0031315397940882986 0.07398800972311201 0.7055489101126388 0 0 0 0.17 16 409 17 130 77 176 98 236 187 648 38 184 44 154 61 112 146 338 164 121 194 79 214 188 204 55 
720 -0.03691995532806568 0.10396040646151303 0.6877801538546037 0 0 0 0.28 16 410 77 177 187 649 146 339 164 122 213 272 214 189 
721 0.12246705548931466 0.18408936908266926 0.7176772005349422 0 0 0 0.25 16 411 19 31 38 185 44 155 50 189 85 100 92 174 93 136 187 650 164 123 194 80 223 40 232 73 234 106 
722 0.5224221849117641 -0.17986339613482552 1.0494992656553002 0 0 0 0.25 17 131 92 175 93 137 187 651 13 204 28 94 53 75 85 101 91 30 112 202 146 340 164 124 176 162 197 13 201 109 204 56 213 273 234 107 77 178 
723 -0.13904633930920168 -0.1461098108702066 0.7418174914660496 0 0 0 0.37 16 412 17 132 187 652 146 341 213 274 
724 -0.041622257563522995 0.03919584991116262 0.7080522575901257 0 0 0 0.25 16 413 17 133 61 113 96 54 118 135 187 653 135 68 146 342 147 34 175 163 176 163 204 57 
725 -0.1696330197436917 0.0874939004595412 0.6548183548604511 0 0 0 0.14 16 414 17 134 38 186 
726 -0.07594630330873763 0.08755806206742511 0.6677771566777927 0 0 0 0.29 16 415 17 135 43 29 77 179 92 176 118 136 187 654 148 70 164 125 172 51 176 164 204 58 214 190 232 74 
727 -0.021390845964120445 0.1171142038410984 0.6834533395971089 0 0 0 0.19 16 416 50 190 187 655 
728 0.02151966963797243 -0.2567097687141907 0.8480894248880618 0 0 0 0.19 16 417 77 180 187 656 
729 -0.028801105264627643 -0.10154716282645719 0.7684104161791036 0 0 0 0.23 16 418 96 55 187 657 146 343 172 52 213 275 232 75 
730 -0.14770050737454135 -0.0934908215627784 0.7090136874963386 0 0 0 0.49 16 419 98 237 103 21 112 203 187 658 128 37 146 344 172 53 176 165 204 59 231 53 232 76 
731 0.10583879664239089 -0.06535065143172762 0.8144238728485609 0 0 0 0.52 16 420 112 204 187 659 146 345 172 54 176 166 204 60 232 77 234 108 
732 0.11491418790069717 0.02378527809117438 0.7756587597188832 0 0 0 0.39 16 421 50 191 77 181 187 660 2 147 4 294 15 64 28 95 61 114 118 137 128 38 146 346 148 71 152 28 164 126 201 110 204 61 213 276 232 78 147 35 190 23 234 109 
733 -0.10708638978849909 0.124182736970804 0.6413650010479489 0 0 0 0.27 16 422 53 76 187 661 
734 0.12913308498085732 0.09921523963541294 0.75516257645689 0 0 0 0.29 16 423 27 28 52 25 187 662 
735 -0.1804607441584167 -0.21722741202931592 0.7535269098524523 0 0 0 0.31 16 424 50 192 61 115 96 56 98 238 118 138 187 663 
736 -0.11559606991699975 -0.21737453397429926 0.7722511777777151 0 0 0 0.29 16 425 53 77 96 57 118 139 187 664 
737 -0.08283036397130095 0.15224231965816318 0.6483114911083495 0 0 0 0.43 16 426 43 30 53 78 187 665 146 347 204 62 222 40 232 79 
738 -0.042311850720159895 0.1542916071376133 0.6569026112228923 0 0 0 0.29 16 427 43 31 53 79 92 177 96 58 187 666 
739 0.12563591450390996 0.15696279278124958 0.7274120229798872 0 0 0 0.56 16 428 33 123 50 193 61 116 77 182 187 667 213 277 227 18 234 110 
740 0.003165531091406971 -0.18752756642002408 0.8126538635626831 0 0 0 0.67 16 429 32 36 98 239 187 668 
741 -0.03843901719175719 -0.2168566783312519 0.8029439654969831 0 0 0 0.19 17 136 77 183 98 240 112 205 118 140 187 669 146 348 157 163 176 167 213 278 
742 0.21920995102094007 -0.19787573973335543 0.909284281195011 0 0 0 0.24 17 137 112 206 187 670 98 241 124 203 13 205 16 430 28 96 39 92 44 156 92 178 135 69 146 349 157 164 158 85 175 164 176 168 200 122 214 191 197 14 201 111 234 111 128 39 204 63 219 34 
743 0.14010676163132085 -0.19037191543374885 0.8737046946629071 0 0 0 0.26 17 138 38 187 118 141 187 671 
744 0.4605192021161506 -0.164239139631863 1.0129422534777446 0 0 0 0.57 17 139 98 242 112 207 187 672 
745 -0.19753716471366947 -0.11531817042444874 0.7145293780046559 0 0 0 0.22 17 140 61 117 112 208 2 148 4 295 9 104 33 124 39 93 44 157 50 194 60 5 85 102 92 179 98 243 110 83 113 55 118 142 124 204 136 34 146 350 148 72 157 165 159 38 164 127 172 55 176 169 194 81 200 123 214 192 231 54 
746 -0.09808385434208848 0.01713934734733081 0.6939042847540634 0 0 0 0.16 17 141 124 205 187 673 157 166 176 170 204 64 213 279 232 80 
747 0.4808685852214938 0.0949474187725982 0.9234436416212273 0 0 0 0.25 17 142 50 195 118 143 124 206 187 674 2 149 38 188 44 158 61 118 146 351 176 171 201 112 204 65 213 280 15 65 197 15 232 81 
748 0.2876316250290916 -0.1981381226602557 0.9468443255238234 0 0 0 0.35 17 143 91 31 118 144 187 675 4 296 11 245 28 97 29 9 39 94 50 196 71 8 77 184 85 103 92 180 109 82 146 352 148 73 164 128 185 37 194 82 213 281 214 193 234 112 147 36 176 172 219 35 227 19 
749 0.6045324960412332 -0.1715522978244589 1.0853669647545554 0 0 0 0.12 17 144 98 244 187 676 
750 0.11345144425881269 -0.08193579895252248 0.822143044096893 0 0 0 0.29 17 145 50 197 53 80 61 119 112 209 118 145 187 677 146 353 147 37 158 86 175 165 204 66 
751 -0.06761523415239076 -0.08465123078491847 0.7512207135133613 0 0 0 0.33 17 146 61 120 98 245 112 210 118 146 187 678 128 40 157 167 176 173 219 36 
752 -0.054620304995612094 -0.08278716747937538 0.7592968248185893 0 0 0 0.31 17 147 112 211 118 147 187 679 128 41 146 354 172 56 176 174 204 67 213 282 219 37 
753 0.021760503129395824 -0.07848021394249043 0.7879750545498508 0 0 0 0.21 17 148 43 32 50 198 187 680 147 38 158 87 222 41 172 57 176 175 190 24 221 33 232 82 
754 -0.19454911799291805 -0.20397691244582453 0.7513917245526363 0 0 0 0.1 17 149 96 59 187 681 
755 0.31451731650941134 0.06276346083162904 0.8401700531193231 0 0 0 0.32 17 150 61 121 187 682 28 98 44 159 53 81 92 181 118 148 128 42 152 29 176 176 201 113 213 283 146 355 
756 0.08737328116787457 -0.2541398445709034 0.875887090558264 0 0 0 0.22 19 32 44 160 98 246 187 683 
757 -0.09362964899205883 -0.2714194874098132 0.8026988366581109 0 0 0 0.31 19 33 44 161 50 199 61 122 77 185 96 60 98 247 111 19 187 684 135 70 147 39 152 30 159 39 164 129 185 38 190 25 200 124 232 83 
758 0.17084192772898452 0.05341924400141154 0.7886563442467841 0 0 0 0.23 50 200 61 123 112 212 187 685 152 31 200 125 204 68 219 38 234 113 
759 0.1799313637471318 0.20526275288241394 0.7374330346986261 0 0 0 0.24 27 29 61 124 187 686 
760 0.4743753892722349 -0.18312022547270562 1.0273655812979083 0 0 0 0.27 32 37 61 125 98 248 111 20 187 687 13 206 38 189 92 182 93 138 124 207 146 356 176 177 201 114 172 58 175 166 200 126 227 20 234 114 
761 -0.07415243953692327 -0.2287282782187202 0.7915389219031113 0 0 0 0.24 98 249 112 213 187 688 147 40 200 127 
762 -0.05105097702900039 0.022141634480578095 0.7138408061022216 0 0 0 0.38 27 30 50 201 187 689 128 43 172 59 175 167 190 26 200 128 204 69 
763 -0.07547708760271883 -0.2416675539716382 0.8002164489443595 0 0 0 0.44 44 162 50 202 98 250 187 690 135 71 147 41 148 74 158 88 159 40 200 129 232 84 
764 0.10723861236685786 -0.280686553459386 0.8948350031373896 0 0 0 0.43 32 38 44 163 77 186 98 251 187 691 29 10 38 190 39 95 85 104 93 139 148 75 159 41 164 130 176 178 185 39 232 85 
765 0.21813951302234527 -0.39666984766542357 0.9912693843819955 0 0 0 0.7 32 39 61 126 93 140 187 692 
766 0.45754688020294676 0.18416605557274773 0.8721548513666421 0 0 0 0.64 32 40 93 141 98 252 124 208 187 693 
767 -0.21103107065186388 -0.23954498995891885 0.7520783766493978 0 0 0 0.54 32 41 38 191 109 83 112 214 187 694 
768 -0.1595406873836477 -0.2076650068250246 0.7456843801239001 0 0 0 0.32 32 42 92 183 98 253 187 695 13 207 28 99 36 48 39 96 113 56 124 209 146 357 
769 0.6407127593513051 0.21918249372909693 0.9479606935443032 0 0 0 0.23 32 43 36 49 44 164 50 203 61 127 98 254 
770 0.12544250808211221 -0.2551178216128968 0.8953712319958621 0 0 0 0.24 33 125 38 192 109 84 112 215 187 696 39 97 136 35 157 168 200 130 213 284 214 194 146 358 148 76 159 42 176 179 
771 0.09568794049282354 -0.2402087745286828 0.8746337652896529 0 0 0 0.39 33 126 112 216 187 697 13 208 39 98 93 142 109 85 124 210 136 36 214 195 201 115 
772 0.06213774511327688 -0.2277527213183575 0.8543150035428119 0 0 0 0.34 33 127 98 255 124 211 187 698 176 180 200 131 213 285 
773 -0.016165342287559895 -0.23344110372201304 0.8211774798149063 0 0 0 0.28 33 128 112 217 187 699 
774 -0.060059263840555786 -0.23686594284711845 0.804050384872532 0 0 0 0.2 33 129 98 256 112 218 187 700 157 169 200 132 213 286 
775 0.22537441082420992 -0.19780977296904717 0.9136812395222856 0 0 0 0.47 33 130 124 212 187 701 13 209 39 99 146 359 214 196 
776 0.07444536537028665 -0.0815792739607201 0.8062366490625068 0 0 0 0.36 33 131 112 219 187 702 175 168 231 55 
777 -0.10308464546551212 -0.09194725320286774 0.7358517840230322 0 0 0 0.22 33 132 124 213 187 703 
778 -0.07925987277337074 -0.08712599409542668 0.74032150409696 0 0 0 0.39 33 133 124 214 187 704 
779 -0.05449137604767304 -0.2268291264249847 0.801802790057189 0 0 0 0.21 33 134 44 165 98 257 187 705 135 72 146 360 
780 -0.1329548699957102 0.060484585145713844 0.6470688274116928 0 0 0 0.15 33 135 44 166 93 143 
781 0.06233392867600034 -0.21930178017352064 0.8506707082766873 0 0 0 0.33 36 50 98 258 187 706 
782 0.021646804752786013 -0.22189693150767764 0.8317038379241294 0 0 0 0.28 36 51 61 128 85 105 92 184 98 259 112 220 124 215 187 707 39 100 176 181 231 56 200 133 214 197 
783 0.1987452597983119 -0.19915999941463414 0.9004896074283871 0 0 0 0.29 36 52 92 185 187 708 2 150 4 297 39 101 85 106 93 144 124 216 135 73 148 77 175 169 200 134 
784 0.6162878188416507 0.16292651550027945 0.9571670110120183 0 0 0 0.4 36 53 50 204 61 129 98 260 187 709 28 100 201 116 
785 0.00597786139108454 -0.20838038442654389 0.8190612123891214 0 0 0 0.22 38 193 98 261 112 221 187 710 39 102 136 37 146 361 200 135 157 170 214 198 224 23 
786 0.16849540234283317 -0.1531013362766539 0.8731974187193399 0 0 0 0.4 38 194 44 167 187 711 
787 0.16225922506136123 -0.15339503225229095 0.8706345659319882 0 0 0 0.32 38 195 92 186 109 86 187 712 176 182 214 199 
788 0.11864901437684311 -0.07941110553404555 0.8287860973405351 0 0 0 0.24 38 196 44 168 124 217 187 713 157 171 175 170 176 183 200 136 234 115 
789 0.3705563284005225 0.0782668042063478 0.8670020117476936 0 0 0 0.24 110 84 112 222 187 714 146 362 176 184 234 116 
790 0.022263016266520202 0.06448211210208057 0.7297535959102625 0 0 0 0.21 38 197 92 187 187 715 146 363 164 131 188 36 214 200 231 57 
791 0.059660194523511526 0.0646583014940962 0.7358582481286312 0 0 0 0.37 38 198 98 262 124 218 187 716 28 101 146 364 175 171 188 37 201 117 214 201 223 41 
792 -0.07591406989919067 0.10098862802962898 0.6632053063940075 0 0 0 0.38 38 199 118 149 187 717 
793 -0.00461601756022545 0.1540730762377084 0.6758774916724117 0 0 0 0.18 38 200 98 263 187 718 
794 0.08359898276957842 -0.2816329510125772 0.8841958337899385 0 0 0 0.39 38 201 50 205 77 187 92 188 187 719 
795 0.25452111871799604 0.07852000465689639 0.8131924270239915 0 0 0 0.35 38 202 110 85 187 720 4 298 28 102 77 188 91 32 109 87 118 150 148 78 176 185 194 83 197 16 201 118 204 70 213 287 234 117 
796 -0.11968036283551209 0.0903995364663518 0.6402573127886463 0 0 0 0.37 38 203 53 82 187 721 
797 0.057754717549706916 0.10822172026132498 0.7201106371713524 0 0 0 0.25 38 204 77 189 187 722 4 299 16 431 85 107 92 189 110 86 213 288 214 202 231 58 28 103 
798 0.49071238607869516 0.1880743906808927 0.8889869244439222 0 0 0 0.45 43 33 53 83 98 264 124 219 187 723 
799 -0.08777862770300765 -0.08358414783874683 0.7381156589536376 0 0 0 0.38 43 34 53 84 92 190 96 61 187 724 147 42 204 71 222 42 
800 -0.03288894731574086 -0.16092620968012453 0.7929881653699251 0 0 0 0.26 43 35 92 191 187 725 
801 -0.19467419801938557 0.16448446847270154 0.5997264700198184 0 0 0 0.27 43 36 53 85 77 190 96 62 
802 -0.047397109087985057 -0.27944737429970234 0.8261638724328516 0 0 0 0.26 44 169 50 206 61 130 93 145 98 265 112 223 187 726 136 38 146 365 200 137 213 289 
803 -0.09227956634747476 -0.2493792087340465 0.7938111769274608 0 0 0 0.2 44 170 98 266 113 57 187 727 135 74 213 290 
804 -0.14780290565731405 -0.2499177232560181 0.7650400633951954 0 0 0 0.39 44 171 93 146 98 267 112 224 
805 0.029604243039661218 -0.22115253753089598 0.8357795441361867 0 0 0 0.35 44 172 98 268 112 225 124 220 187 728 28 104 39 103 135 75 200 138 
806 -0.20960180343901097 -0.23639900594275667 0.7521344015717576 0 0 0 0.14 44 173 98 269 124 221 
807 -0.13277975344193196 -0.20641409274827535 0.7584621154845272 0 0 0 0.29 44 174 98 270 187 729 
808 0.2310642788209727 -0.1473937351386609 0.8983251979246369 0 0 0 0.23 44 175 98 271 187 730 146 366 157 172 175 172 200 139 
809 0.3384525308210139 -0.04811652048663251 0.9211421446154474 0 0 0 0.38 44 176 92 192 187 731 
810 0.245295416880046 0.04356867569010303 0.817045930246494 0 0 0 0.22 44 177 50 207 61 131 98 272 112 226 187 732 4 300 9 105 11 246 13 210 28 105 92 193 135 76 146 367 175 173 176 186 197 17 201 119 213 291 231 59 234 118 128 44 
811 -0.03928975201875941 -0.31292987909238035 0.8300337918522176 0 0 0 0.24 44 178 98 273 187 733 
812 0.647968256159741 -0.24495246777609772 1.1358011583227905 0 0 0 0.34 98 274 124 222 187 734 
813 0.6566313762173662 -0.2337360415559286 1.1306513628029056 0 0 0 0.33 44 179 50 208 98 275 124 223 187 735 
814 0.4301732799698946 -0.1946192528653656 1.009028983100017 0 0 0 0.34 44 180 96 63 98 276 187 736 157 173 158 89 234 119 
815 0.05513784742724671 -0.22397505802091067 0.8472482072353084 0 0 0 0.3 44 181 124 224 187 737 
816 0.24092402577695343 0.04683182979345136 0.817785988320385 0 0 0 0.33 44 182 92 194 98 277 112 227 118 151 187 738 4 301 11 247 13 211 15 66 16 432 28 106 53 86 135 77 146 368 176 187 201 120 204 72 231 60 234 120 9 106 124 225 128 45 232 86 175 174 
817 0.21317689492266084 -0.40035979082839834 0.9927294046611023 0 0 0 0.37 44 183 124 226 187 739 
818 0.33307962586460077 -0.32306332660175235 1.0082851952656073 0 0 0 0.3 44 184 52 26 109 88 124 227 187 740 39 104 200 140 
819 -0.004448643770114895 -0.2648634627320917 0.8380230987010314 0 0 0 0.32 44 185 50 209 61 132 93 147 98 278 112 228 118 152 187 741 135 78 146 369 147 43 157 174 164 132 176 188 213 292 224 24 232 87 
820 0.012958451666447142 -0.30320553461703487 0.8575987018289584 0 0 0 0.53 44 186 50 210 77 191 96 64 98 279 187 742 2 151 4 302 9 107 28 107 33 136 39 105 53 87 71 9 85 108 92 195 93 148 109 89 110 87 124 228 146 370 148 79 157 175 158 90 159 43 162 4 164 133 176 189 200 141 204 73 214 203 219 39 135 79 185 40 224 25 227 21 
821 0.003920940064195761 -0.2926286187977954 0.8515828521729119 0 0 0 0.29 44 187 93 149 96 65 98 280 187 743 135 80 146 371 158 91 159 44 224 26 
822 -0.07165884524917356 0.008304950665267449 0.6963502825605191 0 0 0 0.52 44 188 98 281 187 744 158 92 204 74 231 61 
823 -0.10110744252305787 -0.23294940100240052 0.7846102573736258 0 0 0 0.33 50 211 98 282 112 229 187 745 
824 -0.1491996312470889 -0.22070175374692222 0.7593615983837954 0 0 0 0.42 50 212 124 229 187 746 
825 0.13039244102563968 -0.20517725564273018 0.8742574997598057 0 0 0 0.34 50 213 98 283 187 747 
826 0.4204074029377285 -0.17543562007752087 0.9991872866214441 0 0 0 0.18 50 214 77 192 187 748 
827 0.0949220444367672 -0.1223775371107418 0.828683445967965 0 0 0 0.33 50 215 112 230 187 749 146 372 157 176 175 175 200 142 
828 -0.15684968184306824 -0.10395321558654659 0.719557374235882 0 0 0 0.51 50 216 98 284 187 750 157 177 176 190 213 293 231 62 
829 0.12512438746897359 -0.08350455863491295 0.8337926048975819 0 0 0 0.34 50 217 77 193 98 285 124 230 187 751 32 44 39 106 176 191 200 143 214 204 146 373 175 176 
830 0.2211795363506243 -0.08014339991290625 0.8669158831720264 0 0 0 0.37 50 218 61 133 187 752 
831 0.5356913334996164 -0.036152259621743385 1.0052044493520174 0 0 0 0.24 50 219 98 286 187 753 
832 0.10225926522075983 -0.20620263465550104 0.860591500029797 0 0 0 0.37 50 220 77 194 124 231 187 754 9 108 13 212 39 107 164 134 2 152 201 121 
833 -0.08713126870243218 -0.08830503983706212 0.7360506044777994 0 0 0 0.24 50 221 103 22 111 21 112 231 187 755 128 46 157 178 158 93 172 60 185 41 219 40 
834 -0.08285928655256239 -0.002171836453636509 0.6983236833610453 0 0 0 0.17 50 222 61 134 187 756 128 47 175 177 204 75 
835 0.04213783101150579 0.07179834643090179 0.726157337112723 0 0 0 0.2 50 223 61 135 187 757 175 178 232 88 
836 0.17861026302156746 0.17717789735979864 0.747125454028126 0 0 0 0.22 50 224 61 136 124 232 187 758 158 94 172 61 
