# 3D point list with one line of data per point:
#   POINT3D_ID, X, Y, Z, R, G, B, ERROR, TRACK[] as (IMAGE_ID, POINT2D_IDX)
# Number of points: 375, mean track length: 10.15
9353 0.13142429982911127 -0.707014033328921 1.2268518786351263 0 0 0 0.77 34 1404 59 2057 94 1635 116 2305 151 2282 166 2081 202 1623 212 1466 218 2332 
9354 0.13915547371497952 -0.6811472190752277 1.2340361487439657 0 0 0 0.77 34 1405 86 1987 94 1636 116 2306 
9355 0.1364993727952249 -0.6595435314273832 1.1987890808337982 0 0 0 0.74 34 1406 59 2058 94 1637 144 1882 166 2082 178 1114 186 592 211 1435 212 1467 218 2333 
9356 0.16784667458942415 -0.5323761826857051 1.162520169204972 0 0 0 0.54 34 1407 94 1638 132 415 144 1883 151 2283 166 2083 189 1481 205 855 211 1436 212 1468 
9357 0.12748562123217203 -0.4532422535064955 1.116419487276354 0 0 0 0.42 34 1408 57 2129 59 2059 90 326 132 416 149 1392 166 2084 173 1934 202 1624 
9358 0.10548935202224445 -0.4516043016428876 1.121419567980033 0 0 0 0.4 34 1409 57 2130 59 2060 116 2307 125 2608 132 417 139 1306 149 1393 151 2284 178 1115 186 593 212 1469 218 2334 
9359 0.13941825016015197 -0.4255655095649258 1.108502678269559 0 0 0 0.11 34 1410 94 1639 116 2308 144 1884 151 2285 189 1482 212 1470 
9360 0.06640149952709823 -0.345929925353729 1.0634610412426033 0 0 0 0.31 34 1411 144 1885 189 1483 218 2335 
9361 0.10580675733449606 -0.21904355375067042 0.9603107348148485 0 0 0 0.35 34 1412 59 2061 86 1988 116 2309 117 363 125 2609 144 1886 166 2085 178 1116 191 1634 
9362 0.1553572779782466 -0.16292028731671204 0.9711996390597308 0 0 0 0.23 34 1413 116 2310 117 364 144 1887 151 2286 161 918 193 2246 205 856 212 1471 
9363 0.19119289764375488 -0.007493895276918133 0.9364584621638966 0 0 0 0.28 34 1414 59 2062 117 365 144 1888 150 1156 151 2287 183 890 202 1625 216 1783 
9364 0.1363402461559943 -0.6961775631587467 1.2343181550206435 0 0 0 0.81 34 1415 59 2063 86 1989 94 1640 116 2311 131 1214 137 894 144 1889 151 2288 189 1484 202 1626 205 857 211 1437 212 1472 
9365 0.1496266825974472 -0.5373112993311984 1.1408919539084286 0 0 0 0.41 34 1416 59 2064 86 1990 94 1641 116 2312 144 1890 149 1394 151 2289 166 2086 174 377 189 1485 202 1627 205 858 212 1473 218 2336 
9366 0.08915979314907545 -0.4160794162045614 1.1146755033802245 0 0 0 0.43 34 1417 37 1295 46 1422 102 1339 119 1312 125 2610 144 1891 151 2290 166 2087 178 1117 189 1486 205 859 210 748 212 1474 218 2337 
9367 0.19082425874429626 -0.25511121086475796 1.0499578365086641 0 0 0 0.5 34 1418 37 1296 46 1423 117 366 125 2611 145 1086 161 919 189 1487 205 860 211 1438 216 1784 57 2131 132 418 139 1307 144 1892 
9368 -0.12202604667721358 0.06232684920536317 0.7478080290712119 0 0 0 0.66 34 1419 132 419 139 1308 161 920 174 378 205 861 
9369 0.08766997086082504 -0.39020459608463753 1.1004339507950653 0 0 0 0.6 34 1420 132 420 139 1309 174 379 
9370 0.04843409284951224 -0.3325114848839475 1.063752800344673 0 0 0 0.22 34 1421 161 921 174 380 189 1488 
9371 0.18428992674403816 0.04179435831107955 0.9101970238572262 0 0 0 0.31 34 1422 46 1424 117 367 140 2112 151 2291 193 2247 202 1628 
9372 0.14161345178017154 -0.10904457188932372 0.9370838823601862 0 0 0 0.61 34 1423 37 1297 57 2132 94 1642 117 368 144 1893 166 2088 
9373 -0.23850497342957402 0.20779465235804115 0.5576186708377527 0 0 0 0.7 34 1424 174 381 216 1785 
9374 -0.2294977173160875 0.1297725757968586 0.5997821269855041 0 0 0 0.89 34 1425 137 895 151 2292 174 382 
9375 0.4674416788959157 0.30421420229847623 1.0265656879463503 0 0 0 0.47 34 1426 45 309 117 369 133 643 139 1310 174 383 177 2030 228 2361 
9376 -0.05680463376063745 0.08229405584326324 0.7745621589315399 0 0 0 0.3 34 1427 161 922 174 384 205 862 211 1439 
9377 -0.08989929892831162 0.09878880743351738 0.7500579900810981 0 0 0 0.65 34 1428 174 385 183 891 205 863 216 1786 
9378 0.1258226640407383 -0.6659043889072366 1.2237214427817809 0 0 0 0.34 37 1298 94 1643 226 1332 
9379 0.17766822606066385 -0.6502637545167439 1.248821078657135 0 0 0 0.28 37 1299 205 864 211 1440 
9380 0.1505512452331473 -0.6020073333621355 1.1783304871939106 0 0 0 0.5 37 1300 151 2293 166 2089 173 1935 
9381 0.12034910923478301 -0.5984033471223379 1.1731103881130147 0 0 0 0.19 37 1301 46 1425 94 1644 
9382 0.12559049704925093 -0.5231348032834878 1.1387660551265393 0 0 0 0.55 37 1302 46 1426 139 1311 205 865 
9383 0.15572585539821335 -0.5115387850813621 1.1280220089517834 0 0 0 0.38 37 1303 86 1991 94 1645 116 2313 139 1312 149 1395 151 2294 166 2090 173 1936 205 866 211 1441 218 2338 226 1333 
9384 0.15584500251019553 -0.5076901466585316 1.130568104735925 0 0 0 0.4 37 1304 94 1646 116 2314 149 1396 151 2295 173 1937 210 749 226 1334 
9385 0.09221431590698077 -0.497297120217474 1.1375094004257815 0 0 0 0.55 37 1305 45 310 46 1427 86 1992 90 327 94 1647 102 1340 116 2315 149 1397 166 2091 173 1938 174 386 205 867 211 1442 
9386 0.09916254551305745 -0.4847384329154229 1.1304767955205084 0 0 0 0.36 37 1306 46 1428 90 328 116 2316 149 1398 173 1939 205 868 218 2339 226 1335 
9387 0.09613670399968953 -0.4809022474531917 1.1284130171840259 0 0 0 0.25 37 1307 46 1429 86 1993 90 329 94 1648 116 2317 149 1399 151 2296 166 2092 173 1940 205 869 211 1443 
9388 0.11765105327860215 -0.46057974188337075 1.1083333677225662 0 0 0 0.49 37 1308 46 1430 86 1994 125 2612 144 1894 173 1941 186 594 202 1629 212 1475 218 2340 226 1336 
9389 0.1337203474285613 -0.4576457492234475 1.117447156140135 0 0 0 0.26 37 1309 149 1400 151 2297 173 1942 183 892 218 2341 210 750 226 1337 
9390 0.16066310701935488 -0.4158402355723453 1.0748741544920246 0 0 0 0.27 37 1310 94 1649 116 2318 125 2613 151 2298 166 2093 173 1943 205 870 211 1444 218 2342 
9391 0.05825572171897291 -0.3348871911097476 1.0710910843364938 0 0 0 0.23 37 1311 86 1995 151 2299 173 1944 189 1489 202 1630 218 2343 
9392 0.15383304490992927 -0.32294096613576023 1.064530970767251 0 0 0 0.39 37 1312 94 1650 125 2614 139 1313 166 2094 218 2344 
9393 0.14606565713745337 -0.2995565380095793 1.0453354580720815 0 0 0 0.18 37 1313 45 311 125 2615 151 2300 161 923 193 2248 218 2345 
9394 0.043468326563445785 -0.2977527092725147 1.1243673278312978 0 0 0 0.17 37 1314 46 1431 94 1651 193 2249 
9395 0.04329455389068244 -0.2934153877011838 1.1188430213775031 0 0 0 0.21 37 1315 46 1432 151 2301 154 1786 193 2250 
9396 0.04522552131576979 -0.28663307238329155 1.1176662690078316 0 0 0 0.25 37 1316 46 1433 177 2031 193 2251 
9397 0.1360841662140197 -0.27825867123180686 1.0432393967422409 0 0 0 0.22 37 1317 94 1652 116 2319 117 370 125 2616 139 1314 145 1087 183 893 191 1635 193 2252 215 114 226 1338 
9398 0.20216648039098778 -0.2780256519038359 1.0726211405543846 0 0 0 0.31 37 1318 117 371 125 2617 139 1315 183 894 193 2253 211 1445 
9399 0.1968896179567421 -0.2634925469552453 1.0644079128657107 0 0 0 0.32 37 1319 46 1434 151 2302 205 871 
9400 0.18303991529799257 -0.25957164747495803 1.0245729915687853 0 0 0 0.34 37 1320 117 372 139 1316 151 2303 183 895 
9401 0.11062749468202901 -0.24339969024658312 0.957622782884646 0 0 0 0.47 37 1321 94 1653 125 2618 149 1401 180 2138 216 1787 
9402 0.20908825412786358 -0.22005119267296505 1.0291331450496826 0 0 0 0.16 37 1322 117 373 161 924 173 1945 180 2139 183 896 218 2346 
9403 0.2316880098231919 -0.19382873569319173 1.0410906660179249 0 0 0 0.22 37 1323 94 1654 117 374 216 1788 
9404 0.1193610225503162 -0.1646721821711257 0.9245506456047922 0 0 0 0.2 37 1324 45 312 117 375 140 2113 
9405 0.11700227261202051 -0.15652039689171174 0.9235781674440072 0 0 0 0.38 37 1325 90 330 117 376 151 2304 
9406 0.16761233439705467 -0.15322539796480106 0.96288637704867 0 0 0 0.19 37 1326 117 377 140 2114 193 2254 216 1789 
9407 0.08216296073789699 -0.15009062260091455 0.9760860142053404 0 0 0 0.37 37 1327 72 1768 102 1341 140 2115 143 1329 145 1088 150 1157 177 2032 193 2255 218 2347 226 1339 
9408 0.16695635565061576 -0.14769860765338 0.9579135235456712 0 0 0 0.35 37 1328 46 1435 86 1996 90 331 94 1655 117 378 125 2619 140 2116 149 1402 150 1158 154 1787 180 2140 186 595 193 2256 211 1446 215 115 216 1790 
9409 0.17705961058449324 -0.14330264566271383 0.9642975989810652 0 0 0 0.23 37 1329 94 1656 116 2320 117 379 132 421 140 2117 151 2305 161 925 193 2257 205 872 216 1791 218 2348 
9410 0.21863857575606616 -0.14105326848220398 0.9919849037992172 0 0 0 0.19 37 1330 117 380 140 2118 149 1403 193 2258 226 1340 
9411 0.17908104449271897 -0.13828690408963776 0.9641829678881594 0 0 0 0.38 37 1331 46 1436 86 1997 116 2321 117 381 125 2620 144 1895 154 1788 183 897 193 2259 212 1476 216 1792 218 2349 
9412 0.22118237344942007 -0.13168256828824654 0.9830337333598025 0 0 0 0.33 37 1332 117 382 125 2621 145 1089 151 2306 
9413 0.2348876767435059 -0.1286392756944261 1.0114831742270751 0 0 0 0.23 37 1333 117 383 161 926 205 873 211 1447 
9414 0.09649502861774288 -0.10876461124243038 0.9296036403755653 0 0 0 0.17 37 1334 145 1090 150 1159 
9415 0.09696286765199222 -0.07590185567951005 0.9171874162078487 0 0 0 0.52 37 1335 72 1769 140 2119 143 1330 150 1160 218 2350 
9416 0.3286992546499094 -0.010412171571646119 1.2326754988811561 0 0 0 0.42 37 1336 117 384 161 927 193 2260 
9417 0.2207346812051823 -0.03703492049397867 0.9579249640897299 0 0 0 0.38 37 1337 117 385 125 2622 140 2120 150 1161 151 2307 183 898 193 2261 228 2362 
9418 0.13425160867713629 -0.03768359297562182 0.9059579336201312 0 0 0 0.29 37 1338 45 313 90 332 106 2487 116 2322 117 386 125 2623 145 1091 154 1789 161 928 183 899 
9419 0.2219746567268237 0.05881603294083323 0.9206454660792895 0 0 0 0.19 37 1339 117 387 125 2624 145 1092 151 2308 183 900 228 2363 
9420 0.22334631571201238 0.0659506561971784 0.9228322116732904 0 0 0 0.31 37 1340 46 1437 117 388 125 2625 140 2121 145 1093 149 1404 151 2309 154 1790 161 929 177 2033 183 901 193 2262 210 751 211 1448 216 1793 226 1341 228 2364 233 1221 
9421 0.22502296975406927 0.11844259877671277 0.8977629686595909 0 0 0 0.33 37 1341 46 1438 116 2323 117 389 140 2122 151 2310 166 2095 183 902 193 2263 226 1342 228 2365 
9422 0.3102095405361742 0.15565341881496933 0.9910712177749375 0 0 0 0.23 37 1342 86 1998 117 390 125 2626 145 1094 151 2311 183 903 193 2264 211 1449 228 2366 
9423 0.27259695532770994 0.19080988925555104 0.9490741677578839 0 0 0 0.22 117 391 193 2265 228 2367 
9424 0.48647525434224054 0.2730392786752332 1.047956900916556 0 0 0 0.47 37 1343 94 1657 117 392 125 2627 
9425 0.4828974704765993 0.2775653061380617 1.038005916082892 0 0 0 0.37 37 1344 72 1770 117 393 140 2123 228 2368 
9426 0.3936710674313754 0.2909235242827337 0.9918560889296929 0 0 0 0.3 37 1345 117 394 186 596 216 1794 226 1343 228 2369 
9427 0.32920198610729773 0.36731641186345576 0.908510698244856 0 0 0 1.35 37 1346 132 422 174 387 
9428 0.11239836123968083 -0.6414527230585495 1.1970398368161654 0 0 0 0.57 37 1347 131 1215 143 1331 189 1490 
9429 0.18021702365556755 -0.636868020221764 1.2286860135613809 0 0 0 0.46 37 1348 46 1439 94 1658 143 1332 151 2312 205 874 211 1450 218 2351 
9430 0.12012859995634956 -0.4507132033846412 1.1077680605134166 0 0 0 0.37 37 1349 46 1440 86 1999 94 1659 125 2628 173 1946 202 1631 218 2352 226 1344 
9431 0.1022678902039547 -0.3744845470937554 1.095768238798821 0 0 0 0.27 37 1350 46 1441 86 2000 116 2324 125 2629 144 1896 151 2313 189 1491 212 1477 215 116 226 1345 
9432 0.07840987193738158 -0.34988120248093163 1.074985527151745 0 0 0 0.35 37 1351 143 1333 215 117 218 2353 226 1346 
9433 0.03940518169242953 -0.30094106718733593 1.1210286552707864 0 0 0 0.19 37 1352 145 1095 173 1947 193 2266 205 875 210 752 218 2354 
9434 0.19971294854236876 -0.284524879243104 1.071252104632581 0 0 0 0.39 37 1353 117 395 125 2630 151 2314 
9435 0.20197561528500932 -0.2343717209024971 1.058016952651315 0 0 0 0.37 37 1354 46 1442 116 2325 117 396 119 1313 125 2631 143 1334 149 1405 151 2315 154 1791 161 930 166 2096 205 876 211 1451 
9436 0.2294727048426691 -0.21867296720536844 1.0354101286839295 0 0 0 0.22 37 1355 46 1443 57 2133 117 397 119 1314 125 2632 139 1317 193 2267 205 877 211 1452 
9437 0.1876226792297672 -0.1469550411963159 0.9805413487753429 0 0 0 0.27 37 1356 46 1444 94 1660 116 2326 117 398 125 2633 132 423 140 2124 145 1096 150 1162 151 2316 161 931 183 904 193 2268 211 1453 215 118 216 1795 226 1347 
9438 0.19486185250205887 -0.1450157155749758 0.9889065772433405 0 0 0 0.4 37 1357 117 399 132 424 139 1318 161 932 183 905 
9439 0.21509038442535583 -0.1430515222327605 0.9938634484897685 0 0 0 0.47 37 1358 86 2001 117 400 132 425 144 1897 149 1406 150 1163 151 2317 161 933 193 2269 212 1478 218 2355 
9440 0.23281435366889655 -0.14109103219656582 1.0010655730331017 0 0 0 0.38 37 1359 86 2002 117 401 125 2634 132 426 139 1319 140 2125 144 1898 150 1164 154 1792 161 934 193 2270 205 878 216 1796 
9441 0.2185652935397679 -0.12847419539519422 0.9865419362625741 0 0 0 0.31 37 1360 45 314 86 2003 94 1661 117 402 119 1315 125 2635 132 427 137 896 140 2126 144 1899 150 1165 151 2318 193 2271 202 1632 211 1454 216 1797 226 1348 
9442 0.23671661823051016 -0.03751980873920581 0.9964266115713792 0 0 0 0.4 37 1361 117 403 139 1320 
9443 0.23201603855411596 0.12572418013469383 0.9023609834298238 0 0 0 0.2 37 1362 117 404 125 2636 228 2370 
9444 0.41549765948664874 0.17818159862918637 1.0561444283993044 0 0 0 0.21 37 1363 117 405 131 1216 145 1097 216 1798 228 2371 
9445 -0.027375403734819306 0.12237005877673213 0.7640119502570237 0 0 0 0.33 37 1364 55 1398 125 2637 132 428 149 1407 174 388 183 906 
9446 0.3925012494627985 0.28181274418106206 0.9938688223271465 0 0 0 0.18 37 1365 116 2327 117 406 144 1900 151 2319 216 1799 228 2372 
9447 0.3720324679603362 0.3139054843417664 0.9830887530902257 0 0 0 0.2 37 1366 117 407 119 1316 125 2638 140 2127 228 2373 
9448 0.3886365118522733 0.3162125654908357 0.9480603354472804 0 0 0 0.34 37 1367 116 2328 117 408 140 2128 150 1166 226 1349 228 2374 
9449 0.11584614372494123 -0.7049500300335132 1.2416869776794452 0 0 0 0.74 37 1368 46 1445 186 597 189 1492 131 1217 143 1335 
9450 0.13878031420231438 -0.591016463623576 1.1862973726428214 0 0 0 0.77 37 1369 119 1317 137 897 183 907 205 879 211 1455 
9451 0.12438644276844016 -0.5299956776162768 1.135108236354698 0 0 0 0.62 37 1370 57 2134 144 1901 151 2320 189 1493 191 1636 
9452 0.09187823119023333 -0.3798073459886649 1.1018789558162279 0 0 0 0.26 37 1371 205 880 226 1350 
9453 -0.2571008589434305 -0.2528328614444575 0.7544138553585956 0 0 0 0.68 37 1372 45 315 55 1399 90 333 161 935 
9454 0.0963219292798825 -0.17542685869796185 1.0120615184120714 0 0 0 0.34 37 1373 143 1336 145 1098 189 1494 193 2272 211 1456 
9455 0.0951111553549191 -0.04916951377324901 0.9040626919957852 0 0 0 0.2 37 1374 46 1446 131 1218 143 1337 150 1167 189 1495 193 2273 140 2129 177 2034 218 2356 226 1351 
9456 0.4263352584644101 0.18392188802649156 1.067544586747697 0 0 0 0.39 37 1375 117 409 137 898 211 1457 143 1338 150 1168 154 1793 166 2097 216 1800 228 2375 233 1222 
9457 0.4018097183096961 0.2811942650391348 1.0110015898446485 0 0 0 0.19 37 1376 46 1447 117 410 119 1318 137 899 150 1169 191 1637 228 2376 
9458 0.11172614606704573 -0.5676491786501235 1.1632141866691912 0 0 0 0.62 37 1377 137 900 143 1339 189 1496 205 881 
9459 0.439271834947794 0.005868006636676117 1.1593825168453233 0 0 0 0.32 37 1378 145 1099 174 389 205 882 
9460 0.41406540565505456 0.2275098548337583 1.0341554996418294 0 0 0 0.27 37 1379 143 1340 174 390 177 2035 191 1638 218 2357 
9461 -0.0776293891163468 0.22092368023639058 0.6491484624754424 0 0 0 0.76 37 1380 45 316 144 1902 174 391 202 1633 58 1647 99 1694 143 1341 216 1801 
9462 0.08980578541496108 -0.3922299399040558 1.1086806609952187 0 0 0 0.15 37 1381 143 1342 226 1352 
9463 0.12715924302625775 -0.2712540787286717 1.0279468974977912 0 0 0 0.48 37 1382 46 1448 119 1319 137 901 139 1321 183 908 205 883 
9464 0.25195739191783845 0.16470458453613962 0.9573583162943196 0 0 0 0.37 37 1383 57 2135 117 411 119 1320 125 2639 139 1322 145 1100 186 598 189 1497 211 1458 
9465 0.1500949721582703 -0.5238704639558069 1.1394426513257736 0 0 0 0.66 45 317 46 1449 119 1321 131 1219 132 429 139 1323 166 2098 205 884 212 1479 218 2358 
9466 0.11311188394231753 -0.1603230142508171 0.9230329502656581 0 0 0 0.4 45 318 119 1322 140 2130 145 1101 177 2036 183 909 86 2004 94 1662 125 2640 149 1408 
9467 0.2973701624091501 0.11907007373644835 0.9927481491253223 0 0 0 0.22 45 319 117 412 140 2131 154 1794 180 2141 226 1353 228 2377 233 1223 116 2329 
9468 0.38634504601793146 0.14032483663650383 1.046407173468895 0 0 0 0.15 45 320 90 334 94 1663 117 413 140 2132 154 1795 216 1802 226 1354 228 2378 233 1224 
9469 0.3513086692929912 0.18313843797673746 1.0118865452815393 0 0 0 0.24 45 321 72 1771 86 2005 151 2321 177 2037 226 1355 
9470 0.41295955413899804 0.1966124962070384 1.0505867993864637 0 0 0 0.32 45 322 116 2330 117 414 218 2359 228 2379 
9471 0.4025024283578071 0.24719690715563244 1.021542798516564 0 0 0 0.21 45 323 90 335 94 1664 117 415 140 2133 151 2322 228 2380 233 1225 
9472 0.12776715015329315 -0.08857069616649849 0.9196819709765481 0 0 0 0.23 45 324 117 416 216 1803 
9473 0.12421892466943557 -0.03712750632017459 0.8944597788259171 0 0 0 0.3 45 325 90 336 116 2331 117 417 145 1102 150 1170 151 2323 205 885 161 936 183 910 216 1804 
9474 0.4505782651821834 0.03279447116797241 1.2517683475407442 0 0 0 1.02 45 326 174 392 178 1118 
9475 -0.05495207786001937 0.0665813478363541 0.7745617241415503 0 0 0 0.19 137 902 139 1324 218 2360 226 1356 
9476 0.2652278837094482 0.1756261392786379 0.9540914789021605 0 0 0 0.16 45 327 117 418 161 937 
9477 0.11392261793173114 -0.4560674572506595 1.1082104983043537 0 0 0 0.43 45 328 90 337 139 1325 151 2324 174 393 205 886 
9478 0.32547803332995523 0.2963324995512457 0.9479574524354086 0 0 0 0.43 45 329 125 2641 174 394 
9479 -0.18493047196358206 0.17672849631024265 0.6345972467597832 0 0 0 0.15 45 330 174 395 211 1459 
9480 0.17911833997433413 -0.625706577702809 1.2188321104639035 0 0 0 0.81 46 1450 90 338 205 887 211 1460 
9481 0.156650934782214 -0.5392613818663515 1.1414099548554972 0 0 0 0.43 46 1451 94 1665 116 2332 132 430 144 1903 149 1409 151 2325 186 599 212 1480 218 2361 
9482 0.1779059117941031 -0.5359432621800313 1.1797914448647504 0 0 0 0.44 46 1452 94 1666 116 2333 144 1904 183 911 
9483 0.11115956673299195 -0.513871186921403 1.1223720214559978 0 0 0 0.57 46 1453 57 2136 86 2006 90 339 94 1667 102 1342 116 2334 139 1326 149 1410 151 2326 166 2099 173 1948 186 600 211 1461 212 1481 218 2362 
9484 0.1391337689265987 -0.4771633655269312 1.1159608567739447 0 0 0 0.39 46 1454 90 340 94 1668 149 1411 151 2327 218 2363 
9485 0.07924792301757072 -0.4503318972073262 1.1255237520232293 0 0 0 0.36 46 1455 125 2642 143 1343 151 2328 
9486 0.14406067863954852 -0.4457751641998021 1.1143414168059882 0 0 0 0.27 46 1456 94 1669 116 2335 125 2643 143 1344 149 1412 151 2329 173 1949 186 601 205 888 210 753 226 1357 
9487 0.15458833362066468 -0.3531928749364029 1.0492174037951445 0 0 0 0.25 46 1457 57 2137 86 2007 94 1670 102 1343 116 2336 125 2644 131 1220 144 1905 151 2330 161 938 166 2100 173 1950 205 889 211 1462 218 2364 
9488 0.0725035558487848 -0.34416744629073903 1.0645565415700575 0 0 0 0.22 46 1458 125 2645 143 1345 151 2331 161 939 173 1951 205 890 211 1463 218 2365 226 1358 
9489 0.1325092514793095 -0.3429785621501178 1.0529641146107982 0 0 0 0.2 46 1459 173 1952 218 2366 
9490 0.06002748846005977 -0.23491058141672258 1.0767457837810144 0 0 0 0.33 46 1460 117 419 125 2646 
9491 0.18700785860893235 -0.21923716927470038 1.0515940463242703 0 0 0 0.11 46 1461 117 420 125 2647 
9492 0.0662207271116992 -0.18813090078614408 1.1180093884809181 0 0 0 0.39 46 1462 117 421 125 2648 
9493 0.10069031506118857 -0.17201464639800537 0.9388155361453195 0 0 0 0.29 46 1463 117 422 140 2134 173 1953 193 2274 218 2367 
9494 0.15180595242332529 -0.1552506729040624 0.9644987277414857 0 0 0 0.23 46 1464 117 423 151 2332 161 940 193 2275 
9495 0.18366738484156803 -0.1516355519997223 0.9731353324097982 0 0 0 0.34 46 1465 86 2008 117 424 140 2135 150 1171 151 2333 161 941 186 602 193 2276 205 891 211 1464 215 119 
9496 0.3227646034630644 -0.013173631471295563 1.238750828218748 0 0 0 0.31 46 1466 117 425 125 2649 151 2334 193 2277 
9497 -0.22626400091578472 -0.03535694435480377 0.65540840934351 0 0 0 0.33 46 1467 57 2138 58 1648 116 2337 161 942 193 2278 228 2381 
9498 0.19441225250789662 -0.018253567439890702 0.953718238931862 0 0 0 0.48 46 1468 117 426 150 1172 154 1796 228 2382 
9499 -0.0757095329076915 0.006589643857183216 0.7790042564962794 0 0 0 0.34 46 1469 58 1649 140 2136 145 1103 174 396 177 2038 211 1465 218 2368 
9500 -0.020346530416754553 0.029263467204005137 0.8082849139139187 0 0 0 0.22 46 1470 58 1650 140 2137 145 1104 174 397 193 2279 
9501 0.22672885186266822 0.06064339306413861 0.9257035662756625 0 0 0 0.29 46 1471 117 427 151 2335 161 943 183 912 205 892 216 1805 228 2383 
9502 0.227567494799142 0.06536383399685784 0.9261624076249461 0 0 0 0.43 46 1472 117 428 145 1105 183 913 193 2280 210 754 216 1806 
9503 0.3229589990624993 0.16287826679615755 1.0034002350894342 0 0 0 0.25 46 1473 117 429 122 481 226 1359 
9504 0.24004121565927833 0.18269205831132512 0.9049555946855088 0 0 0 0.51 46 1474 117 430 132 431 137 903 150 1173 151 2336 161 944 183 914 205 893 211 1466 228 2384 
9505 0.4805634398135747 0.2717951227658408 1.0425716279518646 0 0 0 0.24 46 1475 94 1671 117 431 125 2650 140 2138 151 2337 154 1797 166 2101 193 2281 216 1807 218 2369 226 1360 228 2385 233 1226 
9506 0.3026956952039222 0.25647518976020967 0.9451981778009515 0 0 0 0.28 46 1476 94 1672 116 2338 117 432 122 482 140 2139 145 1106 149 1413 154 1798 216 1808 
9507 0.4011316820450953 0.2870281117827094 1.0051371959243836 0 0 0 0.38 46 1477 116 2339 117 433 140 2140 150 1174 151 2338 193 2282 211 1467 216 1809 226 1361 228 2386 
9508 0.11525988642401054 -0.6177344198884942 1.1691248563416412 0 0 0 0.94 46 1478 117 434 191 1639 
9509 0.07404360957924087 -0.6216920135585811 1.2429621760375074 0 0 0 0.52 46 1479 131 1221 151 2339 189 1498 218 2370 
9510 0.17893863702941984 -0.5799521487767845 1.1991180119505724 0 0 0 0.38 46 1480 94 1673 149 1414 205 894 211 1468 212 1482 
9511 0.11483387025745564 -0.4237602986144659 1.0998082881601559 0 0 0 0.11 46 1481 57 2139 218 2371 
9512 0.1524475530290191 -0.4025360878231443 1.0795298896374474 0 0 0 0.37 46 1482 125 2651 132 432 139 1327 144 1906 151 2340 205 895 211 1469 
9513 0.1555367210615666 -0.38956114500248934 1.0721881541776108 0 0 0 0.25 46 1483 117 435 186 603 
9514 0.2067262150324963 -0.2955370886210336 1.0692954344442638 0 0 0 0.32 46 1484 57 2140 117 436 145 1107 
9515 0.15817399373975066 -0.5831327084724932 1.1723611697763927 0 0 0 0.55 46 1485 57 2141 94 1674 144 1907 189 1499 
9516 0.09610134514257085 -0.4195354441691669 1.1119235485579844 0 0 0 0.4 46 1486 57 2142 102 1344 119 1323 139 1328 144 1908 174 398 186 604 211 1470 218 2372 
9517 0.11081101387560738 -0.4147424886988188 1.1368991586890358 0 0 0 0.41 46 1487 144 1909 186 605 
9518 0.08759176838455973 -0.3147013713766221 1.062895888105765 0 0 0 0.35 46 1488 59 2065 116 2340 131 1222 173 1954 193 2283 57 2143 191 1640 226 1362 
9519 0.07301297488302065 -0.23787902098697802 1.0307278099532708 0 0 0 0.64 46 1489 94 1675 145 1108 173 1955 191 1641 202 1634 218 2373 
9520 0.14806887746770497 -0.21418680580731175 1.0210604073662517 0 0 0 0.3 46 1490 117 437 125 2652 
9521 0.22427172525615624 0.13837873592963393 0.882634960620739 0 0 0 0.43 46 1491 117 438 125 2653 140 2141 144 1910 186 606 191 1642 212 1483 
9522 0.3975054680317008 0.20875308716021557 1.0306548544305802 0 0 0 0.32 46 1492 57 2144 117 439 144 1911 189 1500 
9523 0.3410494029279184 0.23687087851538843 0.981592833698255 0 0 0 0.13 46 1493 117 440 150 1175 
9524 -0.07039376801453359 0.20575491083558936 0.6768979869055954 0 0 0 0.4 46 1494 144 1912 174 399 183 915 211 1471 
9525 -0.06499185308187029 0.20575990482242731 0.6766071375047539 0 0 0 0.22 46 1495 55 1400 57 2145 119 1324 144 1913 174 400 183 916 211 1472 
9526 0.17269220144858485 -0.5598775618307209 1.193333739322052 0 0 0 0.69 46 1496 94 1676 116 2341 137 904 139 1329 144 1914 151 2341 166 2102 189 1501 205 896 212 1484 
9527 0.14658354320510134 -0.3207311432960851 1.059364608190716 0 0 0 0.47 46 1497 86 2009 90 341 122 483 139 1330 149 1415 186 607 211 1473 212 1485 
9528 0.18917300808749213 -0.5281953013331856 1.1774051996578414 0 0 0 0.38 46 1498 90 342 94 1677 116 2342 149 1416 151 2342 218 2374 
9529 0.12155286430016501 -0.5417664822606572 1.1430015518073737 0 0 0 0.53 46 1499 189 1502 218 2375 226 1363 
9530 0.13014891378936766 -0.22575147181821884 1.0345989734635594 0 0 0 0.64 46 1500 117 441 125 2654 166 2103 
9531 0.13954962460429504 -0.598789787619518 1.1685042579912575 0 0 0 0.23 94 1678 173 1956 218 2376 226 1364 
9532 0.13651964701307487 -0.30299047082930153 1.0454573899832327 0 0 0 0.25 94 1679 145 1109 161 945 193 2284 
9533 0.13766877537161495 -0.2828730431441095 1.0472932652022706 0 0 0 0.14 117 442 149 1417 154 1799 
9534 0.20135248903135522 -0.21107102926253257 1.0220455512885644 0 0 0 0.45 117 443 125 2655 193 2285 205 897 
9535 0.2066310907636235 -0.20930633059059411 1.028829658003814 0 0 0 0.23 72 1772 86 2010 94 1680 116 2343 117 444 151 2343 161 946 173 1957 180 2142 183 917 193 2286 218 2377 
9536 0.047933288472518376 -0.19623962597630382 1.0703997385331991 0 0 0 0.44 116 2344 149 1418 154 1800 205 898 
9537 0.16930239524393306 -0.14398637496870786 0.9531398215187706 0 0 0 0.2 106 2488 117 445 150 1176 161 947 
9538 0.18947730700201498 -0.13418158786793324 0.9779621101089394 0 0 0 0.12 94 1681 117 446 140 2142 193 2287 
9539 0.13432012104369784 -0.1023915563290793 0.9234440725708066 0 0 0 0.48 94 1682 117 447 193 2288 
9540 0.1280379721391414 -0.04310491415945751 0.9016688891805374 0 0 0 0.18 117 448 140 2143 226 1365 
9541 0.3421010700747262 0.17754851656704235 1.0179946994834206 0 0 0 0.17 117 449 150 1177 151 2344 193 2289 228 2387 233 1227 
9542 0.39194408768360034 0.18854320570999844 1.0331861765429484 0 0 0 0.23 94 1683 117 450 125 2656 140 2144 145 1110 228 2388 233 1228 
9543 0.38817579632040977 0.19161672328637244 1.019222992282086 0 0 0 0.52 117 451 125 2657 139 1331 166 2104 233 1229 
9544 0.08953764566419073 -0.2947191621547346 1.0609537789960177 0 0 0 0.35 86 2011 143 1346 144 1915 151 2345 173 1958 178 1119 193 2290 218 2378 
9545 0.1476157948411763 -0.2777743482782953 1.0393506225707387 0 0 0 0.64 72 1773 102 1345 116 2345 125 2658 173 1959 177 2039 205 899 226 1366 
9546 0.1374094824723259 -0.05489117470584203 0.9129203314302106 0 0 0 0.21 117 452 144 1916 193 2291 
9547 0.1820984537543756 0.003588510974479604 0.9278751572743316 0 0 0 0.23 57 2146 94 1684 116 2346 117 453 119 1325 125 2659 140 2145 144 1917 145 1111 150 1178 151 2346 193 2292 226 1367 
9548 0.42873743735401276 0.23542401229172233 1.0530634003821147 0 0 0 0.17 117 454 140 2146 216 1810 226 1368 
9549 0.42871863312765807 0.2487478241703287 1.041464450390465 0 0 0 0.23 116 2347 117 455 143 1347 151 2347 193 2293 
9550 0.15893027052076905 -0.43470345495125573 1.0795770382098282 0 0 0 0.46 116 2348 144 1918 149 1419 151 2348 173 1960 202 1635 212 1486 218 2379 94 1685 131 1223 
9551 0.03184158307900341 -0.24321442888967573 1.1014546134222423 0 0 0 0.36 94 1686 102 1346 116 2349 125 2660 151 2349 177 2040 180 2143 193 2294 218 2380 
9552 0.20124080350547474 -0.1165593957374562 0.9863566834197997 0 0 0 0.29 117 456 140 2147 218 2381 
9553 0.19555540014252265 -0.019277041552997278 0.9383797818834517 0 0 0 0.36 94 1687 117 457 151 2350 177 2041 218 2382 
9554 0.1381415654954056 -0.5648659109053336 1.1701660778347205 0 0 0 0.56 57 2147 137 905 144 1919 151 2351 189 1503 205 900 212 1487 226 1369 
9555 0.162196922689707 -0.5080529588773788 1.1357173844961106 0 0 0 0.36 57 2148 59 2066 86 2012 144 1920 151 2352 205 901 211 1474 218 2383 
9556 -0.03548166602990244 0.10015298453384627 0.7623084661690883 0 0 0 0.27 55 1401 137 906 174 401 
9557 0.21772761335474033 -0.12324307283271288 0.9921417986902098 0 0 0 0.63 55 1402 154 1801 174 402 
9558 0.14704304370818713 -0.20077556240197014 1.0948990066103488 0 0 0 0.35 119 1326 125 2661 216 1811 117 458 
9559 0.2786553386144252 0.1606951622764138 0.9737288266379648 0 0 0 0.31 57 2149 117 459 125 2662 131 1224 212 1488 
9560 0.12627331930213212 -0.4243534124547255 1.0955996827262091 0 0 0 0.5 57 2150 125 2663 132 433 144 1921 151 2353 174 403 189 1504 
9561 0.10497785901044716 -0.36814649247410836 1.0817720949393437 0 0 0 0.3 57 2151 132 434 161 948 174 404 205 902 211 1475 
9562 0.14850042563475938 -0.25639293861999873 1.0755262397229062 0 0 0 0.53 57 2152 137 907 183 918 
9563 -0.21083518208288013 -0.016891212531735745 0.7063883964050732 0 0 0 1.19 57 2153 116 2350 174 405 
9564 -0.09772507115629522 0.00806107819796629 0.76578677806596 0 0 0 0.67 57 2154 94 1688 174 406 
9565 0.24246023828368468 0.11328438592500714 0.94285921759252 0 0 0 0.36 57 2155 117 460 119 1327 137 908 144 1922 145 1112 183 919 189 1505 191 1643 193 2295 212 1489 
9566 0.1767062765212313 -0.33710371772122455 1.0580650087134609 0 0 0 0.42 57 2156 117 461 125 2664 205 903 
9567 -0.17002907813076334 0.10779049079840858 0.6663875747710507 0 0 0 0.35 57 2157 94 1689 131 1225 139 1332 144 1923 174 407 193 2296 228 2389 
9568 0.2221578322499508 0.16017304900166474 0.8863661981347052 0 0 0 0.3 57 2158 86 2013 94 1690 117 462 119 1328 145 1113 183 920 191 1644 
9569 0.14506381663811452 -0.22490174464408055 1.0437935483886591 0 0 0 0.42 57 2159 125 2665 144 1924 151 2354 189 1506 212 1490 
9570 0.3629563441508289 0.26202203357364867 1.0041574963822035 0 0 0 0.21 57 2160 117 463 137 909 144 1925 151 2355 
9571 0.029139933927505194 0.2214721047797818 0.76321849489661 0 0 0 0.29 57 2161 133 644 174 408 177 2042 212 1491 
9572 0.2929843071311832 0.33199037226519285 0.8803202457344886 0 0 0 0.31 57 2162 125 2666 144 1926 151 2356 174 409 228 2390 
9573 -0.07127324120131578 0.2256826199897171 0.6504235898057917 0 0 0 0.62 58 1651 161 949 166 2105 174 410 
9574 -0.20172212335224834 0.21880296012303593 0.5490522523782713 0 0 0 1.03 58 1652 131 1226 174 411 
9575 -0.20195447355626883 0.20973620600506365 0.5720167575751764 0 0 0 0.82 58 1653 131 1227 174 412 
9576 0.10152032864326485 -0.5270855099819663 1.136260100363845 0 0 0 0.25 59 2067 102 1347 144 1927 151 2357 218 2384 
9577 0.06760143375420097 -0.5094162830938322 1.1978080044204102 0 0 0 0.12 59 2068 151 2358 218 2385 
9578 0.15300364783351467 -0.39497517300584345 1.0450963705054295 0 0 0 0.44 59 2069 117 464 125 2667 
9579 -0.07288477949385366 0.07067648139494725 0.7552584021614054 0 0 0 0.13 59 2070 144 1928 174 413 
9580 -0.08456457962585077 0.23169274482545793 0.6325884966313793 0 0 0 1.07 59 2071 132 435 144 1929 174 414 
9581 0.17658164352151468 -0.246437644764429 1.0204520574382383 0 0 0 0.47 59 2072 116 2351 117 465 125 2668 137 910 139 1333 144 1930 151 2359 166 2106 193 2297 202 1636 
9582 0.12476059417159711 -0.4926289926270807 1.1326173664430421 0 0 0 0.46 59 2073 86 2014 94 1691 116 2352 144 1931 149 1420 151 2360 166 2107 174 415 178 1120 191 1645 202 1637 211 1476 
9583 0.21032939765205036 -0.31367883215721504 1.085510964088351 0 0 0 0.33 72 1774 116 2353 117 466 125 2669 151 2361 161 950 173 1961 
9584 0.2116951480922511 -0.3103684581037546 1.0896017646962142 0 0 0 0.24 72 1775 116 2354 117 467 161 951 226 1370 
9585 0.2090346598838846 -0.3027421015851073 1.0820588066594654 0 0 0 0.52 72 1776 116 2355 117 468 125 2670 177 2043 216 1812 
9586 0.2169883846957395 -0.27141839965269277 1.0542278466480912 0 0 0 0.57 72 1777 86 2015 117 469 125 2671 161 952 183 921 193 2298 211 1477 139 1334 
9587 0.05710593019948852 -0.2251561711208534 1.0993834393454425 0 0 0 0.31 72 1778 117 470 180 2144 
9588 0.10635381029896898 -0.22447292297664495 0.9649162204674514 0 0 0 0.59 72 1779 117 471 145 1114 161 953 180 2145 
9589 0.10959942879836598 -0.2212759814864249 0.9585116585918988 0 0 0 0.28 72 1780 116 2356 177 2044 180 2146 193 2299 205 904 210 755 226 1371 117 472 154 1802 
9590 0.20915426194282657 -0.21468624866255695 1.027992346642281 0 0 0 0.3 72 1781 117 473 161 954 173 1962 183 922 193 2300 205 905 
9591 0.12734957048469417 -0.10660256120157455 0.9267848914727629 0 0 0 0.3 72 1782 117 474 132 436 216 1813 226 1372 228 2391 
9592 0.8541957635356278 0.06808827515702515 0.8283359283196643 0 0 0 0.34 72 1783 117 475 140 2148 
9593 0.8185840717040899 0.12446375961567135 0.8644521309290634 0 0 0 0.36 72 1784 117 476 140 2149 
9594 0.04165486586736419 -0.2509048952205167 1.101741545882392 0 0 0 0.44 72 1785 193 2301 218 2386 
9595 0.09252607528503856 -0.23114212597217818 0.9811858968847063 0 0 0 0.39 72 1786 117 477 125 2672 193 2302 
9596 0.382874722923533 0.18599182489494212 1.0293902394694054 0 0 0 0.16 72 1787 102 1348 117 478 131 1228 216 1814 226 1373 
9597 0.2103288227288995 -0.17226982817462216 1.013072634629959 0 0 0 0.27 72 1788 116 2357 117 479 140 2150 173 1963 211 1478 215 120 
9598 0.13905651560854715 -0.6336765411342989 1.1925717208038626 0 0 0 0.54 86 2016 119 1329 151 2362 166 2108 205 906 211 1479 
9599 0.1764828259305113 -0.6005133990710614 1.213593284600066 0 0 0 0.34 86 2017 94 1692 211 1480 
9600 0.1514841521864335 -0.5628047642424003 1.145489657312806 0 0 0 0.49 86 2018 143 1348 218 2387 
9601 0.0709360839656007 -0.5174577069752052 1.1901820740871427 0 0 0 0.17 86 2019 173 1964 218 2388 
9602 0.08554493454808493 -0.3348106805054032 1.0746506223341388 0 0 0 0.25 86 2020 116 2358 151 2363 173 1965 218 2389 
9603 0.21789411123837873 -0.31474935642246893 1.0833827802808669 0 0 0 0.33 86 2021 117 480 125 2673 151 2364 161 955 183 923 205 907 211 1481 216 1815 226 1374 94 1693 177 2045 
9604 0.11354953479253382 -0.2992433571599833 1.0117873753003244 0 0 0 0.43 86 2022 117 481 125 2674 
9605 0.23393211213735704 -0.19938901821261792 1.0342825960456261 0 0 0 0.3 86 2023 94 1694 117 482 173 1966 193 2303 
9606 0.13941106648045842 -0.09390862536403217 0.9403882419045022 0 0 0 0.2 86 2024 117 483 140 2151 193 2304 226 1375 
9607 0.15946235899499006 -0.49508621368161304 1.1341183696259372 0 0 0 0.51 86 2025 94 1695 131 1229 139 1335 166 2109 202 1638 211 1482 212 1492 
9608 0.5947751211417205 0.17380534658938768 1.1997021914732642 0 0 0 0.43 86 2026 174 416 216 1816 
9609 0.12204563329511096 -0.31929711894572127 1.0210165238251896 0 0 0 0.39 86 2027 117 484 125 2675 
9610 0.6503182175281063 0.14596759856979785 1.1370365324514768 0 0 0 0.6 86 2028 116 2359 174 417 180 2147 212 1493 
9611 0.33595141156584224 0.16179811412599493 1.0113147394188242 0 0 0 0.27 86 2029 117 485 189 1507 
9612 0.14070224696817094 -0.7045921155982867 1.228549495268416 0 0 0 0.47 86 2030 94 1696 212 1494 218 2390 
9613 0.07094718923717352 -0.3214817600311941 1.0654904435261523 0 0 0 0.42 90 343 116 2360 212 1495 
9614 0.06786894055490042 -0.3138815735122432 1.059323648209166 0 0 0 0.51 90 344 117 486 125 2676 
9615 0.10808960609345561 -0.2870163687118192 0.9853216897720005 0 0 0 0.4 90 345 94 1697 117 487 125 2677 154 1803 161 956 
9616 0.03916608109069275 -0.31134643111918037 1.1276660518496648 0 0 0 0.94 90 346 149 1421 174 418 
9617 -0.061482206136123575 0.03783473640148657 0.779262199969761 0 0 0 0.28 90 347 116 2361 150 1179 151 2365 174 419 
9618 0.4449450699916277 0.21025433596233153 1.065064817200159 0 0 0 0.22 90 348 117 488 122 484 140 2152 149 1422 180 2148 210 756 228 2392 
9619 0.10985993262576746 -0.2927892280446683 0.9874844132951986 0 0 0 0.39 90 349 116 2362 149 1423 
9620 0.13423012549767027 -0.060075351802835006 0.9162508842578179 0 0 0 0.53 90 350 116 2363 117 489 154 1804 228 2393 
9621 0.23098815333800513 0.08768390717595381 0.9194405807757436 0 0 0 0.39 90 351 117 490 186 608 
9622 0.2715258453240204 0.19393050944060036 0.9557000717126587 0 0 0 0.15 117 491 140 2153 150 1180 161 957 193 2305 205 908 211 1483 226 1376 
9623 -0.0071333985045727525 0.08565547739965947 0.7920643309435426 0 0 0 0.23 145 1115 149 1424 174 420 233 1230 
9624 0.11142940993612639 -0.5276202928125868 1.128949185734497 0 0 0 0.57 90 352 94 1698 116 2364 132 437 144 1932 149 1425 151 2366 174 421 205 909 211 1484 
9625 0.30972767815600366 0.28997271563694593 0.9353330834846377 0 0 0 0.51 90 353 139 1336 174 422 
9626 0.17551290077224752 -0.519408172978598 1.1663022505773057 0 0 0 0.57 94 1699 117 492 139 1337 202 1639 
9627 0.18355255669038 -0.49513993831456765 1.1649965728947764 0 0 0 0.18 94 1700 116 2365 149 1426 211 1485 
9628 0.14224113129968957 -0.342430565695274 1.0581741356437173 0 0 0 0.36 94 1701 117 493 125 2678 
9629 0.20793668288603684 -0.29059401665077045 1.0649787058770361 0 0 0 0.3 94 1702 117 494 125 2679 
9630 0.21954584617711045 -0.2906631122889973 1.0599373731311859 0 0 0 0.33 94 1703 116 2366 117 495 125 2680 161 958 193 2306 205 910 216 1817 
9631 0.1659496323310408 -0.26260814808426375 1.005215497086211 0 0 0 0.2 94 1704 116 2367 117 496 125 2681 149 1427 151 2367 161 959 193 2307 205 911 216 1818 
9632 0.20234552239590528 -0.23917630972390433 1.0666498131819424 0 0 0 0.2 94 1705 116 2368 117 497 183 924 
9633 0.1782841306563864 -0.11327066623263435 0.9671585997612213 0 0 0 0.29 94 1706 117 498 139 1338 140 2154 177 2046 211 1486 226 1377 
9634 0.2319352709769256 -0.1078437569830533 1.0026435913990237 0 0 0 0.32 94 1707 116 2369 117 499 125 2682 140 2155 150 1181 151 2368 161 960 177 2047 193 2308 211 1487 216 1819 226 1378 
9635 0.21425274481243037 -0.06009662144410458 0.9660517311669672 0 0 0 0.19 94 1708 116 2370 117 500 140 2156 151 2369 193 2309 218 2391 228 2394 
9636 0.14370850522146766 0.005988374757123736 0.9013546348699993 0 0 0 0.39 94 1709 106 2489 116 2371 117 501 125 2683 140 2157 151 2370 154 1805 183 925 226 1379 
9637 0.24615385569110912 0.12185436389441842 0.9513202250627125 0 0 0 0.15 94 1710 117 502 140 2158 193 2310 
9638 0.14417620194920172 -0.8012794956401181 1.3241794504939577 0 0 0 0.8 94 1711 116 2372 218 2392 
9639 0.16527702033826355 -0.6397561210947283 1.2052388874914852 0 0 0 0.42 94 1712 116 2373 144 1933 183 926 202 1640 205 912 211 1488 
9640 0.17981281993100204 -0.589352299394857 1.2019306325412433 0 0 0 0.32 94 1713 149 1428 226 1380 
9641 0.15464808254444018 -0.3471005992255356 1.0449011367279342 0 0 0 0.18 94 1714 125 2684 205 913 218 2393 
9642 0.18774747671327263 -0.32079338542441566 1.0958207493597634 0 0 0 0.31 94 1715 116 2374 166 2110 193 2311 
9643 0.035733898733357715 -0.29730761807380723 1.123934547313414 0 0 0 0.19 94 1716 116 2375 125 2685 149 1429 211 1489 
9644 0.15155715237681744 -0.2059051197586913 1.1086187766756082 0 0 0 0.29 94 1717 125 2686 193 2312 
9645 0.15857397824358593 -0.2033437363504296 1.098264782887299 0 0 0 0.31 94 1718 117 503 125 2687 151 2371 
9646 0.10190334939076859 -0.18562834393315455 1.0157527185048651 0 0 0 0.27 94 1719 116 2376 125 2688 177 2048 218 2394 
9647 0.10899163790261193 -0.16624466824755502 0.9294011152953322 0 0 0 0.41 94 1720 116 2377 145 1116 149 1430 180 2149 
9648 0.451509425466391 0.20278583945567277 1.0739527243947404 0 0 0 0.26 94 1721 116 2378 117 504 125 2689 193 2313 233 1231 
9649 0.4134642828141822 0.23385796413068646 1.035016722730047 0 0 0 0.39 94 1722 117 505 211 1490 218 2395 
9650 0.11777839288440603 -0.5897617089847339 1.1632239830791722 0 0 0 0.39 94 1723 102 1349 131 1230 166 2111 211 1491 
9651 0.21301338383256324 -0.26218782697022025 1.053941644519108 0 0 0 0.26 94 1724 125 2690 151 2372 177 2049 183 927 193 2314 
9652 0.22834428291290876 -0.21188432118896536 1.0341129092635555 0 0 0 0.22 94 1725 116 2379 117 506 125 2691 144 1934 151 2373 193 2315 
9653 0.10888884073001061 -0.6993659852599173 1.2359975758532167 0 0 0 0.45 94 1726 102 1350 131 1231 189 1508 218 2396 
9654 0.11158209381249265 -0.42924102994358976 1.1087201842806387 0 0 0 0.36 94 1727 151 2374 174 423 178 1121 
9655 0.15221466101885486 -0.19362760203506738 1.063411738594323 0 0 0 0.22 94 1728 125 2692 144 1935 151 2375 189 1509 193 2316 
9656 0.08717732724924804 -0.6089306105446047 1.1928657975782715 0 0 0 0.45 94 1729 173 1967 205 914 218 2397 
9657 0.06790656970236984 -0.443922316786084 1.1104360940288005 0 0 0 0.64 132 438 144 1936 166 2112 174 424 211 1492 212 1496 
9658 0.6670935052730359 0.15101258537875953 1.0968265886028508 0 0 0 0.79 99 1695 139 1339 174 425 
9659 0.48792127424395093 0.0030362488080767397 1.1705134820767205 0 0 0 0.64 99 1696 174 426 233 1232 
9660 0.08998731943516379 -0.6135297551474598 1.191558428385346 0 0 0 0.4 102 1351 151 2376 173 1968 218 2398 
9661 0.08002256550766562 -0.4954537353117766 1.1479067799815508 0 0 0 0.27 102 1352 210 757 218 2399 226 1381 
9662 0.1424376001228653 -0.4265936185334757 1.098978404266771 0 0 0 0.64 102 1353 117 507 125 2693 
9663 0.11061848481550379 -0.2360265297967501 0.9584300296609417 0 0 0 0.32 102 1354 117 508 193 2317 
9664 0.10158770559507779 -0.07918969728835747 0.9036395422835153 0 0 0 0.39 102 1355 131 1232 140 2159 177 2050 193 2318 
9665 0.10247205083733561 -0.06980679755238721 0.9027989203587244 0 0 0 0.22 102 1356 131 1233 140 2160 143 1349 150 1182 177 2051 193 2319 215 121 218 2400 
9666 0.10226010732559067 -0.05731575573092454 0.8955343946472111 0 0 0 0.32 102 1357 119 1330 131 1234 140 2161 143 1350 177 2052 193 2320 218 2401 
9667 0.09877278507933372 -0.05433305120099111 0.8959391680558989 0 0 0 0.19 102 1358 140 2162 177 2053 
9668 0.07895686468742194 -0.610968952520716 1.2110690128986732 0 0 0 0.2 102 1359 189 1510 218 2402 
9669 0.11033373552687074 -0.531103357503363 1.1292137431057394 0 0 0 0.44 102 1360 137 911 173 1969 202 1641 218 2403 
9670 0.07955707168321796 -0.506311450337045 1.1456044700325045 0 0 0 0.39 102 1361 131 1235 143 1351 218 2404 
9671 0.113530013226134 -0.4775248274890132 1.1172495595197642 0 0 0 0.37 102 1362 117 509 173 1970 
9672 0.06188414760636852 -0.4264572002876132 1.1094003996081645 0 0 0 0.58 102 1363 117 510 139 1340 
9673 0.8393923048388359 0.10588132711107366 0.8395916079127832 0 0 0 0.35 102 1364 117 511 140 2163 177 2054 
9674 0.12945551546016706 -0.5001403141195915 1.1281811300294333 0 0 0 0.45 102 1365 117 512 137 912 173 1971 
9675 0.09880686247435747 -0.0610060084940538 0.9171470450059941 0 0 0 0.33 102 1366 131 1236 140 2164 177 2055 189 1511 218 2405 
9676 0.21164329254592792 -0.13484604531889124 0.9903991096408683 0 0 0 0.31 106 2490 117 513 140 2165 145 1117 
9677 0.5916533112417144 0.23265745555757678 1.1988576198597822 0 0 0 0.17 106 2491 117 514 140 2166 
9678 0.36750441725297445 0.21544513479881505 1.0108000767122403 0 0 0 0.24 116 2380 117 515 145 1118 151 2377 166 2113 193 2321 216 1820 
9679 0.8449713123074378 0.0703104980117709 0.8317184497841261 0 0 0 0.26 106 2492 117 516 150 1183 
9680 0.15575949024572042 -0.6056342598864611 1.202858552260357 0 0 0 0.82 116 2381 132 439 151 2378 218 2406 
9681 0.15435016416559014 -0.48471405474812657 1.1318887752804907 0 0 0 0.82 116 2382 122 485 149 1431 218 2407 
9682 0.17495003482780508 -0.4361037574551561 1.0947968439058078 0 0 0 0.33 116 2383 117 517 218 2408 
9683 0.10881319110866512 -0.2856453645994258 0.9733373500913309 0 0 0 0.59 116 2384 117 518 154 1806 193 2322 
9684 0.1579190867781913 -0.2556578493777573 1.0099688957707595 0 0 0 0.25 116 2385 117 519 216 1821 218 2409 
9685 0.20284312089835171 -0.2533510584300137 1.0607720101230556 0 0 0 0.29 116 2386 125 2694 137 913 151 2379 161 961 166 2114 177 2056 218 2410 226 1382 
9686 0.11186251169693762 -0.21261675044089037 0.9621713967565875 0 0 0 0.43 116 2387 166 2115 211 1493 
9687 0.21669455287032402 -0.22117701231636352 1.0338462708752498 0 0 0 0.39 116 2388 117 520 125 2695 143 1352 177 2057 215 122 218 2411 226 1383 
9688 0.2135577051560231 -0.20985014584675335 1.0318545671165884 0 0 0 0.24 116 2389 117 521 161 962 
9689 0.21763800556762208 -0.14767911068994866 0.9984592964930102 0 0 0 0.19 116 2390 117 522 151 2380 216 1822 
9690 0.21033916598325395 -0.1401343960589477 0.9885677717734555 0 0 0 0.33 116 2391 117 523 140 2167 
9691 0.1870174414894917 -0.027146172967925306 0.9393484699095234 0 0 0 0.15 116 2392 117 524 140 2168 145 1119 177 2058 193 2323 226 1384 
9692 0.3697659795774563 0.1838119448000234 1.0339347822878489 0 0 0 0.16 116 2393 117 525 150 1184 
9693 0.30511773303453643 0.24785780631076718 0.9511093105457862 0 0 0 0.15 116 2394 117 526 140 2169 154 1807 211 1494 
9694 0.07357935069167705 -0.3392061200361193 1.0692370792559773 0 0 0 0.36 116 2395 151 2381 226 1385 
9695 0.21513176208924248 -0.21385688571811745 1.024830398173531 0 0 0 0.38 116 2396 117 527 151 2382 193 2324 211 1495 216 1823 226 1386 
9696 -0.014100202726542334 0.03521483833160098 0.8100829995938896 0 0 0 0.14 116 2397 125 2696 174 427 177 2059 
9697 0.6608469694553031 0.08778649219788502 1.1417559918685771 0 0 0 0.52 116 2398 174 428 212 1497 
9698 0.664371404239334 0.16215497248267127 1.1138540658314937 0 0 0 0.92 116 2399 174 429 205 915 
9699 0.2812175453854403 0.1986381251758745 0.9548320542676204 0 0 0 0.24 116 2400 117 528 140 2170 154 1808 183 928 193 2325 205 916 212 1498 
9700 0.34997694585721867 0.22391268299197997 0.9876055825138347 0 0 0 0.18 116 2401 117 529 151 2383 
9701 0.1529755217165716 -0.5245369602598134 1.1259465239930226 0 0 0 0.28 116 2402 131 1237 151 2384 166 2116 178 1122 
9702 0.14263593556123313 -0.3326340859810889 1.0597951927197593 0 0 0 0.51 116 2403 139 1341 189 1512 212 1499 
9703 0.11804968843076523 -0.4165731197928126 1.0863970075501197 0 0 0 0.07 116 2404 144 1937 151 2385 
9704 0.48403721140941486 0.09797550039289565 1.1191715771365018 0 0 0 0.37 116 2405 154 1809 174 430 
9705 0.6525950080035342 0.12083518067805032 1.129410870905629 0 0 0 0.67 116 2406 139 1342 154 1810 174 431 
9706 0.11292778239958819 -0.5521665463601427 1.1432992119641965 0 0 0 0.62 116 2407 144 1938 149 1432 174 432 
9707 0.07278003816538206 -0.1515997273862957 0.9877798394079009 0 0 0 0.68 116 2408 145 1120 154 1811 166 2117 173 1972 174 433 
9708 0.07972380559678946 -0.5100278171410929 1.2003360459772392 0 0 0 1.0 116 2409 174 434 189 1513 
9709 0.14099994518352962 -0.6912699765675789 1.231467765335934 0 0 0 0.79 117 530 151 2386 166 2118 
9710 0.08737819984588407 -0.6232019456090484 1.1788948363230145 0 0 0 0.82 131 1238 143 1353 166 2119 173 1973 218 2412 
9711 0.13308313702024294 -0.656966769891837 1.1982346122342225 0 0 0 0.25 151 2387 205 917 211 1496 
9712 0.12207703925538076 -0.6396090755016305 1.201531062374316 0 0 0 0.23 117 531 173 1974 218 2413 
9713 0.12770664448858024 -0.6370025816952044 1.200520521337997 0 0 0 0.2 151 2388 205 918 212 1500 
9714 0.08708621619251805 -0.5639831176306229 1.1588077225576807 0 0 0 0.66 166 2120 173 1975 218 2414 
9715 0.14900504309436108 -0.5462973467987843 1.1547095718206073 0 0 0 0.12 144 1939 151 2389 202 1642 205 919 
9716 0.10209025155391568 -0.47348530364915176 1.1190331157672921 0 0 0 0.63 149 1433 205 920 218 2415 
9717 0.1021262178493006 -0.45580740548962734 1.1339429264772838 0 0 0 0.4 117 532 119 1331 173 1976 191 1646 
9718 0.06284409619860823 -0.3340335229972885 1.072270226578184 0 0 0 0.3 117 533 173 1977 218 2416 
9719 0.09274437374663551 -0.33637109668096504 1.0653910150217105 0 0 0 0.6 117 534 125 2697 218 2417 
9720 0.1477447690263258 -0.34890456013059246 1.0358438572170299 0 0 0 0.34 117 535 125 2698 211 1497 
9721 0.12399152327787122 -0.32557830152471884 1.0400262011535897 0 0 0 0.42 117 536 125 2699 151 2390 
9722 0.10167316650343589 -0.30844030320954 0.9994483973654651 0 0 0 0.26 117 537 193 2326 218 2418 
9723 0.1230175777929369 -0.30481155337373417 1.013343391724768 0 0 0 0.26 117 538 125 2700 193 2327 
9724 0.07660662619969921 -0.26230121724397737 1.0484611262925998 0 0 0 0.25 145 1121 173 1978 177 2060 193 2328 218 2419 
9725 0.16325617214319493 -0.320062742894301 1.0600054954606182 0 0 0 0.57 117 539 139 1343 166 2121 
9726 0.11279617854475907 -0.25014243897782323 0.9649634883669849 0 0 0 0.4 117 540 186 609 211 1498 
9727 0.09152663040295725 -0.22528026086392589 1.039913354670432 0 0 0 0.14 117 541 154 1812 210 758 
