# 3D point list with one line of data per point:
#   POINT3D_ID, X, Y, Z, R, G, B, ERROR, TRACK[] as (IMAGE_ID, POINT2D_IDX)
# Number of points: 296, mean track length: 11.94
105 -0.06954470950379826 0.11857771524728264 0.6862958218407283 140 151 164 0.43 79 101 80 100 81 88 82 90 83 90 84 61 85 65 86 55 
106 -0.07003822197188878 0.11979843578442348 0.6831401314901951 89 98 107 0.83 79 102 80 101 81 89 82 91 83 91 84 62 85 66 86 56 87 50 
107 -0.04910488109320687 0.029128991339999976 0.695222412311844 127 114 116 0.28 79 103 80 102 81 90 82 92 83 92 84 63 85 67 86 57 
108 0.09772309949316799 -0.23689904176301435 0.8245443022030435 167 183 203 0.45 79 104 80 103 81 91 82 93 83 93 84 64 85 68 86 58 87 51 88 67 89 69 90 63 91 65 92 52 93 55 94 56 95 54 96 44 
109 -0.04720649187462391 0.017686897725723814 0.6978820663932658 127 112 112 0.37 79 105 80 104 81 92 82 94 83 94 84 65 85 69 
110 -0.17422473367040037 -0.18373640277152756 0.6918912343007686 160 154 151 0.65 79 106 80 105 81 93 82 95 83 95 84 66 85 70 86 59 87 52 88 68 89 70 90 64 91 66 92 53 93 56 94 57 95 55 96 45 
111 -0.3190280071086188 -0.14227596368728837 0.6391585661496074 111 156 179 1.28 79 107 80 106 81 94 82 96 83 96 88 69 89 71 90 65 91 67 92 54 93 57 94 58 95 56 
112 -0.4203353767019198 -0.25958581171867307 0.6018651797027921 125 116 106 0.89 79 108 82 97 83 97 88 70 89 72 90 66 91 68 92 55 93 58 94 59 95 57 96 46 
113 0.48975641627854866 -0.28852830499233445 0.988968973002205 105 88 89 0.41 79 109 80 107 81 95 84 67 85 71 86 60 87 53 88 71 89 73 90 67 91 69 92 56 93 59 94 60 95 58 
114 0.23587238125031082 -0.26006581131470174 0.8759402031642322 168 156 150 0.55 79 110 80 108 81 96 84 68 85 72 86 61 87 54 88 72 89 74 90 68 91 70 92 57 93 60 94 61 95 59 96 47 
115 -0.33179840082510437 -0.1558580131411317 0.6357521590623616 120 158 187 0.93 79 111 80 109 81 97 82 98 83 98 88 73 89 75 90 69 91 71 92 58 93 61 94 62 95 60 96 48 
116 0.30698311300199643 -0.29237348253784906 0.9120781725034096 147 138 136 0.46 79 112 80 110 81 98 84 69 85 73 86 62 87 55 88 74 89 76 90 70 91 72 92 59 93 62 94 63 95 61 96 49 
117 -0.15529245522919186 0.03948912829667724 0.6492887674735895 117 106 105 0.5 79 113 80 111 81 99 82 99 83 99 84 70 85 74 86 63 
118 0.11163762960795127 0.07726838418438718 0.7601037785069015 122 137 152 1.19 79 114 80 112 81 100 82 100 88 75 89 77 
119 -0.1970497816283324 -0.17294056685542264 0.6815188446255745 98 90 92 0.54 79 115 80 113 81 101 82 101 83 100 84 71 85 75 86 64 87 56 88 76 89 78 90 71 91 73 92 60 93 63 94 64 95 62 96 50 
120 -0.12009140840691133 0.10584906580893977 0.6767690926800212 139 155 170 0.69 79 116 80 114 81 102 82 102 83 101 84 72 85 76 86 65 87 57 
121 0.17112398739818369 0.030798179574983802 0.5496407436812192 105 116 94 1.63 79 117 80 115 83 102 84 73 
122 0.13881359768017404 0.003279913792180521 0.7800603414901923 19 16 17 0.96 79 118 80 116 81 103 82 103 86 66 87 58 88 77 89 79 90 72 92 61 
123 -0.09317110474974022 0.1194016956051984 0.680582080500402 148 165 181 0.48 79 119 80 117 81 104 82 104 83 103 84 74 85 77 86 67 87 59 
124 0.23918453874298834 -0.21017430294439216 0.8652748735765206 167 167 167 0.78 79 120 80 118 81 105 83 104 84 75 85 78 86 68 87 60 88 78 89 80 90 73 91 74 92 62 93 64 94 65 95 63 96 51 
125 -0.3360323660561552 -0.023104398316837894 0.5938598913434329 133 131 130 0.49 79 121 80 119 82 105 83 105 
126 -0.36087059927521464 -0.11301383154999016 0.6023178256690076 114 116 130 1.12 79 122 80 120 82 106 83 106 90 74 93 65 94 66 95 64 
127 -0.21436427317522652 -0.015132128365418352 0.3101687162866647 188 192 166 1.56 79 123 82 107 83 107 
128 0.055666613856435655 -0.14552754074825003 0.7784280609964096 133 144 160 0.48 79 124 80 121 81 106 82 108 83 108 84 76 85 79 86 69 87 61 88 79 89 81 90 75 91 75 92 63 93 66 94 67 95 65 96 52 
129 0.12470630637023752 0.031087669305722893 0.5694283506265498 46 64 40 1.24 79 125 80 122 81 107 82 109 83 109 84 77 85 80 86 70 88 80 89 82 91 76 93 67 
130 0.11986912072887448 -0.2341159379146052 0.8316721121399538 112 129 146 0.47 79 126 80 123 81 108 82 110 83 110 84 78 85 81 86 71 87 62 88 81 89 83 90 76 91 77 92 64 93 68 94 68 95 66 96 53 
131 -0.2889619444787898 -0.2168974936051635 0.6582498311293546 143 180 210 0.64 79 127 80 124 81 109 82 111 83 111 85 82 87 63 88 82 89 84 90 77 91 78 92 65 93 69 94 69 95 67 96 54 
132 0.30896938067565316 0.07942800790110628 0.5475292750924715 81 95 72 0.81 79 128 80 125 81 110 
133 -0.31295729126231664 -0.2722885709349364 0.6604405957342812 93 92 101 0.91 79 129 80 126 81 111 82 112 83 112 87 64 88 83 89 85 90 78 91 79 92 66 93 70 94 70 95 68 96 55 
134 0.15399044580480975 0.048606195085427586 0.5366621144466815 57 68 42 1.43 79 130 80 127 81 112 82 113 83 113 84 79 85 83 87 65 88 84 92 67 
135 0.08337077770075185 0.12363997551582434 0.7549060940223725 87 98 107 0.45 79 131 80 128 81 113 82 114 83 114 84 80 85 84 
136 -0.07752076810982508 -0.2379783890401941 0.7483528980118 77 80 100 0.45 79 132 80 129 81 114 82 115 83 115 84 81 85 85 86 72 87 66 88 85 89 86 90 79 91 80 92 68 93 71 94 71 95 69 96 56 
137 0.12154880320448967 -0.14280910197914432 0.8145755936899806 48 63 77 0.59 79 133 80 130 81 115 82 116 83 116 84 82 85 86 86 73 87 67 88 86 89 87 90 80 91 81 92 69 93 72 94 72 95 70 96 57 
138 -0.2796705142027597 -0.18520107777106776 0.6509274317477884 140 162 186 0.65 79 134 80 131 81 116 82 117 83 117 85 87 87 68 88 87 89 88 90 81 91 82 92 70 93 73 94 73 95 71 96 58 
139 0.10859326806739253 0.014568477933811502 0.7762025651490575 78 84 86 1.08 79 135 80 132 81 117 82 118 87 69 88 88 89 89 90 82 
140 -0.3097277242294866 -0.31088157678648987 0.6566880488599447 87 77 74 0.85 79 136 80 133 81 118 82 119 83 118 87 70 88 89 89 90 90 83 91 83 92 71 93 74 94 74 95 72 96 59 
141 -0.22016456654907202 -0.1735814349155952 0.6694897013546472 44 43 58 0.85 79 137 80 134 81 119 82 120 83 119 84 83 85 88 86 74 87 71 88 90 89 91 90 84 91 84 92 72 93 75 94 75 95 73 96 60 
142 -0.33948108944962513 -0.31099552820688536 0.6433864539496722 94 77 71 0.62 79 138 80 135 81 120 82 121 83 120 88 91 89 92 90 85 91 85 92 73 93 76 94 76 95 74 96 61 
143 -0.2540792678466363 -0.14390761826357232 0.6460554556572222 72 70 81 0.72 79 139 80 136 81 121 82 122 83 121 85 89 86 75 87 72 88 92 89 93 90 86 91 86 92 74 93 77 94 77 95 75 96 62 
144 0.12655190311224684 -0.16150946530000454 0.8183517465038563 172 186 203 0.48 79 140 80 137 81 122 82 123 83 122 84 84 85 90 86 76 87 73 88 93 89 94 90 87 91 87 92 75 93 78 94 78 95 76 96 63 
145 -0.21086704071868245 -0.013221451545224161 0.30269547087836024 49 60 17 1.49 79 141 82 124 83 123 
146 -0.05809239384084985 -0.00943898943545968 0.6944482610384825 104 105 110 0.72 79 142 80 138 81 123 82 125 83 124 84 85 85 91 
147 0.15458345004550247 0.034063022048611086 0.7788220401454733 140 142 142 1.16 79 143 80 139 81 124 87 74 88 94 89 95 
148 -0.09240295639549645 0.1369548215562668 0.6732490214408217 133 145 160 0.73 79 144 80 140 81 125 82 126 83 125 84 86 85 92 86 77 87 75 
149 -0.1371726287072058 0.1288321478942903 0.6389829757511297 140 164 185 0.88 79 145 80 141 81 126 82 127 83 126 84 87 85 93 86 78 87 76 88 95 
150 0.4049408053955616 -0.20771366230224303 0.9358988945081999 173 171 176 0.59 79 146 80 142 81 127 84 88 85 94 86 79 87 77 88 96 89 96 90 88 91 88 92 76 93 79 94 79 95 77 96 64 
151 -0.31815215867529695 0.11234240490418881 0.5878058472925148 135 151 170 1.25 79 147 80 143 82 128 83 127 88 97 89 97 90 89 
152 -0.1498117889921369 -0.0007207538291758483 0.6634540691890517 83 69 71 0.35 79 148 80 144 81 128 82 129 83 128 84 89 85 95 86 80 
153 0.11216589741082184 -0.1216575029384846 0.8076584273844363 57 54 50 0.54 79 149 80 145 81 129 82 130 84 90 85 96 86 81 87 78 88 98 89 98 90 90 91 89 92 77 93 80 94 80 95 78 96 65 
154 0.1767591585491928 0.07577630898335018 0.7619756779371237 112 111 104 1.09 79 150 80 146 81 130 83 129 84 91 87 79 
155 0.2930436258666124 0.01742675898999539 0.5285178953571483 82 92 51 1.09 79 151 80 147 81 131 84 92 88 99 89 99 90 91 91 90 
156 -0.07534959994696583 -0.28298560711727405 0.749945195829429 115 90 92 0.47 79 152 80 148 81 132 82 131 83 130 84 93 85 97 86 82 87 80 88 100 89 100 90 92 91 91 92 78 93 81 94 81 95 79 96 66 
157 0.3391262734962354 0.07143186860849546 0.5675032072762362 129 135 135 0.92 79 153 80 149 81 133 84 94 91 92 
158 -0.15535346632184024 0.1263707158767147 0.6276542568504961 121 116 118 1.08 79 154 80 150 81 134 82 132 83 131 84 95 85 98 86 83 87 81 89 101 
159 -0.20101283499450284 0.006259524684523164 0.2936902807946031 132 139 52 1.0 79 155 82 133 83 132 
160 0.5110685915973542 -0.2833369319230306 0.9983398187638188 127 110 109 0.52 79 156 80 151 81 135 84 96 85 99 86 84 87 82 88 101 89 102 90 93 91 93 92 79 93 82 94 82 95 80 
161 0.33490656294244975 -0.2664266599335406 0.9210240017965823 33 26 28 0.39 79 157 80 152 81 136 84 97 85 100 86 85 87 83 88 102 89 103 90 94 91 94 92 80 93 83 94 83 95 81 96 67 
162 0.15103479742311707 -0.2771144898737804 0.842457665281187 159 160 163 0.57 79 158 80 153 81 137 82 134 84 98 85 101 86 86 87 84 88 103 89 104 90 95 91 95 92 81 93 84 94 84 95 82 96 68 
163 -0.2706103596073652 -0.3057493240274152 0.6726778068761886 117 112 112 0.53 79 159 80 154 81 138 82 135 83 133 85 102 86 87 87 85 88 104 89 105 90 96 91 96 92 82 93 85 94 85 95 83 96 69 
164 -0.32339435128107 -0.18429552433473811 0.6401953152505723 46 52 53 1.0 79 160 80 155 81 139 82 136 83 134 88 105 89 106 90 97 91 97 92 83 93 86 94 86 95 84 96 70 
165 -0.050888658014647974 0.04801821625426875 0.6928455059498346 87 75 77 0.27 79 161 80 156 81 140 82 137 83 135 84 99 85 103 86 88 
166 -0.07067001418938226 0.05812226441060571 0.6956778508269569 141 152 168 0.29 79 162 80 157 81 141 82 138 83 136 84 100 85 104 
167 -0.32397941053104234 -0.28543519178936266 0.6461583765211091 55 49 48 0.63 79 163 80 158 81 142 82 139 83 137 88 106 89 107 90 98 91 98 92 84 93 87 94 87 95 85 96 71 
168 -0.19683108804842928 -0.17439609931924654 0.6813070361614825 63 60 70 0.53 79 164 80 159 81 143 82 140 83 138 84 101 85 105 86 89 87 86 88 107 89 108 90 99 91 99 92 85 93 88 94 88 95 86 96 72 
169 -0.3527178379491997 -0.15609549562254585 0.6243825640098283 72 111 140 0.87 79 165 80 160 82 141 83 139 88 108 89 109 91 100 92 86 93 89 94 89 95 87 96 73 
170 -0.08470570281610636 -0.21142067101394377 0.7432468397737747 116 142 169 0.37 79 166 80 161 81 144 82 142 83 140 84 102 85 106 86 90 87 87 88 109 89 110 90 100 91 101 92 87 93 90 94 90 95 88 96 74 
171 -0.22746079478704154 -0.014666875533827504 0.3502238460469777 169 172 120 1.03 79 167 82 143 83 141 
172 0.18209787499788704 0.013659062933123613 0.5474348489432321 118 125 101 1.14 79 168 80 162 81 145 82 144 83 142 84 103 85 107 87 88 88 110 91 102 
173 -0.30867784532337167 -0.15518664976847216 0.6409331300842117 149 158 177 0.89 79 169 80 163 81 146 82 145 83 143 88 111 89 111 90 101 91 103 92 88 93 91 94 91 95 89 96 75 
174 -0.03998320392152804 0.11866147829824135 0.6769613886249995 112 98 99 0.49 79 170 80 164 81 147 82 146 83 144 84 104 85 108 86 91 
175 -0.11943454265633134 0.09059155496397897 0.6746335537664877 99 106 116 0.5 79 171 80 165 81 148 82 147 83 145 84 105 85 109 86 92 87 89 
176 -0.1573784706279853 -0.24023043319385984 0.7121030934840056 132 136 159 0.39 79 172 80 166 81 149 82 148 83 146 84 106 85 110 86 93 87 90 88 112 89 112 90 102 91 104 92 89 93 92 94 92 95 90 96 76 
177 0.2598743000810342 0.0853360582739405 0.5585454495402984 38 34 30 1.56 79 173 80 167 81 150 85 111 86 94 87 91 88 113 89 113 90 103 91 105 
178 -0.2077712363015898 -0.263117230126072 0.6947934580019288 154 148 144 0.67 79 174 80 168 81 151 82 149 83 147 84 107 85 112 86 95 87 92 88 114 89 114 90 104 91 106 92 90 93 93 94 93 95 91 96 77 
179 -0.23948823943846217 0.09122638940524067 0.37362229290213517 64 69 36 1.01 79 175 82 150 83 148 89 115 
180 0.0013764321203105464 0.11064065028884064 0.42667006385202944 18 22 14 0.8 79 176 80 169 81 152 82 151 83 149 
181 -0.1598241338276803 0.07708355985683749 0.6427013743956238 119 115 119 0.78 79 177 80 170 81 153 82 152 83 150 84 108 85 113 86 96 87 93 
182 -0.2764342252925885 -0.2956551557687029 0.667164436550717 82 72 75 0.68 79 178 80 171 81 154 82 153 83 151 85 114 86 97 87 94 88 115 89 116 90 105 91 107 92 91 93 94 94 94 95 92 96 78 
183 -0.06710333892106485 0.09947723371158956 0.6876776457438084 150 159 171 0.46 79 179 80 172 81 155 82 154 83 152 84 109 85 115 86 98 
184 0.309607142097102 0.07558425948111981 0.5713536371657132 25 31 19 1.09 79 180 80 173 81 156 84 110 88 116 89 117 90 106 91 108 
185 -0.10374070285250345 -0.12663793684709654 0.7200748733095017 163 182 206 0.55 79 181 80 174 81 157 82 155 83 153 84 111 85 116 87 95 88 117 89 118 90 107 91 109 92 92 93 95 94 95 95 93 
186 0.26033517466006206 -0.23840864105782492 0.8848676258296455 150 182 204 0.45 79 182 80 175 81 158 84 112 85 117 86 99 87 96 88 118 89 119 90 108 91 110 92 93 93 96 94 96 95 94 96 79 
187 0.10683338062159571 0.06335760316754371 0.7636304400627072 119 134 150 1.0 79 183 80 176 88 119 89 120 
188 0.2069595563193057 -0.21149012929745983 0.8502350642554551 55 53 65 0.85 79 184 80 177 81 159 83 154 84 113 85 118 86 100 87 97 88 120 89 121 90 109 91 111 92 94 93 97 94 97 95 95 96 80 
189 -0.07669303482056467 -0.21146753700566048 0.742554816536565 107 117 136 0.43 79 185 80 178 81 160 82 156 83 155 84 114 85 119 86 101 87 98 88 121 89 122 90 110 91 112 92 95 93 98 94 98 95 96 96 81 
190 0.13662306209469918 0.09035035103420884 0.7685645492862239 128 137 155 0.92 79 186 80 179 81 161 82 157 87 99 
191 0.09861545171454326 -0.17411219837577066 0.8117300359970455 64 63 66 0.57 79 187 80 180 81 162 82 158 83 156 84 115 85 120 86 102 87 100 88 122 89 123 90 111 91 113 92 96 93 99 94 99 95 97 96 82 
192 -0.06888958021784526 -0.1152301573893671 0.7178337249512164 65 59 73 0.79 79 188 80 181 81 163 82 159 83 157 84 116 85 121 87 101 88 123 89 124 90 112 91 114 92 97 93 100 94 100 95 98 96 83 
193 0.12703265902773883 -0.17818163724476213 0.8204693490898475 185 201 223 0.48 79 189 80 182 81 164 82 160 83 158 84 117 85 122 86 103 87 102 88 124 89 125 90 113 91 115 92 98 93 101 94 101 95 99 96 84 
194 0.15417551503560983 0.04685523126760686 0.5327654855689452 62 72 41 1.46 79 190 80 183 81 165 82 161 83 159 84 118 85 123 87 103 88 125 92 99 
195 -0.19756077613847323 -0.27451361346539854 0.7011412423458243 115 88 87 0.67 79 191 80 184 81 166 82 162 83 160 84 119 85 124 86 104 87 104 88 126 89 126 90 114 91 116 92 100 93 102 94 102 95 100 96 85 
196 0.10756951682861791 -0.14462226579010387 0.8099437876445235 84 101 115 0.43 79 192 80 185 81 167 82 163 84 120 85 125 86 105 87 105 88 127 89 127 90 115 91 117 92 101 93 103 94 103 95 101 96 86 
197 -0.2773883413346767 -0.038856705337947564 0.6136471292969281 135 130 132 0.37 79 193 80 186 81 168 82 164 83 161 
198 -0.24527413888406333 9.77473850126661e-07 0.6171548013835487 56 59 59 0.3 79 194 80 187 81 169 82 165 83 162 
199 0.07957022126481936 -0.17515660764169289 0.8042443586047501 68 71 76 0.46 79 195 80 188 81 170 82 166 83 163 84 121 85 126 86 106 87 106 88 128 89 128 90 116 91 118 92 102 93 104 94 104 95 102 96 87 
200 -0.2289836898312833 0.0843740086720359 0.37868049977786716 77 93 18 0.99 79 196 82 167 83 164 89 129 
201 0.06009081242943862 -0.12168510534783854 0.7777103028944249 58 59 59 0.54 79 197 80 189 81 171 82 168 83 165 84 122 85 127 86 107 87 107 88 129 89 130 90 117 91 119 92 103 93 105 94 105 95 103 96 88 
202 0.08441959960644264 0.012180314197906899 0.765737987880734 81 85 88 1.05 79 198 80 190 81 172 82 169 87 108 88 130 89 131 90 118 
203 -0.20230589644973102 -0.29762420071785944 0.7028036492092421 116 101 96 0.7 79 199 80 191 81 173 82 170 83 166 84 123 85 128 86 108 87 109 88 131 89 132 90 119 91 120 92 104 93 106 94 106 95 104 96 89 
204 -0.16340584241707531 -0.13295226845736743 0.6825286175103467 155 157 161 0.56 79 200 80 192 81 174 82 171 83 167 84 124 85 129 86 109 87 110 88 132 89 133 90 120 91 121 92 105 93 107 94 107 95 105 96 90 
205 0.2421817994539981 -0.29406469678537006 0.8813802443787997 105 86 84 0.49 79 201 80 193 81 175 84 125 85 130 86 110 87 111 88 133 89 134 90 121 91 122 92 106 93 108 94 108 95 106 96 91 
206 -0.19817137721723999 0.004596577952091886 0.30508303362664174 108 120 54 0.88 79 202 82 172 83 168 
207 0.239419657430118 -0.023477434813215757 0.4922971544832383 74 70 23 1.42 79 203 80 194 81 176 83 169 84 126 85 131 87 112 88 134 89 135 90 122 91 123 
208 -0.39964192115131064 -0.2189969204780007 0.6016779015931368 155 157 116 1.01 79 204 82 173 83 170 88 135 89 136 90 123 91 124 92 107 93 109 94 109 95 107 96 92 
209 -0.03101025206872793 -0.2014924840753442 0.7497571534837173 171 171 171 0.55 79 205 80 195 81 177 82 174 83 171 84 127 85 132 86 111 87 113 88 136 89 137 90 124 91 125 92 108 93 110 94 110 95 108 96 93 
210 0.14588712885837937 -0.09617190718192416 0.7991781875781151 100 102 111 0.78 79 206 80 196 81 178 82 175 85 133 86 112 87 114 88 137 89 138 90 125 91 126 92 109 93 111 94 111 95 109 96 94 
211 -0.03582827371504242 -0.03456169038838797 0.7073215511395492 135 133 136 1.08 79 207 80 197 81 179 82 176 83 172 84 128 91 127 92 110 93 112 
212 0.5417822781691938 -0.255494787418717 1.0103436601083347 33 28 31 0.5 79 208 80 198 81 180 84 129 85 134 86 113 87 115 88 138 89 139 90 126 91 128 92 111 93 113 94 112 95 110 
213 -0.1612147909451235 -0.27796395345768116 0.7168072124225703 58 60 64 0.55 79 209 80 199 81 181 82 177 83 173 84 130 85 135 86 114 87 116 88 139 89 140 90 127 91 129 92 112 93 114 94 113 95 111 96 95 
214 0.3078367037556831 -0.30525016575507075 0.9131363969044171 87 77 78 0.42 79 210 80 200 81 182 84 131 85 136 86 115 87 117 88 140 89 141 90 128 91 130 92 113 93 115 94 114 95 112 96 96 
215 -0.32024822939717823 -0.02660389106797862 0.5972997500354201 125 112 107 0.42 79 211 80 201 82 178 83 174 
216 0.13740335445810412 0.10441623087963008 0.7657884741785334 132 140 152 1.05 79 212 80 202 81 183 82 179 83 175 84 132 87 118 
217 0.12206407796605773 -0.14054353969781444 0.8140022369274795 54 69 80 0.6 79 213 80 203 81 184 82 180 83 176 84 133 85 137 86 116 87 119 88 141 89 142 90 129 91 131 92 114 93 116 94 115 95 113 96 97 
218 -0.2020701792992339 -0.02821351981066426 0.3569182807436242 84 92 52 1.27 79 214 82 181 
219 -0.06399474457949243 0.09137458155206798 0.6843747870764555 60 59 50 0.67 79 215 80 204 81 185 82 182 83 177 84 134 85 138 86 117 87 120 
220 -0.23731002943715865 -0.040343969675783214 0.33652250995397287 81 89 29 1.18 79 216 82 183 83 178 
221 -0.3098232138856576 -0.21550604501614803 0.6503545638881357 160 182 205 0.62 79 217 80 205 81 186 82 184 83 179 88 142 89 143 90 130 91 132 92 115 93 117 94 116 95 114 96 98 
222 -0.26717520542838474 -0.031791317301732736 0.6148524991319274 143 144 147 0.41 79 218 80 206 81 187 82 185 83 180 
223 -0.2961944954890833 0.100992071208924 0.6007889207393743 122 141 158 1.14 79 219 80 207 81 188 82 186 83 181 88 143 89 144 
224 -0.20330238143209967 -0.027586217636432285 0.3519886319655194 82 84 28 1.61 79 220 82 187 83 182 
225 -0.19817442592831125 -0.13005436775959567 0.6677981393792204 79 84 93 0.5 79 221 80 208 81 189 82 188 83 183 84 135 85 139 86 118 88 144 90 131 91 133 92 116 93 118 94 117 95 115 96 99 
226 -0.16488340599328885 0.13899587602594465 0.6052057348611156 128 131 122 1.21 79 222 80 209 81 190 82 189 83 184 84 136 85 140 86 119 88 145 
227 0.10914281548724432 0.06313841313018163 0.7648678297466832 125 140 156 1.12 79 223 80 210 88 146 89 145 
228 -0.06249071015489568 -0.18398122789205787 0.7349785953618624 103 105 117 0.49 79 224 80 211 81 191 82 190 83 185 84 137 85 141 86 120 87 121 88 147 89 146 90 132 91 134 92 117 93 119 94 118 95 116 96 100 
229 0.4062189974934415 0.07370358420190251 0.6297661131992162 33 45 25 1.86 80 212 81 192 84 138 87 122 88 148 89 147 90 133 91 135 
230 0.10012559845975498 -0.12791061480337268 0.8036175637894413 77 107 124 0.55 79 225 80 213 81 193 82 191 84 139 86 121 87 123 88 149 89 148 90 134 91 136 92 118 93 120 94 119 95 117 96 101 
231 -0.12040943104488155 0.056788697971836624 0.6831915443295286 154 172 187 0.23 79 226 80 214 81 194 82 192 83 186 84 140 85 142 
232 -0.3775032788533812 -0.1860480531257643 0.6084357996352775 138 135 129 1.31 79 227 82 193 83 187 88 150 89 149 90 135 91 137 92 119 93 121 94 120 95 118 96 102 
233 -0.18613045879005205 -0.08550968681988366 0.6594417503099956 159 157 151 0.59 79 228 80 215 81 195 82 194 83 188 84 141 85 143 86 122 93 122 94 121 95 119 
234 0.1219433478727257 -0.1266647864303243 0.8118168605566751 72 94 107 0.56 79 229 80 216 81 196 82 195 84 142 85 144 86 123 87 124 88 151 89 150 90 136 91 138 92 120 93 123 94 122 95 120 96 103 
235 -0.2884782367363059 -0.27029955926493443 0.6651278338760845 79 82 84 0.67 79 230 80 217 81 197 82 196 83 189 85 145 86 124 87 125 88 152 89 151 90 137 91 139 92 121 93 124 94 123 95 121 96 104 
236 -0.07241856918202028 0.07105949874654706 0.6931329219840786 77 95 94 0.31 79 231 80 218 81 198 82 197 83 190 84 143 85 146 86 125 
237 0.07853188199686116 -0.11692782657412525 0.7902652432878349 166 186 209 0.42 79 232 80 219 81 199 82 198 85 147 87 126 88 153 89 152 90 138 91 140 92 122 93 125 94 124 95 122 
238 0.18639250433056834 0.05616036873540912 0.564786280235994 139 138 140 0.52 79 233 80 220 81 200 84 144 93 126 
239 0.35267894291272567 0.12280326592134874 0.541216336404398 63 89 55 1.48 80 221 81 201 84 145 85 148 89 153 90 139 
240 -0.0942904733420542 0.057149807113973966 0.6864346682763475 153 172 187 0.24 79 234 80 222 81 202 82 199 83 191 84 146 85 149 
241 -0.07137365892807929 -0.10236990017898999 0.7079483105616665 95 94 98 0.69 79 235 80 223 81 203 82 200 83 192 84 147 85 150 87 127 88 154 89 154 90 140 91 141 92 123 93 127 94 125 95 123 
242 -0.3357037200687828 -0.1359748484604738 0.6339331480575776 198 222 232 1.0 79 236 80 224 81 204 82 201 83 193 89 155 91 142 92 124 93 128 94 126 95 124 
243 -0.2193010345174242 -0.051546217611785426 0.6361232479654767 153 151 147 0.7 79 237 80 225 81 205 82 202 83 194 85 151 86 126 93 129 94 127 
244 -0.33860077615090384 -0.1395006764832282 0.6328216018063245 103 112 116 1.16 79 238 80 226 81 206 82 203 83 195 89 156 91 143 92 125 93 130 94 128 95 125 
245 -0.24987278205869337 0.13927286911209016 0.3755279759418986 30 38 18 1.41 79 239 82 204 83 196 89 157 
246 -0.2217632744833076 0.1330004549254505 0.5785416417783615 123 120 109 1.42 79 240 80 227 81 207 82 205 83 197 88 155 89 158 
247 -0.28138624547989766 -0.2832065026507818 0.6647978794226145 56 48 48 0.74 79 241 80 228 81 208 82 206 83 198 85 152 86 127 87 128 88 156 89 159 90 141 91 144 92 126 93 131 94 129 95 126 96 105 
248 0.12149767970135307 -0.12204639169715431 0.8109991413008685 44 43 42 0.52 79 242 80 229 81 209 82 207 84 148 85 153 86 128 87 129 88 157 89 160 90 142 91 145 92 127 93 132 94 130 95 127 96 106 
249 0.2755663009663279 -0.019224779071874608 0.4983413351153306 31 41 20 1.21 80 230 81 210 88 158 89 161 90 143 91 146 
250 -0.3625919023672285 -0.25109688326789903 0.6265429046590488 48 48 52 0.52 79 243 80 231 82 208 83 199 88 159 89 162 90 144 91 147 92 128 93 133 94 131 95 128 96 107 
251 -0.35368469253046814 0.08115462997229717 0.5573525080452786 101 93 91 0.83 79 244 82 209 83 200 88 160 89 163 90 145 
252 0.05963824616825356 -0.2710927671104905 0.8083386075359648 46 41 45 0.45 79 245 80 232 81 211 82 210 83 201 84 149 85 154 86 129 87 130 88 161 89 164 90 146 91 148 92 129 93 134 94 132 95 129 96 108 
253 -0.19860751620153833 0.00010243492537679098 0.3099829469882424 90 104 75 1.26 79 246 82 211 83 202 
254 -0.13528616317120867 -0.18260565857398015 0.71572803196084 85 99 113 0.49 79 247 80 233 81 212 82 212 83 203 84 150 85 155 86 130 87 131 88 162 89 165 90 147 91 149 92 130 93 135 94 133 95 130 
255 0.2019669798826249 0.026256131516913018 0.5343631657362959 51 61 44 1.28 79 248 80 234 81 213 83 204 84 151 85 156 88 163 91 150 94 134 
256 0.1277476974426768 -0.20483924144068325 0.8270734179897281 171 179 198 0.45 79 249 80 235 81 214 82 213 83 205 84 152 85 157 86 131 87 132 88 164 89 166 90 148 91 151 92 131 93 136 94 135 95 131 96 109 
257 -0.23843184282325047 -0.03282297303610144 0.3458592932952788 40 54 16 0.59 79 250 82 214 
258 -0.09993895542438219 0.03084968289494141 0.6960478502346534 77 93 99 0.31 79 251 80 236 81 215 82 215 83 206 84 153 85 158 86 132 
259 -0.35562045807376885 -0.24657058593184128 0.6375777718139525 77 104 122 0.89 79 252 80 237 82 216 83 207 88 165 89 167 90 149 91 152 92 132 93 137 94 136 95 132 96 110 
260 -0.07057531403099469 -0.1538090831607164 0.7299587976775028 62 52 64 0.56 79 253 80 238 81 216 82 217 83 208 84 154 85 159 86 133 88 166 89 168 90 150 91 153 92 133 93 138 94 137 95 133 96 111 
261 0.23898711254534147 -0.20535712632180075 0.8639456734560532 117 71 67 0.72 79 254 80 239 81 217 83 209 84 155 85 160 86 134 87 133 88 167 89 169 90 151 91 154 92 134 93 139 94 138 95 134 96 112 
262 -0.34547655395329574 0.11106840241598857 0.58169965537267 115 142 168 0.64 79 255 80 240 82 218 83 210 88 168 89 170 90 152 
263 0.07871110085044339 -0.1464798143692193 0.7969280034821612 162 180 202 0.42 79 256 80 241 81 218 82 219 86 135 87 134 88 169 89 171 90 153 91 155 92 135 93 140 94 139 95 135 96 113 
264 0.09773835624733669 -0.14375755292700965 0.8049305436462533 62 82 96 0.4 79 257 80 242 81 219 82 220 84 156 86 136 87 135 88 170 89 172 90 154 91 156 92 136 93 141 94 140 95 136 96 114 
265 -0.2750572364300973 -0.12170273216799536 0.6409919646299955 41 37 46 1.05 79 258 80 243 81 220 82 221 83 211 88 171 89 173 90 155 91 157 92 137 93 142 94 141 95 137 96 115 
266 -0.14926547471757906 -0.11473638144754106 0.6819791711604302 94 95 112 0.54 79 259 80 244 81 221 82 222 83 212 84 157 85 161 86 137 89 174 90 156 91 158 92 138 93 143 94 142 95 138 96 116 
267 -0.22184814518389623 0.13341810908245252 0.5735230556808205 61 85 37 1.51 79 260 80 245 81 222 82 223 83 213 88 172 89 175 90 157 
268 0.1015779124814285 -0.17691948603125715 0.8132202184428594 154 177 200 0.59 79 261 80 246 81 223 82 224 83 214 84 158 85 162 86 138 87 136 88 173 89 176 90 158 91 159 92 139 93 144 94 143 95 139 96 117 
269 0.21808164493803878 0.04281860137405453 0.5102458829218259 52 51 44 0.99 79 262 80 247 81 224 83 215 84 159 85 163 86 139 88 174 89 177 90 159 91 160 
270 -0.3052166376581816 -0.18316080457748274 0.6444582142963654 42 47 49 0.76 79 263 80 248 81 225 82 225 83 216 88 175 89 178 90 160 91 161 92 140 93 145 94 144 95 140 96 118 
271 0.17788154743635057 0.06352477290806598 0.5725210886345067 96 93 84 1.43 79 264 80 249 81 226 82 226 83 217 84 160 85 164 87 137 88 176 89 179 91 162 92 141 
272 -0.187608397753732 -0.01509415339624205 0.6438000840664009 143 143 142 0.54 79 265 80 250 81 227 82 227 83 218 84 161 85 165 86 140 
273 0.06566683391915332 -0.1809759203432671 0.8011128163346262 164 186 204 0.6 79 266 80 251 81 228 82 228 83 219 84 162 85 166 86 141 87 138 88 177 89 180 90 161 91 163 92 142 93 146 94 145 95 141 96 119 
274 -0.24094631763969268 -0.05664431079447964 0.3359184457957747 74 97 56 1.09 79 267 82 229 83 220 
275 0.13769621913338279 0.1526844092507474 0.4259420908294844 20 26 23 1.73 79 268 80 252 81 229 82 230 83 221 
276 0.2014477190837468 -0.3083881783979416 0.8585406429910108 53 54 58 0.6 79 269 80 253 81 230 84 163 85 167 86 142 87 139 88 178 89 181 90 162 91 164 92 143 93 147 94 146 95 142 96 120 
277 0.11108031658455865 -0.1777278598164295 0.8174139972948771 192 210 231 0.47 79 270 80 254 81 231 82 231 83 222 84 164 85 168 86 143 87 140 88 179 89 182 90 163 91 165 92 144 93 148 94 147 95 143 96 121 
278 0.1292634890804052 -0.1758791105644628 0.8208763520526687 174 187 207 0.49 79 271 80 255 81 232 82 232 83 223 84 165 85 169 86 144 87 141 88 180 89 183 90 164 91 166 92 145 93 149 94 148 95 144 96 122 
279 -0.39217834290733183 -0.17711548086585838 0.6048012260024299 57 54 62 1.43 79 272 82 233 83 224 88 181 89 184 90 165 91 167 92 146 93 150 94 149 95 145 96 123 
280 -0.33499377599815633 -0.21712519183175066 0.6424825946920056 108 122 135 0.97 79 273 80 256 81 233 82 234 83 225 88 182 89 185 90 166 91 168 92 147 93 151 94 150 95 146 96 124 
281 -0.12389571777378636 -0.1788806804066382 0.7196167205644238 64 78 88 0.49 79 274 80 257 81 234 82 235 83 226 84 166 85 170 86 145 87 142 88 183 89 186 90 167 91 169 92 148 93 152 94 151 95 147 
282 0.25569744854274346 0.10688512851962086 0.5592658216767759 36 39 33 1.72 79 275 80 258 81 235 83 227 84 167 86 146 87 143 88 184 89 187 90 168 
283 -0.0833608927133153 -0.13074342228408167 0.7234996842022713 108 160 190 0.57 79 276 80 259 81 236 82 236 83 228 84 168 85 171 86 147 87 144 88 185 89 188 90 169 91 170 92 149 93 153 94 152 95 148 
284 0.23639736391315155 -0.18907908871467502 0.8622473513770531 63 69 82 0.79 79 277 80 260 81 237 83 229 84 169 85 172 86 148 87 145 88 186 89 189 90 170 91 171 92 150 93 154 94 153 95 149 96 125 
285 -0.2317517770364413 -0.3228531004231284 0.6873299722711858 36 30 31 0.78 79 278 80 261 81 238 82 237 83 230 84 170 85 173 86 149 87 146 88 187 89 190 90 171 91 172 92 151 93 155 94 154 95 150 96 126 
286 0.3614048079215461 -0.23596243789647314 0.9270817189468751 156 155 159 0.58 79 279 80 262 81 239 84 171 85 174 86 150 87 147 88 188 89 191 90 172 91 173 92 152 93 156 94 155 95 151 96 127 
287 -0.2772014217125658 -0.1825924265483238 0.6495593982922155 59 56 69 0.68 79 280 80 263 81 240 82 238 83 231 85 175 87 148 88 189 89 192 90 173 91 174 92 153 93 157 94 156 95 152 96 128 
288 0.135030623530791 0.15018460635156544 0.42356048894479287 43 56 55 1.68 79 281 80 264 81 241 82 239 83 232 
289 0.11319793716486155 0.13825678052850238 0.7666799910780251 114 126 139 0.72 79 282 80 265 81 242 82 240 83 233 84 172 85 176 86 151 
290 0.13230300779831428 0.06265117791485764 0.7759079779292298 97 105 118 1.36 79 283 80 266 84 173 88 190 
291 -0.32150901356361183 -0.13171383640694906 0.6385273239733945 165 185 195 1.25 79 284 80 267 81 243 82 241 83 234 89 193 91 175 92 154 93 158 94 157 
292 -0.20085900137948537 -0.055222853147311644 0.6465427627985375 147 143 139 0.63 79 285 80 268 81 244 82 242 83 235 84 174 85 177 86 152 93 159 94 158 
293 -0.3279225834638963 -0.03332901582113984 0.5951533868077158 126 118 119 0.5 79 286 80 269 82 243 83 236 
294 -0.2237612450374321 -0.15594655213102254 0.6642162851561761 78 84 96 0.69 79 287 80 270 81 245 82 244 83 237 84 175 85 178 86 153 87 149 88 191 89 194 90 174 91 176 92 155 93 160 94 159 95 153 96 129 
295 0.08405296445163676 0.0016546393335897117 0.7620969365956974 44 40 34 0.91 79 288 80 271 81 246 82 245 87 150 88 192 89 195 90 175 92 156 
296 0.059599019326238706 -0.20343856474205305 0.8009262555265535 55 69 81 0.48 79 289 80 272 81 247 82 246 83 238 84 176 85 179 86 154 87 151 88 193 89 196 90 176 91 177 92 157 93 161 94 160 95 154 96 130 
297 -0.2551897720518568 0.13873003920857585 0.3714559452924938 31 39 18 1.12 79 290 82 247 83 239 
298 -0.022363145495685726 0.004399702774528623 0.7069862730080466 153 147 146 0.93 79 291 80 273 81 248 82 248 83 240 84 177 85 180 91 178 
299 -0.0640951385945437 -0.10263624357291999 0.7111532448873139 114 115 121 0.73 79 292 80 274 81 249 82 249 83 241 84 178 85 181 87 152 88 194 89 197 90 177 91 179 92 158 93 162 94 161 95 155 96 131 
300 -0.09287366225272879 0.1047695071335622 0.6812373128540382 129 149 162 0.49 79 293 80 275 81 250 82 250 83 242 84 179 85 182 86 155 87 153 
301 -0.16486207119038865 -0.002630380045758955 0.6527460924369441 146 148 150 0.42 79 294 80 276 81 251 82 251 83 243 84 180 85 183 86 156 
302 -0.09162945593344514 -0.03839377853589486 0.6870044136214583 113 100 104 0.81 79 295 80 277 81 252 82 252 83 244 84 181 85 184 92 159 93 163 
303 -0.34955407267268895 0.04293393301694104 0.5891154593489386 138 154 178 0.31 79 296 80 278 82 253 83 245 88 195 
304 -0.31437124700790586 0.11377616742241586 0.5976000971696986 123 138 154 0.64 79 297 80 279 82 254 83 246 88 196 
305 0.6096692917920201 -0.026688381823462788 0.9812384610251409 149 144 146 1.14 79 298 80 280 81 253 84 182 85 185 86 157 87 154 88 197 89 198 90 178 91 180 92 160 93 164 94 162 95 156 96 132 
306 0.07593596315785908 -0.20744743941295454 0.8107948639152028 158 176 196 0.55 79 299 80 281 81 254 82 255 83 247 84 183 85 186 86 158 87 155 88 198 89 199 90 179 91 181 92 161 93 165 94 163 95 157 96 133 
307 -0.17632741980891625 -0.0317646708955925 0.6538944243373985 156 155 155 0.39 79 300 80 282 81 255 82 256 83 248 84 184 85 187 86 159 
308 -0.35473045935042447 0.0798692625084606 0.5587517803760046 147 141 125 0.99 79 301 82 257 83 249 88 199 89 200 90 180 
309 0.5677488570396212 -0.176952499331691 1.001824880799994 112 98 101 0.64 79 302 80 283 81 256 84 185 85 188 86 160 87 156 88 200 89 201 90 181 91 182 92 162 93 166 94 164 95 158 
310 -0.32262800169474154 -0.039977744226400595 0.5985119906209984 116 103 102 0.34 79 303 80 284 82 258 83 250 
311 0.12705652384118782 -0.27009343653985074 0.8336242386285825 40 37 43 0.57 79 304 80 285 81 257 82 259 83 251 84 186 85 189 86 161 87 157 88 201 89 202 90 182 91 183 92 163 93 167 94 165 95 159 96 134 
312 0.3613698681844325 0.08114501041102173 0.5811539874780649 70 64 60 1.47 80 286 81 258 84 187 85 190 89 203 90 183 
313 0.3318139232836295 -0.2898430796905033 0.9224106974328098 105 73 72 0.35 79 305 80 287 81 259 84 188 85 191 86 162 87 158 88 202 89 204 90 184 91 184 92 164 93 168 94 166 95 160 96 135 
314 0.26257663908346385 0.06079591453181977 0.5382469054866194 113 125 117 1.36 79 306 85 192 86 163 87 159 88 203 89 205 90 185 91 185 92 165 93 169 
315 0.5469903153052837 -0.26712436383387617 1.0107221757024452 87 74 78 0.31 79 307 80 288 81 260 84 189 85 193 86 164 87 160 88 204 89 206 90 186 91 186 92 166 93 170 94 167 95 161 96 136 
316 0.7183539328737467 0.15715785816685424 0.7563997874679311 43 55 39 0.93 88 205 89 207 90 187 91 187 92 167 93 171 94 168 95 162 96 137 
317 -0.4468771084213307 -0.029993420875592407 0.49032313194416366 96 93 94 0.84 88 206 89 208 90 188 93 172 
318 -0.4569631928166362 -0.04021534836257333 0.49403884995894387 91 89 89 0.7 88 207 89 209 90 189 93 173 
319 0.31497248033088615 -0.17066016787332092 0.9024958182679232 75 84 98 0.27 79 308 80 289 81 261 84 190 85 194 86 165 87 161 88 208 89 210 90 190 91 188 92 168 93 174 94 169 95 163 
320 -0.22616940499156438 -0.22383461751430814 0.6772324129413954 157 159 156 0.6 79 309 80 290 81 262 82 260 83 252 84 191 85 195 86 166 87 162 88 209 89 211 90 191 91 189 92 169 93 175 94 170 95 164 96 138 
321 0.569063184762062 -0.12849480324002496 0.9903667169377128 152 153 154 0.38 79 310 80 291 81 263 84 192 85 196 86 167 87 163 88 210 89 212 90 192 91 190 92 170 93 176 94 171 95 165 96 139 
322 0.6440196395265765 0.006440091129976804 0.9929250733702999 125 125 131 0.74 80 292 81 264 84 193 85 197 86 168 87 164 88 211 89 213 90 193 91 191 92 171 93 177 94 172 95 166 96 140 97 0 99 0 
323 -0.11978919147169823 -0.30495106845772235 0.7368692589690212 112 103 100 0.53 79 311 80 293 81 265 82 261 83 253 84 194 85 198 86 169 87 165 88 212 89 214 90 194 91 192 92 172 93 178 94 173 95 167 
324 0.4771948749597509 0.16818709769651288 0.512950082703844 26 36 26 0.09 89 215 90 195 91 193 
325 0.37756311823863165 -0.2663112607268401 0.9373767785441198 152 154 155 0.3 79 312 80 294 81 266 84 195 85 199 86 170 87 166 88 213 89 216 90 196 91 194 92 173 93 179 94 174 95 168 96 141 
326 0.6183061002702862 -0.06953803494622035 0.9976661375031673 138 134 133 0.47 79 313 80 295 81 267 84 196 85 200 86 171 87 167 88 214 89 217 90 197 91 195 92 174 93 180 94 175 95 169 96 142 97 1 
327 0.5967302378108225 0.03695445493021447 0.9622343088090871 72 73 79 0.52 87 168 88 215 89 218 90 198 91 196 92 175 93 181 94 176 95 170 96 143 97 2 
328 0.14097402479126356 -0.2907258678054728 0.8413536319827442 128 121 115 0.42 79 314 80 296 81 268 82 262 84 197 85 201 86 172 87 169 88 216 89 219 90 199 91 197 92 176 93 182 94 177 95 171 96 144 
329 0.5386721326051203 0.17671502163223154 0.5572843834617363 24 39 31 0.88 89 220 90 200 91 198 92 177 
330 0.20700801494353907 -0.22138080469549687 0.8518862131573978 45 45 58 0.35 79 315 80 297 81 269 83 254 84 198 85 202 86 173 87 170 88 217 89 221 90 201 91 199 92 178 93 183 94 178 95 172 96 145 
331 0.3095252295340556 0.0751721678029676 0.5488343260429012 80 68 54 0.81 86 174 87 171 88 218 89 222 90 202 91 200 92 179 
332 0.7309114476095133 0.1754922756574016 0.7370141852769027 28 31 19 1.02 88 219 89 223 90 203 91 201 92 180 93 184 94 179 95 173 
333 -0.2863724530195382 -0.20995264497599742 0.6525417439255043 126 126 124 0.75 79 316 80 298 81 270 82 263 83 255 85 203 87 172 88 220 89 224 90 204 91 202 92 181 93 185 94 180 95 174 96 146 
334 0.2586084944392193 -0.1746453005511077 0.8784629647708375 49 46 54 0.46 79 317 80 299 81 271 84 199 85 204 86 175 87 173 88 221 89 225 90 205 91 203 92 182 93 186 94 181 95 175 96 147 97 3 
335 0.5467555943615796 -0.062309411017935586 0.9649562319218055 149 148 147 0.43 80 300 81 272 84 200 85 205 86 176 87 174 88 222 89 226 90 206 91 204 92 183 93 187 94 182 95 176 96 148 97 4 
336 0.5829386008092917 -0.2741371693727133 1.325565802906774 104 124 112 0.9 88 223 89 227 90 207 91 205 92 184 93 188 
337 0.30041320335769434 0.011453410379864661 0.571799469788542 71 64 44 0.87 79 318 87 175 88 224 89 228 90 208 91 206 92 185 93 189 94 183 
338 0.6633601456008338 -0.19136909461242357 1.3643557223474891 83 93 76 1.35 87 176 89 229 90 209 92 186 93 190 
339 0.6221107177062565 -0.03515940055372697 0.9905254469040745 127 123 121 0.52 79 319 80 301 81 273 84 201 85 206 86 177 87 177 88 225 89 230 90 210 91 207 92 187 93 191 94 184 95 177 96 149 97 5 99 1 
340 0.6543884537151616 0.04760155134458701 0.9876258785751512 119 119 121 0.73 86 178 87 178 88 226 89 231 90 211 91 208 92 188 93 192 94 185 95 178 96 150 
341 0.2701432587583642 0.029471047266208708 0.49480841519977137 44 50 30 1.55 79 320 84 202 85 207 86 179 87 179 88 227 89 232 90 212 91 209 
342 0.5654832678722156 0.07294864177359658 0.9472792974486667 111 126 149 0.42 88 228 89 233 90 213 91 210 92 189 93 193 94 186 95 179 
343 0.38029852636798206 0.1147770904558348 0.5478455493738121 32 44 29 1.46 85 208 86 180 87 180 88 229 89 234 90 214 91 211 
344 0.5567924464457997 -0.08422557873649382 0.9727447450305293 42 36 31 0.38 80 302 81 274 84 203 85 209 86 181 87 181 88 230 89 235 90 215 91 212 92 190 93 194 94 187 95 180 96 151 97 6 
345 0.6475683466520031 0.029033098752602092 0.9857321665935059 131 133 140 0.5 86 182 87 182 88 231 89 236 90 216 91 213 92 191 93 195 94 188 95 181 96 152 
346 0.6273579937322732 0.04007201919664787 0.97602947654102 139 137 136 0.35 87 183 88 232 89 237 90 217 91 214 92 192 93 196 94 189 95 182 96 153 
347 0.3129381413496017 -0.1231201367151666 0.8926225679499491 164 205 235 0.4 79 321 81 275 84 204 85 210 86 183 87 184 88 233 89 238 90 218 91 215 92 193 93 197 94 190 95 183 96 154 
348 0.5508198799577679 -0.12979071036211057 0.9886807397624794 164 173 194 0.4 79 322 80 303 81 276 84 205 85 211 86 184 87 185 88 234 89 239 90 219 91 216 92 194 93 198 94 191 95 184 96 155 
349 0.17438087638916425 0.011245974823071622 0.7902632320710128 142 145 142 0.68 79 323 80 304 86 185 87 186 88 235 89 240 90 220 92 195 96 156 
350 0.6505683896359652 -0.029285565897780422 1.0035200520464642 133 130 129 0.6 79 324 80 305 81 277 84 206 85 212 86 186 87 187 88 236 89 241 90 221 91 217 92 196 93 199 94 192 95 185 96 157 97 7 99 2 
351 0.7243242022730589 0.1463845397612263 0.7188688089008668 29 36 26 0.98 87 188 88 237 89 242 90 222 91 218 92 197 93 200 94 193 
352 0.3039883203498094 0.05569719930644069 0.5611504645727893 40 43 42 0.66 86 187 87 189 88 238 89 243 90 223 91 219 92 198 93 201 94 194 
353 0.4583461687303385 -0.1881412940615253 0.9551011968648413 160 160 160 0.32 79 325 80 306 81 278 84 207 85 213 86 188 87 190 88 239 89 244 90 224 91 220 92 199 93 202 94 195 95 186 96 158 
354 -0.34429350453640667 -0.21882022083874697 0.6432728956201433 118 135 149 0.97 79 326 80 307 81 279 82 264 83 256 88 240 89 245 90 225 91 221 92 200 93 203 94 196 95 187 96 159 
355 -0.36245644059584015 -0.1894943484096561 0.6242752240191868 84 75 83 0.66 79 327 80 308 82 265 83 257 88 241 89 246 90 226 91 222 92 201 93 204 94 197 95 188 96 160 
356 0.6509810175918339 0.08208560566187081 0.6594803301134442 27 34 33 0.79 87 191 88 242 89 247 90 227 91 223 92 202 93 205 94 198 
357 0.3323098558245426 -0.027151688544473543 0.8653858081255302 137 137 139 0.34 84 208 85 214 86 189 87 192 88 243 89 248 90 228 91 224 92 203 93 206 94 199 95 189 96 161 
358 0.42422920987214613 -0.25694461990484885 0.9555386751372824 151 150 152 0.21 79 328 80 309 81 280 84 209 85 215 86 190 87 193 88 244 89 249 90 229 91 225 92 204 93 207 94 200 95 190 
359 0.6093805545418286 -0.20707306393788155 1.0244764188674567 145 141 139 0.43 79 329 80 310 81 281 84 210 85 216 86 191 87 194 88 245 89 250 90 230 91 226 92 205 93 208 94 201 95 191 96 162 
360 0.2986304871362106 0.04542179824409183 0.535407360324214 75 88 83 1.36 79 330 80 311 84 211 85 217 86 192 87 195 88 246 89 251 90 231 91 227 92 206 93 209 94 202 
361 0.589711726393164 -0.12098205631129688 0.9974735276638004 97 95 102 0.25 79 331 80 312 81 282 84 212 85 218 86 193 87 196 88 247 89 252 90 232 91 228 92 207 93 210 94 203 95 192 96 163 
362 -0.34620298676600814 -0.2466603510273972 0.6498623368380869 112 131 146 0.69 79 332 80 313 81 283 82 266 83 258 88 248 89 253 90 233 91 229 92 208 93 211 94 204 95 193 
363 0.21167486710084973 -0.15565958600510524 0.8378013697149883 49 52 66 0.61 79 333 80 314 81 284 83 259 84 213 85 219 86 194 87 197 88 249 89 254 90 234 91 230 92 209 93 212 94 205 95 194 96 164 97 8 
364 0.26818432640772816 -0.042571845439560774 0.6496909409497265 109 125 109 1.02 85 220 86 195 87 198 88 250 89 255 90 235 91 231 92 210 93 213 94 206 95 195 
365 0.3374347646364168 0.02690027329219888 0.5941228494466143 95 105 71 0.76 81 285 84 214 85 221 87 199 88 251 89 256 90 236 91 232 92 211 93 214 94 207 
366 -0.43896798327128056 -0.3242302585699349 0.6027156593332273 22 23 26 0.75 82 267 83 260 88 252 89 257 90 237 91 233 92 212 93 215 94 208 95 196 96 165 
367 0.2831643082763399 -0.29589085813727023 0.9027138541930873 101 94 97 0.26 79 334 80 315 81 286 84 215 85 222 86 196 87 200 88 253 89 258 90 238 91 234 92 213 93 216 94 209 95 197 
368 0.3051355158150748 -0.2883906246359859 0.9108471068725688 113 91 89 0.35 79 335 80 316 81 287 84 216 85 223 86 197 87 201 88 254 89 259 90 239 91 235 92 214 93 217 94 210 95 198 96 166 
369 0.12574126859034884 -0.20280367732830656 0.8221931412170167 82 100 114 0.42 79 336 80 317 81 288 82 268 83 261 84 217 85 224 86 198 87 202 88 255 89 260 90 240 91 236 92 215 93 218 94 211 95 199 96 167 
370 0.26019505811558624 -0.23121561871510823 0.8953857083677493 122 142 159 0.35 79 337 80 318 81 289 84 218 85 225 86 199 87 203 88 256 89 261 90 241 91 237 92 216 93 219 94 212 95 200 96 168 
371 0.35585813783704523 -0.09242455458189618 0.8878443594667017 105 104 110 0.31 81 290 84 219 85 226 86 200 87 204 88 257 89 262 90 242 91 238 92 217 93 220 94 213 95 201 96 169 
372 0.14486164557760178 -0.09523931212561007 0.7997044934225402 72 72 80 0.49 79 338 80 319 81 291 82 269 85 227 86 201 87 205 88 258 89 263 90 243 91 239 92 218 93 221 94 214 95 202 96 170 
373 0.46690062113432396 -0.22686524343087378 0.9785518055444573 135 149 166 0.35 79 339 80 320 81 292 84 220 85 228 86 202 87 206 88 259 89 264 90 244 91 240 92 219 93 222 94 215 95 203 96 171 
374 0.252727691679221 -0.020983831845984617 0.654230940250549 122 124 122 0.83 86 203 87 207 88 260 89 265 90 245 91 241 92 220 93 223 94 216 95 204 
375 -0.0728023552524374 -0.14868093946182726 0.723078702721259 132 147 156 0.75 79 340 80 321 81 293 82 270 83 262 84 221 85 229 86 204 87 208 88 261 89 266 90 246 91 242 92 221 93 224 94 217 95 205 96 172 
376 0.34020118778366815 -0.29111918191393615 0.9251605233003692 133 134 136 0.31 79 341 80 322 81 294 84 222 85 230 86 205 87 209 88 262 89 267 90 247 91 243 92 222 93 225 94 218 95 206 96 173 
377 0.4254616495543382 0.0006851375583392614 0.9015677784889757 123 114 112 0.72 81 295 84 223 85 231 86 206 87 210 88 263 89 268 90 248 91 244 92 223 93 226 94 219 95 207 96 174 
378 0.5393645575605278 -0.25235955137127597 1.0093386143138636 87 83 83 0.41 79 342 80 323 81 296 84 224 85 232 86 207 87 211 88 264 89 269 90 249 91 245 92 224 93 227 94 220 95 208 96 175 
379 0.361179980683067 -0.21032341126561171 0.9187102583780812 79 78 89 0.26 79 343 80 324 81 297 84 225 85 233 86 208 87 212 88 265 89 270 90 250 91 246 92 225 93 228 94 221 95 209 96 176 
380 0.05839623078344651 -0.1129324754837619 0.7779811132274201 103 104 116 0.71 79 344 80 325 81 298 82 271 83 263 84 226 85 234 86 209 87 213 88 266 89 271 90 251 91 247 92 226 93 229 94 222 95 210 96 177 
381 0.2959660732702005 -0.1758355755191705 0.8991468380324258 171 191 207 0.34 79 345 80 326 81 299 84 227 85 235 86 210 87 214 88 267 89 272 90 252 91 248 92 227 93 230 94 223 95 211 
382 0.4874733025602479 -0.2905840165677071 0.9885669541049559 111 98 99 0.36 79 346 80 327 81 300 84 228 85 236 86 211 87 215 88 268 89 273 90 253 91 249 92 228 93 231 94 224 95 212 
383 0.3103111714428199 -0.25624917901505406 0.9168823709259583 95 105 121 0.31 79 347 80 328 81 301 84 229 85 237 86 212 87 216 88 269 89 274 90 254 91 250 92 229 93 232 94 225 95 213 
384 0.5189599530056663 0.17689630117220823 0.5479953054660218 16 25 16 0.47 89 275 90 255 91 251 92 230 
385 0.3018679227047327 -0.0798535956619199 0.8651974449239552 153 154 154 0.61 84 230 85 238 86 213 87 217 88 270 89 276 90 256 91 252 92 231 93 233 94 226 95 214 96 178 97 9 
386 0.06503236235382488 -0.23596569996918715 0.8160598568658212 85 106 109 0.57 79 348 80 329 81 302 82 272 83 264 84 231 85 239 86 214 87 218 88 271 89 277 90 257 91 253 92 232 93 234 94 227 95 215 
387 0.616481763716321 -0.03281907207769278 0.9883449832790844 86 80 85 0.66 79 349 80 330 81 303 84 232 85 240 86 215 87 219 88 272 89 278 90 258 91 254 92 233 93 235 94 228 95 216 96 179 97 10 99 3 
388 -0.48865116135029935 -0.2860978326077184 0.5847744932223152 102 89 85 0.72 82 273 83 265 88 273 89 279 90 259 91 255 92 234 93 236 94 229 95 217 96 180 
389 0.2692604464455319 -0.1375233831332555 0.8837590562724094 48 67 77 0.35 79 350 81 304 84 233 85 241 86 216 87 220 88 274 89 280 90 260 91 256 92 235 93 237 94 230 95 218 
390 -0.618539271971414 -0.11716501000061243 0.4433984847642967 76 80 86 1.82 89 281 90 261 91 257 93 238 94 231 95 219 
391 0.27470867019277845 -0.20423643390037555 0.9022007117671267 116 143 148 0.32 79 351 80 331 81 305 84 234 85 242 86 217 87 221 88 275 89 282 90 262 91 258 92 236 93 239 94 232 95 220 
392 0.07232546917854066 -0.2661533728656726 0.8218078818197276 80 85 86 0.52 79 352 80 332 81 306 82 274 83 266 84 235 85 243 86 218 87 222 88 276 89 283 90 263 91 259 92 237 93 240 94 233 95 221 
393 -0.2863724530195382 -0.20995264497599742 0.6525417439255043 126 126 124 0.75 79 353 80 333 81 307 82 275 83 267 85 244 87 223 88 277 89 284 90 264 91 260 92 238 93 241 94 234 95 222 96 181 
394 -0.3250309154768084 -0.0988743747603451 0.3768766304938154 56 81 43 1.29 89 285 91 261 94 235 
395 0.35704063473258435 -0.23837292944613916 0.9241783716795645 149 154 159 0.27 79 354 80 334 81 308 84 236 85 245 86 219 87 224 88 278 89 286 90 265 91 262 92 239 93 242 94 236 95 223 96 182 
396 0.03193746957121114 -0.31662131618344347 0.800269237687224 62 56 55 0.44 79 355 80 335 81 309 82 276 84 237 85 246 86 220 87 225 88 279 89 287 90 266 91 263 92 240 93 243 94 237 95 224 
397 0.6070859649801494 0.09501727733033144 1.1379357383899356 151 157 134 1.05 88 280 89 288 90 267 91 264 
398 -0.767542754772842 -0.34133934061342575 0.4617617554403428 110 112 100 1.28 82 277 83 268 89 289 90 268 91 265 92 241 93 244 94 238 95 225 96 183 
399 0.2503194183494741 -0.01648621111201764 0.8285732207362305 120 74 64 0.76 84 238 85 247 86 221 87 226 88 281 89 290 90 269 91 266 92 242 93 245 94 239 95 226 96 184 
400 0.3720413382702887 0.1425009611589558 0.5131373305412857 58 85 54 1.78 87 227 88 282 89 291 90 270 
