# 3D point list with one line of data per point:
#   POINT3D_ID, X, Y, Z, R, G, B, ERROR, TRACK[] as (IMAGE_ID, POINT2D_IDX)
# Number of points: 418, mean track length: 4.82
1045 0.3267791673941093 0.1775323523068161 1.2291476899772238 0 0 0 0.3 53 1045 190 319 227 320 
1046 0.24741461979356238 0.16902391278838827 1.1609815626764335 0 0 0 0.27 53 1046 184 209 190 320 197 345 204 292 221 162 222 301 232 554 235 277 
1047 -0.03385148436702255 0.1596349149228373 1.0864997160621515 0 0 0 0.17 53 1047 204 293 219 203 227 321 231 47 
1048 0.4299041408531088 0.13376167082221646 0.9146189261954527 0 0 0 0.16 53 1048 190 321 222 302 
1049 0.3923404891248865 0.14582592138768916 0.9884073885979452 0 0 0 0.21 53 1049 184 210 190 322 197 346 222 303 232 555 235 278 
1050 0.05828754558783605 0.16395370794453082 1.105410226150756 0 0 0 0.18 53 1050 219 204 232 556 235 279 
1051 0.08857673762283184 0.16592856099383083 1.1146141284443227 0 0 0 0.29 53 1051 190 323 217 84 219 205 221 163 227 322 232 557 
1052 0.1146691800912724 0.16762883195241052 1.1287409031385836 0 0 0 0.2 53 1052 190 324 227 323 
1053 0.1418358848927619 0.1680766058055025 1.128311547313 0 0 0 0.29 53 1053 222 304 227 324 
1054 0.09298845989050712 0.1654311051737345 1.111352407990317 0 0 0 0.29 53 1054 60 137 219 206 227 325 232 558 
1055 0.11812193275441288 0.1681901767558445 1.1204198711781819 0 0 0 0.42 53 1055 190 325 217 85 
1056 0.32021263390601334 0.1829659897624759 1.2198512542393318 0 0 0 0.35 53 1056 184 211 222 305 227 326 232 559 235 280 
1057 0.3449871058340376 0.15833354168771607 1.0575234767928792 0 0 0 0.16 53 1057 190 326 197 347 232 560 
1058 0.42131407502811624 0.1420178401800794 0.9440567720631067 0 0 0 0.36 53 1058 184 212 197 348 
1059 0.20416095951415208 0.17305266656226675 1.1390873014328864 0 0 0 0.29 53 1059 190 327 196 69 197 349 232 561 235 281 
1060 -0.016231634245105715 0.16776766511146632 1.090886359878715 0 0 0 0.11 53 1060 185 90 219 207 231 48 
1061 0.3258707971007367 0.1681211553775749 1.0961141557825456 0 0 0 0.16 53 1061 184 213 190 328 221 164 232 562 
1062 0.347368569132295 0.1632034221795273 1.061094445256542 0 0 0 0.18 53 1062 232 563 234 78 
1063 -0.011469827388831679 0.16826224619503607 1.0908488503692706 0 0 0 0.41 53 1063 60 138 185 91 219 208 222 306 
1064 0.35425531359938917 0.16145647939329152 1.0450058066144587 0 0 0 0.36 53 1064 184 214 197 350 222 307 234 79 235 282 
1065 0.3954709388165872 0.15104127859931518 0.9788363971331322 0 0 0 0.45 53 1065 184 215 190 329 
1066 0.32577907016912444 0.19044287804693844 1.2247909638388237 0 0 0 0.47 53 1066 184 216 190 330 221 165 
1067 0.33732056001625516 0.16687482683168997 1.0739241784775369 0 0 0 0.24 53 1067 190 331 232 564 
1068 -0.006993918061943974 0.17031514726511773 1.089415375500656 0 0 0 0.29 53 1068 185 92 204 294 219 209 222 308 227 327 231 49 
1069 0.3461568168537617 0.1682507973116055 1.060198505644875 0 0 0 0.2 53 1069 190 332 234 80 
1070 0.08626744466658147 0.18241672538333015 1.1062710173402195 0 0 0 0.29 53 1070 60 139 190 333 197 351 214 92 220 67 222 309 
1071 -0.3798780441946981 0.17428871938227156 1.0489688209140597 0 0 0 0.52 53 1071 190 334 232 565 
1072 -0.36807612804866824 0.1752334104659263 1.0399323799730589 0 0 0 0.6 53 1072 60 140 217 86 221 166 
1073 0.34860625545871066 0.17752494769955612 1.0541993896975903 0 0 0 0.34 53 1073 190 335 197 352 234 81 
1074 0.3431193563961251 0.17853926563554645 1.0591151546547315 0 0 0 0.21 53 1074 190 336 221 167 
1075 -0.3729366418536791 0.1773759593189553 1.0397537511978032 0 0 0 0.52 53 1075 60 141 190 337 219 210 
1076 0.33669777128019696 0.18157619792912072 1.0696183653910545 0 0 0 0.45 53 1076 190 338 197 353 221 168 234 82 235 283 
1077 0.15995390777849713 0.19177198434396753 1.123488032237371 0 0 0 0.24 53 1077 184 217 197 354 227 328 
1078 0.0586367144893141 0.1880182658764471 1.0989878168421685 0 0 0 0.08 53 1078 222 310 232 566 
1079 0.3235100492492335 0.18773897232279557 1.0941200017611568 0 0 0 0.58 53 1079 184 218 221 169 
1080 0.3302283288231685 0.18759836889214873 1.0818519945852065 0 0 0 0.12 53 1080 190 339 235 284 
1081 0.24667101131882166 0.2009796343306735 1.1450290643827465 0 0 0 0.36 53 1081 184 219 197 355 222 311 235 285 
1082 0.3368186779846325 0.18823566495944213 1.0673462864310899 0 0 0 0.25 53 1082 190 340 197 356 221 170 234 83 235 286 
1083 0.114460945427537 0.201870728130592 1.1118707079501833 0 0 0 0.27 53 1083 199 12 222 312 232 567 
1084 0.12693071194446118 0.20541299181534875 1.1087637091707685 0 0 0 0.28 53 1084 190 341 198 23 223 65 
1085 -0.2635801437629732 0.19464147810598062 1.0429957010034623 0 0 0 0.32 53 1085 60 142 204 295 219 211 232 568 
1086 0.35145823859668013 0.19362564839078852 1.0448276795240925 0 0 0 0.08 53 1086 184 220 222 313 
1087 -0.29695609125063827 0.201003462152875 1.0527407138716416 0 0 0 0.28 53 1087 204 296 227 329 
1088 -0.07530617877561246 0.20357916709594148 1.0694635499821334 0 0 0 0.42 53 1088 60 143 190 342 204 297 227 330 231 50 
1089 -0.038099612435799846 0.20613689236095184 1.0781733682517212 0 0 0 0.32 53 1089 219 212 221 171 222 314 227 331 
1090 0.11452772171301821 0.21151302717404688 1.1088905848415431 0 0 0 0.46 53 1090 190 343 196 70 221 172 222 315 232 569 
1091 0.25542231661896975 0.22108242388306926 1.15632295913084 0 0 0 0.19 53 1091 198 24 235 287 
1092 -0.14341837109243655 0.2022179770753644 1.052391891352231 0 0 0 0.64 53 1092 60 144 190 344 204 298 213 50 214 93 219 213 222 316 223 66 227 332 232 570 
1093 -0.28342178459520456 0.20266805533613386 1.047269118579434 0 0 0 0.48 53 1093 204 299 217 87 219 214 232 571 
1094 -0.2290222077345019 0.20199453092985248 1.0437678109210569 0 0 0 0.06 53 1094 60 145 232 572 
1095 -0.20986955261114743 0.20290666411559302 1.0500069721495633 0 0 0 0.16 53 1095 204 300 219 215 
1096 -0.17497634522151553 0.207211500083009 1.052596039590304 0 0 0 0.11 53 1096 204 301 214 94 
1097 -0.13693255534633056 0.2065054269379065 1.0523559730709562 0 0 0 0.36 53 1097 190 345 204 302 219 216 
1098 -0.2804677154690678 0.2063416601770521 1.0417228273486703 0 0 0 0.44 53 1098 204 303 217 88 219 217 227 333 232 573 
1099 -0.06814411225088297 0.210858184805782 1.0686238425419472 0 0 0 0.22 53 1099 222 317 232 574 
1100 0.344467141927187 0.20832808943054887 1.0571875812953164 0 0 0 0.33 53 1100 184 221 190 346 235 288 
1101 0.378352756379821 0.19626618449958044 0.9957796094251672 0 0 0 0.65 53 1101 184 222 235 289 
1102 -0.18929837260712068 0.20784551348975566 1.050627068886233 0 0 0 1.14 53 1102 204 304 214 95 219 218 221 173 223 67 232 575 
1103 -0.020160601800354522 0.21337117298577654 1.0770934228467355 0 0 0 0.16 53 1103 190 347 200 57 232 576 
1104 -0.0201188399898106 0.2132666121129897 1.0761313702365802 0 0 0 0.15 53 1104 200 58 214 96 232 577 
1105 0.3652777049706425 0.20106492621829825 1.0146908593826856 0 0 0 0.31 53 1105 184 223 190 348 234 84 
1106 0.3592721136518429 0.20449607577948842 1.0280605830062264 0 0 0 0.67 53 1106 184 224 235 290 
1107 -0.11407876183629335 0.21079531735673068 1.0590896885824495 0 0 0 0.7 53 1107 221 174 222 318 
1108 0.33016847339611394 0.21581218871989438 1.0772369415555305 0 0 0 0.22 53 1108 184 225 235 291 
1109 -0.07246873535085965 0.21501593227376448 1.0695591046475297 0 0 0 0.51 53 1109 222 319 232 578 
1110 -0.05741871519863027 0.2147103158683866 1.0661978330595494 0 0 0 0.44 53 1110 190 349 194 24 
1111 0.3484406078501939 0.21132608128860167 1.0493774317610987 0 0 0 0.4 53 1111 190 350 235 292 
1112 0.22821118411677338 0.22846415466163295 1.1318132423502845 0 0 0 0.27 53 1112 184 226 190 351 197 357 221 175 222 320 227 334 235 293 
1113 0.1841444823415167 0.22696443019933651 1.1180424893099288 0 0 0 0.69 53 1113 197 358 223 68 227 335 234 85 235 294 
1114 0.15594402312373096 0.22587818960277803 1.1127989114311008 0 0 0 0.5 53 1114 184 227 196 71 197 359 220 68 222 321 223 69 235 295 
1115 0.34991389416572316 0.21150748592518026 1.0397249877259231 0 0 0 0.37 53 1115 197 360 234 86 
1116 0.3509478552719633 0.21242196761091994 1.0431259629194052 0 0 0 0.21 53 1116 197 361 235 296 
1117 -0.19191326334550082 0.2151586704266127 1.0435293420667378 0 0 0 0.3 53 1117 190 352 204 305 232 579 
1118 -0.17408243643004268 0.2157916099145078 1.0444968711782974 0 0 0 0.1 53 1118 204 306 232 580 
1119 0.21755311078178288 0.23355845202399583 1.1230757089690866 0 0 0 0.45 53 1119 190 353 196 72 204 307 220 69 222 322 227 336 
1120 0.06695708273818982 0.2280563587457886 1.0905587863042296 0 0 0 0.21 53 1120 190 354 199 13 
1121 0.1840633416329688 0.23738257923883796 1.1157649787208905 0 0 0 0.86 53 1121 223 70 227 337 
1122 0.42089686885266403 -0.05675437869271767 0.9940958423423581 0 0 0 0.54 53 1122 190 355 222 323 234 87 
1123 0.4370738068436206 -0.05342413415229723 0.9757306172085661 0 0 0 0.15 53 1123 184 228 197 362 235 297 
1124 0.4309426112432657 -0.03827945377389284 0.9734966085723591 0 0 0 0.52 53 1124 184 229 197 363 232 581 235 298 
1125 0.4279184499282548 -0.032808025595194766 0.9738523841269882 0 0 0 0.48 53 1125 190 356 197 364 232 582 234 88 
1126 -0.16189815586824233 -0.030178404247858316 1.166525000967271 0 0 0 0.41 53 1126 190 357 219 219 232 583 
1127 -0.08546662635444137 -0.02614304250688963 1.127624414365605 0 0 0 0.48 53 1127 60 146 190 358 204 308 208 16 219 220 227 338 232 584 234 89 
1128 -0.03473166869809072 -0.023304801651679523 1.1421678594341413 0 0 0 0.31 53 1128 190 359 219 221 227 339 
1129 0.4319445480263559 -0.017425742762766632 0.9574484109157572 0 0 0 0.22 53 1129 190 360 222 324 
1130 -0.1494861783275151 -0.018837227903815326 1.1156422053422743 0 0 0 0.56 53 1130 60 147 204 309 219 222 222 325 227 340 232 585 
1131 -0.2099356950605116 -0.01643746191400427 1.1071908966158368 0 0 0 0.22 53 1131 198 25 204 310 219 223 
1132 0.03302105559608435 -0.015761514203006623 1.1585873918965468 0 0 0 0.3 53 1132 204 311 227 341 232 586 
1133 -0.029042605173055448 -0.013310260850293784 1.1342466744282567 0 0 0 0.3 53 1133 204 312 227 342 
1134 0.01474238868719136 -0.010972017395039441 1.1937537830777882 0 0 0 0.35 53 1134 204 313 219 224 
1135 -0.3190118386241114 -0.005785580806345575 1.097754027871848 0 0 0 0.21 53 1135 204 314 219 225 227 343 
1136 -0.29723087765738326 -0.005319375101298733 1.1012667944087595 0 0 0 0.26 53 1136 204 315 219 226 
1137 0.16077518737076787 -0.0056248067588116225 1.190866635096031 0 0 0 0.56 53 1137 190 361 197 365 227 344 
1138 0.03969601016702896 0.005247945364781152 1.1458714941898431 0 0 0 0.48 53 1138 204 316 219 227 
1139 0.3998841988749236 0.005041910788080042 0.997795686445683 0 0 0 0.18 53 1139 190 362 197 366 232 587 235 299 
1140 0.4300560436538831 0.0050478156918693385 0.960343702617256 0 0 0 0.27 53 1140 184 230 197 367 232 588 234 90 235 300 
1141 0.0664447246370844 0.0086854568912412 1.1550318576285397 0 0 0 0.21 53 1141 197 368 204 317 219 228 
1142 -0.1560518551938526 0.009381844258296263 1.1039310284024373 0 0 0 0.61 53 1142 219 229 222 326 227 345 232 589 
1143 0.15492245483920045 0.012989876751545575 1.1731497674050568 0 0 0 0.31 53 1143 184 231 190 363 197 369 227 346 232 590 
1144 0.11246883986691544 0.014616036059707719 1.1818507969717977 0 0 0 0.35 53 1144 184 232 190 364 197 370 204 318 219 230 222 327 
1145 -0.13717380570768523 0.014915292364059007 1.1024894252556694 0 0 0 0.51 53 1145 204 319 222 328 227 347 232 591 
1146 -0.25737640892328173 0.01902495401472847 1.0965739631935676 0 0 0 0.2 53 1146 60 148 185 93 204 320 219 231 220 70 
1147 -0.2573345234692986 0.019077925195509767 1.0964266863773826 0 0 0 0.16 53 1147 60 149 185 94 204 321 219 232 
1148 -0.06954622365762374 0.018863976472084 1.1178662338757763 0 0 0 0.26 53 1148 60 150 185 95 196 73 204 322 214 97 217 89 219 233 220 71 224 44 227 348 
1149 -0.06978738056224179 0.01889368680215107 1.118878900366272 0 0 0 0.13 53 1149 200 59 204 323 219 234 227 349 
1150 0.039229740803665654 0.019923616389623578 1.1442464140115214 0 0 0 0.61 53 1150 60 151 185 96 197 371 198 26 208 17 222 329 231 51 232 592 
1151 -0.3348202326597924 0.024284381584805767 1.0901353887294787 0 0 0 0.58 53 1151 204 324 217 90 219 235 221 176 232 593 
1152 -0.16242068004203322 0.026653462963514122 1.1017915580923763 0 0 0 0.38 53 1152 60 152 185 97 190 365 198 27 199 14 217 91 227 350 232 594 
1153 -0.003597341879048942 0.027512516759532143 1.1306989143252015 0 0 0 0.47 53 1153 60 153 185 98 196 74 204 325 208 18 217 92 220 72 221 177 222 330 227 351 
1154 -0.3852640509880572 0.027972784315337035 1.093403574620153 0 0 0 0.47 53 1154 190 366 217 93 227 352 232 595 
1155 -0.024623334320503048 0.029891127251300817 1.1213132825409227 0 0 0 0.58 53 1155 200 60 214 98 222 331 
1156 0.09758675397602173 0.033347462892280876 1.150054589707298 0 0 0 0.29 53 1156 185 99 204 326 219 236 222 332 227 353 
1157 0.12740055366343409 0.034687990045331685 1.156473688142161 0 0 0 0.4 53 1157 184 233 185 100 204 327 222 333 227 354 232 596 
1158 0.37984157889595704 0.030465411275104874 1.0378569705391811 0 0 0 0.35 53 1158 190 367 222 334 227 355 232 597 235 301 
1159 0.3797435033638485 0.030461495937772847 1.0375925739612093 0 0 0 0.13 53 1159 190 368 235 302 
1160 0.06972944711740241 0.038306617156762736 1.140639013883358 0 0 0 0.55 53 1160 190 369 197 372 198 28 214 99 221 178 232 598 235 303 
1161 0.41330638336811054 0.032000915580797984 0.9723570079965568 0 0 0 0.33 53 1161 232 599 234 91 
1162 -0.3493396851530023 0.031441325470103906 0.904753575928089 0 0 0 0.32 53 1162 190 370 227 356 
1163 0.37181360871939173 0.041502320412731324 1.0402430751836533 0 0 0 0.16 53 1163 184 234 190 371 197 373 232 600 235 304 
1164 0.43672684962561636 0.03601842735748302 0.930786705817702 0 0 0 0.32 53 1164 197 374 234 92 
1165 -0.37693904996841043 0.043742789866286574 1.0613456174012599 0 0 0 0.26 53 1165 219 237 227 357 
1166 -0.38531004621493453 0.044663201432812015 1.08525008547992 0 0 0 0.41 53 1166 190 372 204 328 219 238 221 179 227 358 232 601 
1167 0.4040166058267079 0.0396101039988043 0.9720726026829817 0 0 0 0.29 53 1167 184 235 190 373 222 335 232 602 
1168 0.023997248928643272 0.048308823253908964 1.130115321893893 0 0 0 0.58 53 1168 60 154 185 101 196 75 197 375 199 15 200 61 204 329 208 19 214 100 217 94 219 239 220 73 221 180 222 336 223 71 227 359 232 603 234 93 
1169 0.3833055823402351 0.04280988934688123 1.019283167479348 0 0 0 0.17 53 1169 190 374 197 376 227 360 232 604 
1170 -0.2694708931893839 0.04815376779730438 1.0843823793942762 0 0 0 0.55 53 1170 60 155 190 375 198 29 204 330 208 20 213 51 217 95 219 240 221 181 224 45 227 361 
1171 0.2883529855164564 0.05398352273686046 1.2241223850462404 0 0 0 0.37 53 1171 184 236 197 377 220 74 221 182 232 605 
1172 -0.24277759520830344 0.04870678848174039 1.0874950655830327 0 0 0 0.37 53 1172 185 102 196 76 200 62 219 241 232 606 
1173 -0.38892502289005276 0.05121266349486653 1.0798225473041931 0 0 0 0.42 53 1173 60 156 190 376 219 242 221 183 227 362 232 607 
1174 0.33349570642708626 0.053627239765889366 1.1025436928417898 0 0 0 0.15 53 1174 190 377 197 378 
1175 0.33462335461983644 0.053856475885633616 1.1062329741607029 0 0 0 0.17 53 1175 190 378 235 305 
1176 0.27076861463485746 0.06355577003956048 1.2138912814986618 0 0 0 0.4 53 1176 197 379 221 184 227 363 232 608 
1177 0.2708079676953876 0.06346802959406207 1.2146533602170173 0 0 0 0.37 53 1177 184 237 197 380 221 185 232 609 
1178 0.07680094666198728 0.06184748631807483 1.1406373450411909 0 0 0 0.64 53 1178 60 157 185 103 197 381 198 30 204 331 217 96 219 243 220 75 223 72 227 364 
1179 0.3801393521430218 0.054944305839944044 1.0278823118688267 0 0 0 0.4 53 1179 190 379 197 382 222 337 232 610 235 306 
1180 -0.04674197065218753 0.06144838478874512 1.1197870970979837 0 0 0 0.11 53 1180 222 338 227 365 
1181 -0.016195603632443708 0.06312095905238989 1.1261420023727375 0 0 0 0.09 53 1181 222 339 227 366 
1182 -0.3888778414733391 0.061026056763699 1.0712374047632005 0 0 0 0.28 53 1182 219 244 227 367 
1183 -0.3269802676031609 0.06117307856776193 1.0784258831788456 0 0 0 0.28 53 1183 190 380 204 332 232 611 
1184 0.36921879476490044 0.05901851577380534 1.0466007949305076 0 0 0 0.2 53 1184 197 383 234 94 235 307 
1185 -0.05109066395473938 0.06661615951890791 1.1164331219727612 0 0 0 0.26 53 1185 219 245 222 340 
1186 0.08358592444612178 0.06920703787318586 1.1453049722789759 0 0 0 0.21 53 1186 223 73 232 612 
1187 -0.38967199064428365 0.06775519006063657 1.0735481266558609 0 0 0 0.13 53 1187 219 246 232 613 
1188 -0.3734111726469487 0.06775945934761574 1.0699937391936842 0 0 0 0.51 53 1188 204 333 219 247 227 368 232 614 
1189 0.171098573974095 0.07295916748836748 1.1579992262127445 0 0 0 0.25 53 1189 184 238 197 384 
1190 0.09328873765334118 0.07526529477017996 1.1399477279436159 0 0 0 0.41 53 1190 198 31 200 63 221 186 222 341 232 615 
1191 0.18066448559054 0.07944019078835592 1.1573922630341282 0 0 0 0.32 53 1191 190 381 204 334 235 308 
1192 0.32702541913847477 0.07840178893953303 1.1117686056997949 0 0 0 0.09 53 1192 197 385 232 616 
1193 0.11459128169598987 0.08450958357358677 1.1589780844944242 0 0 0 0.36 53 1193 221 187 232 617 
1194 -0.333974817524975 0.06133084726237431 0.8376224670313085 0 0 0 0.35 53 1194 190 382 227 369 232 618 
1195 -0.3320076585771678 0.06100693929218956 0.8330217180080023 0 0 0 0.32 53 1195 227 370 232 619 
1196 -0.36259058136102396 0.0909288865024577 1.227700809464867 0 0 0 1.88 53 1196 198 32 
1197 -0.3649160869058455 0.07956944533854869 1.0698152655667523 0 0 0 0.54 53 1197 190 383 204 335 219 248 221 188 
1198 0.26837561135259247 0.08857303862820586 1.1994667289594352 0 0 0 0.28 53 1198 197 386 204 336 227 371 
1199 0.2290999360214519 0.08963415796820244 1.172495438679249 0 0 0 0.35 53 1199 190 384 221 189 
1200 0.33494636916946846 0.08376680855495368 1.100508526680387 0 0 0 0.08 53 1200 190 385 197 387 232 620 235 309 
1201 0.27343884642025307 0.09318009320878645 1.2027458282087948 0 0 0 0.21 53 1201 197 388 204 337 
1202 0.3560083487356069 0.08345755739335088 1.0722656052576367 0 0 0 0.18 53 1202 184 239 197 389 
1203 -0.33437917000255735 0.0659896179053848 0.836247611890816 0 0 0 0.45 53 1203 190 386 227 372 232 621 
1204 -0.3869326165596004 0.08580671999638616 1.0575625992867783 0 0 0 0.18 53 1204 219 249 232 622 
1205 -0.34934511615593045 0.07833260336265215 0.9067549380611828 0 0 0 0.35 53 1205 227 373 232 623 
1206 0.3930647046305459 0.08616523020186073 0.9994735394843459 0 0 0 0.23 53 1206 184 240 190 387 197 390 222 342 232 624 234 95 235 310 
1207 -0.2396266355201752 0.09806952856611564 1.076688069101056 0 0 0 0.23 53 1207 60 158 198 33 231 52 232 625 
1208 -0.23999355275701592 0.09819677924570319 1.0778627688170364 0 0 0 0.09 53 1208 198 34 232 626 
1209 0.3543830683476038 0.09767127263436348 1.0596834709655651 0 0 0 0.37 53 1209 184 241 197 391 222 343 232 627 235 311 
1210 0.43147838997282817 0.08718992734096181 0.9323930140745375 0 0 0 0.09 53 1210 184 242 235 312 
1211 0.22935863749902605 0.11120411055278161 1.1701398199332649 0 0 0 0.17 53 1211 221 190 227 374 
1212 0.3000043065823566 0.11802909645954252 1.212263034775547 0 0 0 0.22 53 1212 190 388 197 392 
1213 -0.22296247917236348 0.10733044850754639 1.0667207369553804 0 0 0 0.38 53 1213 204 338 221 191 
1214 -0.3688755874574303 0.11327497524368575 1.0613017456536482 0 0 0 0.36 53 1214 60 159 214 101 219 250 
1215 0.3465117010754513 0.11314938445150453 1.0714969627209503 0 0 0 0.19 53 1215 197 393 234 96 
1216 0.3542515154447238 0.11878954765473901 1.0571564098953168 0 0 0 0.27 53 1216 190 389 222 344 232 628 
1217 0.38486743404792906 0.11657655407701521 1.013078523221669 0 0 0 0.22 53 1217 197 394 232 629 
1218 0.3154396130626328 0.14454365696243857 1.2259059956130849 0 0 0 0.31 53 1218 184 243 190 390 197 395 221 192 222 345 232 630 
1219 -0.3663875990531955 0.12718879286352808 1.0631472729427158 0 0 0 0.5 53 1219 190 391 219 251 227 375 
1220 0.3637098922698788 0.12552945252915237 1.0458512119850094 0 0 0 0.15 53 1220 190 392 197 396 222 346 
1221 0.11385561139916078 0.13830203877307098 1.1355194711955412 0 0 0 0.12 53 1221 204 339 232 631 
1222 0.2636981354320319 0.1488436553663632 1.1825066321498046 0 0 0 0.12 53 1222 204 340 227 376 232 632 
1223 0.3401081166136928 0.13732398993283076 1.0771282259850847 0 0 0 0.34 53 1223 197 397 217 97 222 347 235 313 
1224 0.3799226764405655 0.1308194628125517 1.011630900378134 0 0 0 0.1 53 1224 222 348 232 633 234 97 
1225 0.3036820091612098 0.15718422061786383 1.207289884436359 0 0 0 0.58 53 1225 217 98 222 349 
1226 0.3211463313917409 0.16625183357085574 1.2261364567530944 0 0 0 0.41 53 1226 184 244 190 393 197 398 221 193 227 377 232 634 235 314 
1227 0.3802651296535674 0.13633481379377335 1.0045722041808958 0 0 0 0.25 53 1227 184 245 190 394 197 399 222 350 232 635 235 315 
1228 0.3509399488360219 0.14412815436033652 1.05631216464093 0 0 0 0.44 53 1228 184 246 190 395 197 400 221 194 222 351 235 316 
1229 -0.29919125715563666 0.14858654242547392 1.0559750293548185 0 0 0 0.31 53 1229 190 396 204 341 219 252 
1230 0.22832902714606154 0.16186222964677527 1.1557026613806298 0 0 0 0.23 53 1230 197 401 235 317 
1231 -0.3187672329849446 0.15147703422798833 1.0542858830532527 0 0 0 0.21 53 1231 190 397 198 35 204 342 217 99 220 76 232 636 
1232 -0.3017646849568265 0.15307055687287113 1.0540298630508702 0 0 0 0.29 53 1232 204 343 219 253 
1233 -0.2510106944667084 0.15214558393693917 1.0553858434148535 0 0 0 0.37 53 1233 204 344 219 254 221 195 
1234 -0.2139693196850836 0.153494473148661 1.0554068547064224 0 0 0 0.18 53 1234 190 398 232 637 
1235 0.3890808516423478 0.14483772608095138 0.9923584807131599 0 0 0 0.3 53 1235 184 247 190 399 197 402 222 352 232 638 235 318 
1236 -0.35201887906862656 0.15889728516887922 1.0513683053573784 0 0 0 0.21 53 1236 60 160 220 77 
1237 0.364023584304788 0.15579687175096818 1.0320618417480956 0 0 0 0.22 53 1237 197 403 222 353 232 639 234 98 235 319 
1238 -0.31465907948319555 0.15925884568894783 1.043023475688599 0 0 0 0.42 53 1238 219 255 221 196 
1239 0.0628125629657638 0.16915673486819913 1.106706501759057 0 0 0 0.22 53 1239 198 36 199 16 219 256 227 378 
1240 0.18091267148586146 0.17423788053182174 1.135061779385358 0 0 0 0.7 53 1240 198 37 221 197 223 74 
1241 0.36701300231917555 0.15779494997692414 1.0252648851147514 0 0 0 0.25 53 1241 184 248 234 99 235 320 
1242 0.4219624136869055 0.1483288780946818 0.9457030885983045 0 0 0 0.18 53 1242 184 249 197 404 
1243 0.06412333501020566 0.17511634926494918 1.1060843284970625 0 0 0 0.15 53 1243 190 400 227 379 
1244 0.09616520132982925 0.175152624340178 1.1107298467462898 0 0 0 0.29 53 1244 204 345 221 198 
1245 0.1953388289702174 0.1849075616820346 1.1348426333776858 0 0 0 0.36 53 1245 190 401 197 405 222 354 232 640 235 321 
1246 0.3043663762006673 0.1958944571999783 1.2023923357053892 0 0 0 0.5 53 1246 190 402 221 199 235 322 
1247 0.3043663762006673 0.1958944571999783 1.2023923357053892 0 0 0 0.5 53 1247 190 403 221 200 235 323 
1248 -0.31306974706176927 0.1736096546725872 1.047722543824909 0 0 0 0.23 53 1248 219 257 232 641 
1249 0.3399338515910751 0.1775264839037565 1.0660851173272385 0 0 0 0.45 53 1249 197 406 221 201 234 100 235 324 
1250 0.3399498149526971 0.17761335755983443 1.066061710527394 0 0 0 0.41 53 1250 221 202 234 101 235 325 
1251 0.3543923568154247 0.17478046832213695 1.0420952233058078 0 0 0 0.22 53 1251 184 250 190 404 
1252 -0.31772169611949946 0.1760170087883501 1.0455886516842055 0 0 0 0.42 53 1252 199 17 221 203 227 380 232 642 
1253 -0.2935149529144972 0.17746553616342828 1.0468010005083204 0 0 0 0.18 53 1253 204 346 232 643 
1254 -0.21810669037235297 0.17885290572757317 1.0613021596247827 0 0 0 1.26 53 1254 204 347 223 75 
1255 -0.38067750121310995 0.1822143918371054 1.0442763423188828 0 0 0 0.89 53 1255 60 161 219 258 221 204 
1256 0.08901330117689456 0.19153525793956774 1.1041745842941324 0 0 0 0.27 53 1256 190 405 222 355 232 644 
1257 0.31295839711708995 0.2101041789511585 1.19967512606543 0 0 0 0.28 53 1257 184 251 190 406 197 407 222 356 235 326 
1258 -0.2032521517719701 0.18512792908574982 1.044327940563936 0 0 0 0.3 53 1258 190 407 232 645 
1259 -0.3725019185026658 0.18522505459618996 1.0299493872079954 0 0 0 0.71 53 1259 190 408 219 259 
1260 -0.31578826055458153 0.19051527218710704 1.0448599942357788 0 0 0 0.62 53 1260 190 409 221 205 232 646 
1261 0.3957171220348902 0.17577970370264348 0.9654397206821576 0 0 0 0.25 53 1261 184 252 222 357 235 327 
1262 -0.2691326301334987 0.1921149551757688 1.0459429276833112 0 0 0 0.19 53 1262 204 348 219 260 
1263 0.37905507886763506 0.1832384336301102 0.9970358261164083 0 0 0 0.07 53 1263 190 410 234 102 
1264 -0.2970493876669673 0.19419867387965847 1.0393443652458627 0 0 0 0.36 53 1264 190 411 204 349 219 261 
1265 -0.3380562140411241 0.20029830295926482 1.0424711173060146 0 0 0 0.62 53 1265 60 162 204 350 217 100 220 78 
1266 -0.22516992824321969 0.20078812810020197 1.0483844293719595 0 0 0 0.64 53 1266 60 163 196 77 199 18 204 351 213 52 214 102 219 262 221 206 232 647 
1267 -0.23544171852717935 0.2008709857311708 1.04364537531778 0 0 0 0.18 53 1267 60 164 198 38 204 352 219 263 232 648 
1268 -0.162591301680486 0.20278784524908916 1.055323645460192 0 0 0 0.37 53 1268 204 353 219 264 221 207 
1269 -0.26435702240623227 0.2016849408017338 1.0438319010457202 0 0 0 0.2 53 1269 204 354 219 265 
1270 -0.03333041446966398 0.20825243593068943 1.07324112037434 0 0 0 0.65 53 1270 200 64 214 103 223 76 227 381 232 649 
1271 0.35148703045086505 0.2019750885438874 1.0440631532487141 0 0 0 0.2 53 1271 190 412 197 408 235 328 
1272 -0.31229665180557364 0.20351476276780472 1.0386869196926043 0 0 0 0.59 53 1272 221 208 232 650 
1273 -0.17480814344727505 0.20769057595058119 1.0541723831572731 0 0 0 0.21 53 1273 204 355 219 266 
1274 -0.1591767760654252 0.20669393013547357 1.0497461237877792 0 0 0 0.22 53 1274 190 413 204 356 219 267 222 358 232 651 
1275 0.1736842021078132 0.22895643819147793 1.1643802114847717 0 0 0 0.21 53 1275 190 414 227 382 
1276 0.3401638292570408 0.2071496054537336 1.0575710673664978 0 0 0 0.31 53 1276 190 415 197 409 234 103 235 329 
1277 -0.24552064516119879 0.20659484811440063 1.0419172075232463 0 0 0 0.3 53 1277 198 39 219 268 
1278 0.15512817409337717 0.22006793557636045 1.1126096312333469 0 0 0 0.52 53 1278 184 253 190 416 196 78 197 410 234 104 
1279 -0.050192208291600496 0.21224714984544282 1.0714661614082184 0 0 0 0.77 53 1279 190 417 198 40 221 209 222 359 223 77 232 652 
1280 0.07148513063094714 0.2173838298947503 1.0948698115028506 0 0 0 0.18 53 1280 190 418 199 19 
1281 0.08365861007359036 0.21933725394859804 1.1022348265002708 0 0 0 0.29 53 1281 199 20 234 105 
1282 0.08395592229055773 0.21948199708779778 1.1028718819574204 0 0 0 0.3 53 1282 190 419 234 106 
1283 -0.20955793668394193 0.21322097119092584 1.0558521097345488 0 0 0 0.15 53 1283 198 41 232 653 
1284 0.1706120830438976 0.22528102845399148 1.1196173135239902 0 0 0 0.05 53 1284 197 411 198 42 
1285 0.21826334540693748 0.22761139711421258 1.1259904529432774 0 0 0 0.51 53 1285 60 165 184 254 190 420 197 412 217 101 220 79 222 360 227 383 235 330 
1286 0.34026113644575534 0.2147428542856366 1.0558492955762055 0 0 0 0.29 53 1286 184 255 197 413 234 107 235 331 
1287 -0.2117363324755415 0.21659906177343996 1.0475823713999854 0 0 0 0.21 53 1287 198 43 204 357 232 654 
1288 -0.12620013612489436 0.21892039977539762 1.0560851368740787 0 0 0 0.13 53 1288 204 358 219 269 
1289 0.3395587705187555 0.2199959060434955 1.05327639605296 0 0 0 0.57 53 1289 190 421 197 414 221 210 234 108 235 332 
1290 -0.01590570550924997 0.24379874878076727 1.169582072563957 0 0 0 2.01 53 1290 199 21 200 65 
1291 0.0595646684965119 0.22815739696923318 1.0864120228887837 0 0 0 0.68 53 1291 198 44 199 22 214 104 222 361 223 78 
1292 0.3445650699579035 0.22285990265473413 1.047312880920191 0 0 0 0.37 53 1292 234 109 235 333 
1293 0.23385721548363525 0.24655465689115813 1.1329406928598569 0 0 0 0.14 53 1293 184 256 222 362 235 334 
1294 0.43279896546402746 -0.058889618911998134 0.9754255923143218 0 0 0 0.38 53 1294 184 257 190 422 197 415 222 363 227 384 232 655 235 335 
1295 0.4329701946719421 -0.05897008053498045 0.9760026308951766 0 0 0 0.35 53 1295 184 258 190 423 197 416 222 364 232 656 235 336 
1296 -0.3481993471476173 -0.04842246730384683 0.9211217368397113 0 0 0 0.34 53 1296 227 385 232 657 
1297 0.4329819917995686 -0.049301242560369295 0.9785434891689196 0 0 0 0.48 53 1297 190 424 197 417 235 337 
1298 0.42805559949137617 -0.0438619549648136 0.979869525364993 0 0 0 0.46 53 1298 227 386 235 338 
1299 0.42864105547361353 -0.04418364925729343 0.9810139408007114 0 0 0 0.39 53 1299 184 259 190 425 197 418 227 387 232 658 235 339 
1300 0.42140280590773815 -0.040779326759476674 0.9838682141046191 0 0 0 0.43 53 1300 184 260 190 426 197 419 227 388 232 659 235 340 
1301 0.416656541399104 -0.038157342114591514 0.991629369790906 0 0 0 0.21 53 1301 197 420 227 389 232 660 
1302 0.4254205727078668 -0.0367829400491527 0.9763615503204709 0 0 0 0.23 53 1302 184 261 190 427 197 421 232 661 235 341 
1303 0.41927402710669914 -0.03486200035007369 0.9842188310251786 0 0 0 0.24 53 1303 190 428 197 422 232 662 235 342 
1304 0.4144869635688806 -0.025702070280842048 0.9955063106111325 0 0 0 0.42 53 1304 190 429 197 423 235 343 
1305 0.4206063571357577 -0.0142898813262238 0.9705255645387862 0 0 0 0.14 53 1305 190 430 197 424 222 365 232 663 
1306 0.4206063571357577 -0.0142898813262238 0.9705255645387862 0 0 0 0.14 53 1306 190 431 197 425 222 366 232 664 
1307 0.41445624681200643 -0.011883789958243718 0.9841660162208209 0 0 0 0.27 53 1307 184 262 190 432 197 426 232 665 235 344 
1308 0.4174848453302682 -0.008642244413907242 0.976550049594647 0 0 0 0.32 53 1308 184 263 197 427 222 367 232 666 235 345 
1309 0.06961300155523853 -0.007545890749065229 1.1593688980617418 0 0 0 0.27 53 1309 222 368 227 390 
1310 0.0865865729820954 -0.006329146783948738 1.1590667430700343 0 0 0 0.49 53 1310 222 369 227 391 
1311 0.4171586188661166 -0.0031509007479825295 0.9776544841067584 0 0 0 0.31 53 1311 184 264 232 667 235 346 
1312 -0.36114206261240844 -0.0009998652013211904 1.1104781845482719 0 0 0 0.44 53 1312 190 433 232 668 
1313 -0.2781424460398058 8.953258336934499e-05 1.1166904116794873 0 0 0 0.22 53 1313 204 359 219 270 
1314 0.41435644215826173 0.009159853495992238 0.9877316501586005 0 0 0 0.42 53 1314 184 265 190 434 197 428 222 370 232 669 234 110 235 347 
1315 -0.3429849183174718 0.01741608194257735 1.0890523496672861 0 0 0 0.48 53 1315 190 435 232 670 
1316 -0.3321598220674346 0.017194117021346 1.0934523160809448 0 0 0 0.02 53 1316 204 360 219 271 
1317 -0.2869263825822863 0.018144878917215324 1.1008296585387718 0 0 0 0.48 53 1317 204 361 219 272 
1318 -0.38782821490945707 0.020256162048408792 1.0883656510369208 0 0 0 0.32 53 1318 227 392 232 671 
1319 -0.17961044208622381 0.020136127042483874 1.1048354447516806 0 0 0 0.3 53 1319 185 104 190 436 219 273 232 672 
1320 -0.16857543634555533 0.020366210351046674 1.1039059184496802 0 0 0 0.55 53 1320 60 166 214 105 217 102 219 274 220 80 221 211 224 46 227 393 232 673 
1321 -0.11877696708410652 0.02456950887002364 1.106518576853367 0 0 0 0.75 53 1321 60 167 185 105 190 437 198 45 204 362 219 275 221 212 222 371 227 394 232 674 
1322 -0.1294882953591483 0.03058164803063658 1.099936358862528 0 0 0 0.73 53 1322 60 168 185 106 198 46 204 363 219 276 222 372 227 395 
1323 0.3998007535663094 0.02841189390288855 0.9875228720839094 0 0 0 0.44 53 1323 190 438 197 429 222 373 232 675 
1324 -0.12271195257116542 0.03319199176199114 1.1029531094098413 0 0 0 0.7 53 1324 60 169 185 107 198 47 200 66 204 364 214 106 217 103 219 277 224 47 227 396 232 676 
1325 0.382868977595609 0.03167526734291872 1.0260324445855973 0 0 0 0.21 53 1325 190 439 197 430 227 397 232 677 
1326 0.04631822653291207 0.03731084352729374 1.13872546588428 0 0 0 0.34 53 1326 185 108 190 440 197 431 198 48 204 365 217 104 219 278 220 81 232 678 
1327 0.04604729578672879 0.037301798896418416 1.1386689156753005 0 0 0 0.44 53 1327 60 170 197 432 198 49 204 366 208 21 217 105 219 279 220 82 227 398 
1328 0.3667917312928337 0.0332493873882826 1.0508588977826525 0 0 0 0.22 53 1328 197 433 235 348 
1329 0.36821756624797575 0.03322725583122437 1.0559486610467268 0 0 0 0.44 53 1329 197 434 232 679 234 111 235 349 
1330 -0.14077430085765372 0.03913522968631692 1.0974057395497239 0 0 0 0.37 53 1330 60 171 185 109 190 441 196 79 200 67 204 367 214 107 220 83 222 374 224 48 232 680 
1331 0.10062134649671807 0.04067253789044348 1.1469364137499438 0 0 0 0.39 53 1331 190 442 204 368 219 280 222 375 232 681 
1332 0.10112035783188052 0.04106438588581818 1.1520399670614863 0 0 0 0.25 53 1332 217 106 227 399 
1333 0.13978401036132407 0.04209306770391429 1.158854926557781 0 0 0 0.71 53 1333 184 266 185 110 197 435 204 369 
1334 -0.10164090629091033 0.04379474196230768 1.1015331697075692 0 0 0 0.83 53 1334 185 111 196 80 200 68 204 370 214 108 217 107 219 281 224 49 
1335 -0.16056218985848972 0.04992840665723948 1.0918583639901955 0 0 0 0.37 53 1335 60 172 185 112 204 371 213 53 217 108 219 282 220 84 221 213 232 682 
1336 -0.1305052117153979 0.049719442598258806 1.0961614416004497 0 0 0 0.29 53 1336 185 113 198 50 204 372 219 283 221 214 222 376 232 683 
1337 -0.37174305271444336 0.054182844650367865 1.078194517685765 0 0 0 0.23 53 1337 190 443 221 215 227 400 232 684 
1338 -0.247327231702724 0.05449397836500733 1.0887275983050115 0 0 0 0.16 53 1338 214 109 219 284 
1339 0.2430008107821022 0.06081975581527979 1.1795674869025623 0 0 0 0.21 53 1339 190 444 227 401 
1340 0.04819086535493061 0.06008832302562224 1.1298053119930505 0 0 0 0.59 53 1340 185 114 190 445 204 373 217 109 219 285 220 85 232 685 
1341 0.37401190381972516 0.05793340173192083 1.0414884647041147 0 0 0 0.33 53 1341 184 267 190 446 197 436 222 377 232 686 234 112 
1342 0.37401190381972516 0.05793340173192083 1.0414884647041147 0 0 0 0.33 53 1342 184 268 190 447 197 437 222 378 232 687 234 113 
1343 -0.3713709968526466 0.0617213638338035 1.0764599916782047 0 0 0 0.34 53 1343 60 173 199 23 204 374 208 22 213 54 217 110 219 286 221 216 224 50 227 402 232 688 
1344 0.2638802163305806 0.07097157123091635 1.2115879166925598 0 0 0 0.46 53 1344 190 448 197 438 217 111 227 403 232 689 
1345 -0.3654597681416041 0.06799435664405083 1.0730613156893778 0 0 0 0.32 53 1345 60 174 190 449 196 81 198 51 199 24 204 375 208 23 213 55 217 112 219 287 220 86 221 217 224 51 227 404 232 690 
1346 0.3689247421465085 0.0664205133374189 1.046738195262992 0 0 0 0.33 53 1346 184 269 190 450 222 379 232 691 234 114 235 350 
1347 0.3690390315154289 0.06633792682377423 1.0468112847956943 0 0 0 0.32 53 1347 190 451 232 692 234 115 
1348 0.40831712101928724 0.0690487031994928 0.9794383559767311 0 0 0 0.18 53 1348 190 452 235 351 
1349 0.4238512957562814 0.06930589750848656 0.9585901109324295 0 0 0 0.47 53 1349 190 453 235 352 
1350 -0.3749775781911242 0.08186639305038486 1.069310861420518 0 0 0 0.35 53 1350 190 454 198 52 199 25 217 113 219 288 221 218 232 693 
1351 0.39082150706878266 0.07921022532823231 1.0034930236618453 0 0 0 0.26 53 1351 184 270 190 455 222 380 232 694 235 353 
1352 -0.33206831248859975 0.08823421095046595 1.0707742790051968 0 0 0 0.43 53 1352 60 175 204 376 219 289 
1353 0.38319486680534814 0.09054691196333439 1.0253546342104531 0 0 0 0.3 53 1353 184 271 190 456 197 439 222 381 232 695 
1354 -0.15946753203418854 0.10071868881466006 1.0787381862899514 0 0 0 0.42 53 1354 219 290 227 405 231 53 
1355 -0.17470888299107726 0.10783744450700462 1.0793331207574453 0 0 0 0.11 53 1355 185 115 232 696 
1356 0.32687701365597543 0.11296612475925731 1.1091525363977894 0 0 0 0.24 53 1356 190 457 197 440 222 382 232 697 
1357 0.3874028092906329 0.1020720228878767 1.004985359190876 0 0 0 0.25 53 1357 190 458 232 698 
1358 0.041348673127672944 0.1180056464116453 1.1181821798877827 0 0 0 0.22 53 1358 190 459 204 377 217 114 219 291 
1359 0.3387464612176294 0.11326944074445425 1.0817896228053678 0 0 0 0.39 53 1359 184 272 190 460 197 441 232 699 235 354 
1360 0.05268066149075749 0.11878721276867182 1.1217561095275626 0 0 0 0.37 53 1360 60 176 190 461 197 442 204 378 217 115 219 292 220 87 232 700 
1361 0.28373123837432124 0.1292194365348686 1.2038100909074727 0 0 0 0.14 53 1361 190 462 204 379 227 406 
1362 0.28373123837432124 0.1292194365348686 1.2038100909074727 0 0 0 0.14 53 1362 190 463 204 380 227 407 
1363 -0.30652128725885497 0.11518336812578463 1.0689274424367092 0 0 0 0.32 53 1363 190 464 219 293 227 408 231 54 
1364 0.11316353856481985 0.12235124428248773 1.1347756102775752 0 0 0 0.41 53 1364 60 177 197 443 199 26 221 219 227 409 232 701 
1365 0.36410845872189007 0.11293456385012397 1.049788182333249 0 0 0 0.27 53 1365 190 465 197 444 
1366 -0.3649128192328645 0.11952047785983491 1.0592067187629277 0 0 0 0.41 53 1366 60 178 190 466 198 53 199 27 213 56 217 116 219 294 220 88 221 220 224 52 227 410 232 702 
1367 0.2515653390717408 0.13110043343783664 1.1742681930220527 0 0 0 0.31 53 1367 60 179 184 273 190 467 197 445 198 54 204 381 208 24 217 117 220 89 221 221 222 383 227 411 232 703 235 355 
1368 0.36621763791355977 0.11583102300074363 1.0383745822969648 0 0 0 0.28 53 1368 190 468 197 446 232 704 235 356 
1369 0.2619076371256101 0.13508316441884186 1.180649251359691 0 0 0 0.36 53 1369 184 274 190 469 197 447 204 382 217 118 221 222 222 384 227 412 232 705 235 357 
1370 0.28322246037319043 0.13828517169734605 1.1988260217211586 0 0 0 0.34 53 1370 184 275 221 223 222 385 232 706 235 358 
1371 0.28329460489852665 0.13847814366829475 1.1996168293332354 0 0 0 0.48 53 1371 184 276 204 383 221 224 222 386 235 359 
1372 -0.3781078840055469 0.12547681858132187 1.0552855326136752 0 0 0 0.29 53 1372 199 28 214 110 219 295 232 707 
1373 0.3058290458100122 0.14426232514350595 1.2211030494544042 0 0 0 0.28 53 1373 190 470 197 448 222 387 227 413 232 708 
1374 0.34457138284699357 0.16880934991026098 1.2492615531426186 0 0 0 0.65 53 1374 190 471 227 414 
1375 0.35552709870442434 0.14813396616432656 1.0527098186394794 0 0 0 0.38 53 1375 184 277 197 449 222 388 232 709 235 360 
1376 0.28325885499816084 0.17031649773716426 1.1916388693029825 0 0 0 0.36 53 1376 184 278 222 389 
1377 0.28325885499816084 0.17031649773716426 1.1916388693029825 0 0 0 0.36 53 1377 184 279 222 390 
1378 0.30435357587916156 0.17405398863538193 1.2066687850301252 0 0 0 0.34 53 1378 184 280 190 472 197 450 222 391 227 415 232 710 235 361 
1379 0.32159288437779215 0.1612234836747077 1.1151123015378137 0 0 0 0.28 53 1379 190 473 232 711 
1380 0.32159288437779215 0.1612234836747077 1.1151123015378137 0 0 0 0.28 53 1380 190 474 232 712 
1381 0.07375343621718475 0.16394137855846552 1.1195189270562962 0 0 0 0.51 53 1381 197 451 227 416 
1382 0.3837026155394244 0.14745986225333835 1.001498904085411 0 0 0 0.41 53 1382 190 475 232 713 234 116 235 362 
1383 0.37224456039285975 0.15243363420561917 1.0253477367785224 0 0 0 0.33 53 1383 184 281 197 452 222 392 232 714 235 363 
1384 0.3716326695091658 0.1522639011483458 1.0222964826399619 0 0 0 0.14 53 1384 234 117 235 364 
1385 0.26244158905692505 0.1755312904774149 1.1737984352160424 0 0 0 0.23 53 1385 190 476 204 384 
1386 0.26244158905692505 0.1755312904774149 1.1737984352160424 0 0 0 0.23 53 1386 190 477 204 385 
1387 0.3794047114131249 0.15220274137655687 1.0056315962543494 0 0 0 0.58 53 1387 197 453 234 118 
1388 0.3047367267976911 0.18529282342682638 1.2064572603166992 0 0 0 0.2 53 1388 184 282 190 478 
1389 -0.08594771016651595 0.1679240839482204 1.0783378035750069 0 0 0 0.21 53 1389 190 479 204 386 
1390 -0.19887283428286442 0.16845740306232965 1.0579959053943406 0 0 0 0.37 53 1390 190 480 204 387 214 111 219 296 227 417 232 715 
1391 -0.2780754179663033 0.16853235854967102 1.056186614753414 0 0 0 0.36 53 1391 190 481 204 388 219 297 
1392 -0.20872910331754302 0.1702319452363492 1.060085667096287 0 0 0 0.28 53 1392 204 389 219 298 220 90 
1393 0.12569790274387882 0.17926217967559957 1.1204784341352503 0 0 0 0.47 53 1393 204 390 221 225 
1394 0.15334849884748275 0.17934893548100497 1.1201879483945116 0 0 0 0.27 53 1394 232 716 235 365 
1395 0.2618404426216899 0.18723818263962025 1.1684685815284128 0 0 0 0.48 53 1395 190 482 197 454 204 391 221 226 
1396 0.26175848681368075 0.1876383577548489 1.168452213054871 0 0 0 0.23 53 1396 190 483 197 455 
1397 -0.07649386334945307 0.1747398049309275 1.0805672220423306 0 0 0 0.57 53 1397 219 299 227 418 232 717 
1398 0.28278298410961916 0.19157236163454017 1.1844223636932216 0 0 0 0.23 53 1398 190 484 197 456 235 366 
1399 0.28278298410962 0.19157236163454086 1.184422363693227 0 0 0 0.23 53 1399 190 485 197 457 235 367 
1400 0.10832485247612986 0.1830092767339371 1.1111832844183982 0 0 0 0.58 53 1400 60 180 190 486 198 55 199 29 204 392 221 227 223 79 232 718 235 368 
1401 0.1660395760582337 0.18586538904874222 1.1282019380307167 0 0 0 0.61 53 1401 190 487 198 56 223 80 232 719 
1402 -0.15488312387700398 0.17525655419048 1.0505124092579352 0 0 0 0.12 53 1402 190 488 221 228 
1403 -0.25966084024117964 0.1792349113145876 1.0487521177872832 0 0 0 0.35 53 1403 60 181 198 57 204 393 219 300 220 91 227 419 232 720 
1404 0.11355241986820204 0.19038804720365554 1.1166777302789341 0 0 0 0.25 53 1404 190 489 198 58 221 229 232 721 
1405 0.2509147314669858 0.19676961517064043 1.1502491838967057 0 0 0 0.27 53 1405 197 458 198 59 208 25 222 393 235 369 
1406 0.27237589969486814 0.20159064183626363 1.1704922591773788 0 0 0 0.37 53 1406 190 490 197 459 221 230 235 370 
1407 0.29460948275654236 0.20621035001536206 1.1861988636698133 0 0 0 0.55 53 1407 184 283 190 491 222 394 235 371 
1408 0.2336036785786838 0.19891137442104373 1.141807480044841 0 0 0 0.42 53 1408 184 284 190 492 196 82 197 460 198 60 221 231 222 395 235 372 
1409 -0.019340345300946603 0.1927224951709449 1.0796008283145382 0 0 0 0.31 53 1409 190 493 232 722 
1410 -0.15738185099039687 0.19726619477651247 1.0548794248716953 0 0 0 0.59 53 1410 60 182 185 116 198 61 224 53 
1411 -0.03882416230594546 0.21274099053416426 1.0722692166440426 0 0 0 0.73 53 1411 190 494 223 81 227 420 232 723 
1412 0.011675414120270443 0.2150432653030019 1.0809304411824088 0 0 0 0.21 53 1412 198 62 232 724 
1413 0.011675414120270443 0.2150432653030019 1.0809304411824088 0 0 0 0.21 53 1413 198 63 232 725 
1414 -0.13117740064011799 0.21219969821242307 1.0506728234865532 0 0 0 0.19 53 1414 204 394 219 301 
1415 0.2946399420052652 0.24606089517782953 1.182010525656643 0 0 0 0.44 53 1415 184 285 190 495 235 373 
1416 0.23340837096704067 0.23972061261763372 1.1338720663430595 0 0 0 0.7 53 1416 190 496 197 461 220 92 221 232 222 396 235 374 
1417 0.4206212896481898 -0.060491048596739476 0.9784679132128109 0 0 0 0.26 53 1417 190 497 197 462 232 726 
1418 0.42079479788585017 -0.06052075952209909 0.978822686914692 0 0 0 0.31 53 1418 190 498 197 463 
1419 0.43966082480605606 -0.042577643059510714 0.9808223455150737 0 0 0 0.41 53 1419 190 499 227 421 
1420 -0.15033032008634822 -0.037750621055686266 1.123108130514863 0 0 0 0.75 53 1420 60 183 190 500 217 119 222 397 227 422 232 727 
1421 -0.15019423190204706 -0.03760444635574434 1.1227049682907468 0 0 0 0.7 53 1421 60 184 190 501 204 395 217 120 219 302 222 398 227 423 232 728 
1422 -0.09069829619779297 -0.03477368114019136 1.1297411264384942 0 0 0 0.29 53 1422 204 396 219 303 222 399 227 424 232 729 
1423 -0.03014413714522003 -0.03220089760592492 1.146610029755649 0 0 0 0.38 53 1423 190 502 227 425 232 730 
1424 -0.21154583976446223 -0.030324599361482206 1.1005850158800863 0 0 0 1.63 53 1424 190 503 221 233 
1425 0.03196054581724279 -0.029077146564638237 1.158906819411491 0 0 0 0.36 53 1425 190 504 204 397 227 426 
1426 0.03199828433116351 -0.028579456919538396 1.1619781264051467 0 0 0 0.58 53 1426 190 505 221 234 227 427 232 731 
1427 0.024275218978855855 -0.022049177197059115 1.1789185719403887 0 0 0 0.62 53 1427 190 506 204 398 221 235 227 428 232 732 
1428 -0.03717814017114785 -0.015081216995201697 1.160661414535887 0 0 0 0.45 53 1428 204 399 227 429 
1429 -0.2077332190496089 -0.00615253634562481 1.1056392539708424 0 0 0 0.28 53 1429 185 117 224 54 232 733 
1430 -0.15835480176573033 -0.003648283416634262 1.1125115936119523 0 0 0 0.4 53 1430 60 185 190 507 219 304 227 430 
1431 -0.11562076356018881 0.0017942109602085599 1.1046203282981866 0 0 0 0.79 53 1431 190 508 204 400 219 305 227 431 
1432 0.4323231298682807 0.0018389115042519242 0.9456316381261987 0 0 0 0.23 53 1432 190 509 197 464 222 400 
1433 0.03249386097809287 0.004521823623583576 1.151514857511449 0 0 0 0.19 53 1433 227 432 232 734 
1434 -0.32436704212393475 0.0070307245255889095 1.0728131673719208 0 0 0 0.51 53 1434 190 510 219 306 
1435 -0.3261848875703685 0.006811518082581022 0.8036729223437793 0 0 0 0.44 53 1435 190 511 232 735 
1436 0.41864374997511433 0.008454885904141427 0.9737852493846564 0 0 0 0.45 53 1436 197 465 235 375 
1437 0.14204320191831454 0.023481080391277668 1.1664696838404685 0 0 0 0.43 53 1437 217 121 227 433 
1438 -0.3773925648510083 0.030921925622369444 1.119119231474323 0 0 0 1.57 53 1438 219 307 232 736 
1439 0.06381892108444498 0.030573462076406887 1.1443035964168384 0 0 0 0.28 53 1439 198 64 227 434 
1440 0.06402594434107171 0.030942651712164447 1.1498446723317863 0 0 0 0.76 53 1440 60 186 190 512 197 466 198 65 199 30 204 401 208 26 217 122 219 308 223 82 227 435 232 737 
1441 0.3972775623307991 0.026409986033374626 1.001820830811967 0 0 0 0.22 53 1441 184 286 190 513 197 467 227 436 232 738 235 376 
1442 0.08917885611547742 0.03327536395402755 1.1551978444494209 0 0 0 0.43 53 1442 197 468 232 739 
1443 -0.3320133427332309 0.03196102148078761 1.0756498975353102 0 0 0 0.33 53 1443 198 66 204 402 219 309 221 236 232 740 
1444 -0.16953622145583777 0.0351125163496624 1.092051358047064 0 0 0 0.43 53 1444 185 118 190 514 198 67 204 403 219 310 220 93 221 237 232 741 
1445 0.17742913419868844 0.039260611908297376 1.1705919392501254 0 0 0 0.27 53 1445 190 515 204 404 232 742 
1446 0.22176294577768643 0.039064352255306856 1.1957705672078756 0 0 0 0.29 53 1446 204 405 227 437 232 743 
1447 0.2436519852458558 0.04353808315915554 1.1831590452777976 0 0 0 0.45 53 1447 60 187 184 287 197 469 199 31 204 406 
1448 0.036068120332440466 0.04736577242857112 1.1311119859377525 0 0 0 1.18 53 1448 60 188 204 407 208 27 217 123 219 311 221 238 223 83 227 438 232 744 
1449 0.10659284572948713 0.04888110417476525 1.1490945952763028 0 0 0 0.83 53 1449 196 83 197 470 204 408 217 124 219 312 220 94 222 401 227 439 232 745 235 377 
1450 0.17902269087068273 0.04988565209329113 1.168421558436909 0 0 0 0.48 53 1450 184 288 190 516 197 471 222 402 232 746 
1451 0.19373657193145388 0.051803053631602446 1.1497225508277829 0 0 0 0.85 53 1451 197 472 204 409 232 747 
1452 -0.12261138630442234 0.051386528635773206 1.097847612395797 0 0 0 0.58 53 1452 60 189 222 403 231 55 232 748 
1453 0.43042750005046543 0.04326651154140552 0.9398377447259867 0 0 0 0.45 53 1453 184 289 190 517 197 473 222 404 234 119 235 378 
1454 0.3873756567735177 0.04859828129742664 1.0150449641245851 0 0 0 0.4 53 1454 197 474 232 749 
1455 0.0036360487576127106 0.05790196863813717 1.1270348733450297 0 0 0 0.62 53 1455 185 119 217 125 222 405 
1456 0.4086085153892671 0.05075371961352849 0.9712407707223844 0 0 0 0.07 53 1456 184 290 222 406 
1457 0.40865479778139596 0.05075797497295206 0.9712620967314868 0 0 0 0.03 53 1457 197 475 222 407 
1458 0.38692212648081503 0.05889856239919027 1.0174419595883082 0 0 0 0.32 53 1458 184 291 190 518 197 476 227 440 232 750 
1459 0.2825463034752992 0.07527205986412262 1.221718603415247 0 0 0 0.31 53 1459 184 292 190 519 197 477 204 410 227 441 232 751 
1460 0.3903158212668963 0.06570745737865558 1.008728310110799 0 0 0 0.28 53 1460 184 293 190 520 197 478 222 408 232 752 235 379 
1461 0.3606284571700796 0.08551662454941639 1.0556941903811496 0 0 0 0.41 53 1461 184 294 190 521 232 753 235 380 
1462 0.3616138058298324 0.08574674109364464 1.0581498236942555 0 0 0 0.29 53 1462 184 295 222 409 
