# 3D point list with one line of data per point:
#   POINT3D_ID, X, Y, Z, R, G, B, ERROR, TRACK[] as (IMAGE_ID, POINT2D_IDX)
# Number of points: 299, mean track length: 10.88
10707 0.09133798919157088 -0.10025888302290674 0.8176458553048838 0 0 0 0.27 30 1601 72 2509 122 801 180 3208 210 1002 211 2867 216 2951 228 3867 233 1893 7 2275 106 1707 149 2278 203 244 
10708 -0.10762328863951086 -0.05645364780575934 0.8402989926709615 0 0 0 0.33 30 1602 99 1677 154 3208 228 3868 
10709 0.003993748718309239 -0.079624808545285 0.8093507672715806 0 0 0 0.12 30 1603 154 3209 228 3869 
10710 -0.12187548296134124 -0.043718383215571845 0.8364608937407376 0 0 0 0.29 30 1604 94 3028 149 2279 210 1003 31 1439 193 3778 
10711 -0.0652533754891056 -0.062481870813064576 0.791942679392728 0 0 0 0.21 30 1605 149 2280 151 4185 154 3210 23 3398 106 1708 125 3943 180 3209 
10712 -0.07717181726393875 -0.056327899784640895 0.8073218169150796 0 0 0 0.13 30 1606 161 2047 216 2952 
10713 0.05105376495018037 -0.07155960127818188 0.8065829244060734 0 0 0 0.23 30 1607 94 3029 99 1678 149 2281 228 3870 7 2276 
10714 -0.27971267868204375 -0.012277477485730225 0.8103501670465266 0 0 0 0.19 30 1608 58 2135 180 3210 
10715 -0.3770279672799542 0.011943476561197985 0.7992589845893544 0 0 0 0.36 30 1609 58 2136 94 3030 140 3235 153 1323 154 3211 161 2048 171 1774 180 3211 193 3779 205 1742 210 1004 216 2953 18 1636 7 2277 116 3871 203 245 
10716 0.48782756997335364 -0.11075573263308189 0.8617040794464403 0 0 0 0.82 30 1610 34 2989 37 3536 46 3970 59 2945 90 1143 94 3031 99 1679 125 3944 139 2088 140 3236 144 2929 150 1653 166 3086 173 2862 177 2573 180 3212 193 3780 211 2868 212 2513 228 3871 233 1894 18 1637 86 3243 102 1893 122 802 149 2282 7 2278 57 3732 24 1562 31 1440 106 1709 230 378 
10717 0.1147495185748087 -0.06095653101987316 0.8097914936170222 0 0 0 0.24 30 1611 125 3945 150 1654 
10718 -0.060000030651666515 -0.04025599938894038 0.7775074198231872 0 0 0 0.39 30 1612 140 3237 149 2283 233 1895 
10719 -0.12629778706255285 -0.01652190645663716 0.8258625612193256 0 0 0 0.22 23 3399 30 1613 72 2510 94 3032 125 3946 140 3238 154 3212 193 3781 216 2954 218 3423 226 2191 18 1638 
10720 -0.37123731803230897 0.0193301779305697 0.7933788361700688 0 0 0 0.16 30 1614 205 1743 210 1005 
10721 0.029980154641174577 -0.040790057713828876 0.7863438225199878 0 0 0 0.34 30 1615 140 3239 149 2284 150 1655 161 2049 183 1863 205 1744 216 2955 228 3872 233 1896 7 2279 
10722 0.7362001805638517 -0.25670298655613727 0.31361122455799423 0 0 0 0.51 30 1616 99 1680 140 3240 106 1710 
10723 -0.14891974860234206 0.0069438991482094585 0.8270652000990208 0 0 0 0.23 30 1617 161 2050 205 1745 7 2280 233 1897 68 645 
10724 -0.08430414209829702 -0.002265007141307451 0.8310932733676545 0 0 0 0.31 30 1618 125 3947 154 3213 216 2956 233 1898 
10725 0.1021346691776558 -0.03753645223304513 0.783632801210297 0 0 0 0.29 30 1619 90 1144 205 1746 228 3873 7 2281 122 803 99 1681 140 3241 210 1006 226 2192 37 3537 46 3971 116 3872 117 600 151 4186 166 3087 183 1864 193 3782 102 1894 171 1775 
10726 0.698897299318148 -0.1482964685793916 0.674477724220698 0 0 0 0.4 23 3400 30 1620 72 2511 99 1682 102 1895 116 3873 131 1577 140 3242 143 1974 144 2930 150 1656 154 3214 171 1776 177 2574 180 3213 210 1007 216 2957 228 3874 233 1899 8 1935 139 2089 106 1711 
10727 0.2821299714428231 -0.04233967877001427 0.8466520248663485 0 0 0 0.12 30 1621 90 1145 161 2051 
10728 -0.36327602878177656 0.04626671804426187 0.7938182564153197 0 0 0 0.27 30 1622 94 3033 216 2958 228 3875 
10729 0.6870624502099739 -0.15121686270184598 0.57483126566146 0 0 0 0.38 30 1623 180 3214 216 2959 72 2512 154 3215 171 1777 205 1747 233 1900 99 1683 139 2090 78 83 
10730 0.3469091655987104 -0.03018567524005071 0.8414827756495746 0 0 0 0.35 30 1624 72 2513 173 2863 177 2575 218 3424 226 2193 
10731 -0.07780857627144544 0.02033004211230601 0.8132926316184722 0 0 0 0.32 30 1625 116 3874 216 2960 226 2194 
10732 0.6929094204690796 -0.16302454460824423 0.4965350964674013 0 0 0 0.44 30 1626 139 2091 140 3243 150 1657 216 2961 
10733 0.219977234942398 -0.007653905249786942 0.8395528686645956 0 0 0 0.74 30 1627 94 3034 161 2052 205 1748 
10734 -0.36219921485595485 0.06058192267843236 0.7913579159268742 0 0 0 0.33 30 1628 149 2285 161 2053 233 1901 
10735 0.7086034078739545 -0.16364720269841224 0.45254931916191216 0 0 0 0.4 30 1629 99 1684 139 2092 140 3244 216 2962 233 1902 78 84 80 58 
10736 -0.07308578875628065 0.03080027088969529 0.8046574887038492 0 0 0 0.34 30 1630 171 1778 180 3215 233 1903 7 2282 99 1685 203 246 
10737 0.7075856879216935 -0.15539805408342233 0.46603584629137285 0 0 0 0.34 30 1631 99 1686 140 3245 150 1658 177 2576 180 3216 216 2963 233 1904 78 85 79 28 80 59 
10738 0.35814068566280793 -0.012803355602489627 0.8375172323494925 0 0 0 0.25 30 1632 139 2093 150 1659 228 3876 233 1905 
10739 0.24215725738806493 -0.00037105328675286417 0.8251243522781506 0 0 0 0.14 30 1633 94 3035 166 3088 226 2195 
10740 -0.3662325078202399 0.06649205368317161 0.784774533972997 0 0 0 0.65 30 1634 149 2286 210 1008 233 1906 7 2283 
10741 -0.29144871370847353 0.06087995379649199 0.78704449489979 0 0 0 0.27 30 1635 94 3036 149 2287 
10742 0.11631904291299613 0.007993074546355372 0.7697989253908496 0 0 0 0.26 30 1636 139 2094 161 2054 
10743 0.09134083280928688 0.017515032559007063 0.7716567636327042 0 0 0 0.25 30 1637 140 3246 166 3089 177 2577 186 1784 228 3877 31 1441 145 1870 
10744 0.6837301938801007 -0.08712854956450901 0.6438685935575205 0 0 0 0.35 30 1638 99 1687 116 3875 150 1660 154 3216 161 2055 171 1779 180 3217 205 1749 216 2964 228 3878 
10745 0.3758424053850092 0.005759569377375741 0.8462526919863134 0 0 0 0.25 30 1639 139 2095 150 1661 
10746 -0.1837900199115491 0.05930892474070123 0.7932266753436322 0 0 0 0.36 30 1640 193 3783 233 1907 7 2284 
10747 -0.29932590976300943 0.07137917450998077 0.7873191072143663 0 0 0 0.17 30 1641 149 2288 210 1009 216 2965 226 2196 94 3037 99 1688 203 247 
10748 -0.17617631129538205 0.05959512411894825 0.789944539786409 0 0 0 0.32 30 1642 72 2514 94 3038 140 3247 180 3218 216 2966 226 2197 228 3879 149 2289 167 1935 
10749 0.49526897999049385 -0.0158397694569417 0.8001451721629306 0 0 0 0.17 30 1643 116 3876 154 3217 
10750 -0.32731947015211704 0.07911794628757826 0.7826827200780074 0 0 0 0.48 30 1644 166 3090 171 1780 
10751 0.6863826450736337 -0.07095068702823445 0.6354431083812383 0 0 0 0.12 30 1645 99 1689 154 3218 
10752 -0.23016958208105523 0.07419260085617983 0.788487150483894 0 0 0 0.43 30 1646 205 1750 228 3880 58 2137 125 3948 203 248 
10753 -0.16738573490724865 0.06901464515165379 0.7846929263086759 0 0 0 0.25 30 1647 161 2056 233 1908 7 2285 210 1010 216 2967 230 379 
10754 0.2847160774495404 0.04013692259280106 0.8266836933974501 0 0 0 0.26 30 1648 37 3538 139 2096 150 1662 161 2057 211 2869 228 3881 125 3949 186 1785 
10755 -0.25616718231176694 0.08547699556886286 0.7816896630886218 0 0 0 0.28 30 1649 205 1751 216 2968 7 2286 58 2138 149 2290 228 3882 
10756 0.7061952481326701 -0.03801974702180454 0.6897803093780656 0 0 0 0.41 30 1650 140 3248 228 3883 
10757 -0.3402441104441861 0.09693477010512769 0.7768045349812341 0 0 0 0.29 30 1651 58 2139 94 3039 99 1690 116 3877 140 3249 149 2291 151 4187 154 3219 171 1781 180 3219 183 1865 186 1786 193 3784 205 1752 210 1011 216 2969 18 1639 7 2287 167 1936 203 249 
10758 0.6662868917894375 -0.02783528810531816 0.6975997313833739 0 0 0 1.04 30 1652 139 2097 228 3884 106 1712 193 3785 68 646 144 2931 202 2292 
10759 -0.20727742353595188 0.0858042039835365 0.7818828001856802 0 0 0 0.33 30 1653 116 3878 210 1012 7 2288 233 1909 
10760 -0.16789599133242383 0.08626359817451554 0.7756601481604847 0 0 0 0.37 30 1654 149 2292 161 2058 205 1753 
10761 -0.08241457819789871 0.07566783501311583 0.7613211475390675 0 0 0 0.43 23 3401 30 1655 94 3040 102 1896 116 3879 140 3250 149 2293 151 4188 154 3220 166 3091 173 2864 177 2578 180 3220 193 3786 210 1013 216 2970 218 3425 226 2198 228 3885 18 1640 171 1782 7 2289 31 1442 145 1871 106 1713 203 250 
10762 -0.20061245330454577 0.09864123485797284 0.7823396648552208 0 0 0 0.44 30 1656 94 3041 99 1691 116 3880 139 2098 145 1872 149 2294 161 2059 183 1866 193 3787 205 1754 216 2971 228 3886 7 2290 90 1146 167 1937 203 251 
10763 -0.21073817135292272 0.09974396944637057 0.7768845376345678 0 0 0 0.42 23 3402 30 1657 94 3042 116 3881 140 3251 149 2295 154 3221 161 2060 177 2579 193 3788 216 2972 233 1910 18 1641 171 1783 210 1014 7 2291 90 1147 68 647 203 252 
10764 -0.11644369246995409 0.09553224371815727 0.7854428078909802 0 0 0 0.77 30 1658 46 3972 154 3222 177 2580 186 1787 233 1911 
10765 -0.3313759961535076 0.11195971824955495 0.774973060423066 0 0 0 0.47 30 1659 210 1015 233 1912 99 1692 203 253 
10766 0.42582797217097207 0.05487721072913393 0.8083994378542061 0 0 0 0.25 30 1660 99 1693 166 3092 
10767 0.698769360283931 -0.02993166346827782 0.5894609030697471 0 0 0 0.47 30 1661 99 1694 140 3252 150 1663 154 3223 180 3221 216 2973 228 3887 106 1714 80 60 
10768 0.7004854986732919 0.047262072886801475 0.8196331136996722 0 0 0 0.3 30 1662 116 3882 154 3224 
10769 0.739724735829705 -0.1270545489126307 0.23626199887832527 0 0 0 0.57 30 1663 57 3733 72 2515 99 1695 177 2581 189 2713 191 2441 68 648 78 86 80 61 140 3253 
10770 -0.17908900563208252 0.12158032284911811 0.7674762300857492 0 0 0 0.2 30 1664 99 1696 116 3883 154 3225 167 1938 210 1016 
10771 0.7611102096624247 -0.14037402907912175 0.13193495039437617 0 0 0 0.46 30 1665 140 3254 150 1664 177 2582 106 1715 78 87 79 29 80 62 
10772 -0.06786082266813319 0.11403967444674737 0.7609404014314547 0 0 0 0.59 30 1666 72 2516 140 3255 171 1784 226 2199 233 1913 18 1642 7 2292 31 1443 
10773 0.4750353497855881 0.08318828668857418 0.7987544621930394 0 0 0 0.25 23 3403 30 1667 72 2517 102 1897 177 2583 216 2974 
10774 0.682558493485212 0.0030809548504705216 0.5841665495717135 0 0 0 0.39 30 1668 99 1697 161 2061 180 3222 205 1755 
10775 -0.3775358017304136 0.13357595774855846 0.7487844086088217 0 0 0 0.12 30 1669 58 2140 116 3884 140 3256 
10776 0.7429323447173002 -0.10969263893803408 0.22150408986310408 0 0 0 0.56 30 1670 99 1698 177 2584 
10777 0.7245301728556586 -0.08162421598050738 0.30658345988557745 0 0 0 0.28 30 1671 99 1699 140 3257 
10778 0.25857846846715193 0.10035708819149693 0.7887101910052758 0 0 0 0.15 30 1672 116 3885 154 3226 161 2062 117 601 140 3258 211 2870 
10779 -0.08227946761135826 0.1257647982883543 0.7834280167159225 0 0 0 0.45 23 3404 30 1673 45 1187 46 3973 55 2906 72 2518 90 1148 94 3043 99 1700 102 1898 116 3886 125 3950 140 3259 144 2932 145 1873 154 3227 161 2063 166 3093 171 1785 173 2865 177 2585 178 1320 180 3223 183 1867 186 1788 191 2442 193 3789 212 2514 216 2975 218 3426 226 2200 228 3888 233 1914 7 2293 122 804 31 1444 34 2990 68 649 
10780 0.6975304763765913 0.03325681683143334 0.641207245560269 0 0 0 0.38 30 1674 99 1701 116 3887 140 3260 150 1665 154 3228 180 3224 212 2515 216 2976 228 3889 
10781 -0.08968838178618146 0.13336847510290867 0.7777416687398614 0 0 0 0.38 30 1675 193 3790 228 3890 203 254 
10782 0.6838244086240036 0.02211770975941636 0.5783559717337892 0 0 0 0.43 30 1676 161 2064 180 3225 205 1756 216 2977 228 3891 72 2519 99 1702 131 1578 106 1716 
10783 -0.0681923361472197 0.1379770762142591 0.7659339194991841 0 0 0 0.28 30 1677 116 3888 177 2586 233 1915 7 2294 140 3261 
10784 0.030844828101692773 0.12700054988248954 0.7257434815747099 0 0 0 0.11 30 1678 122 805 233 1916 
10785 -0.37921291320866773 0.16454808499924983 0.7444284710019321 0 0 0 0.46 30 1679 72 2520 166 3094 228 3892 18 1643 171 1786 7 2295 
10786 -0.3864608061496477 0.17162243768043206 0.7554618419937903 0 0 0 0.28 30 1680 143 1975 161 2065 218 3427 55 2907 167 1939 228 3893 
10787 -0.3160943903300021 0.1680049968050078 0.7547694451295863 0 0 0 0.25 30 1681 46 3974 140 3262 151 4189 
10788 -0.26674830339171157 0.16552942408273816 0.7555466054759981 0 0 0 0.17 30 1682 216 2978 233 1917 
10789 0.404743686491337 0.1344905889043345 0.7544492003129932 0 0 0 0.34 30 1683 139 2099 150 1666 211 2871 
10790 0.695326987808123 0.07512096962310354 0.6043661691845319 0 0 0 0.25 30 1684 161 2066 228 3894 
10791 0.7110279308905844 0.03882010571789798 0.49269038121905717 0 0 0 0.44 30 1685 72 2521 99 1703 150 1667 
10792 -0.17868327468970546 0.1698641442808423 0.7575495481450568 0 0 0 0.24 30 1686 153 1324 177 2587 
10793 0.7215497822513905 -0.02160855522074998 0.29473795749081577 0 0 0 0.19 30 1687 72 2522 99 1704 140 3263 191 2443 8 1936 31 1445 55 2908 189 2714 106 1717 
10794 0.7254741723120313 -0.018025420181217246 0.3030208945520369 0 0 0 0.4 30 1688 57 3734 99 1705 
10795 0.28862936554697616 0.16089111025239167 0.778092101759978 0 0 0 0.39 30 1689 125 3951 150 1668 193 3791 211 2872 228 3895 233 1918 
10796 -0.07369871437263796 0.17147997160911063 0.7571533875588404 0 0 0 0.27 23 3405 30 1690 140 3264 193 3792 216 2979 
10797 -0.13690102335879406 0.16816577134779065 0.7298920902856915 0 0 0 0.64 30 1691 161 2067 183 1868 186 1789 233 1919 7 2296 
10798 -0.24295979262565665 0.16880098904376697 0.7101043158523691 0 0 0 0.21 30 1692 140 3265 154 3229 177 2588 
10799 -0.12777765222394125 0.17038226126609654 0.7190117849769326 0 0 0 0.14 30 1693 55 2909 233 1920 
10800 -0.37533319294310846 0.1763737085861671 0.7042549092790944 0 0 0 0.3 30 1694 153 1325 171 1787 180 3226 193 3793 
10801 -0.3113026718292792 0.17814499588846236 0.7098277534883427 0 0 0 0.42 30 1695 99 1706 116 3889 193 3794 
10802 -0.30698884375992014 0.17716024673783262 0.7103732316633561 0 0 0 0.41 23 3406 30 1696 72 2523 140 3266 151 4190 153 1326 154 3230 177 2589 
10803 0.2931975262710163 0.16876698906746085 0.7501208236790442 0 0 0 0.32 30 1697 216 2980 228 3896 
10804 -0.4079596545912838 0.17845127064995955 0.6994089070068057 0 0 0 0.21 30 1698 58 2141 125 3952 
10805 0.4175997741606563 0.1802578841777833 0.7940680809787958 0 0 0 0.13 30 1699 150 1669 228 3897 
10806 0.1333795490916577 0.17125624619681049 0.7354673140548778 0 0 0 0.33 30 1700 205 1757 233 1921 
10807 -0.36232080810519884 0.1799131476020138 0.7064795168962906 0 0 0 0.46 30 1701 58 2142 99 1707 
10808 0.1872574744389536 0.1656222964309251 0.7219495084476076 0 0 0 0.14 30 1702 193 3795 233 1922 
10809 -0.24354754747978952 0.17855850745538682 0.7114826641574985 0 0 0 0.34 30 1703 99 1708 116 3890 125 3953 140 3267 171 1788 193 3796 228 3898 
10810 0.36515083153922057 0.16634930447448826 0.7294747359578201 0 0 0 0.32 30 1704 37 3539 116 3891 140 3268 150 1670 193 3797 228 3899 
10811 -0.16118012484992936 0.17947423320016287 0.7108029974226331 0 0 0 0.13 30 1705 116 3892 193 3798 
10812 -0.3797615033027518 0.18481346172300847 0.6985854588170883 0 0 0 0.35 23 3407 30 1706 72 2524 140 3269 154 3231 171 1789 180 3227 193 3799 
10813 -0.17271152870753065 0.18071756834355437 0.7036024493394185 0 0 0 0.44 30 1707 116 3893 228 3900 
10814 0.7013121473360218 0.13100182863432366 0.6221172260043076 0 0 0 0.55 30 1708 99 1709 116 3894 139 2100 228 3901 78 88 
10815 -0.22553379920349886 0.18859656848507814 0.7040738133157676 0 0 0 0.47 30 1709 72 2525 99 1710 116 3895 
10816 -0.08664012997721135 0.21089328466972904 0.7708290864939461 0 0 0 0.23 30 1710 161 2068 205 1758 
10817 0.6922583874106313 0.18152167005534867 0.7427835732011581 0 0 0 0.23 30 1711 72 2526 99 1711 140 3270 154 3232 177 2590 178 1321 180 3228 186 1790 193 3800 216 2981 228 3902 
10818 0.6922939303893311 0.08874280244661206 0.4719260791915784 0 0 0 0.48 30 1712 59 2946 150 1671 216 2982 31 1446 
10819 0.17302700855761888 0.18700954726068617 0.7142673434341816 0 0 0 0.25 23 3408 72 2527 116 3896 150 1672 151 4191 161 2069 171 1790 173 2866 193 3801 216 2983 
10820 -0.4049472480895248 0.1949532189949448 0.6917077081381215 0 0 0 0.24 30 1713 140 3271 151 4192 154 3233 
10821 0.2718769211596054 0.186030781967539 0.7134209743146089 0 0 0 0.3 30 1714 125 3954 186 1791 
10822 -0.27628277861856904 0.1956222323799177 0.6982633711580367 0 0 0 0.32 30 1715 116 3897 151 4193 
10823 0.040997696541900004 0.19629309429005704 0.7073964638387437 0 0 0 0.8 30 1716 116 3898 218 3428 7 2297 37 3540 31 1447 151 4194 173 2867 180 3229 
10824 0.4648659539322497 0.18464788039005892 0.7021159464974657 0 0 0 0.09 30 1717 139 2101 191 2444 
10825 -0.376679362062195 0.2013268519423707 0.694599569445612 0 0 0 0.41 23 3409 30 1718 72 2528 116 3899 140 3272 151 4195 154 3234 171 1791 193 3802 216 2984 218 3429 
10826 -0.13162205487747694 0.20468760646660158 0.7071248484060756 0 0 0 0.19 30 1719 151 4196 154 3235 193 3803 
10827 0.4986545697608605 0.1976328475099872 0.7111395840572 0 0 0 0.45 30 1720 166 3095 216 2985 31 1448 119 2063 144 2933 
10828 0.3647122417801199 0.19992066143398024 0.7107006538383287 0 0 0 0.35 23 3410 30 1721 131 1579 139 2102 140 3273 151 4197 154 3236 173 2868 186 1792 193 3804 228 3903 106 1718 125 3955 218 3430 
10829 0.7063128914590191 0.09218014275153838 0.3797481289650609 0 0 0 0.18 30 1722 57 3735 99 1712 
10830 0.1900209619468829 0.21181943351224047 0.7043946778975989 0 0 0 0.3 30 1723 139 2103 150 1673 151 4198 193 3805 228 3904 233 1923 
10831 0.6935570590837817 0.12578225243204813 0.4686506346553579 0 0 0 0.82 23 3411 30 1724 59 2947 171 1792 189 2715 106 1719 
10832 0.6964786197969745 0.19103196315269735 0.5896018064129223 0 0 0 0.31 30 1725 99 1713 228 3905 
10833 0.7066591215045946 0.22471376746923186 0.6605256502432367 0 0 0 0.38 30 1726 72 2529 228 3906 
10834 -0.07261193745689049 0.23515987894964777 0.6949726473308125 0 0 0 0.48 23 3412 30 1727 72 2530 99 1714 139 2104 180 3230 193 3806 211 2873 228 3907 31 1449 
10835 -0.22550307293959954 0.249631169452978 0.6850800006017891 0 0 0 0.53 30 1728 72 2531 99 1715 116 3900 140 3274 143 1976 153 1327 166 3096 171 1793 173 2869 180 3231 218 3431 228 3908 
10836 -0.04475655831244131 0.25065085037984325 0.6803777307281745 0 0 0 0.62 30 1729 193 3807 228 3909 68 650 125 3956 139 2105 
10837 -0.2333677511465102 0.24610439223025246 0.6694761355112563 0 0 0 0.37 30 1730 216 2986 228 3910 
10838 -0.011611149749956256 -0.3461067039382874 0.9036629626178474 0 0 0 0.32 30 1731 125 3957 154 3237 218 3432 
10839 -0.07566389676634264 -0.28992900704849156 1.050093410522894 0 0 0 0.65 30 1732 90 1149 173 2870 212 2516 
10840 -0.07363067896505147 -0.25895143096848033 0.9192905856676029 0 0 0 0.53 30 1733 119 2064 125 3958 139 2106 145 1874 150 1674 205 1759 228 3911 18 1644 144 2934 191 2445 
10841 0.061123031981583933 -0.24408187274270274 0.8849882169371467 0 0 0 0.34 30 1734 137 1540 161 2070 205 1760 
10842 -0.3655854460829983 -0.12974429603524124 0.8963297892942083 0 0 0 0.47 30 1735 154 3238 161 2071 166 3097 180 3232 167 1940 
10843 -0.29268731803711334 -0.13688732312318677 0.9311125476923394 0 0 0 0.27 30 1736 58 2143 150 1675 151 4199 161 2072 
10844 -0.06765989577901467 -0.17379986454117005 0.9794342989931266 0 0 0 0.5 30 1737 119 2065 137 1541 144 2935 150 1676 153 1328 166 3098 173 2871 191 2446 216 2987 94 3044 
10845 -0.3468997211278049 -0.0914459606414224 0.8468950001745452 0 0 0 0.32 23 3413 30 1738 58 2144 116 3901 140 3275 150 1677 154 3239 180 3233 193 3808 228 3912 167 1941 
10846 0.46759256663221366 -0.25795327621658576 0.9246816634535946 0 0 0 0.81 30 1739 145 1875 150 1678 151 4200 211 2874 212 2517 133 493 140 3276 189 2716 193 3809 218 3433 
10847 -0.23009313371564213 -0.10193189360858555 0.8551772668624905 0 0 0 0.24 30 1740 153 1329 161 2073 
10848 -0.253479372578352 -0.09373465240358311 0.8523137209947966 0 0 0 0.16 30 1741 116 3902 193 3810 
10849 -0.24909512223412666 -0.09025782952761534 0.8580808541738005 0 0 0 0.14 30 1742 216 2988 228 3913 
10850 -0.3475602193703684 -0.07236166501109052 0.8387969254675006 0 0 0 0.18 30 1743 94 3045 116 3903 139 2107 
10851 -0.29796599719856043 -0.08126017404357698 0.845713114140915 0 0 0 0.18 30 1744 58 2145 228 3914 
10852 -0.06803170364179217 -0.11143381150105314 0.9104229487740604 0 0 0 0.18 30 1745 46 3975 139 2108 186 1793 
10853 -0.3379578833625434 -0.06847919711179665 0.8389639738974958 0 0 0 0.5 23 3414 30 1746 154 3240 210 1017 216 2989 
10854 -0.18114548394531527 -0.08031228449184742 0.8482965134262419 0 0 0 0.47 30 1747 46 3976 58 2146 154 3241 161 2074 166 3099 167 1942 
10855 -0.1653445244007867 -0.08047520917189734 0.8451435658248168 0 0 0 0.64 30 1748 149 2296 186 1794 228 3915 154 3242 203 255 
10856 0.221175184338825 -0.13595901704916447 0.919091711162966 0 0 0 0.42 30 1749 46 3977 228 3916 
10857 -0.32231633157595846 -0.0420756485198846 0.8250136480968373 0 0 0 0.21 30 1750 94 3046 161 2075 
10858 -0.07835536407126667 -0.08458413821989094 0.8222999954058094 0 0 0 0.43 30 1751 102 1899 137 1542 151 4201 154 3243 
10859 0.4108535514729664 -0.13498894477168455 0.9056068674397819 0 0 0 0.2 30 1752 161 2076 205 1761 
10860 -0.22370983873285313 -0.00982610059531786 0.8211630560831457 0 0 0 0.46 30 1753 161 2077 228 3917 58 2147 99 1716 211 2875 233 1924 116 3904 131 1580 212 2518 90 1150 121 322 149 2297 150 1679 205 1762 210 1018 18 1645 171 1794 7 2298 144 2936 145 1876 174 379 94 3047 167 1943 
10861 -0.32764799461196237 0.007143682265788407 0.8090499090543489 0 0 0 0.39 30 1754 99 1717 149 2298 161 2078 210 1019 216 2990 233 1925 7 2299 203 256 
10862 0.18561401041184186 -0.05036534083851608 0.848135551561863 0 0 0 0.28 37 3541 46 3978 55 2910 139 2109 183 1869 186 1795 193 3811 205 1763 211 2876 228 3918 233 1926 
10863 -0.287916080191531 0.016453591770169945 0.8180364696524555 0 0 0 0.47 23 3415 30 1755 34 2991 58 2148 59 2948 72 2532 94 3048 99 1718 102 1900 119 2066 131 1581 137 1543 140 3277 153 1330 154 3244 166 3100 171 1795 173 2872 180 3234 189 2717 193 3812 211 2877 226 2201 228 3919 233 1927 18 1646 7 2300 203 257 205 1764 
10864 -0.331360267985781 0.020388502953293194 0.809742259942492 0 0 0 0.38 30 1756 99 1719 153 1331 161 2079 180 3235 193 3813 149 2299 228 3920 
10865 -0.29949598079620354 0.022607987007139264 0.8187196417983019 0 0 0 0.08 30 1757 161 2080 205 1765 
10866 0.2785460766867727 -0.051338644601426654 0.8482061074359968 0 0 0 0.38 30 1758 161 2081 7 2301 151 4202 218 3434 
10867 -0.12096326532101269 0.005614048387400311 0.8146056834740174 0 0 0 0.41 30 1759 34 2992 37 3542 46 3979 55 2911 57 3736 72 2533 86 3244 99 1720 102 1901 116 3905 119 2067 125 3959 139 2110 143 1977 144 2937 145 1877 149 2300 151 4203 161 2082 166 3101 173 2873 177 2591 180 3236 186 1796 189 2718 205 1766 210 1020 212 2519 216 2991 218 3435 226 2202 228 3921 7 2302 183 1870 233 1928 8 1937 31 1450 131 1582 154 3245 68 651 203 258 
10868 0.3726687174090825 -0.008027837997540619 0.840466132607894 0 0 0 0.41 30 1760 34 2993 45 1188 116 3906 149 2301 151 4204 166 3102 173 2874 177 2592 180 3237 193 3814 212 2520 226 2203 228 3922 233 1929 7 2303 57 3737 86 3245 125 3960 216 2992 37 3543 46 3980 68 652 
10869 0.2771752329718592 0.0049461287293803636 0.8345663978178086 0 0 0 0.35 30 1761 37 3544 46 3981 55 2912 57 3738 59 2949 86 3246 94 3049 116 3907 119 2068 122 806 125 3961 137 1544 140 3278 143 1978 144 2938 145 1878 150 1680 151 4205 161 2083 166 3103 183 1871 186 1797 191 2447 205 1767 211 2878 212 2521 228 3923 233 1930 7 2304 34 2994 106 1720 154 3246 177 2593 180 3238 216 2993 218 3436 226 2204 117 602 68 653 
10870 -0.2324117172073472 0.07987343479857426 0.7858372906644416 0 0 0 0.36 23 3416 30 1762 46 3982 55 2913 58 2149 94 3050 116 3908 125 3962 140 3279 149 2302 151 4206 153 1332 154 3247 171 1796 177 2594 193 3815 205 1768 210 1021 211 2879 216 2994 226 2205 18 1647 7 2305 45 1189 143 1979 203 259 
10871 -0.402396090116944 0.09977915263661039 0.7724908661408628 0 0 0 0.05 30 1763 140 3280 149 2303 
10872 0.28463940822998735 0.059742846044595996 0.809758924179837 0 0 0 0.2 23 3417 30 1764 55 2914 72 2534 102 1902 140 3281 218 3437 226 2206 
10873 0.1872319294757242 0.07225309235193345 0.8002399263057033 0 0 0 0.33 30 1765 122 807 150 1681 183 1872 186 1798 211 2880 228 3924 233 1931 68 654 166 3104 
10874 0.7461839237393966 -0.14989539104397118 0.19449784555177643 0 0 0 0.62 30 1766 57 3739 72 2535 99 1721 140 3282 177 2595 191 2448 202 2293 78 89 79 30 80 63 
10875 -0.23113120195528467 0.11950446913723937 0.7814115517744742 0 0 0 0.3 30 1767 145 1879 177 2596 
10876 0.7093849883013734 -0.06621858291487771 0.417682712890871 0 0 0 0.36 23 3418 30 1768 143 1980 150 1682 189 2719 106 1721 24 1563 68 655 
10877 0.731095952294474 -0.10004986819519508 0.29269196934401315 0 0 0 0.33 23 3419 30 1769 57 3740 72 2536 99 1722 140 3283 191 2449 8 1938 24 1564 106 1722 
10878 -0.2547072848013377 0.13388041235144316 0.7691668623259859 0 0 0 0.2 30 1770 161 2084 205 1769 216 2995 
10879 -0.10518909615687633 0.1265197129647296 0.77999832260015 0 0 0 0.49 23 3420 30 1771 37 3545 55 2915 57 3741 72 2537 94 3051 99 1723 116 3909 125 3963 139 2111 140 3284 145 1880 151 4207 154 3248 161 2085 173 2875 177 2597 180 3239 183 1873 186 1799 191 2450 193 3816 205 1770 211 2881 216 2996 218 3438 226 2207 228 3925 233 1932 7 2306 31 1451 68 656 
10880 0.710811890991431 0.06768913796563558 0.7825815538733811 0 0 0 0.42 30 1772 72 2538 99 1724 116 3910 122 808 139 2112 143 1981 144 2939 154 3249 166 3105 173 2876 177 2598 180 3240 186 1800 218 3439 189 2720 191 2451 212 2522 24 1565 31 1452 106 1723 125 3964 
10881 0.7086393190108927 0.06325339983072698 0.7490414456451927 0 0 0 0.4 23 3421 30 1773 57 3742 59 2950 72 2539 99 1725 102 1903 119 2069 137 1545 139 2113 140 3285 144 2940 150 1683 154 3250 166 3106 173 2877 177 2599 178 1322 180 3241 186 1801 189 2721 191 2452 202 2294 211 2882 212 2523 226 2208 228 3926 24 1566 31 1453 68 657 210 1022 117 603 
10882 0.18569248277120134 0.11529705214878234 0.7928233803618374 0 0 0 0.35 30 1774 37 3546 55 2916 116 3911 119 2070 125 3965 139 2114 140 3286 144 2941 150 1684 151 4208 161 2086 166 3107 186 1802 189 2722 191 2453 193 3817 205 1771 211 2883 228 3927 233 1933 23 3422 31 1454 143 1982 177 2600 218 3440 72 2540 106 1724 
10883 -0.3241057228207459 0.142152213892074 0.7563150269016415 0 0 0 0.25 30 1775 161 2087 216 2997 205 1772 7 2307 149 2304 183 1874 
10884 0.6886874394253324 0.005502291303116388 0.5332728503358115 0 0 0 0.33 23 3423 30 1776 72 2541 99 1726 137 1546 140 3287 144 2942 150 1685 161 2088 180 3242 212 2524 216 2998 233 1934 8 1939 31 1455 106 1725 
10885 -0.18328085852485884 0.15374005005725602 0.7708744468011559 0 0 0 0.71 23 3424 30 1777 140 3288 171 1797 177 2601 202 2295 
10886 -0.029631133361239872 0.1393682892259697 0.7296564638608012 0 0 0 0.89 23 3425 30 1778 46 3983 99 1727 116 3912 137 1547 139 2115 143 1983 151 4209 154 3251 177 2602 180 3243 186 1803 228 3928 7 2308 34 2995 37 3547 94 3052 125 3966 144 2943 166 3108 189 2723 211 2884 218 3441 233 1935 8 1940 24 1567 31 1456 57 3743 90 1151 119 2071 131 1583 145 1881 149 2305 183 1875 191 2454 45 1190 106 1726 122 809 212 2525 230 380 
10887 0.11400067990563224 0.1376092020180071 0.7412268717080286 0 0 0 0.45 30 1779 137 1548 139 2116 7 2309 216 2999 228 3929 
10888 0.3664624555377816 0.1334614743921698 0.7646587715108599 0 0 0 0.24 30 1780 137 1549 143 1984 
10889 0.43008863369863176 0.14546240327731852 0.7878085271416606 0 0 0 0.51 30 1781 46 3984 55 2917 122 810 125 3967 137 1550 189 2724 212 2526 228 3930 233 1936 
10890 -0.3135951749278174 0.16422098332182858 0.7257881508460937 0 0 0 0.15 30 1782 205 1773 216 3000 
10891 -0.3713756664691433 0.1748868653842129 0.7418297455495166 0 0 0 1.2 23 3426 30 1783 37 3548 46 3985 58 2150 59 2951 102 1904 131 1584 143 1985 151 4210 153 1333 161 2089 166 3109 173 2878 180 3244 186 1804 202 2296 216 3001 218 3442 228 3931 125 3968 144 2944 167 1944 191 2455 193 3818 212 2527 8 1941 
10892 0.3415636732357379 0.15702038283783912 0.7767605592545352 0 0 0 0.18 30 1784 45 1191 143 1986 150 1686 212 2528 
10893 0.7226080313556643 -0.007283521844193331 0.3158622381880174 0 0 0 0.24 30 1785 55 2918 57 3744 99 1728 31 1457 
10894 -0.35690462460615235 0.17291236326743942 0.7035265363992093 0 0 0 0.32 30 1786 55 2919 58 2151 
10895 0.5059132037656645 0.16202143026477234 0.748633184474307 0 0 0 0.5 30 1787 119 2072 139 2117 150 1687 166 3110 178 1323 191 2456 193 3819 211 2885 216 3002 233 1937 68 658 
10896 -0.29406226099873395 0.17677441175120948 0.7046139937678676 0 0 0 0.46 30 1788 116 3913 119 2073 125 3969 211 2886 228 3932 
10897 0.723754901733638 0.16405969819001912 0.7687458127333722 0 0 0 0.42 30 1789 140 3289 150 1688 119 2074 216 3003 31 1458 59 2952 72 2542 143 1987 177 2603 178 1324 233 1938 168 344 173 2879 193 3820 218 3443 
10898 -0.3569432779148956 0.18270918835197453 0.7058082447825791 0 0 0 0.47 23 3427 30 1790 72 2543 116 3914 119 2075 125 3970 140 3290 144 2945 151 4211 153 1334 154 3252 166 3111 171 1798 173 2880 193 3821 216 3004 218 3444 226 2209 228 3933 7 2310 37 3549 46 3986 57 3745 167 1945 186 1805 211 2887 8 1942 24 1568 
10899 0.6575655406037272 0.08582251684089416 0.5213605424098535 0 0 0 0.3 30 1791 119 2076 139 2118 
10900 -0.45863859399779255 0.18671977367214226 0.7008539573952166 0 0 0 0.38 34 2996 59 2953 171 1799 178 1325 180 3245 189 2725 
10901 0.7097345044721041 0.04965353023018209 0.4019414757374244 0 0 0 0.21 23 3428 30 1792 72 2544 137 1551 150 1689 177 2604 68 659 31 1459 80 64 
10902 -0.03560113792427086 0.18282655754633564 0.7125500981591948 0 0 0 0.46 30 1793 72 2545 151 4212 228 3934 
10903 -0.2914108075654454 0.19138936553273522 0.7022971784385059 0 0 0 0.36 23 3429 30 1794 116 3915 125 3971 140 3291 151 4213 154 3253 166 3112 177 2605 180 3246 193 3822 216 3005 218 3445 
10904 0.227665363214625 0.18618465293318676 0.7132806891273908 0 0 0 0.56 23 3430 30 1795 99 1729 116 3916 139 2119 143 1988 150 1690 166 3113 212 2529 226 2210 228 3935 
10905 0.027525153895525584 0.20988808553519198 0.7276899522484921 0 0 0 0.12 30 1796 119 2077 233 1939 
10906 0.6914843478935959 0.13652704541954733 0.5328601858638687 0 0 0 0.42 30 1797 99 1730 119 2078 140 3292 171 1800 177 2606 180 3247 189 2726 216 3006 228 3936 78 90 79 31 80 65 
10907 0.6673289675756123 0.1243857654340104 0.46803104904304643 0 0 0 0.4 30 1798 119 2079 216 3007 
10908 0.30705549614512617 0.22814568128238355 0.7091111868689781 0 0 0 0.41 30 1799 37 3550 57 3746 119 2080 144 2946 150 1691 151 4214 228 3937 233 1940 
10909 0.7045008218208485 0.1457606038945667 0.4619073948148412 0 0 0 0.67 30 1800 99 1731 177 2607 31 1460 119 2081 137 1552 143 1989 80 66 140 3293 
10910 -0.04497583042982441 0.23482267253607939 0.6863533191807827 0 0 0 0.57 30 1801 116 3917 125 3972 139 2120 144 2947 193 3823 228 3938 31 1461 233 1941 68 660 
10911 -0.05490760024456677 0.24043194598559986 0.6840192231018997 0 0 0 0.28 30 1802 137 1553 228 3939 233 1942 
10912 -0.3792763024676124 0.24362204442755972 0.6799992229846291 0 0 0 1.16 30 1803 139 2121 218 3446 
10913 0.09838191690367892 -0.3857358320752296 0.9048696772696423 0 0 0 0.5 30 1804 161 2090 216 3008 
10914 -0.004351709408397491 -0.29665926606822113 0.8981953101694514 0 0 0 0.35 23 3431 30 1805 34 2997 37 3551 45 1192 46 3987 55 2920 57 3747 59 2954 72 2546 86 3247 90 1152 94 3053 102 1905 116 3918 119 2082 125 3973 137 1554 140 3294 143 1990 144 2948 145 1882 149 2306 150 1692 151 4215 154 3254 161 2091 166 3114 173 2881 177 2608 180 3248 183 1876 186 1806 189 2727 191 2457 193 3824 202 2297 205 1774 210 1023 211 2888 212 2530 215 160 216 3009 218 3447 226 2211 228 3940 7 2311 132 189 139 2122 106 1727 117 604 
10915 -0.13153050638592212 -0.22594072861363645 1.0236784087622284 0 0 0 0.31 30 1806 37 3552 46 3988 57 3748 58 2152 59 2955 116 3919 125 3974 131 1585 140 3295 180 3249 186 1807 193 3825 167 1946 
10916 0.47483526327923165 -0.2618284161712212 0.9421841751964797 0 0 0 0.68 30 1807 144 2949 145 1883 37 3553 174 380 205 1775 
10917 -0.3123996820886514 -0.06860307517795317 0.84133170649846 0 0 0 0.3 23 3432 30 1808 34 2998 37 3554 45 1193 46 3989 57 3749 58 2153 94 3054 116 3920 119 2083 125 3975 131 1586 140 3296 144 2950 145 1884 150 1693 151 4216 153 1335 154 3255 161 2092 166 3115 173 2882 177 2609 180 3250 183 1877 186 1808 202 2298 205 1776 211 2889 212 2531 216 3010 218 3448 228 3941 233 1943 7 2312 191 2458 167 1947 8 1943 55 2921 174 381 
10918 0.050361711333670574 -0.139966358441493 0.8322450949476377 0 0 0 0.26 30 1809 205 1777 233 1944 7 2313 166 3116 
10919 0.26761723507504487 -0.15443989912757222 0.9167858449843393 0 0 0 0.23 30 1810 161 2093 205 1778 
10920 0.06317487779941527 -0.12800145359462295 0.8419197855317027 0 0 0 0.34 30 1811 139 2123 205 1779 7 2314 
10921 -0.0720885239258491 -0.09089622614756747 0.8343743326038825 0 0 0 0.64 30 1812 46 3990 55 2922 57 3750 59 2956 86 3248 94 3055 99 1732 116 3921 125 3976 144 2951 149 2307 151 4217 154 3256 161 2094 166 3117 178 1326 186 1809 212 2532 228 3942 7 2315 211 2890 31 1462 68 661 137 1555 
10922 -0.1477467372672008 -0.06907452052571143 0.844749892488846 0 0 0 0.34 23 3433 30 1813 55 2923 86 3249 90 1153 94 3056 99 1733 116 3922 140 3297 144 2952 145 1885 149 2308 154 3257 173 2883 177 2610 183 1878 193 3826 216 3011 228 3943 233 1945 131 1587 167 1948 8 1944 57 3751 59 2957 203 260 
10923 -0.12767222016896543 -0.03621784305675816 0.834639247085206 0 0 0 0.43 23 3434 30 1814 72 2547 94 3057 116 3923 139 2124 154 3258 171 1801 228 3944 18 1648 
10924 -0.35284424284924565 0.0005029858315093715 0.8248081103167242 0 0 0 0.25 30 1815 161 2095 216 3012 
10925 -0.3344932864166223 0.014154052437151671 0.8178527910488532 0 0 0 0.36 30 1816 154 3259 205 1780 
10926 -0.10807076064932118 -0.001234166228235105 0.8265300615806893 0 0 0 0.24 30 1817 46 3991 137 1556 139 2125 144 2953 161 2096 186 1810 205 1781 216 3013 228 3945 233 1946 7 2316 57 3752 149 2309 151 4218 183 1879 34 2999 94 3058 116 3924 125 3977 193 3827 68 662 
10927 -0.09848626256861029 0.0024192495539560412 0.829103771063165 0 0 0 0.1 30 1818 90 1154 161 2097 228 3946 
10928 -0.27850561317883876 0.025428684436309756 0.799665235023405 0 0 0 0.21 23 3435 30 1819 34 3000 37 3555 45 1194 55 2924 57 3753 58 2154 59 2958 72 2548 86 3250 94 3059 99 1734 102 1906 116 3925 125 3978 131 1588 139 2126 140 3298 143 1991 144 2954 149 2310 151 4219 153 1336 154 3260 161 2098 166 3118 171 1802 173 2884 177 2611 180 3251 183 1880 193 3828 202 2299 205 1782 210 1024 211 2891 212 2533 218 3449 225 622 228 3947 233 1947 46 3992 191 2459 18 1649 7 2317 167 1949 8 1945 24 1569 174 382 203 261 
10929 -0.288482520297482 0.04069707593806451 0.8270719674197067 0 0 0 0.25 30 1820 161 2099 205 1783 
10930 0.3436035969990104 -0.02384829390499909 0.834311997576832 0 0 0 0.17 30 1821 143 1992 191 2460 
10931 0.7915780370097935 -0.26813414448589495 0.09540085516557352 0 0 0 0.91 30 1822 55 2925 57 3754 8 1946 24 1570 31 1463 
10932 0.7682180614467218 -0.2626857931693921 0.10203958132521772 0 0 0 0.74 30 1823 57 3755 150 1694 8 1947 23 3436 24 1571 31 1464 106 1728 
10933 -0.14589562511108017 0.038084848416137365 0.8016375039965816 0 0 0 0.18 30 1824 137 1557 139 2127 161 2100 205 1784 
10934 0.7655358847378961 -0.23332731910694332 0.1359885256231888 0 0 0 0.72 30 1825 177 2612 189 2728 55 2926 106 1729 78 91 
10935 0.7347350031339817 -0.17798233607725758 0.28477077391508887 0 0 0 0.52 30 1826 55 2927 99 1735 78 92 80 67 191 2461 
10936 0.7009963151474184 -0.018799565279067496 0.7394890518834744 0 0 0 0.4 30 1827 72 2549 99 1736 119 2084 131 1589 139 2128 140 3299 144 2955 154 3261 166 3119 173 2885 193 3829 202 2300 212 2534 216 3014 228 3948 102 1907 106 1730 78 93 
10937 0.23857031614709895 0.05791333382263752 0.8041451129332512 0 0 0 0.43 30 1828 34 3001 140 3300 151 4220 173 2886 178 1327 180 3252 183 1881 24 1572 59 2959 99 1737 116 3926 177 2613 189 2729 202 2301 218 3450 228 3949 72 2550 106 1731 139 2129 143 1993 149 2311 226 2212 
10938 0.23218767523302025 0.06145094769244542 0.8083538767181874 0 0 0 0.73 23 3437 30 1829 55 2928 72 2551 99 1738 116 3927 140 3301 173 2887 180 3253 183 1882 205 1785 212 2535 226 2213 31 1465 216 3015 106 1732 230 381 233 1948 
10939 0.30228149901526813 0.060355784191235794 0.8085005907297207 0 0 0 0.39 30 1830 37 3556 46 3993 125 3979 150 1695 34 3002 122 811 178 1328 180 3254 7 2318 119 2085 139 2130 140 3302 143 1994 144 2956 145 1886 177 2614 193 3830 211 2892 216 3016 218 3451 228 3950 233 1949 31 1466 57 3756 94 3060 121 323 154 3262 226 2214 68 663 230 382 
10940 0.6984784384476524 -0.07031213363061217 0.4671799769108035 0 0 0 0.73 30 1831 137 1558 139 2131 150 1696 189 2730 191 2462 202 2302 24 1573 106 1733 180 3255 68 664 140 3303 171 1803 216 3017 
10941 -0.3332753114736331 0.12700899359527218 0.7985103871698896 0 0 0 0.21 30 1832 161 2101 205 1786 
10942 0.32468601022780946 0.0668888975756429 0.8075544448394129 0 0 0 0.5 34 3003 37 3557 57 3757 59 2960 72 2552 94 3061 99 1739 116 3928 119 2086 122 812 125 3980 145 1887 149 2312 150 1697 154 3263 166 3120 173 2888 178 1329 180 3256 189 2731 191 2463 202 2303 210 1025 216 3018 225 623 226 2215 228 3951 233 1950 7 2319 144 2957 211 2893 212 2536 106 1734 
10943 0.6947627401631553 0.04723522008997354 0.7826954130752655 0 0 0 0.43 30 1833 116 3929 154 3264 
10944 0.7525562574414202 -0.13010129354013245 0.19807957049406116 0 0 0 0.61 30 1834 57 3758 72 2553 140 3304 150 1698 
10945 0.7391617130405229 -0.11351458677583384 0.23930630678813886 0 0 0 0.25 30 1835 57 3759 191 2464 31 1467 99 1740 
10946 -0.18251707185764562 0.12647361063045326 0.7814417564859306 0 0 0 0.53 23 3438 30 1836 34 3004 37 3558 46 3994 55 2929 57 3760 59 2961 72 2554 90 1155 99 1741 102 1908 116 3930 125 3981 131 1590 143 1995 144 2958 151 4221 153 1337 161 2102 166 3121 171 1804 173 2889 177 2615 178 1330 180 3257 183 1883 186 1811 189 2732 191 2465 210 1026 212 2537 218 3452 225 624 226 2216 228 3952 233 1951 18 1650 7 2320 145 1888 154 3265 167 1950 68 665 140 3305 203 262 
10947 -0.38679674530120833 0.13895937791631563 0.7703416153988561 0 0 0 0.38 23 3439 30 1837 34 3005 37 3559 46 3995 58 2155 94 3062 102 1909 119 2087 125 3982 140 3306 151 4222 153 1338 154 3266 161 2103 166 3122 171 1805 173 2890 178 1331 180 3258 183 1884 186 1812 191 2466 193 3831 202 2304 205 1787 212 2538 216 3019 218 3453 226 2217 228 3953 18 1651 7 2321 167 1951 24 1574 
10948 -0.23718507537496347 0.14860380378143198 0.782100829288019 0 0 0 0.33 30 1838 58 2156 139 2132 161 2104 205 1788 
10949 0.8290216895148235 -0.14278073818252127 0.06644766693839127 0 0 0 0.17 30 1839 72 2555 177 2616 
10950 -0.16825870411138177 0.14060130294605855 0.7588242010961231 0 0 0 0.37 30 1840 34 3006 55 2930 57 3761 72 2556 90 1156 99 1742 102 1910 116 3931 119 2088 125 3983 131 1591 140 3307 144 2959 145 1889 149 2313 151 4223 154 3267 161 2105 173 2891 177 2617 178 1332 180 3259 193 3832 205 1789 212 2539 216 3020 218 3454 225 625 226 2218 228 3954 233 1952 7 2322 37 3560 46 3996 59 2962 189 2733 211 2894 167 1952 202 2305 8 1948 168 345 18 1652 203 263 186 1813 
10951 -0.0019724447858618615 0.12920655465617711 0.7417338378355791 0 0 0 0.17 30 1841 139 2133 151 4224 
10952 -0.17832598460972623 0.151068289220226 0.7558786565699877 0 0 0 0.66 30 1842 55 2931 72 2557 125 3984 137 1559 140 3308 153 1339 173 2892 177 2618 178 1333 180 3260 193 3833 202 2306 211 2895 218 3455 225 626 226 2219 228 3955 7 2323 233 1953 68 666 154 3268 
10953 -0.3334463935821107 0.16392590100745327 0.7612318594666859 0 0 0 0.77 23 3440 30 1843 34 3007 143 1996 144 2960 153 1340 173 2893 212 2540 218 3456 18 1653 171 1806 24 1575 58 2157 166 3123 228 3956 
10954 -0.41437009317055995 0.16251376890233135 0.6987327971229669 0 0 0 0.44 30 1844 137 1560 161 2106 216 3021 228 3957 
10955 0.865947529873117 0.02895337118876735 0.3638112464671559 0 0 0 0.98 30 1845 55 2932 57 3762 99 1743 
10956 0.7108454524952134 0.03343503470397053 0.34969476920920245 0 0 0 0.35 30 1846 55 2933 99 1744 189 2734 
10957 -0.1019966939440151 0.1945610677028811 0.7103750795273396 0 0 0 0.65 23 3441 30 1847 72 2558 99 1745 137 1561 143 1997 154 3269 173 2894 191 2467 193 3834 218 3457 102 1911 116 3932 125 3985 189 2735 7 2324 46 3997 233 1954 8 1949 24 1576 31 1468 121 324 145 1890 211 2896 212 2541 228 3958 106 1735 
10958 0.6774132198017383 0.1387715078478191 0.5404881582207793 0 0 0 0.36 30 1848 139 2134 144 2961 212 2542 
10959 0.23859954867558825 0.23290461907543172 0.7081399559031034 0 0 0 0.17 30 1849 55 2934 150 1699 228 3959 
10960 -0.07877315999771033 0.23845549869968857 0.694325160765904 0 0 0 0.46 30 1850 119 2089 189 2736 
10961 0.08678079231165241 0.2538760861565446 0.6893475947526815 0 0 0 0.45 30 1851 57 3763 139 2135 166 3124 68 667 211 2897 228 3960 
10962 -0.23079788030968157 -0.1036455469484894 0.8811991769348346 0 0 0 0.42 30 1852 58 2158 116 3933 167 1953 177 2619 
10963 0.09226247565830545 -0.09889355752163556 0.8167657825663815 0 0 0 0.42 30 1853 59 2963 121 325 143 1998 151 4225 
10964 -0.3631945531208563 -0.008491444098506959 0.7962271006775758 0 0 0 0.34 30 1854 161 2107 205 1790 
10965 -0.1406261778201001 -0.010303109144317996 0.829149434529367 0 0 0 0.23 30 1855 161 2108 205 1791 
10966 -0.3419414188049756 0.043855139887592 0.8272750006678496 0 0 0 0.15 30 1856 161 2109 205 1792 
10967 -0.25549826874980863 0.05129931971805011 0.8060859443437388 0 0 0 0.42 30 1857 149 2314 216 3022 
10968 0.7841169878602937 -0.28947746274705766 0.0012933773594481683 0 0 0 0.63 150 1700 189 2737 177 2620 23 3442 24 1577 31 1469 106 1736 78 94 
10969 0.7630054448545652 -0.21623821920317746 0.13001741855128576 0 0 0 0.74 30 1858 55 2935 57 3764 23 3443 24 1578 189 2738 106 1737 150 1701 78 95 
10970 -0.26306699079067225 0.09330759580284342 0.7736574215258502 0 0 0 0.42 30 1859 57 3765 137 1562 139 2136 205 1793 216 3023 7 2325 37 3561 149 2315 183 1885 228 3961 45 1195 174 383 
10971 0.7183418528700378 0.0150567371303155 0.7905760170163063 0 0 0 0.49 30 1860 154 3270 178 1334 216 3024 
10972 0.7131474501694337 -0.10026312877526673 0.36680722631341034 0 0 0 0.34 30 1861 55 2936 99 1746 
10973 0.777329900775393 -0.18580821279114026 0.047124614983146663 0 0 0 0.83 30 1862 57 3766 189 2739 31 1470 55 2937 106 1738 24 1579 78 96 168 346 
10974 -0.07005842772020636 0.11336299336056359 0.7639427941736074 0 0 0 0.72 30 1863 46 3998 57 3767 59 2964 119 2090 140 3309 143 1999 144 2962 191 2468 193 3835 210 1027 233 1955 18 1654 23 3444 72 2559 99 1747 102 1912 116 3934 121 326 177 2621 178 1335 189 2740 218 3458 225 627 7 2326 37 3562 94 3063 137 1563 205 1794 211 2898 34 3008 125 3986 149 2316 173 2895 180 3261 212 2543 139 2137 154 3271 31 1471 106 1739 68 668 161 2110 202 2307 24 1580 168 347 122 813 203 264 
10975 -0.07275495547606312 0.12135708496740245 0.7701134407319571 0 0 0 0.46 30 1864 34 3009 37 3563 46 3999 55 2938 57 3768 59 2965 72 2560 90 1157 94 3064 102 1913 116 3935 119 2091 140 3310 144 2963 149 2317 154 3272 161 2111 171 1807 173 2896 177 2622 178 1336 186 1814 189 2741 191 2469 193 3836 202 2308 205 1795 211 2899 216 3025 218 3459 226 2220 228 3962 233 1956 18 1655 23 3445 99 1748 121 327 125 3987 145 1891 151 4226 166 3125 183 1886 212 2544 225 628 7 2327 139 2138 45 1196 122 814 137 1564 8 1950 24 1581 210 1028 31 1472 143 2000 203 265 230 383 
10976 -0.22035577090382596 0.14331067255169305 0.8004326337393124 0 0 0 0.22 30 1865 139 2139 161 2112 
10977 0.7092360054813381 -0.03700013291368425 0.41518906532537025 0 0 0 0.06 30 1866 55 2939 57 3769 
10978 -0.10517254502036912 0.13435420830957684 0.7767413122502389 0 0 0 0.61 23 3446 30 1867 99 1749 122 815 139 2140 140 3311 161 2113 177 2623 180 3262 193 3837 216 3026 228 3963 233 1957 7 2328 31 1473 68 669 
10979 0.026495061926630696 0.1128807952482504 0.7269833856959236 0 0 0 0.57 30 1868 34 3010 37 3564 46 4000 55 2940 57 3770 59 2966 72 2561 99 1750 102 1914 116 3936 119 2092 125 3988 131 1592 137 1565 139 2141 140 3312 143 2001 144 2964 145 1892 151 4227 166 3126 173 2897 177 2624 180 3263 186 1815 189 2742 191 2470 193 3838 202 2309 211 2900 212 2545 216 3027 218 3460 226 2221 228 3964 233 1958 7 2329 122 816 149 2318 183 1887 8 1951 24 1582 31 1474 94 3065 23 3447 106 1740 171 1808 203 266 210 1029 
10980 0.7783567026975492 -0.12460609829397344 0.10889610203664316 0 0 0 0.84 30 1869 55 2941 140 3313 23 3448 24 1583 
10981 0.7316922127484021 0.0325819716952235 0.3032799366448168 0 0 0 0.27 30 1870 57 3771 177 2625 
10982 -0.2832519771717192 0.25366252028002134 0.7147037213694187 0 0 0 0.46 30 1871 119 2093 186 1816 228 3965 
10983 -0.23487522924822177 -0.21367681607311095 1.0179453000666343 0 0 0 0.79 30 1872 58 2159 145 1893 46 4001 167 1954 193 3839 161 2114 205 1796 
10984 -0.10810200321960374 -0.04559854586763317 0.8408666959471752 0 0 0 0.5 30 1873 57 3772 59 2967 86 3251 94 3066 99 1751 116 3937 119 2094 125 3989 139 2142 143 2002 144 2965 149 2319 154 3273 166 3127 189 2743 191 2471 202 2310 210 1030 211 2901 212 2546 216 3028 225 629 228 3966 7 2330 183 1888 31 1475 55 2942 
10985 -0.33482803871949074 0.020907370599205628 0.8098927986465615 0 0 0 0.46 30 1874 119 2095 137 1566 228 3967 7 2331 
10986 0.7022665811005604 -0.07193113653436374 0.7453124903315654 0 0 0 0.5 30 1875 57 3773 59 2968 86 3252 99 1752 131 1593 137 1567 139 2143 140 3314 144 2966 150 1702 154 3274 166 3128 171 1809 173 2898 178 1337 180 3264 189 2744 191 2472 202 2311 211 2902 212 2547 216 3029 225 630 228 3968 233 1959 24 1584 31 1476 177 2626 106 1741 210 1031 68 670 174 384 55 2943 102 1915 133 494 
10987 0.7057230084878794 -0.12209119512115597 0.46258768079724255 0 0 0 0.46 30 1876 57 3774 137 1568 150 1703 24 1585 31 1477 171 1810 106 1742 
10988 0.876899825851487 -0.21796169601678575 0.029603675623232375 0 0 0 0.78 30 1877 55 2944 57 3775 
10989 0.8719085501898866 -0.2235880220149416 -0.022096252423112608 0 0 0 1.12 30 1878 55 2945 57 3776 
10990 -0.3323428751234569 0.12298887483860957 0.7893196744074409 0 0 0 0.37 30 1879 119 2096 205 1797 216 3030 228 3969 233 1960 
10991 0.6986421516401428 0.05006424251010734 0.7659242068797649 0 0 0 0.36 30 1880 116 3938 154 3275 
10992 0.7061249248015946 -0.012106715181204366 0.40527036830963864 0 0 0 0.27 30 1881 57 3777 99 1753 
10993 0.23949038583009327 0.17749068982076388 0.7171453381390084 0 0 0 0.6 46 4002 72 2562 119 2097 125 3990 171 1811 186 1817 189 2745 
10994 -0.32663596395402217 0.23782780193121572 0.6993267044509155 0 0 0 0.74 30 1882 119 2098 139 2144 
10995 -0.25233656423814643 -0.021195215043437323 0.826258886501271 0 0 0 0.54 30 1883 57 3778 94 3067 116 3939 132 190 139 2145 143 2003 144 2967 154 3276 161 2115 178 1338 216 3031 228 3970 233 1961 7 2332 149 2320 34 3011 119 2099 125 3991 151 4228 166 3129 167 1955 189 2746 8 1952 55 2946 58 2160 115 183 137 1569 145 1894 205 1798 168 348 59 2969 133 495 
10996 -0.32314926744162503 0.0005114454243860809 0.8153919377408958 0 0 0 0.23 55 2947 57 3779 149 2321 161 2116 205 1799 210 1032 174 385 216 3032 
10997 0.4854809508147008 0.027758435532745766 0.7965197679189758 0 0 0 0.09 30 1884 116 3940 154 3277 
10998 -0.38569245523678203 0.12137876695636002 0.7713213874140255 0 0 0 0.78 30 1885 34 3012 57 3780 59 2970 102 1916 116 3941 119 2100 125 3992 131 1594 143 2004 144 2968 149 2322 153 1341 154 3278 171 1812 173 2899 180 3265 193 3840 205 1800 211 2903 218 3461 225 631 226 2222 228 3971 18 1656 7 2333 8 1953 24 1586 133 496 168 349 203 267 
10999 0.38257105072588343 0.12277114499595587 0.7810769938796587 0 0 0 0.69 30 1886 46 4003 186 1818 
11000 0.6966432801851654 0.1612716252229617 0.6013097950077901 0 0 0 0.44 30 1887 119 2101 140 3315 150 1704 216 3033 228 3972 137 1570 31 1478 
11001 0.7033957330424562 0.13150419086383658 0.4750648266021191 0 0 0 0.74 30 1888 119 2102 140 3316 150 1705 177 2627 216 3034 24 1587 191 2473 80 68 137 1571 
11002 -0.4013065277463834 -0.036751628192957776 0.8279662585975185 0 0 0 0.9 30 1889 150 1706 210 1033 
11003 0.6746254956933848 -0.0181799945912522 0.7392853056621482 0 0 0 0.16 30 1890 116 3942 154 3279 
11004 0.716392672937734 0.008307173864798996 0.33568570712185786 0 0 0 0.94 30 1891 99 1754 191 2474 
11005 -0.14186890017898826 0.12063577034524517 0.7806431524736377 0 0 0 0.35 30 1892 139 2146 205 1801 233 1962 
