# 3D point list with one line of data per point:
#   POINT3D_ID, X, Y, Z, R, G, B, ERROR, TRACK[] as (IMAGE_ID, POINT2D_IDX)
# Number of points: 375, mean track length: 8.22
398 -0.3628221015283385 -0.005421622608604067 1.0422491952647046 0 0 0 0.48 0 398 33 29 61 159 157 67 158 56 
399 -0.3569110863948299 -0.004991428390953797 1.041498711383457 0 0 0 0.22 0 399 61 160 158 57 
400 -0.07768786586364962 -0.00588531648679559 1.1334599218961197 0 0 0 0.14 0 400 3 78 69 52 96 43 120 96 
401 -0.029071986730590024 -0.005686832518401836 1.1594804056094128 0 0 0 0.44 0 401 15 62 50 130 69 53 120 97 152 129 157 68 158 58 
402 -0.028777365945091508 -0.005918368742384226 1.1596001864986798 0 0 0 0.4 0 402 15 63 50 131 53 97 69 54 120 98 152 130 158 59 172 78 
403 -0.37174983927862343 -0.004222932323142531 1.0344422926641628 0 0 0 0.26 0 403 3 79 25 24 26 13 148 16 176 59 
404 -0.3214219697942332 -0.004517879711852948 1.058036314102608 0 0 0 0.1 0 404 17 129 157 69 
405 -0.12171576478585538 -0.005137625614809381 1.1164886704795367 0 0 0 0.27 0 405 43 32 92 36 120 99 
406 0.1220631962969395 -0.005641788200460389 1.2224361260124215 0 0 0 0.32 0 406 15 64 50 132 120 100 152 131 
407 0.13550202236988731 -0.006178113706947346 1.2384350191750704 0 0 0 0.39 0 407 14 27 77 58 92 37 118 118 120 101 152 132 
408 -0.4743526597095348 -9.878791318641467e-06 1.0058108304959996 0 0 0 0.36 0 408 25 25 73 22 96 44 111 40 
409 -0.30767880246796503 -0.001123076156363351 1.0516718590256737 0 0 0 0.42 0 409 3 80 43 33 53 98 147 66 157 70 158 60 172 79 176 60 
410 0.13962418157710535 -0.002447538933849214 1.2408486616900383 0 0 0 0.36 0 410 53 99 69 55 92 38 103 26 128 61 152 133 
411 -0.35738732471793766 0.002167811670604626 1.0337516705712508 0 0 0 0.21 0 411 61 161 157 71 
412 -0.35738732471793766 0.002167811670604626 1.0337516705712508 0 0 0 0.21 0 412 61 162 157 72 
413 -0.12089980521390346 0.003349516076684356 1.1272148050188597 0 0 0 0.32 0 413 3 81 61 163 118 119 120 102 
414 -0.4862368136766641 0.004551463984840092 1.0018036508998969 0 0 0 0.42 0 414 11 99 17 130 26 14 27 48 50 133 71 48 77 59 118 120 164 37 176 61 
415 -0.36356446042267665 0.004200582579022582 0.6282631937230749 0 0 0 0.14 0 415 17 131 118 121 
416 -0.03431664417314515 0.005970436793857259 1.1589730746807434 0 0 0 0.06 0 416 11 100 17 132 32 21 
417 0.21080775328230617 0.00991756030955064 1.3208191810840488 0 0 0 0.26 0 417 89 47 103 27 120 103 147 67 
418 0.10727858588798593 0.010183414088725267 1.2172940591425647 0 0 0 0.32 0 418 3 82 17 133 120 104 
419 -0.4376898886845239 0.011737644318231334 1.017393517819196 0 0 0 0.52 0 419 41 15 50 134 111 41 162 12 
420 -0.45381417479574276 0.011760181150666542 1.0081878899025665 0 0 0 0.54 0 420 2 56 25 26 26 15 61 164 71 49 73 23 77 60 111 42 159 18 164 38 
421 0.1029883817216459 0.012060126888055186 1.2094858744987793 0 0 0 0.3 0 421 3 83 4 68 11 101 12 16 17 134 53 100 54 26 71 50 73 24 97 40 176 62 
422 0.11093493363895508 0.012463878380133579 1.2123025113169335 0 0 0 0.17 0 422 69 56 120 105 128 62 176 63 
423 -0.4865609231567085 0.011644626908874226 1.001073734110909 0 0 0 0.47 0 423 9 31 17 135 92 39 118 122 164 39 176 64 
424 -0.31454390079313793 0.013785343172825235 1.0500649251314158 0 0 0 0.23 0 424 2 57 32 22 41 16 43 34 50 135 53 101 61 165 96 45 111 43 157 73 
425 0.2154932036594559 0.0165127117677221 1.323556397931988 0 0 0 0.44 0 425 44 49 50 136 61 166 69 57 120 106 152 134 
426 -0.4258523188815692 0.016200820934269944 1.0203444240325255 0 0 0 0.24 0 426 4 69 11 102 17 136 50 137 61 167 71 51 111 44 157 74 
427 0.19381889002000297 0.018120467700689754 1.2995348644039453 0 0 0 0.41 0 427 14 28 15 65 17 137 103 28 147 68 
428 -0.309881383924144 0.01690973262609857 1.0482028243240862 0 0 0 0.47 0 428 3 84 9 32 61 168 89 48 157 75 172 80 
429 0.13214590349932073 0.018004596764101197 1.225805590769247 0 0 0 0.37 0 429 3 85 9 33 14 29 17 138 33 30 40 18 43 35 44 50 50 138 54 27 69 58 71 52 73 25 77 61 89 49 118 123 120 107 128 63 129 4 147 69 
430 0.13234305014264608 0.024539643053386982 1.228662679772616 0 0 0 0.21 0 430 3 86 14 30 147 70 
431 -0.40261484875749665 0.023884230588995914 1.025520027727362 0 0 0 0.58 0 431 33 31 44 51 50 139 
432 -0.4516773640276112 0.024908306881559032 1.0087132806064503 0 0 0 0.34 0 432 9 34 32 23 50 140 53 102 73 26 92 40 111 45 118 124 162 13 164 40 172 81 
433 0.12198836912637517 0.027858301978329728 1.2253955923795754 0 0 0 0.62 0 433 14 31 53 103 89 50 128 64 164 41 
434 -0.3473697730793538 0.026045783412502962 1.0322801736268847 0 0 0 0.47 0 434 17 139 50 141 111 46 
435 -0.36372669425580434 0.027163839850962008 1.0326760411973048 0 0 0 0.39 0 435 2 58 3 87 43 36 50 142 53 104 61 169 96 46 158 61 172 82 
436 -0.2914509266868893 0.027859273892940045 1.0546822542787848 0 0 0 0.28 0 436 2 59 44 52 111 47 
437 -0.408711364298024 0.02929849183696891 1.0186445942073934 0 0 0 0.3 0 437 2 60 50 143 96 47 111 48 
438 -0.4116871769860447 0.029574836205844068 1.0183683012857938 0 0 0 0.17 0 438 27 49 111 49 162 14 164 42 
439 -0.3094977088045806 0.030490484019878063 1.0455620826464402 0 0 0 0.1 0 439 3 88 158 62 
440 -0.34247157004303225 0.03052831384122241 1.0357262185920428 0 0 0 0.19 0 440 3 89 11 103 103 29 172 83 
441 -0.3392065399379077 0.03178441404187367 1.0386931818439946 0 0 0 0.37 0 441 3 90 44 53 50 144 61 170 92 41 97 41 111 50 157 76 158 63 162 15 172 84 
442 0.10685999838511132 0.0353604127616666 1.2089122476196568 0 0 0 0.66 0 442 4 70 27 50 33 32 40 19 44 54 54 28 61 171 63 12 69 59 73 27 77 62 111 51 118 125 120 108 164 43 
443 -0.307550516887385 0.03248375011383287 1.0488183224098613 0 0 0 0.54 0 443 26 16 61 172 65 2 118 126 128 65 158 64 162 16 176 65 
444 -0.3936698769204844 0.033250841539474996 1.0234443342756394 0 0 0 0.25 0 444 4 71 17 140 50 145 61 173 111 52 
445 0.10624263049126333 0.04041673686609115 1.2052641990702335 0 0 0 0.46 0 445 12 17 118 127 
446 0.11519778131507549 0.04063006256235686 1.2149737631148971 0 0 0 0.33 0 446 9 35 50 146 
447 0.14107743533898792 0.04710370682216168 1.235390292992423 0 0 0 0.41 0 447 3 91 9 36 11 104 12 18 27 51 43 37 44 55 53 105 61 174 69 60 97 42 111 53 118 128 120 109 147 71 
448 0.13677102789109033 0.04942800768607609 1.2340583171655122 0 0 0 0.21 0 448 14 32 17 141 50 147 53 106 61 175 69 61 
449 0.13661494663397886 0.04938058866994751 1.2325627597385418 0 0 0 0.16 0 449 17 142 50 148 61 176 97 43 
450 0.12161701713238432 0.049594505463808516 1.2213336207858567 0 0 0 0.35 0 450 9 37 17 143 50 149 118 129 120 110 129 5 147 72 162 17 
451 0.1430782444172223 0.05146249760582952 1.2366626623052952 0 0 0 0.3 0 451 43 38 120 111 
452 0.13207208050881628 0.052363603372418376 1.2233031684193811 0 0 0 0.33 0 452 3 92 4 72 11 105 27 52 36 8 43 39 69 62 85 10 118 130 129 6 147 73 
453 -0.4465681320694112 -0.2487158406084655 0.8421266811526498 0 0 0 0.53 0 453 3 93 17 144 61 177 96 48 157 77 172 85 
454 -0.3520977248820193 -0.16898753991100934 0.601640368963696 0 0 0 0.42 0 454 53 107 61 178 118 131 
455 -0.3331869982738363 -0.14462045617621913 0.5320073959540813 0 0 0 0.55 0 455 12 19 71 53 96 49 
456 0.4645445518418136 -0.2574476541649651 0.9457161899041875 0 0 0 0.48 0 456 129 7 138 5 
457 -0.35876944020418544 -0.1524938163086548 0.608027861669614 0 0 0 0.19 0 457 17 145 172 86 
458 -0.4480347599045329 -0.24024849288742864 1.0725052008973968 0 0 0 0.14 0 458 53 108 138 6 
459 -0.26778467540602885 -0.2414172834958901 1.0882640639493086 0 0 0 0.43 0 459 4 73 44 56 65 3 
460 -0.07510039716295282 -0.24083910905720382 1.1645498345415901 0 0 0 0.58 0 460 17 146 81 5 85 11 158 65 172 87 
461 -0.14181036741828543 -0.2299030512003415 1.1339177194204502 0 0 0 0.11 0 461 69 63 146 28 172 88 
462 -0.11041644225477555 -0.23857112229153923 1.2008064752067964 0 0 0 0.25 0 462 14 33 17 147 53 109 61 179 96 50 97 44 118 132 152 135 157 78 172 89 
463 -0.07858746151365138 -0.22775517988734312 1.1620447444859539 0 0 0 0.31 0 463 9 38 15 66 17 148 44 57 50 150 53 110 61 180 69 64 77 63 97 45 118 133 146 29 152 136 157 79 158 66 172 90 
464 -0.07861807394660718 -0.22777276685067654 1.1619952193003293 0 0 0 0.39 0 464 9 39 11 106 15 67 17 149 32 24 44 58 50 151 53 111 61 181 69 65 96 51 97 46 118 134 146 30 147 74 152 137 157 80 158 67 172 91 176 66 
465 -0.48117695890873435 -0.2060824345431959 1.054916540935371 0 0 0 0.24 0 465 50 152 118 135 152 138 
466 -0.4106158705988367 -0.20505817027722087 1.0509914493707135 0 0 0 0.56 0 466 50 153 152 139 
467 -0.43134527558611524 -0.20126927986780055 1.0413106828189256 0 0 0 0.22 0 467 3 94 4 74 11 107 12 20 27 53 50 154 53 112 61 182 71 54 96 52 97 47 118 136 128 66 152 140 
468 -0.07497181635337839 -0.22331386227704583 1.1615271680611294 0 0 0 0.26 0 468 2 61 3 95 14 34 15 68 17 150 27 54 50 155 53 113 69 66 89 51 103 30 118 137 138 7 152 141 157 81 
469 -0.07532245023347846 -0.2235031592002612 1.1621264424925934 0 0 0 0.45 0 469 2 62 27 55 32 25 50 156 69 67 89 52 103 31 118 138 146 31 176 67 
470 0.48960933669082773 -0.17185868951386837 0.8952002948032571 0 0 0 0.51 0 470 120 112 129 8 
471 -0.4292362229665782 -0.19769656741102123 1.0429827955482052 0 0 0 0.32 0 471 3 96 4 75 17 151 41 17 50 157 64 4 67 20 118 139 152 142 157 82 172 92 
472 -0.3413885740908133 -0.10203416584864969 0.557504846656388 0 0 0 0.1 0 472 61 183 118 140 
473 0.5060502345830367 -0.1700583846951661 0.9078696242100684 0 0 0 0.57 0 473 69 68 89 53 120 113 147 75 
474 0.5053872206341977 -0.1696049980458022 0.9056520395001355 0 0 0 0.35 0 474 81 6 89 54 120 114 138 8 147 76 
475 -0.5189610004860842 -0.18890525589783508 1.0221277842356475 0 0 0 0.27 0 475 3 97 4 76 17 152 50 158 53 114 118 141 138 9 157 83 
476 -0.32604502407524977 -0.19678816607128252 1.070105679022421 0 0 0 0.37 0 476 25 27 43 40 44 59 53 115 61 184 71 55 96 53 152 143 162 18 176 68 
477 -0.320268838897515 -0.19660851833392365 1.0708940122142871 0 0 0 0.33 0 477 2 63 3 98 11 108 50 159 61 185 97 48 147 77 152 144 157 84 176 69 
478 -0.43136322071991384 -0.1901656188962206 1.0440860001441636 0 0 0 0.2 0 478 2 64 3 99 4 77 11 109 17 153 33 33 50 160 53 116 96 54 111 54 118 142 152 145 157 85 162 19 
479 -0.03716636850559484 -0.21549715160250388 1.1820597381134335 0 0 0 0.64 0 479 3 100 61 186 103 32 118 143 
480 0.41515764651956044 -0.17332322005984763 0.943767060873438 0 0 0 0.46 0 480 14 35 81 7 147 78 
481 -0.3435754043156994 -0.19327486249035894 1.0658390282676287 0 0 0 0.41 0 481 3 101 11 110 25 28 26 17 27 56 33 34 41 18 61 187 89 55 97 49 128 67 152 146 162 20 
482 -0.41021642309977874 -0.18960817357228488 1.050606941282107 0 0 0 0.3 0 482 27 57 118 144 128 68 
483 -0.3226036459835425 -0.1919795184337749 1.0692385802066715 0 0 0 0.16 0 483 2 65 50 161 61 188 63 13 81 8 96 55 157 86 185 9 
484 -0.43494963783196666 -0.18628622401205963 1.0428763262709644 0 0 0 0.54 0 484 26 18 53 117 67 21 118 145 128 69 157 87 176 70 
485 -0.2863251920453011 -0.19619862251714848 1.1079574782839334 0 0 0 0.34 0 485 118 146 147 79 
486 -0.41665496741629526 -0.1331083367895898 0.7614937859453458 0 0 0 0.18 0 486 157 88 172 93 
487 -0.5188564533004889 -0.1803921024125978 1.0217466457168627 0 0 0 0.22 0 487 17 154 25 29 61 189 118 147 
488 -0.44084638539584803 -0.18179630071163524 1.0406922938192569 0 0 0 0.27 0 488 2 66 17 155 50 162 61 190 118 148 152 147 
489 -0.4326746172229677 -0.1810890587305325 1.0435374237495971 0 0 0 0.23 0 489 4 78 17 156 26 19 53 118 71 56 97 50 111 55 118 149 152 148 157 89 
490 -0.43226178301648865 -0.1808494055046321 1.042854162111901 0 0 0 0.34 0 490 4 79 26 20 33 35 50 163 71 57 96 56 118 150 
491 -0.49385094254998135 -0.1775520430084752 1.0356481276551965 0 0 0 0.16 0 491 41 19 50 164 
492 -0.12051768334998436 -0.19256645323256757 1.1259816350926293 0 0 0 1.33 0 492 15 69 25 30 103 33 129 9 162 21 
493 -0.5127427517293751 -0.1746274873220333 1.0225771632437022 0 0 0 0.36 0 493 2 67 3 102 4 80 12 21 17 157 25 31 27 58 32 26 41 20 43 41 50 165 53 119 73 28 96 57 103 34 111 56 118 151 138 10 152 149 157 90 172 94 
494 -0.07114972670443827 -0.19521824283269754 1.1586312425981098 0 0 0 0.59 0 494 11 111 15 70 54 29 61 191 69 69 73 29 81 9 97 51 120 115 147 80 152 150 
495 0.09111210613386612 -0.21740315613452446 1.3107334202580083 0 0 0 0.31 0 495 14 36 17 158 53 120 61 192 118 152 172 95 
496 0.0911255875121093 -0.21726023572386022 1.3107769757074512 0 0 0 0.33 0 496 2 68 14 37 15 71 17 159 61 193 118 153 172 96 
497 0.41698171712620147 -0.15602688530941353 0.9379357373315141 0 0 0 0.14 0 497 69 70 120 116 
498 -0.05865662956198474 -0.191636394897317 1.1729539913686573 0 0 0 0.65 0 498 11 112 17 160 73 30 120 117 
499 -0.012440630171756737 -0.19304278892180576 1.1882174772721035 0 0 0 0.73 0 499 2 69 15 72 50 166 69 71 71 58 97 52 118 154 120 118 147 81 152 151 
500 -0.012398269153767471 -0.19407896058357957 1.1926395310413724 0 0 0 0.6 0 500 61 194 120 119 147 82 
501 0.027890587167287744 -0.19954375508718133 1.226693733178621 0 0 0 0.23 0 501 61 195 97 53 120 120 
502 0.41449913992720666 -0.1556841815632651 0.9496138053100501 0 0 0 0.16 0 502 69 72 120 121 
503 -0.22738135196476897 -0.17505105251506892 1.091984017061703 0 0 0 0.97 0 503 15 73 25 32 40 20 127 7 
504 -0.02570855119805731 -0.18696612760999948 1.1788564082918411 0 0 0 0.2 0 504 2 70 11 113 50 167 54 30 69 73 71 59 73 31 77 64 118 155 120 122 147 83 
505 -0.00852808566159612 -0.1889089830444101 1.198191761745717 0 0 0 0.61 0 505 50 168 69 74 97 54 120 123 152 152 
506 0.03696251032716061 -0.19087208800568833 1.2129062371665598 0 0 0 0.55 0 506 50 169 118 156 
507 0.007241541094870609 -0.19130301562886248 1.218485250497761 0 0 0 0.31 0 507 50 170 69 75 118 157 120 124 147 84 152 153 176 71 
508 0.04662068366900056 -0.18986862750044914 1.210828884133515 0 0 0 0.29 0 508 4 81 11 114 61 196 118 158 
509 0.0678137966787117 -0.1888339336289872 1.2190579154211878 0 0 0 0.12 0 509 15 74 61 197 
510 -0.5066246245502768 -0.15712822116244723 1.0240149833464822 0 0 0 0.61 0 510 12 22 17 161 53 121 81 10 128 70 172 97 
511 0.09528492774038179 -0.19407326823692514 1.2628664028619163 0 0 0 0.49 0 511 36 9 50 171 97 55 147 85 152 154 
512 -0.11988665244821309 -0.1729880750931448 1.137779835543572 0 0 0 0.59 0 512 2 71 3 103 4 82 11 115 14 38 15 75 17 162 19 12 25 33 26 21 27 59 33 36 38 9 44 60 50 172 53 122 60 9 63 14 69 76 73 32 77 65 85 12 89 56 96 58 97 56 111 57 118 159 120 125 126 9 127 8 146 32 147 86 148 17 152 155 157 91 158 68 159 19 164 44 172 98 185 10 
513 -0.4858479508711739 -0.15504671410226611 1.0228185350305719 0 0 0 0.22 0 513 11 116 12 23 33 37 43 42 53 123 61 198 157 92 
514 0.05040885663626593 -0.18439719131070947 1.2127305950211105 0 0 0 0.21 0 514 11 117 15 76 50 173 120 126 147 87 
515 -0.20486114932096883 -0.16416857679142763 1.101302245617601 0 0 0 0.6 0 515 2 72 3 104 4 83 26 22 54 31 63 15 89 57 146 33 147 88 157 93 
516 0.08769177932274393 -0.18632092224876862 1.2432512460810405 0 0 0 0.62 0 516 50 174 53 124 61 199 69 77 81 11 118 160 120 127 152 156 
517 -0.25216126560308194 -0.15907527486221867 1.0834829627412623 0 0 0 0.32 0 517 2 73 3 105 4 84 9 40 11 118 12 24 16 18 17 163 19 13 25 34 27 60 32 27 33 38 36 10 38 10 40 21 41 21 43 43 44 61 50 175 53 125 61 200 63 16 64 5 67 22 71 60 77 66 85 13 89 58 92 42 96 59 97 57 118 161 126 10 128 71 129 10 146 34 147 89 148 18 152 157 157 94 158 69 159 20 162 22 164 45 172 99 176 72 185 11 
518 -0.015051318352294844 -0.1746544137482183 1.1827364152129942 0 0 0 0.26 0 518 2 74 11 119 44 62 69 78 120 128 152 158 164 46 
519 0.04065495587949833 -0.17794708300136364 1.2064611989317244 0 0 0 0.41 0 519 2 75 11 120 15 77 25 35 27 61 50 176 67 23 71 61 73 33 81 12 96 60 97 58 111 58 118 162 120 129 126 11 128 72 147 90 164 47 
520 0.07374957883577571 -0.17662793998698986 1.2189806251507993 0 0 0 0.33 0 520 3 106 15 78 33 39 50 177 61 201 67 24 73 34 81 13 89 59 126 12 147 91 152 159 
521 -0.2247690621873338 -0.15596075835761014 1.0936716265595767 0 0 0 0.34 0 521 2 76 3 107 4 85 11 121 15 79 16 19 17 164 26 23 27 62 33 40 38 11 44 63 50 178 54 32 61 202 63 17 71 62 111 59 118 163 127 9 146 35 147 92 148 19 152 160 157 95 158 70 159 21 164 48 
522 0.03889243071293878 -0.17235207264308663 1.2084005762649348 0 0 0 0.15 0 522 25 36 50 179 152 161 
523 -0.4868339237541493 -0.141945996314179 1.0164186745137365 0 0 0 0.26 0 523 61 203 157 96 
524 -0.48862839413303266 -0.142620700001835 1.0203884456152186 0 0 0 0.33 0 524 11 122 17 165 41 22 50 180 53 126 61 204 138 11 152 162 157 97 172 100 
525 0.11314721423804046 -0.172434818084045 1.240596082432632 0 0 0 0.56 0 525 14 39 17 166 77 67 128 73 
526 -0.4576680285821582 -0.1408299180650474 1.0279899435139985 0 0 0 0.22 0 526 71 63 103 35 
527 -0.44221269180484835 -0.14096759386698873 1.0310681706361886 0 0 0 0.2 0 527 2 77 11 123 17 167 50 181 157 98 172 101 
528 0.12618512643317986 -0.1716643660397149 1.245504035337344 0 0 0 0.43 0 528 3 108 4 86 11 124 14 40 15 80 17 168 54 33 67 25 69 79 77 68 97 59 103 36 111 60 128 74 152 163 158 71 172 102 
529 -0.49023634898398843 -0.13790700411297724 1.0208914362389265 0 0 0 0.28 0 529 2 78 3 109 4 87 17 169 25 37 27 63 43 44 50 182 61 205 97 60 118 164 
530 -0.42301186842946015 -0.13975955916163926 1.03618175636043 0 0 0 0.2 0 530 2 79 3 110 17 170 41 23 61 206 118 165 
531 0.41411258690006164 -0.13125233154430904 0.9685717926563886 0 0 0 0.07 0 531 69 80 120 130 
532 -0.5043197606937354 -0.1331024058496239 1.019530314909906 0 0 0 0.22 0 532 4 88 17 171 97 61 157 99 
533 -0.4784030884333467 -0.1336935540411193 1.024618249425959 0 0 0 0.38 0 533 61 207 81 14 96 61 118 166 
534 0.1226801252034554 -0.16371333392223975 1.2532425483436858 0 0 0 0.66 0 534 14 41 97 62 120 131 
535 -0.4073774242107461 -0.131999027882985 1.0380683973131108 0 0 0 0.18 0 535 61 208 157 100 
536 -0.2733600272162401 -0.13642543585871644 1.0754856771718746 0 0 0 0.27 0 536 3 111 4 89 17 172 50 183 61 209 71 64 81 15 118 167 157 101 158 72 
537 0.06369201837237441 -0.15458543337640343 1.211499570914471 0 0 0 0.16 0 537 69 81 120 132 
538 0.06381280250836086 -0.15529819826175245 1.2184856746784694 0 0 0 0.13 0 538 120 133 129 11 
539 -0.25293030551677353 -0.13580957492520812 1.0774818559721875 0 0 0 0.14 0 539 147 93 172 103 
540 -0.3705947177673536 -0.1306635238937748 1.0420566303934355 0 0 0 0.11 0 540 61 210 118 168 
541 -0.24228965493638985 -0.13552752370868568 1.0841982907664118 0 0 0 0.2 0 541 2 80 16 20 61 211 89 60 152 164 172 104 
542 -0.434667879307921 -0.09775291142833706 0.8046648191142654 0 0 0 0.29 0 542 53 127 157 102 
543 -0.2129549191521903 -0.1344324203924236 1.096459724402439 0 0 0 0.26 0 543 2 81 11 125 27 64 111 61 120 134 147 94 152 165 158 73 164 49 
544 -0.3746618419711399 -0.078321148807073 0.6586500508761589 0 0 0 0.5 0 544 53 128 61 212 118 169 
545 -0.30092303805938647 -0.1297565333202939 1.07779735105959 0 0 0 0.09 0 545 3 112 50 184 
546 0.3838349426744259 -0.12338402379697676 1.010587575823666 0 0 0 0.02 0 546 69 82 120 135 
547 0.38887618941390123 -0.12180340077926176 1.00351895618521 0 0 0 0.08 0 547 69 83 120 136 
548 -0.2582768118768312 -0.12835889534567194 1.0766488981692677 0 0 0 0.31 0 548 3 113 4 90 50 185 67 26 152 166 157 103 158 74 176 73 
549 -0.0795554781583995 -0.13659561864025171 1.1501084918415314 0 0 0 0.31 0 549 3 114 14 42 19 14 41 24 43 45 60 10 81 16 111 62 120 137 138 12 164 50 172 105 
550 -0.1648024589402957 -0.13232961427054482 1.1158809056461005 0 0 0 0.25 0 550 4 91 11 126 16 21 17 173 50 186 69 84 77 69 97 63 118 170 128 75 146 36 176 74 
551 -0.16479912346924633 -0.1324870110691625 1.1168960391007305 0 0 0 0.31 0 551 16 22 50 187 69 85 118 171 120 138 152 167 157 104 176 75 
552 -0.14766351056686414 -0.13286087852292747 1.1216340921553913 0 0 0 0.34 0 552 2 82 4 92 11 127 16 23 25 38 27 65 38 12 44 64 61 213 73 35 89 61 118 172 147 95 152 168 157 105 
553 0.477086385053583 -0.09951686198629474 0.829347816303353 0 0 0 0.26 0 553 120 139 147 96 
554 -0.16007188702133215 -0.1322736562304429 1.1236614225807051 0 0 0 0.16 0 554 11 128 147 97 172 106 
555 -0.15247080505205624 -0.13177832044264448 1.1217797553433622 0 0 0 0.25 0 555 2 83 3 115 11 129 15 81 50 188 61 214 120 140 152 169 158 75 
556 -0.3371053907464234 -0.12229513416772833 1.0599988402417941 0 0 0 0.1 0 556 44 65 157 106 
557 -0.12857411199343785 -0.13084800065940094 1.1339712466419143 0 0 0 0.21 0 557 11 130 12 25 73 36 129 12 147 98 
558 -0.12075816986294881 -0.13063362439195234 1.1338867732864069 0 0 0 0.26 0 558 2 84 3 116 4 93 11 131 16 24 38 13 50 189 73 37 120 141 147 99 172 107 
559 -0.1057746462104942 -0.13129058599227533 1.139988464644351 0 0 0 0.23 0 559 11 132 120 142 
560 0.17823998304239302 -0.15151213178217127 1.2948380878625756 0 0 0 0.52 0 560 3 117 12 26 14 43 43 46 50 190 61 215 65 4 69 86 73 38 77 70 97 64 103 37 111 63 120 143 128 76 147 100 172 108 
561 -0.1430117580835199 -0.12871482183803304 1.1241094535977063 0 0 0 0.43 0 561 4 94 16 25 17 174 29 16 44 66 50 191 61 216 69 87 118 173 129 13 147 101 152 170 157 107 158 76 
562 -0.15841976770618377 -0.1290863903198878 1.1369980041509904 0 0 0 0.35 0 562 50 192 61 217 120 144 157 108 
563 -0.08922883301466011 -0.12940480920693914 1.1472135892424307 0 0 0 0.29 0 563 2 85 3 118 4 95 11 133 15 82 17 175 25 39 38 14 50 193 60 11 61 218 71 65 73 39 77 71 89 62 118 174 120 145 147 102 152 171 164 51 172 109 176 76 
564 0.384789977053732 -0.11441008300139435 1.002419148914722 0 0 0 0.22 0 564 69 88 120 146 
565 -0.073784633713908 -0.12874956418812156 1.1498062816661987 0 0 0 0.2 0 565 3 119 4 96 11 134 15 83 26 24 41 25 50 194 73 40 120 147 147 103 172 110 
566 -0.47493458060773147 -0.1130261771721469 1.024502919805862 0 0 0 0.4 0 566 17 176 61 219 73 41 172 111 
567 -0.04303954258848079 -0.1284832217256699 1.1651244096620657 0 0 0 0.25 0 567 19 15 33 41 44 67 50 195 61 220 71 66 103 38 120 148 146 37 147 104 148 20 152 172 162 23 172 112 
568 -0.4716459679375837 -0.11061888184396039 1.0283189337236889 0 0 0 0.31 0 568 111 64 157 109 
569 -0.1530170681293619 -0.11777407826741858 1.1261517529380947 0 0 0 0.2 0 569 50 196 89 63 103 39 118 175 120 149 152 173 176 77 
570 0.16917889292738064 -0.13642079756014647 1.282144018587169 0 0 0 0.45 0 570 9 41 61 221 92 43 97 65 147 105 
571 0.46542017951183445 -0.08752812980854487 0.8247443324971405 0 0 0 0.21 0 571 81 17 120 150 
572 0.41074107723284825 -0.1018035475784058 0.9755596027374254 0 0 0 0.31 0 572 69 89 120 151 
573 0.41970058579943503 -0.09648523034773675 0.9248346668954852 0 0 0 0.29 0 573 69 90 120 152 
574 -0.13935865217911883 -0.11424333736799279 1.124281098648199 0 0 0 0.3 0 574 2 86 3 120 11 135 16 26 17 177 50 197 97 66 128 77 146 38 157 110 
575 -0.156968091368763 -0.11349517498001419 1.1238663982737895 0 0 0 0.3 0 575 43 47 69 91 157 111 
576 0.05277233648532739 -0.12303523602312802 1.2046550164215712 0 0 0 0.43 0 576 17 178 77 72 
577 -0.015758287772811463 -0.11830789685736258 1.174061575041591 0 0 0 0.33 0 577 15 84 44 68 71 67 77 73 118 176 120 153 148 21 162 24 164 52 
578 -0.4752342558661913 -0.10193539860428033 1.0237385915627448 0 0 0 0.27 0 578 11 136 17 179 53 129 61 222 73 42 96 62 138 13 
579 -0.46815927185182876 -0.1021848820884975 1.026230090378578 0 0 0 0.18 0 579 2 87 11 137 17 180 50 198 53 130 61 223 73 43 77 74 118 177 157 112 
580 -0.2588418286276976 -0.1065818448377811 1.0767999039960447 0 0 0 0.26 0 580 2 88 3 121 4 97 11 138 50 199 61 224 128 78 152 174 176 78 
581 0.13117687064056152 -0.1241882554203874 1.2424712357117802 0 0 0 0.39 0 581 3 122 4 98 12 27 14 44 15 85 17 181 27 66 50 200 53 131 54 34 65 5 67 27 69 92 89 64 97 67 118 178 128 79 147 106 152 175 172 113 
582 0.41654205223753066 -0.09636424569210804 0.9510295260728439 0 0 0 0.3 0 582 64 6 120 154 
583 -0.45811882720201996 -0.10196148940501328 1.028526838777791 0 0 0 0.14 0 583 61 225 118 179 
584 -0.2424692983848432 -0.1075750035509363 1.088085706259057 0 0 0 0.13 0 584 2 89 111 65 152 176 
585 0.13682540510081662 -0.12307809552560636 1.2446331059907494 0 0 0 0.5 0 585 17 182 53 132 69 93 89 65 118 180 147 107 
586 -0.06501627238083436 -0.1130747887500624 1.1557622684138111 0 0 0 0.13 0 586 146 39 157 113 
587 -0.040954193513718304 -0.11228653431689957 1.167446328059345 0 0 0 0.45 0 587 3 123 15 86 54 35 61 226 146 40 152 177 157 114 172 114 
588 0.12209115635988535 -0.11907647072995711 1.2364525191937563 0 0 0 0.3 0 588 3 124 11 139 17 183 50 201 53 133 61 227 71 68 77 75 81 18 89 66 118 181 129 14 152 178 172 115 
589 -0.259220317501219 -0.09926995414457575 1.0768146555268456 0 0 0 0.19 0 589 11 140 26 25 38 15 
590 0.0038479048126105167 -0.11044870006061659 1.1856618198968991 0 0 0 0.71 0 590 2 90 69 94 120 155 146 41 
591 0.10523050751746807 -0.11508696056461573 1.2299468175374701 0 0 0 0.25 0 591 15 87 50 202 152 179 
592 -0.0711856776937988 -0.10502895473369082 1.1450104216365928 0 0 0 0.19 0 592 53 134 152 180 172 116 
593 -0.15716610346367113 -0.09986115218459159 1.1228790449524082 0 0 0 0.6 0 593 14 45 69 95 157 115 
594 -0.15759427839991005 -0.09971419382790493 1.1264663118171085 0 0 0 0.36 0 594 14 46 69 96 176 79 
595 -0.24200113246453478 -0.09574037710542435 1.0827817946622704 0 0 0 0.26 0 595 88 0 118 182 
596 -0.475774496396826 -0.08763404404100134 1.0188016960095407 0 0 0 0.28 0 596 11 141 17 184 126 13 
597 0.1502811656044185 -0.10784657962361209 1.2619210565563475 0 0 0 0.2 0 597 11 142 15 88 50 203 61 228 118 183 120 156 128 80 152 181 
598 -0.4743868388516445 -0.08381704520437919 1.0204612351672044 0 0 0 0.36 0 598 2 91 11 143 17 185 41 26 61 229 73 44 97 68 118 184 138 14 164 53 172 117 
599 -0.34359492293026506 -0.08623443668913869 1.0530538781996799 0 0 0 0.41 0 599 4 99 16 27 17 186 38 16 41 27 43 48 53 135 61 230 97 69 126 14 146 42 157 116 158 77 172 118 176 80 
600 -0.36387805566887504 -0.08530940557070156 1.0497831310680064 0 0 0 0.54 0 600 2 92 17 187 53 136 61 231 92 44 96 63 176 81 
601 -0.2702807116584942 -0.08691896584815303 1.0707702902662706 0 0 0 0.23 0 601 61 232 96 64 146 43 147 108 157 117 158 78 172 119 176 82 
602 -0.4779452172323418 -0.08116771684572602 1.0179399833651261 0 0 0 0.24 0 602 3 125 9 42 41 28 43 49 44 69 50 204 73 45 77 76 81 19 103 40 126 15 159 22 162 25 176 83 
603 -0.44012190665022927 -0.08276580334270407 1.0303207948140793 0 0 0 0.27 0 603 4 100 9 43 11 144 17 188 33 42 44 70 50 205 61 233 71 69 73 46 77 77 111 66 118 185 162 26 164 54 172 120 
604 -0.3580122368927384 -0.08492345117486953 1.052147506759357 0 0 0 0.45 0 604 11 145 61 234 64 7 81 20 96 65 118 186 
605 0.16349339425661788 -0.10349750621040849 1.2692193401044305 0 0 0 0.3 0 605 44 71 77 78 120 157 152 182 
606 0.09267237225923919 -0.0981377758363857 1.2250291722171411 0 0 0 0.11 0 606 4 101 50 206 152 183 
607 -0.1693498559212706 -0.08725988137961073 1.1116069808870612 0 0 0 0.41 0 607 44 72 60 12 146 44 152 184 157 118 172 121 
608 0.20002794192691153 -0.101351440805891 1.3083135607740621 0 0 0 0.42 0 608 61 235 69 97 152 185 
609 -0.19349427368460337 -0.08038142446959204 1.1018174857746843 0 0 0 0.43 0 609 19 16 89 67 120 158 172 122 
610 0.17866956449656926 -0.09513633291640879 1.2925685340194797 0 0 0 0.29 0 610 11 146 15 89 44 73 50 207 61 236 65 6 69 98 77 79 120 159 128 81 152 186 
611 0.17866032285587694 -0.09504113786376146 1.2925853993400056 0 0 0 0.27 0 611 11 147 15 90 36 11 44 74 50 208 53 137 69 99 73 47 77 80 92 45 118 187 120 160 128 82 147 109 152 187 
612 -0.3882812702332193 -0.07480309613677033 1.0466092157227913 0 0 0 0.28 0 612 41 29 118 188 
613 0.4218349552076332 -0.06723216124424286 0.9385180899233685 0 0 0 0.23 0 613 14 47 69 100 
614 -0.4084882341282956 -0.07153739958881926 1.0348792079016067 0 0 0 0.57 0 614 3 126 4 102 11 148 71 70 96 66 157 119 
615 -0.20758577258489794 -0.07393012075887441 1.0943360523786527 0 0 0 0.38 0 615 3 127 4 103 11 149 27 67 92 46 118 189 147 110 176 84 
616 -0.13503619600780573 -0.07259254360978248 1.12411468331153 0 0 0 0.21 0 616 36 12 50 209 118 190 
617 -0.1474861488702462 -0.07094450170885853 1.1175509424481809 0 0 0 0.32 0 617 2 93 3 128 4 104 11 150 16 28 17 189 38 17 44 75 50 210 61 237 64 8 81 21 118 191 128 83 146 45 152 188 158 79 176 85 
618 -0.14311663946206335 -0.0694837362684655 1.118592505877902 0 0 0 0.39 0 618 4 105 11 151 14 48 16 29 17 190 26 26 27 68 29 17 40 22 43 50 77 81 97 70 118 192 147 111 148 22 164 55 176 86 185 12 
619 -0.14263453994598205 -0.06943768793577339 1.1169463446646182 0 0 0 0.5 0 619 11 152 14 49 16 30 17 191 27 69 29 18 41 30 64 9 89 68 97 71 118 193 146 46 157 120 172 123 176 87 
620 -0.08916160219679357 -0.0712923565235433 1.1449462808685915 0 0 0 0.33 0 620 14 50 118 194 
621 -0.04038012832227775 -0.06832465611234269 1.162394979412102 0 0 0 0.28 0 621 2 94 3 129 4 106 11 153 26 27 36 13 50 211 61 238 69 101 71 71 73 48 77 82 120 161 146 47 152 189 157 121 172 124 176 88 
622 -0.02681178701369155 -0.06792075520104197 1.1698986854963622 0 0 0 0.28 0 622 3 130 11 154 15 91 26 28 27 70 33 43 53 138 54 36 61 239 69 102 118 195 120 162 152 190 157 122 
623 -0.2076508596564355 -0.05939791736300907 1.0928299299305488 0 0 0 0.23 0 623 4 107 97 72 
624 -0.030341200077875427 -0.06307291334272447 1.1711495911553138 0 0 0 0.35 0 624 2 95 3 131 14 51 26 29 50 212 53 139 61 240 69 103 73 49 97 73 118 196 120 163 152 191 172 125 176 89 
625 0.14121705376728147 -0.06803848666101735 1.248165832812447 0 0 0 0.34 0 625 3 132 9 44 14 52 15 92 17 192 36 14 44 76 50 213 53 140 61 241 67 28 77 83 89 69 92 47 118 197 120 164 128 84 129 15 147 112 152 192 158 80 
626 0.2237712020791152 -0.07438403904990502 1.345404195208451 0 0 0 0.35 0 626 50 214 61 242 69 104 118 198 120 165 152 193 
627 0.00026424191128958217 -0.061260717605729986 1.180858206819462 0 0 0 0.45 0 627 53 141 69 105 96 67 
628 0.13589711393323822 -0.06336752326168311 1.242831632888608 0 0 0 0.42 0 628 9 45 53 142 61 243 67 29 89 70 92 48 118 199 120 166 147 113 152 194 158 81 176 90 
629 -0.20873471723725653 -0.053856957645647345 1.0981268165033804 0 0 0 0.66 0 629 89 71 128 85 176 91 
630 -0.4945994033890097 -0.04789020308867676 1.0088393453556843 0 0 0 0.35 0 630 3 133 4 108 11 155 17 193 25 40 26 30 27 71 40 23 43 51 61 244 71 72 73 50 77 84 96 68 103 41 111 67 118 200 148 23 159 23 164 56 176 92 
631 -0.04473771920356749 -0.05539739015973439 1.159733570581937 0 0 0 0.28 0 631 3 134 4 109 14 53 15 93 27 72 44 77 89 72 111 68 147 114 152 195 172 126 
632 -0.3813059055210753 -0.04773348568899794 1.0382449455492706 0 0 0 0.22 0 632 4 110 17 194 157 123 
633 -0.49084581898396723 -0.046003227183142086 1.0101525476108144 0 0 0 0.36 0 633 4 111 11 156 17 195 25 41 27 73 50 215 65 7 73 51 77 85 111 69 118 201 164 57 172 127 
634 0.20175989624643784 -0.0618549834222692 1.3172399651753426 0 0 0 0.3 0 634 69 106 97 74 120 167 128 86 152 196 172 128 
635 0.20179792525516657 -0.06188830140722268 1.3167049756644174 0 0 0 0.33 0 635 44 78 69 107 92 49 97 75 120 168 128 87 147 115 172 129 
636 0.12167346225689227 -0.05618041017299133 1.2292779461489804 0 0 0 0.43 0 636 50 216 53 143 111 70 126 16 
637 -0.04089476270033099 -0.05190951415368315 1.1579973536791093 0 0 0 0.13 0 637 120 169 152 197 172 130 
638 -0.4849641934684558 -0.04178412237345707 1.0052048063913805 0 0 0 0.14 0 638 17 196 118 202 
639 0.0036592722150402806 -0.0497769708894543 1.1827907707788634 0 0 0 0.31 0 639 3 135 4 112 15 94 43 52 53 144 61 245 69 108 73 52 77 86 92 50 103 42 118 203 120 170 152 198 172 131 
640 -0.044902813263422395 -0.046194347007595615 1.1580161421447792 0 0 0 0.35 0 640 14 54 15 95 27 74 44 79 61 246 77 87 111 71 120 171 172 132 
641 0.20275583823048485 -0.05450199779855817 1.3183574831384066 0 0 0 0.15 0 641 61 247 120 172 147 116 
642 -0.20853688061853418 -0.042528835097979216 1.094786429941866 0 0 0 0.8 0 642 4 113 17 197 176 93 
643 -6.926468623035717e-05 -0.04472042355341552 1.1754770036807758 0 0 0 0.64 0 643 11 157 15 96 17 198 53 145 118 204 120 173 152 199 
644 0.14304256524574735 -0.047159831876886514 1.2468704212519695 0 0 0 0.35 0 644 3 136 9 46 15 97 17 199 27 75 43 53 44 80 50 217 53 146 54 37 61 248 67 30 77 88 89 73 92 51 118 205 120 174 147 117 152 200 162 27 
645 0.14292962962889083 -0.04737448770595705 1.246205432813664 0 0 0 0.23 0 645 43 54 53 147 
646 0.2128090785241385 -0.04924979147372307 1.33083439429429 0 0 0 0.57 0 646 44 81 50 218 53 148 61 249 69 109 77 89 92 52 97 76 120 175 
647 0.2134384530602664 -0.04969638370808776 1.335317958500455 0 0 0 0.47 0 647 44 82 50 219 69 110 77 90 
648 0.44466046156846734 -0.029524127857785385 0.834446330009164 0 0 0 0.35 0 648 69 111 138 15 
649 0.473644946671307 -0.028884822972963284 0.8157372300261362 0 0 0 0.2 0 649 69 112 81 22 120 176 
650 -0.48698313584622577 -0.033172760939203606 1.0071126346344963 0 0 0 0.42 0 650 11 158 17 200 61 250 172 133 
651 -0.40767060604924 -0.03096793859177196 1.029962321012441 0 0 0 0.35 0 651 3 137 4 114 11 159 50 220 118 206 128 88 172 134 176 94 
652 -0.3327647541576389 -0.031651895272042534 1.050889369720983 0 0 0 0.24 0 652 11 160 17 201 50 221 61 251 
653 -0.3332272433576859 -0.031771441481067184 1.0524661632983279 0 0 0 0.2 0 653 11 161 61 252 
654 -0.42696399779408395 -0.03005445310351356 1.0293342568064507 0 0 0 0.71 0 654 4 115 96 69 176 95 
655 -0.3714520712441495 -0.0293334184052721 1.035118226139237 0 0 0 0.16 0 655 3 138 11 162 50 222 172 135 
656 0.20362580055470533 -0.0392685389445879 1.3158302218374516 0 0 0 0.39 0 656 17 202 44 83 50 223 61 253 89 74 97 77 118 207 120 177 129 16 147 118 152 201 172 136 
657 -0.3029202417244944 -0.02815687550862427 1.0535080660144445 0 0 0 0.28 0 657 2 96 3 139 4 116 11 163 17 203 25 42 50 224 53 149 61 254 71 73 96 70 111 72 128 89 146 48 147 119 172 137 176 96 
658 -0.3029696901465075 -0.028186949933564 1.0535589217064285 0 0 0 0.37 0 658 41 31 61 255 164 58 176 97 
659 -0.023605254543681748 -0.030903770741129606 1.1665095989651448 0 0 0 0.06 0 659 120 178 152 202 
660 -0.010182845344897926 -0.031534258602799695 1.1692003062261371 0 0 0 0.16 0 660 120 179 128 90 152 203 
661 -0.386206488901136 -0.026017527338439986 1.0330211196214933 0 0 0 0.26 0 661 3 140 11 164 53 150 176 98 
662 -0.2622747378193368 -0.027142488572632954 1.0632938770023679 0 0 0 0.31 0 662 11 165 16 31 147 120 157 124 
663 -0.2618907763401402 -0.027033760720311075 1.0623474681813272 0 0 0 0.31 0 663 11 166 15 98 16 32 50 225 118 208 128 91 
664 -0.34966898917703937 -0.025594400831989814 1.0422265206737458 0 0 0 0.24 0 664 3 141 4 117 11 167 17 204 50 226 96 71 118 209 157 125 
665 -0.2579787734828699 -0.026083710926081482 1.067029337353858 0 0 0 0.51 0 665 16 33 17 205 38 18 50 227 61 256 71 74 118 210 127 10 158 82 172 138 185 13 
666 -0.2320688359305882 -0.026245704486283397 1.0724440307663299 0 0 0 0.29 0 666 50 228 128 92 
667 -0.23294336041788027 -0.026361736872376126 1.0757198645813653 0 0 0 0.23 0 667 50 229 61 257 128 93 146 49 
668 -0.0942896463172964 -0.026900251562783827 1.1548888328016274 0 0 0 0.36 0 668 61 258 176 99 
669 -0.07309031030046394 -0.025874996817541584 1.1377998703548124 0 0 0 0.26 0 669 15 99 97 78 128 94 147 121 172 139 176 100 
670 0.05067203810315212 -0.027156687386753232 1.1978106176055991 0 0 0 0.08 0 670 17 206 120 180 152 204 
671 0.20758087366181488 -0.03136552480774309 1.319677928170514 0 0 0 0.3 0 671 14 55 17 207 44 84 50 230 53 151 61 259 69 113 77 91 89 75 92 53 97 79 118 211 120 181 129 17 152 205 
672 -0.44077553130438085 -0.020953048984423583 1.0173864967881283 0 0 0 0.41 0 672 17 208 25 43 27 76 44 85 50 231 73 53 77 92 164 59 
673 -0.1784296166203245 -0.022951586520627565 1.0972168956555917 0 0 0 0.32 0 673 11 168 16 34 17 209 50 232 118 212 120 182 128 95 146 50 152 206 157 126 176 101 
674 -0.14684520204410814 -0.021979569204413647 1.110158300343924 0 0 0 0.35 0 674 16 35 50 233 61 260 120 183 128 96 146 51 152 207 
675 0.12098556250188688 -0.025608944849893102 1.2286449225032707 0 0 0 0.3 0 675 9 47 15 100 29 19 36 15 44 86 50 234 53 152 61 261 69 114 77 93 92 54 111 73 118 213 120 184 128 97 147 122 152 208 
676 -0.11520189084890073 -0.021557004168578486 1.12204605341911 0 0 0 0.22 0 676 2 97 4 118 11 169 15 101 17 210 25 44 50 235 61 262 65 8 69 115 118 214 120 185 128 98 146 52 152 209 158 83 
677 -0.08398257669828559 -0.019686587682871223 1.133528837091663 0 0 0 0.32 0 677 11 170 50 236 61 263 120 186 128 99 146 53 176 102 
678 -0.0005335853590054743 -0.020706036156317324 1.1808814320219414 0 0 0 0.96 0 678 50 237 120 187 158 84 
679 0.047702389358681235 -0.021320546675061017 1.192323961128946 0 0 0 0.03 0 679 17 211 152 210 
680 -0.027563292889450506 -0.019191538226909204 1.1667734972506172 0 0 0 0.27 0 680 11 171 44 87 50 238 61 264 69 116 118 215 120 188 128 100 129 18 157 127 172 140 
681 0.07738661504876691 -0.019030708046919705 1.2036702848965446 0 0 0 0.24 0 681 11 172 61 265 120 189 147 123 152 211 
682 -0.07306154650822896 -0.017440105810207895 1.1379794869201956 0 0 0 0.12 0 682 120 190 152 212 
683 -0.19784556959854604 -0.015299431512808543 1.0897348566708593 0 0 0 0.23 0 683 111 74 152 213 158 85 
684 -0.4900206316534774 -0.013325237943251293 1.0036267500872604 0 0 0 0.2 0 684 2 98 11 173 17 212 27 77 118 216 157 128 
685 -0.490331810041963 -0.01324429417518531 1.0039503433996697 0 0 0 0.25 0 685 2 99 3 142 4 119 11 174 27 78 61 266 71 75 96 72 111 75 118 217 157 129 176 103 
686 0.008674611927010294 -0.01612791775588023 1.17484280910652 0 0 0 0.33 0 686 15 102 17 213 44 88 50 239 53 153 61 267 69 117 96 73 120 191 128 101 152 214 158 86 
687 -0.16704550070509014 -0.01423695038891335 1.0964891933414769 0 0 0 0.22 0 687 120 192 129 19 152 215 
688 -0.3199470172601237 -0.012691980676290534 1.0514881603957433 0 0 0 0.17 0 688 17 214 27 79 61 268 71 76 
689 0.062129278871072086 -0.016127037157939887 1.2046432770902658 0 0 0 0.18 0 689 61 269 81 23 
690 -0.12934535985647702 -0.0135307551154868 1.1200834592164415 0 0 0 0.28 0 690 2 100 4 120 11 175 15 103 16 36 17 215 25 45 26 31 29 20 33 44 38 19 44 89 50 240 61 270 69 118 73 54 77 94 81 24 118 218 120 193 128 102 146 54 147 124 148 24 152 216 158 87 164 60 176 104 
691 -0.12948725773746014 -0.013583239887179738 1.1207982676906898 0 0 0 0.12 0 691 4 121 16 37 50 241 61 271 69 119 120 194 147 125 176 105 
692 -0.12401406307301081 -0.01359204775140385 1.119840576363439 0 0 0 0.32 0 692 2 101 4 122 11 176 15 104 16 38 17 216 25 46 26 32 29 21 38 20 50 242 61 272 69 120 77 95 118 219 120 195 127 11 128 103 146 55 147 126 152 217 158 88 176 106 
693 0.23153903345668858 -0.01672940723061775 1.3335463661640226 0 0 0 0.14 0 693 50 243 69 121 
694 -0.11923870489271166 -0.010571177024426663 1.1199073534509159 0 0 0 0.38 0 694 3 143 4 123 19 17 25 47 40 24 43 55 53 154 69 122 85 14 89 76 97 80 111 76 120 196 148 25 152 218 157 130 158 89 176 107 
695 0.047926651216959264 -0.012565664782782556 1.1905227368847884 0 0 0 0.35 0 695 2 102 44 90 120 197 152 219 
696 0.4280085711771597 -0.009421523815978184 0.8926257191012967 0 0 0 0.59 0 696 14 56 120 198 
697 -0.5047957380583785 -0.007302238032779801 1.0016344233309988 0 0 0 0.4 0 697 4 124 43 56 53 155 172 141 
698 -0.44733330169273366 -0.007410682321824231 1.0131426636952625 0 0 0 0.42 0 698 17 217 26 33 43 57 77 96 97 81 111 77 157 131 
699 -0.4395169611747905 -0.007392174945874814 1.021604497324346 0 0 0 0.49 0 699 11 177 103 43 157 132 176 108 
700 -0.42062209641928977 -0.007121631199028425 1.0206138490495849 0 0 0 0.21 0 700 11 178 61 273 126 17 176 109 
701 0.10776288198996407 -0.009702023907634697 1.215390798177004 0 0 0 0.09 0 701 15 105 120 199 
702 -0.3942755577612931 -0.006634461560657216 1.0318338255915287 0 0 0 0.3 0 702 97 82 176 110 
703 -0.1540776003108143 -0.007147307023942146 1.1036359148544674 0 0 0 0.27 0 703 69 123 146 56 158 90 
704 -0.1550602309894798 -0.0073161962309281165 1.1083422907729568 0 0 0 0.12 0 704 16 39 120 200 146 57 
705 -0.5145860283402863 -0.004950452046543931 0.9998448492938424 0 0 0 0.43 0 705 61 274 73 55 
706 -0.5137772150735787 -0.0047403265430095275 0.9985514126264143 0 0 0 0.36 0 706 2 103 25 48 50 244 73 56 148 26 157 133 
707 0.44987604681253507 -0.0055132871188744385 0.8131765537914911 0 0 0 0.66 0 707 69 124 147 127 
708 -0.5096044789536369 -0.0039053859243973837 1.0011158581075699 0 0 0 0.36 0 708 2 104 3 144 17 218 25 49 27 80 50 245 73 57 77 97 111 78 118 220 
709 -0.45173285931363466 -0.004503837274839303 1.012516118491441 0 0 0 0.49 0 709 12 28 26 34 36 16 50 246 53 156 61 275 77 98 85 15 97 83 157 134 162 28 164 61 176 111 
710 -0.31061247639541645 -0.004006725692506892 1.0493631815233753 0 0 0 0.36 0 710 3 145 11 179 43 58 157 135 172 142 176 112 
711 0.23389418489863764 -0.006641358741268596 1.3676408065419199 0 0 0 0.26 0 711 14 57 152 220 
712 0.0375726062974891 -0.004817062439600994 1.1875897380144196 0 0 0 0.21 0 712 120 201 152 221 
713 -0.4988886626975381 -0.0024816659744658237 0.9991716778620747 0 0 0 0.39 0 713 4 125 17 219 25 50 43 59 50 247 53 157 61 276 81 25 92 55 96 74 97 84 118 221 172 143 176 113 
714 -0.125045509780057 0.006491512661774399 1.1227445349165894 0 0 0 0.35 0 714 61 277 120 202 
715 -0.355615361202003 0.008826872970098328 1.038269278626936 0 0 0 0.31 0 715 17 220 176 114 
716 -0.32051318521397 0.009983846430309617 1.0528610765099615 0 0 0 0.4 0 716 41 32 157 136 
717 -0.47105134555938494 0.010475807306149307 1.0087618354236219 0 0 0 0.34 0 717 2 105 11 180 17 221 25 51 50 248 53 158 61 278 92 56 118 222 157 137 162 29 176 115 
718 -0.4657601419793467 0.00948052015216049 1.004206538498496 0 0 0 1.88 0 718 71 77 
719 -0.400506385092258 0.011977833614039457 1.0288482136234214 0 0 0 0.35 0 719 4 126 11 181 17 222 25 52 77 99 96 75 118 223 176 116 
720 0.20572232196199658 0.01153864005444134 1.3142350610710312 0 0 0 0.84 0 720 103 44 120 203 
721 0.2059426994157777 0.012800089369690078 1.317027038097547 0 0 0 0.11 0 721 17 223 120 204 
722 -0.3907944986625092 0.012552632894016424 1.0292644931405417 0 0 0 0.25 0 722 2 106 11 182 50 249 61 279 157 138 162 30 
723 -0.35877049132912014 0.012962531851271757 1.0356127741611723 0 0 0 0.45 0 723 25 53 53 159 64 10 
724 -0.0013209179824940384 0.013851811059739797 1.177254060136585 0 0 0 0.57 0 724 32 28 44 91 61 280 81 26 92 57 129 20 
725 -0.3208303117084339 0.014162150171941737 1.0502918058882438 0 0 0 0.29 0 725 2 107 17 224 32 29 44 92 61 281 118 224 128 104 157 139 158 91 162 31 
726 -0.4907628851930868 0.01450812149064853 0.9958218032754003 0 0 0 0.13 0 726 17 225 50 250 118 225 
727 0.14020458635505242 0.01870222152888841 1.236208938461015 0 0 0 0.67 0 727 12 29 17 226 44 93 53 160 69 125 73 58 89 77 118 226 
728 0.48344371582006007 0.011955086737543271 0.8155202576969632 0 0 0 0.24 0 728 69 126 147 128 
729 0.4536954602352571 0.01638669310191318 0.8072434357454543 0 0 0 0.2 0 729 89 78 120 205 
730 -0.31000221681786166 0.023787023182271813 1.0478517512380667 0 0 0 0.4 0 730 11 183 25 54 50 251 61 282 89 79 96 76 118 227 128 105 138 16 
731 0.38576451689100566 0.021045226975801076 0.9989009764235339 0 0 0 0.45 0 731 69 127 81 27 89 80 120 206 
732 0.39231674779308745 0.02092262432966325 0.9948924223049149 0 0 0 0.34 0 732 69 128 120 207 
733 -0.38524742734346934 0.024775870292698024 1.0257717879474402 0 0 0 0.25 0 733 50 252 61 283 
734 -0.4044182198218027 0.02462352955774847 1.0233930240192723 0 0 0 0.55 0 734 4 127 17 227 43 60 50 253 53 161 71 78 96 77 97 85 103 45 118 228 162 32 172 144 176 117 
735 0.43149251092724644 0.021245916427736572 0.86934222036722 0 0 0 0.25 0 735 69 129 120 208 
736 -0.4206219984811781 0.027253660654291998 1.0157661204511341 0 0 0 0.52 0 736 4 128 50 254 71 79 97 86 157 140 176 118 
737 -0.2937072478105927 0.031249588146509848 1.0549580064155046 0 0 0 0.28 0 737 3 146 61 284 81 28 111 79 
738 0.4706996673842072 0.022868871600294084 0.810271846272383 0 0 0 0.21 0 738 69 130 120 209 
739 -0.4105618569284953 0.03411528021120036 1.0165010320688077 0 0 0 0.61 0 739 11 184 43 61 
740 0.13628961279575116 0.04538615417132963 1.232921975700048 0 0 0 0.43 0 740 9 48 14 58 17 228 27 81 43 62 50 255 53 162 61 285 69 131 77 100 118 229 120 210 147 129 
741 0.45753718419443956 0.03892573956538616 0.8067177761026376 0 0 0 0.31 0 741 69 132 81 29 
742 -0.43941138613226477 -0.21726751294969773 0.8264997861966167 0 0 0 0.38 0 742 61 286 157 141 
743 0.4586547351081525 -0.2517659307620949 0.9885929984164389 0 0 0 0.24 0 743 89 81 129 21 
744 0.43701186259095204 -0.21063202884761284 0.9320488524227276 0 0 0 0.53 0 744 64 11 69 133 
745 -0.4709647999763272 -0.24342486661959176 1.1020487012025433 0 0 0 0.56 0 745 19 18 53 163 64 12 
746 -0.265774395753702 -0.23475351793422095 1.0903199543971471 0 0 0 0.08 0 746 89 82 111 80 
747 -0.2655019596606067 -0.22611849417001745 1.08845760500717 0 0 0 0.59 0 747 3 147 26 35 60 13 61 287 63 18 67 31 89 83 97 87 111 81 118 230 129 22 138 17 
748 0.36794353894270415 -0.21507652506940297 1.0519484375195427 0 0 0 0.14 0 748 67 32 69 134 81 30 89 84 129 23 
749 -0.2655362292426477 -0.21976713272505227 1.0891328437764782 0 0 0 0.39 0 749 4 129 11 185 26 36 61 288 147 130 152 222 
750 -0.2070801685680119 -0.22024893688589114 1.101241756823319 0 0 0 0.28 0 750 61 289 152 223 157 142 172 145 
751 -0.14203072306938588 -0.22154050229745476 1.134926882982834 0 0 0 0.17 0 751 3 148 53 164 96 78 97 88 118 231 
752 -0.4685055383699744 -0.2065611236463534 1.0592821662317569 0 0 0 0.17 0 752 50 256 152 224 
753 -0.4036194719994499 -0.13871197493574303 0.7236967917042022 0 0 0 0.33 0 753 61 290 157 143 172 146 
754 -0.4258815877061078 -0.20250589124130947 1.047448314868689 0 0 0 0.23 0 754 11 186 27 82 50 257 53 165 61 291 118 232 128 106 152 225 157 144 176 119 
755 -0.08297982383915649 -0.22257512364850912 1.1570415143858903 0 0 0 0.35 0 755 14 59 50 258 61 292 64 13 97 89 128 107 138 18 152 226 157 145 172 147 
756 -0.2241275589397349 -0.20453458125558172 1.0990965227140161 0 0 0 0.58 0 756 50 259 152 227 158 92 172 148 
757 -0.10244880088034775 -0.21650166844472604 1.1710750794414126 0 0 0 0.53 0 757 61 293 152 228 
758 -0.41604501376066994 -0.13784189957996543 0.7531891332169889 0 0 0 0.33 0 758 17 229 53 166 61 294 118 233 157 146 172 149 
759 0.49903170524399654 -0.16714042445538863 0.9035235005694517 0 0 0 0.45 0 759 14 60 64 14 89 85 120 211 129 24 138 19 
760 0.49993032737494897 -0.16744792672482994 0.9054853608395037 0 0 0 0.44 0 760 64 15 69 135 89 86 129 25 138 20 
761 -0.5210825782178261 -0.1846208726851204 1.020003937919054 0 0 0 0.17 0 761 61 295 157 147 172 150 
762 -0.039953095523898294 -0.20865222712893497 1.1768855433946437 0 0 0 0.45 0 762 14 61 69 136 
763 0.05138762660139054 -0.21338156774012812 1.2397023299601404 0 0 0 0.51 0 763 53 167 97 90 152 229 
764 -0.38355484305078424 -0.17859921243186136 1.051513354872935 0 0 0 0.38 0 764 25 55 27 83 50 260 65 9 128 108 152 230 
765 -0.37375632157041305 -0.1792435885017382 1.0589271318544768 0 0 0 0.55 0 765 4 130 11 187 25 56 27 84 77 101 128 109 152 231 159 24 176 120 
766 -0.19767952686931411 -0.1857548725015035 1.1060586791690847 0 0 0 0.35 0 766 2 108 3 149 4 131 9 49 11 188 15 106 16 40 17 230 26 37 27 85 33 45 36 17 38 21 43 63 44 94 50 261 53 168 54 38 61 296 63 19 69 137 71 80 77 102 81 31 85 16 88 1 89 87 92 58 97 91 111 82 118 234 129 26 146 58 147 131 148 27 152 232 157 148 158 93 159 25 164 62 172 151 176 121 185 14 
767 -0.05475836482867683 -0.19567429942849426 1.1742267079239428 0 0 0 0.31 0 767 118 235 147 132 
768 -0.053912082547771974 -0.1938879117635409 1.1704470126596813 0 0 0 0.72 0 768 2 109 15 107 50 262 
769 -0.5148428782977887 -0.1633740369121741 1.0182340123727602 0 0 0 0.24 0 769 50 263 176 122 
770 0.08740406569462009 -0.21698657222862255 1.3372625556817512 0 0 0 0.04 0 770 61 297 172 152 
771 -0.18277781467907558 -0.17795101940643648 1.1122861823829597 0 0 0 0.27 0 771 2 110 4 132 15 108 16 41 25 57 26 38 27 86 38 22 40 25 54 39 65 10 71 81 77 103 85 17 118 236 127 12 128 110 146 59 148 28 164 63 
772 -0.1829176141831406 -0.17805206895782125 1.1127598952547622 0 0 0 0.26 0 772 2 111 9 50 26 39 33 46 44 95 50 264 61 298 89 88 147 133 152 233 157 149 176 123 
