# 3D point list with one line of data per point:
#   POINT3D_ID, X, Y, Z, R, G, B, ERROR, TRACK[] as (IMAGE_ID, POINT2D_IDX)
# Number of points: 256, mean track length: 14.91
832 -0.0034162035532900384 0.13177486459031484 0.46669519414620675 55 55 36 1.27 21 527 22 563 23 525 24 385 25 271 26 405 28 235 30 78 32 87 34 83 36 447 40 540 41 441 43 540 44 98 45 96 46 385 
833 0.04095833254029744 0.20482650074828726 0.44192699413475894 78 70 73 1.25 21 528 22 564 23 526 24 386 25 272 26 406 28 236 30 79 32 88 34 84 36 448 40 541 41 442 44 99 45 97 47 388 46 386 
834 0.5590576534160322 0.24277742688306592 0.9764290821750378 52 43 42 0.72 21 529 22 565 33 70 35 399 36 449 37 402 38 550 39 512 40 542 41 443 42 537 43 541 44 100 45 98 46 387 47 389 48 416 
835 0.5019162805577464 0.14511598362119146 1.103144144897732 120 110 102 0.47 21 530 23 527 24 387 25 273 27 246 28 237 29 72 31 59 32 89 33 71 34 85 35 400 36 450 37 403 38 551 39 513 40 543 41 444 42 538 43 542 44 101 45 99 46 388 47 390 48 417 
836 0.5359252470010949 0.2559551807966364 1.1255846139577306 125 135 153 0.46 22 566 23 528 25 274 27 247 29 73 31 60 33 72 35 401 36 451 37 404 38 552 39 514 40 544 41 445 42 539 43 543 44 102 45 100 46 389 47 391 48 418 
837 0.6995600233922695 0.29951206230181127 1.0210642379533073 30 28 28 1.16 29 74 31 61 33 73 35 402 38 553 39 515 40 545 41 446 42 540 43 544 44 103 45 101 48 419 
838 0.4846539092156723 0.22153661453720078 0.8928973484678662 27 26 30 1.32 22 567 23 529 25 275 27 248 28 238 29 75 30 80 31 62 32 90 33 74 34 86 35 403 36 452 37 405 38 554 39 516 40 546 41 447 42 541 43 545 44 104 45 102 
839 0.46704209992524875 -0.11858961130661648 0.9227356746944066 185 199 211 0.72 21 531 22 568 23 530 24 388 25 276 26 407 27 249 28 239 29 76 32 91 33 75 34 87 35 404 36 453 37 406 38 555 39 517 40 547 41 448 42 542 43 546 44 105 45 103 46 390 47 392 48 420 
840 0.279465778682556 0.2064926782762736 0.5680285549318579 29 23 26 1.33 21 532 22 569 23 531 24 389 25 277 26 408 27 250 28 240 29 77 30 81 31 63 32 92 34 88 36 454 38 556 39 518 40 548 41 449 42 543 43 547 44 106 45 104 
841 0.5855586889934224 0.16067270356067107 1.1693706809031417 122 104 100 0.39 21 533 22 570 23 532 25 278 27 251 29 78 31 64 33 76 35 405 37 407 38 557 39 519 40 549 41 450 42 544 43 548 44 107 45 105 46 391 47 393 48 421 
842 0.01649902977480938 -0.14705937548285414 0.7950775120818263 24 15 11 0.83 22 571 23 533 24 390 25 279 26 409 27 252 28 241 29 79 30 82 34 89 36 455 37 408 38 558 39 520 40 550 42 545 43 549 44 108 47 394 48 422 
843 0.19129291626298628 -0.04758659519380276 0.7125475925182905 70 71 73 0.76 21 534 22 572 23 534 24 391 25 280 26 410 27 253 28 242 29 80 30 83 31 65 32 93 33 77 34 90 35 406 36 456 37 409 38 559 39 521 40 551 41 451 42 546 43 550 44 109 45 106 46 392 47 395 48 423 
844 0.5243250807225845 0.2559261840274844 1.0964698643286253 72 59 57 0.41 22 573 23 535 25 281 27 254 29 81 31 66 33 78 35 407 36 457 37 410 38 560 39 522 40 552 41 452 42 547 43 551 44 110 45 107 46 393 47 396 48 424 
845 0.6481627965377293 0.30093039145709066 1.141994445149979 47 33 38 0.72 25 282 27 255 29 82 31 67 33 79 35 408 37 411 38 561 39 523 40 553 41 453 42 548 43 552 44 111 45 108 46 394 47 397 48 425 
846 0.4644118345108865 0.10848232253061446 0.881098063772556 152 157 161 0.8 21 535 22 574 23 536 24 392 25 283 26 411 27 256 28 243 29 83 30 84 31 68 32 94 33 80 34 91 35 409 36 458 37 412 38 562 39 524 40 554 41 454 42 549 43 553 44 112 45 109 46 395 47 398 48 426 
847 0.36163449841247464 0.2490510129417713 0.6128064758106863 80 55 49 1.03 21 536 22 575 23 537 24 393 25 284 26 412 27 257 28 244 29 84 30 85 31 69 32 95 33 81 34 92 35 410 36 459 38 563 39 525 40 555 41 455 42 550 43 554 44 113 45 110 
848 0.5577611529904107 -0.018819850988243153 1.208571395941471 225 234 238 0.73 21 537 22 576 23 538 25 285 27 258 29 85 33 82 35 411 36 460 37 413 38 564 39 526 40 556 41 456 42 551 43 555 44 114 45 111 46 396 47 399 48 427 
849 0.6756849640360303 0.29408003975580993 1.0026219284761533 63 59 65 1.11 27 259 29 86 31 70 33 83 35 412 37 414 38 565 39 527 40 557 41 457 42 552 43 556 44 115 45 112 46 397 47 400 48 428 
850 0.6261344091928556 -0.02551792917029167 1.2491045984394151 146 138 133 0.51 21 538 22 577 23 539 25 286 27 260 29 87 31 71 33 84 35 413 37 415 38 566 39 528 40 558 41 458 42 553 43 557 44 116 45 113 46 398 47 401 48 429 
851 0.3959630461451837 0.25227143746598124 0.6842228435295926 46 43 48 0.6 21 539 22 578 23 540 25 287 26 413 27 261 28 245 29 88 30 86 31 72 32 96 33 85 34 93 35 414 36 461 38 567 39 529 40 559 41 459 42 554 43 558 44 117 45 114 46 399 47 402 
852 0.5259915813961515 0.23032533562715354 1.1106149384783983 138 154 172 0.4 22 579 23 541 25 288 27 262 29 89 31 73 33 86 35 415 36 462 37 416 38 568 39 530 40 560 41 460 42 555 43 559 44 118 45 115 46 400 47 403 48 430 
853 0.5810106138328337 0.12883809804337648 1.1733564698990537 117 89 86 0.53 21 540 22 580 23 542 25 289 27 263 29 90 31 74 33 87 35 416 37 417 38 569 39 531 40 561 41 461 42 556 43 560 44 119 45 116 46 401 47 404 48 431 
854 0.6263063054320314 -0.045050862492135996 1.2535456123023765 134 129 123 0.73 21 541 22 581 23 543 25 290 27 264 29 91 31 75 33 88 35 417 37 418 38 570 39 532 40 562 41 462 42 557 43 561 44 120 45 117 46 402 47 405 48 432 
855 0.45955477297123537 0.2632366600779749 0.7796363264976796 61 63 63 0.7 21 542 22 582 23 544 24 394 25 291 26 414 27 265 28 246 29 92 30 87 31 76 32 97 33 89 34 94 35 418 36 463 38 571 39 533 40 563 41 463 42 558 43 562 44 121 
856 0.18437918979668244 -0.10275971120285432 0.6973688936490966 144 148 152 0.84 21 543 22 583 23 545 24 395 25 292 26 415 27 266 28 247 29 93 30 88 31 77 32 98 33 90 34 95 35 419 36 464 37 419 38 572 39 534 40 564 41 464 42 559 43 563 44 122 45 118 46 403 47 406 48 433 
857 0.0018197780515335073 0.12591683573119675 0.7333809259284158 106 107 107 1.21 23 546 24 396 25 293 26 416 27 267 28 248 29 94 30 89 32 99 34 96 35 420 36 465 37 420 38 573 39 535 40 565 42 560 43 564 44 123 46 404 47 407 48 434 
858 0.49169354053253905 -0.16844211648526627 0.9361430396352506 21 21 25 0.73 21 544 22 584 23 547 24 397 25 294 27 268 35 421 37 421 38 574 39 536 40 566 41 465 42 561 43 565 44 124 45 119 46 405 47 408 48 435 
859 0.3535095749515576 0.23756111610035424 0.7446770614220042 42 36 33 0.73 21 545 22 585 23 548 24 398 25 295 26 417 27 269 28 249 29 95 30 90 31 78 32 100 33 91 34 97 35 422 36 466 38 575 39 537 40 567 41 466 42 562 43 566 44 125 
860 0.6313276243454483 0.20536020378824818 1.1959549966272771 121 105 100 0.35 21 546 22 586 23 549 25 296 27 270 29 96 31 79 33 92 35 423 37 422 38 576 39 538 40 568 41 467 42 563 43 567 44 126 45 120 46 406 47 409 48 436 
861 0.06082836958548352 0.13807986878942793 0.567086210491684 79 73 72 1.05 21 547 22 587 23 550 24 399 25 297 26 418 27 271 28 250 29 97 30 91 32 101 34 98 36 467 38 577 39 539 40 569 41 468 42 564 43 568 44 127 45 121 46 407 47 410 48 437 
862 0.5392432972017212 -0.0009811986189693772 1.1916264906595615 223 236 239 0.67 22 588 23 551 25 298 27 272 29 98 33 93 35 424 36 468 37 423 38 578 39 540 40 570 41 469 42 565 43 569 44 128 45 122 46 408 47 411 48 438 31 80 
863 0.49873107427298546 0.2342140574187865 1.0788910759297177 65 54 52 0.47 23 552 24 400 25 299 27 273 28 251 29 99 31 81 33 94 34 99 35 425 36 469 37 424 38 579 39 541 40 571 41 470 42 566 43 570 44 129 45 123 46 409 47 412 48 439 
864 0.40916446518573796 0.14396160128965746 1.0551760744367762 143 164 176 0.56 21 548 22 589 23 553 24 401 25 300 29 100 30 92 31 82 32 102 33 95 34 100 35 426 36 470 37 425 38 580 39 542 40 572 41 471 42 567 43 571 44 130 45 124 46 410 47 413 48 440 
865 0.40636216230840794 -0.07856493715198934 1.091507603303615 34 28 25 0.78 21 549 22 590 23 554 24 402 29 101 30 93 32 103 33 96 34 101 35 427 36 471 37 426 38 581 39 543 40 573 41 472 42 568 43 572 44 131 45 125 46 411 47 414 48 441 
866 0.2582897128791013 -0.310087057468458 0.8016953131316548 100 98 93 0.58 21 550 22 591 23 555 37 427 38 582 39 544 40 574 41 473 42 569 43 573 44 132 45 126 46 412 47 415 48 442 
867 0.31945603452916743 -0.09542473556530691 0.7964208485918807 92 90 89 0.74 21 551 22 592 23 556 24 403 25 301 26 419 27 274 28 252 29 102 30 94 31 83 32 104 33 97 34 102 35 428 36 472 37 428 38 583 39 545 40 575 41 474 42 570 43 574 44 133 45 127 46 413 47 416 48 443 
868 -0.14827594823405854 0.05885819470612919 0.6321271459514968 45 40 40 1.07 21 552 22 593 23 557 24 404 25 302 26 420 27 275 28 253 30 95 32 105 34 103 36 473 37 429 38 584 41 475 42 571 45 128 47 417 48 444 
869 0.19219242901685876 -0.10103858614615649 0.7256552278885984 46 41 39 0.49 21 553 22 594 23 558 24 405 25 303 26 421 27 276 28 254 29 103 30 96 31 84 32 106 33 98 34 104 36 474 37 430 38 585 39 546 40 576 41 476 42 572 43 575 44 134 45 129 46 414 47 418 48 445 
870 0.6145201340050148 0.2068568826762609 1.1797707620910718 123 111 106 0.39 21 554 22 595 23 559 25 304 27 277 29 104 31 85 33 99 35 429 37 431 38 586 39 547 40 577 41 477 42 573 43 576 44 135 45 130 46 415 47 419 48 446 
871 0.32455790365730813 0.21620096109954043 0.7075152523865139 179 173 168 0.66 21 555 22 596 23 560 24 406 25 305 26 422 27 278 28 255 29 105 30 97 31 86 32 107 33 100 34 105 35 430 36 475 37 432 38 587 39 548 40 578 41 478 42 574 43 577 44 136 45 131 46 416 
872 0.48824706170429194 0.2631359017104209 0.7166430482093824 18 18 21 0.75 21 556 22 597 23 561 25 306 27 279 28 256 29 106 30 98 31 87 32 108 33 101 34 106 35 431 36 476 38 588 39 549 40 579 41 479 42 575 43 578 44 137 45 132 46 417 47 420 
873 0.6332131580794605 0.07055150056469091 1.2319951193576382 137 122 112 0.4 21 557 22 598 23 562 25 307 27 280 29 107 31 88 33 102 35 432 37 433 38 589 39 550 40 580 41 480 42 576 43 579 44 138 45 133 46 418 47 421 48 447 
874 0.4757888997253061 -0.1735279904720985 0.9189175575452558 80 89 94 0.73 21 558 22 599 23 563 24 407 25 308 27 281 28 257 35 433 37 434 38 590 39 551 40 581 41 481 42 577 43 580 44 139 45 134 46 419 47 422 48 448 
875 0.6028913975253549 0.2764486051316417 1.1517763819999605 121 107 102 0.53 21 559 22 600 23 564 25 309 27 282 29 108 31 89 33 103 35 434 37 435 38 591 39 552 40 582 41 482 42 578 43 581 44 140 45 135 46 420 47 423 48 449 
876 0.33872085175831795 -0.11730310445659398 0.8103471445881422 56 52 49 0.81 21 560 22 601 23 565 24 408 25 310 26 423 27 283 28 258 29 109 30 99 31 90 32 109 34 107 35 435 36 477 37 436 38 592 39 553 40 583 41 483 42 579 43 582 44 141 45 136 46 421 47 424 48 450 
877 0.4680530135608474 0.24914024434433438 1.0512306690134097 104 95 87 0.66 21 561 22 602 25 311 26 424 27 284 28 259 29 110 31 91 32 110 33 104 34 108 35 436 36 478 37 437 38 593 39 554 40 584 41 484 42 580 43 583 44 142 45 137 46 422 47 425 48 451 
878 0.40422251981483076 -0.11463703472462262 1.082549233734765 64 66 68 0.57 21 562 23 566 32 111 33 105 34 109 35 437 36 479 37 438 38 594 39 555 40 585 41 485 42 581 43 584 44 143 45 138 46 423 47 426 48 452 
879 0.6281586008680664 0.1188238780113755 1.2158132530855095 131 121 117 0.41 21 563 22 603 23 567 25 312 27 285 29 111 31 92 33 106 35 438 37 439 38 595 39 556 40 586 41 486 42 582 43 585 44 144 45 139 46 424 47 427 48 453 
880 0.39367586158982015 0.09178654516450492 1.032550596279485 76 73 71 0.4 21 564 22 604 23 568 24 409 25 313 26 425 27 286 30 100 31 93 32 112 33 107 34 110 35 439 36 480 37 440 38 596 39 557 40 587 41 487 42 583 43 586 44 145 45 140 46 425 47 428 48 454 
881 0.5335511543885688 -0.08067330466704754 1.1868556647296231 80 58 55 0.51 22 605 23 569 24 410 25 314 27 287 28 260 29 112 33 108 35 440 36 481 37 441 38 597 39 558 40 588 41 488 42 584 43 587 44 146 45 141 46 426 47 429 48 455 
882 0.632970217794216 0.15299183649748238 1.2100698099994798 119 103 99 0.39 21 565 22 606 23 570 25 315 27 288 29 113 31 94 33 109 35 441 37 442 38 598 39 559 40 589 41 489 42 585 43 588 44 147 45 142 46 427 47 430 48 456 
883 0.44549781759596996 0.1755395100681797 1.0553199918084508 75 73 73 0.42 21 566 22 607 23 571 26 426 27 289 28 261 29 114 30 101 31 95 32 113 33 110 34 111 35 442 36 482 37 443 38 599 39 560 40 590 41 490 42 586 43 589 44 148 45 143 46 428 47 431 48 457 
884 0.6084562420833136 0.13243007511905724 1.1958606460571428 121 109 106 0.4 21 567 22 608 23 572 25 316 27 290 29 115 31 96 33 111 35 443 37 444 38 600 39 561 40 591 41 491 42 587 43 590 44 149 45 144 46 429 47 432 48 458 
885 0.6255491916458402 0.11970364660727838 1.2132329875203418 52 47 51 0.33 21 568 22 609 23 573 25 317 27 291 29 116 31 97 33 112 35 444 37 445 38 601 39 562 40 592 41 492 42 588 43 591 44 150 45 145 46 430 47 433 48 459 
886 0.634205644403079 0.2888135388118591 0.9686977078274961 47 46 51 0.66 27 292 29 117 31 98 33 113 35 445 38 602 39 563 40 593 41 493 42 589 43 592 44 151 45 146 46 431 47 434 48 460 
887 0.3133821738190484 0.021060419859607857 0.7654931903402973 146 146 144 0.63 23 574 24 411 25 318 26 427 27 293 28 262 29 118 30 102 31 99 32 114 33 114 34 112 35 446 36 483 37 446 38 603 39 564 40 594 41 494 42 590 43 593 44 152 45 147 46 432 47 435 48 461 
888 0.6354502023239834 -0.06829768530874182 1.2775337312670987 85 73 71 1.01 21 569 22 610 23 575 25 319 27 294 29 119 31 100 33 115 35 447 37 447 38 604 39 565 40 595 41 495 42 591 43 594 44 153 45 148 46 433 47 436 48 462 
889 0.5199739881444325 0.07311886059493233 1.385695967679808 130 127 122 0.37 40 596 41 496 42 592 43 595 44 154 45 149 46 434 47 437 48 463 
890 0.64386967014751 0.4152358175470828 1.368401459147249 46 36 40 0.3 45 150 46 435 47 438 48 464 
891 0.7718997143892136 0.34613753676058207 1.2693147770691093 24 24 29 0.15 46 436 47 439 48 465 
892 0.34387784436743024 0.47300777564316354 1.5881763368240043 51 50 54 1.08 43 596 44 155 45 151 46 437 47 440 48 466 
893 0.14626038858397186 0.5100089453856124 1.788903002563269 15 14 12 0.79 43 597 44 156 45 152 46 438 47 441 48 467 
894 0.6289198579190457 0.23473324742881216 1.3115528143711888 21 31 25 0.68 35 448 37 448 39 566 41 497 42 593 43 598 44 157 45 153 46 439 47 442 48 468 
895 0.3532029239926907 -0.04457999314545841 1.617233097267203 124 130 130 0.27 40 597 41 498 42 594 43 599 44 158 45 154 46 440 47 443 48 469 
896 0.7263078818221181 0.3214446461539036 1.2278582919868415 57 60 70 0.99 31 101 33 116 43 600 44 159 45 155 46 441 47 444 48 470 
897 0.10447981773938565 0.0705280744768263 1.927984528430893 132 136 139 0.44 40 598 41 499 42 595 43 601 44 160 45 156 46 442 47 445 48 471 
898 0.23401114392663816 0.26382052889963425 1.7041408602528958 69 59 62 0.5 40 599 43 602 44 161 45 157 46 443 47 446 48 472 
899 0.3631258158812085 -0.03192043682821134 1.6037629846200472 124 125 126 0.32 40 600 41 500 42 596 43 603 44 162 45 158 46 444 47 447 48 473 
900 0.6904861020778347 0.29937834072120617 1.061872129495758 49 51 57 0.45 43 604 44 163 45 159 46 445 47 448 48 474 
901 0.7614046333180061 0.30904658630027 1.0681926801731108 52 50 56 1.4 31 102 42 597 43 605 44 164 45 160 46 446 47 449 48 475 
902 0.5054621991510956 0.05487999885309301 1.4078733390931324 140 143 140 0.46 40 601 41 501 42 598 43 606 44 165 45 161 46 447 47 450 48 476 49 270 58 10 60 10 62 8 63 8 64 5 65 5 66 5 67 5 68 5 69 5 70 4 71 4 
903 0.6356826008173981 0.25941585221092994 1.2017909910449427 87 75 73 0.7 21 570 22 611 23 576 25 320 27 295 29 120 31 103 33 117 35 449 37 449 38 605 39 567 40 602 41 502 42 599 43 607 44 166 45 162 46 448 47 451 48 477 
904 0.6152840334344096 -0.08000617220217525 1.3135767815159372 144 171 190 0.75 38 606 39 568 40 603 41 503 42 600 43 608 44 167 45 163 46 449 47 452 48 478 
905 0.6328471061723592 0.2891161929914154 1.196096280424838 95 85 83 0.74 21 571 22 612 25 321 27 296 29 121 31 104 33 118 35 450 37 450 38 607 39 569 40 604 41 504 42 601 43 609 44 168 45 164 46 450 47 453 48 479 
906 0.5368035830184212 0.04887105737927971 1.368647048763505 135 132 126 0.35 40 605 41 505 42 602 43 610 44 169 45 165 46 451 47 454 48 480 
907 0.4567354957905841 -0.0798030149330969 0.9498049887224814 66 70 74 1.11 21 572 22 613 23 577 24 412 25 322 27 297 28 263 29 122 30 103 31 105 33 119 34 113 35 451 36 484 37 451 38 608 39 570 40 606 41 506 42 603 43 611 44 170 45 166 46 452 47 455 48 481 
908 0.7381708383144205 0.29548346834350886 1.051120358740483 52 45 47 1.25 31 106 42 604 43 612 44 171 45 167 46 453 47 456 48 482 
909 0.493010110025776 -0.1746505208945367 0.9302002077082833 26 26 29 0.93 21 573 22 614 23 578 24 413 27 298 35 452 37 452 38 609 39 571 40 607 41 507 42 605 43 613 44 172 45 168 46 454 47 457 48 483 
910 0.5687844956208142 0.1228155034411729 1.3146869488655786 131 125 117 0.32 40 608 41 508 42 606 43 614 44 173 45 169 46 455 47 458 48 484 
911 0.46438124765649946 -0.13335483231593195 0.9205640146316842 129 146 155 0.88 21 574 22 615 23 579 24 414 26 428 27 299 34 114 35 453 36 485 37 453 38 610 39 572 40 609 41 509 42 607 43 615 44 174 45 170 46 456 47 459 48 485 
912 0.6355751417113449 0.21932546659451468 1.2104800342625288 108 106 109 0.58 21 575 22 616 23 580 25 323 27 300 29 123 31 107 33 120 35 454 37 454 38 611 39 573 40 610 41 510 42 608 43 616 44 175 45 171 46 457 47 460 48 486 
913 0.452688012399409 0.02335378816469266 0.9068473502161242 77 79 82 1.45 21 576 22 617 23 581 24 415 25 324 26 429 27 301 28 264 29 124 30 104 31 108 32 115 34 115 35 455 36 486 37 455 38 612 39 574 40 611 41 511 42 609 43 617 44 176 45 172 46 458 47 461 
914 0.2597226759778641 0.15322537089003546 0.9109037843815102 41 38 41 0.85 21 577 22 618 23 582 24 416 31 109 32 116 33 121 34 116 35 456 37 456 38 613 41 512 42 610 43 618 44 177 45 173 46 459 47 462 48 487 
915 0.6647307583492605 0.318088929459474 1.3229498072373245 13 20 13 0.82 35 457 42 611 43 619 44 178 45 174 46 460 47 463 48 488 
916 0.6440642505788156 0.3154984725251929 1.1441790358132153 20 21 28 0.83 27 302 35 458 39 575 40 612 41 513 42 612 43 620 44 179 45 175 46 461 47 464 48 489 
917 0.3670477280963584 0.0847746221731161 0.9949079956644047 85 81 80 0.95 22 619 23 583 24 417 25 325 26 430 27 303 28 265 29 125 30 105 34 117 35 459 36 487 37 457 38 614 39 576 40 613 41 514 42 613 43 621 44 180 45 176 46 462 47 465 48 490 
918 0.6551529006801577 0.29789236561304594 1.3061621657596871 26 32 27 0.8 31 110 33 122 35 460 42 614 43 622 44 181 45 177 46 463 47 466 48 491 
919 0.5922539878522354 -0.025994306534121273 1.3147838158404819 142 141 135 0.38 40 614 41 515 42 615 43 623 44 182 45 178 46 464 47 467 48 492 
920 0.6133743233897266 0.19718804712985696 1.2384032714393907 96 85 81 0.59 21 578 22 620 23 584 25 326 39 577 40 615 41 516 42 616 43 624 44 183 45 179 46 465 47 468 48 493 
921 0.5823600647555335 0.19932138373856578 1.2777093347646653 74 69 69 0.55 22 621 40 616 41 517 42 617 43 625 44 184 45 180 46 466 47 469 48 494 
922 0.2809948808757346 0.3133355492092285 1.6242585918025116 40 26 28 0.94 40 617 44 185 45 181 46 467 47 470 48 495 
923 0.5518012758749357 -0.05628468515416788 1.2058392291689346 17 15 18 0.72 22 622 23 585 25 327 27 304 29 126 31 111 33 123 35 461 36 488 37 458 38 615 39 578 40 618 41 518 42 618 43 626 44 186 45 182 46 468 47 471 48 496 
924 0.2103551188501436 0.3870191950829214 1.7657630871783652 35 35 32 0.84 43 627 44 187 45 183 46 469 47 472 48 497 
925 0.2706695180539487 -0.3270153289676907 0.801836893253373 207 223 230 0.68 21 579 37 459 38 616 39 579 40 619 41 519 42 619 43 628 44 188 45 184 46 470 47 473 48 498 
926 0.6535648972426714 0.3239821708082334 1.1619209411891074 47 34 31 1.18 27 305 35 462 39 580 40 620 41 520 42 620 43 629 44 189 45 185 46 471 47 474 48 499 
927 0.3460095055907964 0.17451817516910706 1.5751633653117172 133 131 129 0.46 40 621 41 521 42 621 43 630 44 190 45 186 46 472 47 475 48 500 
928 0.5380278920556002 0.1369994077309697 1.3492151583005016 112 109 107 0.34 40 622 41 522 42 622 43 631 44 191 45 187 46 473 47 476 48 501 
929 0.6090377294324846 0.25515153987315903 1.2873519941134306 36 50 42 0.73 37 460 39 581 40 623 41 523 42 623 43 632 44 192 45 188 46 474 47 477 48 502 
930 0.609113474515054 0.2846645142368051 0.8799938941853768 26 40 18 1.22 38 617 39 582 40 624 41 524 42 624 43 633 44 193 45 189 46 475 47 478 48 503 
931 0.41877638823624147 0.390665857369863 1.4399257169681736 76 64 61 1.16 41 525 42 625 43 634 44 194 45 190 46 476 47 479 48 504 
932 0.3897097657833385 0.19732004714519277 1.516519519134565 122 117 115 0.46 40 625 41 526 42 626 43 635 44 195 45 191 46 477 47 480 48 505 
933 0.509029803104342 0.03682312112215467 1.1367290434417916 114 113 111 0.77 22 623 23 586 24 418 25 328 27 306 28 266 29 127 31 112 32 117 33 124 34 118 35 463 36 489 37 461 38 618 39 583 40 626 41 527 42 627 43 636 44 196 45 192 46 478 47 481 48 506 
934 0.4920521263138969 0.07352072789097401 1.1126555452097953 118 117 114 0.89 21 580 23 587 24 419 25 329 26 431 27 307 28 267 29 128 32 118 33 125 35 464 36 490 37 462 38 619 39 584 40 627 41 528 42 628 43 637 44 197 45 193 46 479 47 482 48 507 
935 0.45312367904381523 -0.07671686136584628 0.9513314704186201 59 54 51 1.26 21 581 22 624 23 588 24 420 25 330 26 432 27 308 28 268 29 129 30 106 33 126 34 119 35 465 36 491 37 463 38 620 39 585 40 628 41 529 42 629 43 638 44 198 45 194 46 480 47 483 48 508 
936 0.4977818218352867 0.09023573618316845 1.408997522524861 136 136 134 0.42 40 629 41 530 42 630 43 639 44 199 45 195 46 481 47 484 48 509 49 271 60 11 62 9 63 9 64 6 65 6 66 6 67 6 68 6 69 6 70 5 71 5 
937 0.7392924300113402 0.3344832746747199 1.2271682037373923 26 27 33 0.5 33 127 44 200 45 196 46 482 47 485 48 510 
938 0.30772812183986187 0.02476884506055158 0.9669850535590143 45 38 38 1.04 21 582 31 113 33 128 34 120 35 466 39 586 40 630 41 531 42 631 43 640 44 201 45 197 46 483 47 486 48 511 
939 0.7221022294546665 0.3012933944455972 1.035860002311773 44 47 52 1.04 31 114 39 587 41 532 42 632 43 641 44 202 45 198 46 484 47 487 48 512 
940 0.21359299963996478 0.06521945710981493 1.762974956541066 109 102 99 0.35 40 631 41 533 42 633 43 642 44 203 45 199 46 485 47 488 48 513 
941 0.19011609090623727 0.30074698940218514 1.7487527836747805 86 78 75 0.81 40 632 44 204 45 200 46 486 47 489 48 514 49 272 71 6 
942 0.6610169653465562 0.31785049634696727 1.3040365842783748 31 33 29 0.67 31 115 35 467 42 634 43 643 44 205 45 201 46 487 47 490 48 515 
943 0.5374037631948522 -0.09736989189321615 1.188273030260976 72 70 72 0.64 22 625 23 589 24 421 27 309 29 130 33 129 35 468 36 492 37 464 38 621 39 588 40 633 41 534 42 635 43 644 44 206 45 202 46 488 47 491 48 516 
944 0.36713884364911 -0.12037474483527402 1.616068826123329 144 145 142 0.38 40 634 41 535 42 636 43 645 44 207 45 203 46 489 47 492 48 517 
945 0.4630618892988076 0.05146190676718835 0.8921489421605195 131 139 146 1.01 21 583 22 626 23 590 24 422 25 331 26 433 27 310 28 269 29 131 30 107 32 119 34 121 35 469 36 493 37 465 38 622 39 589 40 635 41 536 42 637 43 646 44 208 45 204 46 490 47 493 48 518 
946 0.6515847577363355 0.2772837101182851 1.3246210755534802 17 26 17 0.68 35 470 42 638 43 647 44 209 45 205 46 491 47 494 48 519 
947 0.3180370085036319 0.16656404550638632 1.6144361305643122 76 74 78 0.42 40 636 41 537 42 639 43 648 44 210 45 206 46 492 47 495 48 520 
948 0.6273840268957916 0.07798186018347959 1.2493284693048385 128 133 137 0.48 21 584 22 627 23 591 25 332 27 311 33 130 35 471 37 466 38 623 39 590 40 637 41 538 42 640 43 649 44 211 45 207 46 493 47 496 48 521 
949 0.6051573757812289 0.3176494684968483 1.2257909496990096 64 55 49 0.55 39 591 40 638 41 539 42 641 43 650 44 212 45 208 46 494 47 497 48 522 
950 0.4223352351060443 -0.09620624938399831 1.5392319320564307 122 119 119 0.42 40 639 41 540 42 642 43 651 44 213 45 209 46 495 47 498 48 523 
951 0.464647672419278 0.16418440742461107 0.8457709490218573 119 130 140 0.91 21 585 22 628 23 592 24 423 25 333 26 434 27 312 28 270 29 132 30 108 31 116 32 120 33 131 34 122 35 472 36 494 37 467 38 624 39 592 40 640 41 541 42 643 43 652 44 214 45 210 46 496 47 499 48 524 
952 0.368412521063131 -0.15574493515983173 1.6295961571769109 74 70 67 0.47 40 641 41 542 42 644 43 653 44 215 45 211 46 497 47 500 48 525 
953 0.454497464940035 0.1676617261785074 1.4462208593190908 120 119 117 0.42 40 642 41 543 42 645 43 654 44 216 45 212 46 498 47 501 48 526 
954 0.19464924152016955 -0.07359848188948773 0.6973557710358333 134 146 153 0.6 21 586 22 629 23 593 24 424 25 334 26 435 27 313 28 271 29 133 30 109 31 117 32 121 33 132 34 123 35 473 36 495 37 468 38 625 39 593 40 643 41 544 42 646 43 655 44 217 45 213 46 499 47 502 48 527 
955 -0.28492561899875074 0.08231547011419091 0.5294563718744035 79 70 74 1.12 21 587 22 630 23 594 24 425 26 436 28 272 30 110 32 122 34 124 36 496 39 594 40 644 44 218 46 500 
956 0.3664314026040232 -0.10070690077716751 0.8566611936348001 64 60 51 0.88 21 588 22 631 23 595 24 426 25 335 26 437 27 314 28 273 29 134 30 111 31 118 32 123 34 125 35 474 36 497 37 469 38 626 39 595 40 645 41 545 42 647 43 656 44 219 45 214 46 501 47 503 48 528 
957 0.09119778521833727 0.19940603207644483 0.5573953271722226 82 73 74 1.09 21 589 22 632 24 427 25 336 26 438 27 315 28 274 29 135 30 112 32 124 34 126 36 498 38 627 39 596 40 646 41 546 42 648 43 657 44 220 45 215 46 502 
958 0.3003197284923833 0.2478445107610523 0.6062009780378587 48 38 37 1.12 21 590 22 633 23 596 24 428 25 337 26 439 27 316 28 275 29 136 30 113 31 119 32 125 33 133 34 127 35 475 36 499 38 628 39 597 40 647 41 547 42 649 43 658 44 221 47 504 
959 0.21513805711035217 0.22279101079911623 0.5135646418483495 29 30 30 0.8 21 591 22 634 23 597 24 429 25 338 26 440 27 317 28 276 29 137 30 114 32 126 34 128 36 500 38 629 40 648 41 548 
960 0.20829788696614715 0.18577475007814576 0.6725006917110644 57 55 54 1.09 21 592 22 635 23 598 24 430 25 339 26 441 27 318 28 277 29 138 30 115 31 120 32 127 33 134 34 129 35 476 36 501 37 470 38 630 39 598 40 649 41 549 42 650 43 659 44 222 45 216 46 503 
961 0.43703762452392036 -0.0744772597769996 0.8875615805672473 53 63 31 0.89 21 593 22 636 23 599 24 431 25 340 26 442 27 319 28 278 29 139 30 116 31 121 32 128 33 135 34 130 35 477 36 502 37 471 38 631 39 599 40 650 41 550 42 651 43 660 44 223 45 217 46 504 47 505 48 529 
962 0.1974580511975978 0.12804577344997145 0.6679096639493107 132 131 131 0.8 21 594 22 637 23 600 24 432 25 341 26 443 27 320 28 279 29 140 30 117 31 122 32 129 33 136 34 131 35 478 36 503 37 472 38 632 39 600 40 651 41 551 42 652 43 661 44 224 45 218 46 505 47 506 48 530 
963 0.1260181464220578 -0.12497180130424278 0.874604487092468 11 8 7 0.78 21 595 22 638 24 433 25 342 26 444 27 321 28 280 29 141 30 118 31 123 32 130 33 137 34 132 35 479 38 633 39 601 40 652 41 552 42 653 45 219 46 506 47 507 48 531 
964 0.13762272249100144 0.11297002927375473 0.8262478583571972 39 24 24 0.7 21 596 24 434 25 343 26 445 27 322 28 281 29 142 30 119 31 124 32 131 33 138 34 133 35 480 38 634 39 602 40 653 41 553 42 654 44 225 45 220 46 507 47 508 48 532 
965 0.04971882807094638 0.14077303908521432 0.5250521911662728 181 184 182 0.99 21 597 22 639 23 601 24 435 25 344 26 446 27 323 28 282 30 120 32 132 34 134 36 504 38 635 39 603 40 654 41 554 42 655 43 662 44 226 45 221 46 508 47 509 48 533 
966 0.09355030739682776 0.19454522550728634 0.5415785938289135 31 33 39 0.97 21 598 22 640 23 602 24 436 25 345 26 447 27 324 28 283 29 143 30 121 32 133 34 135 36 505 38 636 39 604 40 655 41 555 42 656 43 663 44 227 45 222 46 509 
967 0.41443545129876336 0.2219840399096301 0.673261822740609 26 29 36 0.94 21 599 22 641 23 603 24 437 25 346 26 448 27 325 28 284 29 144 30 122 31 125 32 134 33 139 34 136 35 481 36 506 38 637 39 605 40 656 41 556 42 657 43 664 44 228 
968 0.24688335488312743 0.2271350859374803 0.6071006359075867 63 70 79 0.95 21 600 22 642 23 604 24 438 25 347 26 449 27 326 28 285 29 145 30 123 31 126 32 135 33 140 34 137 35 482 36 507 38 638 39 606 40 657 41 557 42 658 43 665 44 229 45 223 47 510 
969 0.15371685374777774 -0.027404971461318605 0.8864128031238324 44 43 39 0.82 21 601 23 605 24 439 25 348 26 450 27 327 28 286 29 146 30 124 31 127 32 136 36 508 37 473 38 639 39 607 40 658 41 558 43 666 44 230 45 224 46 510 47 511 48 534 
970 0.3099036128753808 -0.10289760402416906 0.7912728955401713 105 105 108 0.67 21 602 22 643 23 606 24 440 25 349 26 451 27 328 28 287 29 147 30 125 31 128 32 137 33 141 34 138 35 483 36 509 37 474 38 640 39 608 40 659 41 559 42 659 43 667 44 231 45 225 46 511 47 512 48 535 
971 0.4316773191584177 0.022808450442096045 0.8786617623717926 147 150 147 1.12 21 603 22 644 23 607 24 441 25 350 26 452 27 329 28 288 29 148 30 126 31 129 32 138 33 142 34 139 35 484 36 510 37 475 38 641 39 609 40 660 41 560 42 660 
972 0.3038135888712818 -0.1253885047945718 0.788227283966356 136 145 144 0.75 21 604 22 645 23 608 24 442 25 351 26 453 27 330 28 289 29 149 30 127 31 130 32 139 33 143 35 485 36 511 37 476 38 642 39 610 40 661 41 561 42 661 43 668 44 232 45 226 46 512 47 513 48 536 
973 0.058749292957918864 -0.12011798096833219 0.6034931904824539 62 73 64 1.06 21 605 22 646 23 609 24 443 25 352 26 454 27 331 28 290 29 150 30 128 32 140 34 140 36 512 38 643 39 611 40 662 41 562 42 662 43 669 44 233 45 227 46 513 47 514 
974 0.307887061890992 -0.0004849444195053879 0.9917128902977276 24 18 14 0.49 21 606 22 647 24 444 25 353 26 455 27 332 28 291 29 151 30 129 31 131 32 141 33 144 34 141 35 486 38 644 39 612 40 663 41 563 42 663 43 670 44 234 45 228 46 514 47 515 48 537 
975 -0.011666210620810847 -0.017841280133228974 0.740084679656873 71 60 46 0.83 23 610 24 445 25 354 26 456 27 333 28 292 29 152 30 130 31 132 32 142 33 145 34 142 36 513 38 645 39 613 40 664 41 564 43 671 44 235 47 516 48 538 
976 0.46296978700086155 0.025046475334899076 0.8981101966516771 168 177 186 0.78 21 607 22 648 23 611 24 446 25 355 26 457 27 334 28 293 29 153 30 131 31 133 32 143 33 146 34 143 35 487 36 514 37 477 38 646 39 614 40 665 41 565 42 664 43 672 44 236 45 229 46 515 47 517 48 539 
977 0.3270744342286351 0.08430023145895986 0.7543823878186643 124 130 133 0.46 21 608 22 649 23 612 24 447 25 356 26 458 27 335 28 294 29 154 30 132 31 134 32 144 33 147 34 144 35 488 36 515 37 478 38 647 39 615 40 666 41 566 42 665 43 673 44 237 45 230 46 516 47 518 48 540 
978 0.057988430033745354 -0.007750760577633976 0.599039006705618 99 96 98 0.77 21 609 22 650 23 613 24 448 25 357 26 459 27 336 28 295 29 155 30 133 32 145 34 145 36 516 38 648 39 616 40 667 41 567 42 666 43 674 44 238 45 231 46 517 47 519 48 541 
979 0.27125130514433987 0.19116125521330096 0.9290736710773428 118 129 139 0.67 21 610 22 651 23 614 26 460 27 337 28 296 29 156 30 134 31 135 32 146 33 148 34 146 35 489 36 517 37 479 39 617 40 668 41 568 42 667 43 675 44 239 45 232 46 518 47 520 48 542 
980 0.19125159596051203 0.12298988967424515 0.6369420024044274 146 149 149 0.6 21 611 22 652 23 615 24 449 25 358 26 461 27 338 28 297 29 157 30 135 31 136 32 147 33 149 34 147 35 490 36 518 37 480 38 649 39 618 40 669 41 569 42 668 43 676 44 240 45 233 46 519 47 521 48 543 
981 0.3074486054463804 -0.09261919493117929 1.0081723366982565 22 15 12 0.74 21 612 23 616 24 450 25 359 26 462 27 339 28 298 29 158 30 136 31 137 32 148 33 150 34 148 35 491 38 650 39 619 40 670 41 570 42 669 43 677 44 241 45 234 46 520 47 522 48 544 
982 0.45360562865597875 -0.0035993937851386388 0.8788061138159466 84 78 78 0.86 21 613 22 653 23 617 24 451 25 360 26 463 27 340 28 299 29 159 30 137 31 138 32 149 33 151 34 149 35 492 36 519 37 481 38 651 39 620 40 671 41 571 42 670 43 678 44 242 45 235 46 521 47 523 48 545 
983 0.4597965323675071 0.1107706319325758 1.0775669396681007 121 119 117 0.6 21 614 22 654 25 361 26 464 27 341 28 300 29 160 30 138 31 139 32 150 33 152 34 150 35 493 36 520 37 482 38 652 39 621 40 672 41 572 42 671 43 679 44 243 45 236 46 522 47 524 48 546 
984 0.43145591477854855 0.2595244905693451 0.7171998225734635 115 105 108 0.89 21 615 22 655 23 618 24 452 25 362 26 465 27 342 28 301 29 161 30 139 31 140 32 151 33 153 34 151 35 494 36 521 38 653 39 622 40 673 41 573 42 672 43 680 44 244 45 237 46 523 
985 0.4577867573584567 -0.0519826140094073 0.9022073175159188 141 169 181 0.75 21 616 22 656 23 619 24 453 25 363 26 466 27 343 28 302 29 162 30 140 31 141 32 152 33 154 34 152 35 495 36 522 37 483 38 654 39 623 40 674 41 574 42 673 43 681 44 245 45 238 46 524 47 525 48 547 
986 0.19616370824982637 0.22120924811653497 0.5744022434983379 124 115 115 0.78 21 617 22 657 23 620 24 454 25 364 26 467 27 344 28 303 29 163 30 141 32 153 34 153 36 523 38 655 39 624 40 675 41 575 42 674 43 682 44 246 45 239 
987 0.061211804898394485 0.062168986306476375 0.5812336721162774 108 117 119 0.87 21 618 22 658 23 621 24 455 25 365 26 468 27 345 28 304 29 164 30 142 32 154 34 154 36 524 38 656 39 625 40 676 41 576 42 675 43 683 44 247 45 240 46 525 47 526 48 548 
988 0.2114515701608508 0.20467508659592346 0.6672169876014148 76 62 49 0.92 21 619 22 659 23 622 24 456 26 469 27 346 28 305 29 165 30 143 31 142 32 155 33 155 34 155 35 496 36 525 37 484 38 657 39 626 40 677 41 577 42 676 43 684 44 248 45 241 
989 -0.27630961152855654 0.040140760380854734 0.554244116229324 133 140 149 1.08 21 620 22 660 23 623 24 457 26 470 28 306 30 144 32 156 34 156 36 526 39 627 40 678 44 249 46 526 
990 0.19573319145058626 0.007548818558651974 0.6949335162887665 130 136 141 0.6 21 621 22 661 23 624 24 458 25 366 26 471 27 347 28 307 29 166 30 145 31 143 32 157 33 156 34 157 35 497 36 527 37 485 38 658 39 628 40 679 41 578 42 677 43 685 44 250 45 242 46 527 47 527 48 549 
991 -0.27989210222821365 -0.059616822846831036 0.5481738123012467 104 97 91 0.99 21 622 22 662 23 625 24 459 26 472 28 308 30 146 32 158 34 158 36 528 38 659 40 680 41 579 
992 0.1883993111087985 0.19710841852700797 0.5965029606868544 94 88 85 0.84 21 623 22 663 23 626 24 460 25 367 26 473 27 348 28 309 29 167 30 147 31 144 32 159 34 159 36 529 38 660 39 629 40 681 41 580 42 678 43 686 44 251 45 243 46 528 47 528 
993 0.1829424158468982 0.22091406720131415 0.5262070511799125 103 85 82 1.09 22 664 23 627 24 461 25 368 26 474 27 349 28 310 29 168 30 148 32 160 34 160 36 530 38 661 39 630 40 682 41 581 42 679 43 687 44 252 45 244 47 529 
994 0.1885830253255676 -0.009305311309770008 0.6722436624830302 131 135 129 0.58 21 624 22 665 23 628 24 462 25 369 26 475 27 350 28 311 29 169 30 149 31 145 32 161 33 157 34 161 35 498 36 531 37 486 38 662 39 631 40 683 41 582 42 680 43 688 44 253 45 245 46 529 47 530 48 550 
995 0.356698375097154 0.24325410214421767 0.5744492867478443 57 50 46 0.83 21 625 22 666 23 629 24 463 25 370 26 476 27 351 28 312 29 170 30 150 31 146 32 162 33 158 34 162 35 499 36 532 40 684 41 583 
996 0.21115427836486997 0.19001248358076409 0.6327646687397318 58 67 81 0.69 21 626 22 667 23 630 24 464 25 371 26 477 27 352 28 313 29 171 30 151 31 147 32 163 33 159 34 163 35 500 36 533 37 487 38 663 39 632 40 685 41 584 42 681 43 689 44 254 45 246 46 530 47 531 
997 0.4969012273919775 0.2695613120762173 0.8752487135781728 33 38 42 1.04 21 627 22 668 23 631 25 372 27 353 28 314 29 172 30 152 31 148 32 164 33 160 34 164 35 501 36 534 43 690 45 247 46 531 47 532 
998 0.4634780698312698 0.2649830164543514 0.6772797927898466 123 76 72 0.98 21 628 22 669 23 632 24 465 25 373 26 478 27 354 28 315 29 173 30 153 31 149 32 165 33 161 34 165 35 502 36 535 44 255 45 248 
999 0.5214811218180414 0.2763288827144204 0.789794120131108 120 125 133 1.36 22 670 25 374 27 355 28 316 29 174 30 154 31 150 32 166 33 162 34 166 35 503 36 536 38 664 39 633 40 686 41 585 42 682 43 691 44 256 45 249 
1000 -0.21964118782668904 -0.051289010781702275 0.5878833604296398 124 107 96 0.92 21 629 22 671 23 633 24 466 25 375 26 479 28 317 30 155 32 167 34 167 36 537 38 665 39 634 40 687 
1001 0.14039606336090396 -0.11989675888220415 0.891640378601771 56 46 40 0.69 21 630 23 634 24 467 25 376 26 480 27 356 28 318 29 175 30 156 31 151 32 168 33 163 34 168 38 666 39 635 40 688 41 586 44 257 45 250 46 532 47 533 48 551 
1002 0.33572803105058263 0.1643889938374884 0.7604173782207327 164 170 179 0.69 22 672 23 635 24 468 25 377 26 481 27 357 28 319 29 176 30 157 31 152 32 169 33 164 34 169 35 504 36 538 37 488 38 667 39 636 40 689 41 587 42 683 43 692 44 258 45 251 46 533 47 534 
1003 -0.5263655860668159 -0.0026827270466810026 1.3723301652971647 30 24 27 0.75 74 0 75 0 76 0 77 0 78 0 79 0 80 0 81 0 82 0 83 0 84 0 85 0 86 0 87 0 88 0 89 0 
1004 -0.2287811097093049 0.25771583977810714 1.5859347832319044 59 55 37 0.62 74 1 76 1 80 1 82 1 83 1 
1005 -0.35590985216529764 0.27573624618244313 1.8005730712478343 107 138 76 0.86 74 2 75 1 76 2 77 1 83 2 
1006 -0.5363039566534903 -0.032555739202244596 1.3821004514353445 92 91 94 0.59 74 3 75 2 76 3 77 2 78 1 79 1 80 2 81 1 84 1 85 1 86 1 87 1 88 1 89 1 
1007 -0.24879334897346952 0.08820746856307604 1.5849726341197123 179 195 215 1.26 74 4 75 3 76 4 78 2 79 2 80 3 81 2 82 2 83 3 87 2 88 2 89 2 
1008 -0.7493535763098765 -0.05020697708209498 1.1799598890732204 42 32 33 0.81 74 5 75 4 76 5 78 3 79 3 80 4 81 3 84 2 85 2 86 2 87 3 
1009 -0.13122508978673686 0.1104983084804041 1.6824532312751042 182 201 224 0.6 74 6 75 5 76 6 77 3 78 4 82 3 83 4 88 3 89 3 
1010 -0.08597588234730395 0.17224119438813684 1.7186395940401558 133 135 153 0.78 74 7 75 6 76 7 77 4 83 5 88 4 89 4 
1011 -0.31386217068315664 0.4545039667492832 1.7341255395267186 37 31 27 1.22 74 8 75 7 76 8 77 5 82 4 83 6 
1012 -0.16237704427805225 0.43362771975288655 1.747827695229146 26 43 7 1.0 74 9 75 8 76 9 77 6 
1013 -0.14238518374712011 0.20255446408947103 1.6715883994337646 76 57 43 0.6 74 10 75 9 76 10 77 7 82 5 83 7 88 5 89 5 
1014 -0.11425856644848363 0.06626591605303508 1.710563959794773 33 24 26 0.45 74 11 75 10 76 11 77 8 82 6 83 8 88 6 89 6 
1015 -0.6116148182406991 -0.019353498878545126 1.304054322684348 58 39 43 0.38 74 12 75 11 76 12 77 9 78 5 79 4 80 5 81 4 84 3 85 3 86 3 87 4 88 7 89 7 
1016 -0.21966449534634538 0.3787010870901628 1.5590203430207112 120 121 122 1.07 74 13 75 12 76 13 82 7 83 9 89 8 
1017 -0.06800519276586481 0.355308102749826 1.7500777603654805 49 71 16 0.7 74 14 75 13 76 14 
1018 -0.26428196127858855 0.4999570609843287 1.7494157245532023 57 81 59 0.73 74 15 75 14 76 15 
1019 -0.29877924478158724 0.4388349236505738 1.7592254863427146 53 65 26 0.54 74 16 75 15 76 16 77 10 82 8 
1020 -0.10487937257276149 0.2763985649881874 1.6777019178009183 25 20 16 0.56 74 17 75 16 76 17 77 11 82 9 88 8 89 9 
1021 -0.1400775771990765 0.33899410028176963 1.636629815475935 65 64 58 0.98 74 18 75 17 76 18 82 10 83 10 88 9 89 10 
1022 -0.08616114315174199 0.3303582281348891 1.6851956257614769 128 128 130 0.68 74 19 75 18 76 19 77 12 88 10 89 11 
1023 -0.5788777125057966 -0.04306075625141791 1.3482287638721517 105 98 95 0.47 74 20 75 19 76 20 77 13 78 6 79 5 80 6 81 5 84 4 85 4 86 4 87 5 88 11 89 12 
1024 -0.15860239588691133 0.379498838519616 1.7807393671762461 79 97 71 0.38 74 21 75 20 76 21 77 14 
1025 -0.6492746570757233 0.08714958836644238 1.2327541976480265 157 159 186 0.8 74 22 75 21 76 22 77 15 78 7 79 6 84 5 85 5 86 5 87 6 88 12 89 13 
1026 -0.09920498858063027 0.13988179918611535 1.7008716071656393 87 92 92 0.71 74 23 75 22 76 23 77 16 82 11 83 11 88 13 89 14 
1027 -0.22245141058816922 0.33324195942020307 1.5757745127843283 119 121 126 0.97 74 24 82 12 83 12 89 15 
1028 -0.2900432517645974 0.41823158634153396 1.8044584627738174 178 181 191 0.72 74 25 75 23 76 24 
1029 -0.27113565335074863 0.07562318528115893 1.5761872502516645 83 72 88 0.8 74 26 75 24 76 25 77 17 78 8 79 7 80 7 81 6 82 13 83 13 85 6 86 6 87 7 88 14 89 16 
1030 -0.28452037502141064 0.007966353859806078 1.5920647002184019 110 124 131 0.62 74 27 75 25 76 26 77 18 78 9 79 8 80 8 81 7 82 14 83 14 85 7 86 7 87 8 88 15 89 17 
1031 -0.2734241979097015 0.040449985528568884 1.5882516932787356 39 33 34 0.58 74 28 75 26 76 27 77 19 78 10 79 9 80 9 81 8 82 15 83 15 85 8 86 8 87 9 88 16 89 18 
1032 -0.2080139799637125 0.10242358929944873 1.6299311683598994 150 150 151 1.02 74 29 75 27 76 28 77 20 78 11 79 10 82 16 83 16 88 17 89 19 
1033 -0.5324662804022534 -0.009901279987288259 1.3718728783867815 123 105 114 0.84 74 30 75 28 76 29 77 21 78 12 79 11 80 10 81 9 82 17 83 17 84 6 85 9 86 9 87 10 88 18 89 20 90 0 91 0 92 0 93 0 94 0 95 0 96 0 97 0 
1034 -0.3308040864205707 -0.0005822066048397597 1.5533061587904833 100 113 119 0.76 74 31 75 29 76 30 77 22 78 13 79 12 80 11 81 10 82 18 83 18 84 7 85 10 86 10 87 11 88 19 89 21 90 1 91 1 92 1 93 1 94 1 95 1 96 1 
1035 0.00321492909721235 0.3185387052841541 1.7482093962026868 97 100 103 0.56 74 32 75 30 76 31 82 19 89 22 
1036 0.05346140942974418 0.3475461575556174 1.7813466381019651 109 115 124 1.8 74 33 75 31 82 20 83 19 89 23 
1037 -0.6986929455159036 0.3005274355553612 1.4668827085233183 106 111 94 0.74 78 14 79 13 80 12 81 11 84 8 85 11 86 11 87 12 88 20 89 24 
1038 -0.5004119099265872 0.40623025487866354 1.561826614196502 34 36 20 0.88 78 15 79 14 80 13 81 12 82 21 83 20 
1039 -0.32295423084176733 0.3291232189771952 1.4854055562575306 122 118 112 0.7 78 16 79 15 80 14 81 13 82 22 83 21 84 9 85 12 86 12 87 13 88 21 89 25 
1040 -0.3225104902559514 0.11309308391387032 1.5285974882136615 49 48 58 0.45 77 23 78 17 79 16 80 15 81 14 82 23 83 22 84 10 85 13 86 13 87 14 88 22 89 26 90 2 91 2 92 2 93 2 94 2 95 2 96 2 
1041 -0.2588976528141038 0.009492885376467353 1.6093268013726376 27 24 25 0.66 74 34 75 32 76 32 77 24 79 17 80 16 81 15 82 24 83 23 85 14 87 15 88 23 89 27 
1042 -0.3393869995240017 0.2730710369567913 1.48278567274954 122 118 116 0.51 78 18 79 18 80 17 81 16 82 25 83 24 84 11 85 15 86 14 87 16 
1043 -0.7150481105899597 0.3792766018204781 1.4334309406018635 70 88 70 0.95 79 19 80 18 81 17 84 12 85 16 86 15 87 17 88 24 89 28 
1044 -0.47273612828503364 0.1034961960583822 1.4012998922991549 122 119 126 0.39 75 33 76 33 77 25 78 19 79 20 80 19 81 18 82 26 83 25 84 13 85 17 86 16 87 18 88 25 89 29 
1045 -0.7247350515394202 0.3184389778944652 1.3800883279207385 23 28 26 0.94 78 20 79 21 80 20 81 19 84 14 85 18 86 17 87 19 
1046 -0.6273597592917594 0.24013717537702042 1.4989998306803562 105 122 98 1.23 78 21 79 22 80 21 81 20 82 27 83 26 84 15 
1047 -0.5285394873127416 0.11251353212306946 1.3400204176144446 97 101 119 0.44 75 34 76 34 77 26 78 22 79 23 80 22 81 21 82 28 84 16 85 19 86 18 87 20 88 26 89 30 
1048 -0.4363096744660499 0.10729934085455933 1.4323054995224964 172 174 175 0.48 75 35 76 35 77 27 78 23 79 24 80 23 81 22 82 29 83 27 84 17 85 20 86 19 87 21 88 27 89 31 
1049 -0.292673593139288 0.023597968418787706 1.5795897385761823 110 98 92 0.74 74 35 75 36 76 36 77 28 78 24 79 25 80 24 81 23 82 30 83 28 84 18 85 21 86 20 87 22 88 28 89 32 
1050 -0.3250680927862175 0.18396778696569432 1.516154636792334 111 86 82 0.71 77 29 78 25 79 26 80 25 81 24 82 31 83 29 84 19 85 22 86 21 93 3 94 3 95 3 
1051 -0.34438832775866707 0.14146982735272895 1.5076193024593376 149 154 159 0.58 76 37 77 30 78 26 79 27 80 26 81 25 82 32 83 30 84 20 85 23 86 22 88 29 89 33 87 23 90 3 91 3 92 3 93 4 94 4 95 4 96 3 
1052 -0.8269014724847875 0.14157571228009233 1.078530001993722 60 69 62 0.75 79 28 80 27 81 26 84 21 85 24 86 23 87 24 88 30 89 34 
1053 -0.6574065279203467 0.015685998645540343 1.2430047202811738 56 48 58 0.43 74 36 75 37 76 38 77 31 78 27 79 29 80 28 81 27 84 22 85 25 86 24 87 25 88 31 89 35 
1054 -0.7845394540661681 0.3278849233483 1.365822689146639 9 11 10 1.04 80 29 81 28 84 23 85 26 86 25 87 26 89 36 
1055 -0.6587551323334099 0.3080228906933316 1.4456487509692553 26 23 17 0.93 78 28 79 30 80 30 81 29 83 31 84 24 85 27 86 26 87 27 88 32 89 37 
1056 -0.6464710643030189 0.0641376577059223 1.2349005661329902 53 68 76 0.34 74 37 75 38 76 39 77 32 78 29 79 31 80 31 81 30 84 25 85 28 86 27 87 28 88 33 89 38 
1057 -0.28447605797681924 0.1441181250274962 1.5553284876459175 57 53 64 0.65 77 33 78 30 79 32 80 32 81 31 82 33 83 32 85 29 86 28 87 29 88 34 89 39 
1058 -0.8269421605531894 0.10934857718421218 1.0756883264156512 72 65 74 0.66 79 33 80 33 81 32 84 26 85 30 86 29 87 30 88 35 89 40 
1059 -0.251678445495385 0.3441886334394768 1.5303026344543942 80 90 94 0.58 78 31 79 34 80 34 81 33 82 34 83 33 88 36 89 41 
1060 -0.4063030768544747 0.08754034194131176 1.4622609205815473 90 87 100 0.44 75 39 76 40 77 34 78 32 79 35 80 35 81 34 82 35 83 34 84 27 85 31 86 30 87 31 88 37 89 42 90 4 91 4 92 4 93 5 94 5 95 5 96 4 
1061 -0.6268560818732086 0.07396353361129956 1.2500334465202254 131 155 75 0.35 74 38 75 40 76 41 77 35 78 33 79 36 81 35 84 28 85 32 86 31 87 32 88 38 89 43 
1062 -0.6419354879713363 -0.04529982797567295 1.2787067270271117 127 105 108 0.35 74 39 75 41 76 42 77 36 78 34 79 37 80 36 81 36 84 29 85 33 86 32 87 33 88 39 89 44 
1063 -0.36148420157007266 0.04793589014224463 1.4952788217569437 166 188 211 0.31 74 40 75 42 76 43 77 37 78 35 79 38 80 37 81 37 82 36 83 35 84 30 85 34 86 33 87 34 88 40 89 45 
1064 -0.34140451480090095 0.35299188191033065 1.4680703787720093 68 80 62 0.64 76 44 77 38 78 36 79 39 80 38 81 38 82 37 83 36 85 35 86 34 87 35 88 41 89 46 
1065 -0.347997956625712 0.30296246215114714 1.4511817515069272 115 122 138 0.46 77 39 78 37 79 40 80 39 81 39 82 38 83 37 84 31 85 36 86 35 87 36 
1066 -0.7940445528905115 0.2826356512649412 1.342684080145651 116 116 55 0.75 80 40 81 40 84 32 85 37 86 36 
1067 -0.5113035106757554 -0.023687580245868412 1.395915513192765 93 85 87 0.33 74 41 75 43 76 45 77 40 78 38 79 41 80 41 81 41 82 39 84 33 85 38 86 37 87 37 88 42 89 47 
1068 -0.3538849462847261 0.11542369424473617 1.4848605883389963 120 135 156 0.43 76 46 77 41 78 39 79 42 80 42 81 42 82 40 83 38 84 34 85 39 86 38 87 38 88 43 89 48 
1069 -0.6686088446994803 0.36763494636394994 1.4246095270888584 50 50 43 1.23 78 40 79 43 80 43 81 43 83 39 84 35 85 40 86 39 87 39 88 44 89 49 
1070 -0.27748680703818046 0.1763392630902947 1.5576360462987668 73 62 62 0.77 78 41 79 44 80 44 81 44 82 41 83 40 89 50 
1071 -0.7874643161220711 -0.06147227425945 1.146409258453945 95 82 86 0.32 75 44 78 42 79 45 80 45 81 45 84 36 85 41 86 40 87 40 88 45 89 51 
1072 -0.8035968221318259 0.06704368803363209 1.1056142430703506 119 118 124 0.43 80 46 81 46 84 37 85 42 86 41 87 41 88 46 89 52 
1073 -0.519290347185148 0.10042115373143391 1.3452567312979284 78 109 124 0.41 75 45 76 47 77 42 78 43 79 46 80 47 81 47 82 42 83 41 84 38 85 43 86 42 87 42 88 47 89 53 
1074 -0.3393519398767958 0.24273252369306747 1.4916750920474227 129 130 132 0.42 77 43 78 44 79 47 80 48 81 48 82 43 83 42 84 39 85 44 86 43 
1075 -0.39535890269497287 0.17291371146976448 1.45565966217895 147 136 133 0.35 75 46 76 48 77 44 78 45 79 48 80 49 81 49 82 44 83 43 84 40 85 45 
1076 -0.7347420981255309 0.3303146820937265 1.383851841263481 27 33 27 0.9 78 46 79 49 80 50 81 50 84 41 85 46 86 44 87 43 88 48 89 54 
1077 -0.7995880271068084 0.33752865595669934 1.3693215613000116 30 35 35 1.22 81 51 84 42 85 47 86 45 87 44 89 55 
1078 -0.7602278090709321 0.047303223552348575 1.1335063168780082 203 204 214 0.49 75 47 79 50 80 51 81 52 84 43 85 48 86 46 87 45 88 49 89 56 
1079 -0.5252371688122369 0.3201013323028657 1.295403839499821 68 67 71 0.89 75 48 76 49 77 45 78 47 79 51 80 52 81 53 82 45 83 44 84 44 85 49 86 47 
1080 -0.4796595426141594 0.3214813719314185 1.3458144160827636 30 23 25 0.49 75 49 76 50 77 46 78 48 79 52 80 53 81 54 82 46 83 45 84 45 85 50 86 48 87 46 
1081 -0.27785137543525135 0.2752986856725874 1.53920285789825 139 136 135 0.64 79 53 80 54 81 55 82 47 83 46 88 50 
1082 -0.7112570893051462 0.40656014950636427 1.506401842888682 35 41 23 0.76 79 54 80 55 81 56 88 51 89 57 
1083 -0.3052466472044735 0.35346662994893524 1.5007993243058448 120 121 121 0.72 78 49 79 55 80 56 81 57 82 48 83 47 88 52 89 58 
1084 -0.7135697211197441 0.38225458442503907 1.4669099642139913 72 87 57 0.62 79 56 80 57 81 58 84 46 89 59 
1085 -0.2743624334376243 0.31940031486230813 1.5271779921018505 125 132 140 0.29 78 50 79 57 80 58 81 59 82 49 83 48 88 53 
1086 -0.7874397850864678 0.15360122916958807 1.1237697900402535 34 48 37 0.78 80 59 81 60 84 47 85 51 86 49 87 47 88 54 89 60 
1087 -0.36388711704090554 0.30089008975780124 1.4405057544688518 89 94 98 0.47 76 51 77 47 78 51 79 58 80 60 81 61 82 50 83 49 84 48 85 52 86 50 87 48 
