# 3D point list with one line of data per point:
#   POINT3D_ID, X, Y, Z, R, G, B, ERROR, TRACK[] as (IMAGE_ID, POINT2D_IDX)
# Number of points: 435, mean track length: 7.89
1362 0.0345261964989508 -0.0395675990074086 1.3049641311465408 0 0 0 0.15 57 401 78 328 177 319 189 242 
1363 0.06589868551289843 -0.029428110658454028 1.300408204090563 0 0 0 0.42 23 220 55 179 57 402 78 329 140 409 168 293 177 320 
1364 0.10923443928930726 -0.025182321009158258 1.3078652458747362 0 0 0 0.11 57 403 177 321 189 243 
1365 -0.4794875080400311 -0.03906757392788161 0.9377378019866032 0 0 0 0.33 57 404 59 242 121 24 131 214 168 294 
1366 0.04105830815456779 -0.018199822959011763 1.3005319092064576 0 0 0 0.2 57 405 78 330 177 322 189 244 
1367 -0.1998826298153847 -0.019018490545007153 1.3224554746684636 0 0 0 0.36 57 406 78 331 233 320 68 847 143 204 150 370 168 295 
1368 -0.1516242278295235 0.0060356027073473 1.3163046311106035 0 0 0 0.18 57 407 78 332 150 371 168 296 189 245 191 266 216 276 
1369 -0.4940050466840061 0.006974430411551525 0.8916410063047612 0 0 0 0.82 57 408 99 330 144 282 168 297 210 55 212 214 233 321 
1370 0.04106772772973786 0.026616597717866057 1.2937207740660044 0 0 0 0.41 57 409 78 333 106 296 189 246 191 267 
1371 0.1748703362942044 0.04087657087938085 1.2814260002023918 0 0 0 0.17 57 410 106 297 177 323 189 247 
1372 -0.03642860104613997 0.04136994091912575 1.2950012563563997 0 0 0 0.18 57 411 80 68 99 331 
1373 0.19928755989100436 0.045174605874724084 1.2792915590627676 0 0 0 0.36 57 412 78 334 106 298 177 324 189 248 
1374 0.041616171165386906 0.051854827763412034 1.2931239431910369 0 0 0 0.2 57 413 78 335 106 299 189 249 
1375 -0.4379286199928619 0.06260502887577697 1.1471911818413927 0 0 0 0.36 57 414 102 95 116 159 166 167 168 298 226 139 
1376 0.008605433487824615 0.10188080373232919 1.2898457256751756 0 0 0 0.44 57 415 78 336 79 49 191 268 
1377 -0.2521705712472304 0.10969228011842946 1.3189711931827017 0 0 0 0.37 57 416 78 337 191 269 
1378 -0.18312347004067886 -0.10398011207227029 1.3276454999590857 0 0 0 0.78 57 417 78 338 115 140 150 372 168 299 191 270 
1379 0.10030990036801372 -0.08165892627032205 1.3089295376784786 0 0 0 0.29 57 418 78 339 106 300 
1380 -0.342864294043986 -0.08322950340246571 1.3677916382150994 0 0 0 0.19 31 368 57 419 78 340 99 332 144 283 150 373 191 271 233 322 
1381 0.10855469622016992 -0.043351246967811154 1.292624077276029 0 0 0 0.71 57 420 72 269 78 341 150 374 177 325 189 250 
1382 -0.01403989774656289 0.039940201478997094 1.2940837120083089 0 0 0 0.84 57 421 78 342 99 333 115 141 191 272 
1383 0.14182875183072338 0.060077399963276906 1.291103708159829 0 0 0 0.19 57 422 78 343 189 251 
1384 -0.3031337359894352 -0.11355641137065188 1.3807106332730097 0 0 0 0.8 57 423 59 243 115 142 133 66 150 375 168 300 202 230 228 295 
1385 -0.053620577154444134 -0.04530792816527522 1.3127368250654012 0 0 0 0.17 57 424 78 344 189 252 
1386 -0.3604793898057467 -0.024182296368373813 1.3628223312690884 0 0 0 0.63 57 425 78 345 140 410 144 284 150 376 189 253 191 273 
1387 0.06550293713089794 0.0003407731096905297 1.3017636346038282 0 0 0 0.48 57 426 78 346 189 254 191 274 
1388 0.07866453972902962 0.02509439829143139 1.289605504313121 0 0 0 0.2 57 427 78 347 106 301 177 326 189 255 
1389 0.018041866846063837 0.027507703856676818 1.3196349683957107 0 0 0 0.11 57 428 189 256 191 275 
1390 0.020335241692633618 0.08094830400202718 1.2843266079050335 0 0 0 0.61 23 221 57 429 72 270 78 348 140 411 168 301 191 276 
1391 0.13551863385456422 -0.1700790688410624 1.3441924173682227 0 0 0 0.62 57 430 78 349 150 377 106 302 
1392 -0.3298208956176173 -0.08067607273912417 1.3626981834299376 0 0 0 0.86 57 431 78 350 99 334 
1393 -0.42543929910390754 -0.18695468104213667 1.2658402135769935 0 0 0 0.32 59 244 94 105 119 166 125 160 137 175 140 412 143 205 150 378 168 302 178 182 191 277 193 211 202 231 211 140 215 130 218 171 233 323 
1394 -0.5939029540558711 -0.10446555249870511 0.5665915009718163 0 0 0 0.27 59 245 72 271 131 215 153 42 168 303 178 183 180 222 212 215 
1395 -0.4640448047996607 0.043567055102097615 1.0174575705255235 0 0 0 0.23 59 246 140 413 168 304 173 197 177 327 
1396 -0.408413511474912 0.09781072337508886 1.223389901914608 0 0 0 0.47 59 247 168 305 202 232 
1397 -0.5505689880269693 -0.11913945574880251 0.7128405588552621 0 0 0 0.24 59 248 94 106 168 306 178 184 218 172 
1398 -0.5769878930985107 -0.12084751635646139 0.5767588305023056 0 0 0 0.33 59 249 72 272 86 47 94 107 115 143 116 160 125 161 151 219 166 168 168 307 178 185 180 223 191 278 193 212 202 233 218 173 226 140 
1399 -0.5490919821403968 -0.09198388966622105 0.7655319410375365 0 0 0 0.57 59 250 94 108 102 96 131 216 153 43 168 308 173 198 
1400 -0.5946611725209335 -0.11507770813489113 0.5625577997243455 0 0 0 0.48 59 251 72 273 102 97 116 161 131 217 143 206 153 44 168 309 180 224 218 174 226 141 
1401 -0.09848040457751832 -0.12907343852771982 1.3242556456813854 0 0 0 0.53 68 848 78 351 79 50 
1402 -0.11710256199659964 0.004930883304114379 1.3110273117645017 0 0 0 0.06 68 849 78 352 191 279 
1403 -0.24767914156803406 -0.03351597894257737 1.3287523733076163 0 0 0 0.22 68 850 78 353 150 379 
1404 -0.09683409625385331 0.027726476008665527 1.2963254966790718 0 0 0 0.71 68 851 140 414 168 310 177 328 
1405 0.13542068539460697 -0.20043816420399238 1.3544387316855953 0 0 0 0.57 72 274 78 354 106 303 150 380 177 329 
1406 -0.22823198963579874 -0.12141861868060429 1.3315411523653837 0 0 0 0.16 72 275 78 355 233 324 
1407 -0.32283367933107404 -0.12341029313939218 1.3680135240091025 0 0 0 0.33 72 276 78 356 99 335 233 325 
1408 -0.33131274011269807 -0.11347339793938419 1.369434051984897 0 0 0 0.17 31 369 72 277 78 357 99 336 140 415 144 285 150 381 191 280 212 216 216 277 228 296 233 326 
1409 -0.21782598567060818 -0.09760396388600363 1.3255846700219953 0 0 0 0.31 72 278 78 358 99 337 216 278 233 327 
1410 -0.11452411608037091 -0.09094227812854581 1.319532580520348 0 0 0 0.37 72 279 78 359 106 304 140 416 150 382 
1411 -0.44000960487300794 -0.11142999949972153 1.4010291096265481 0 0 0 0.22 72 280 106 305 140 417 233 328 
1412 -0.1744309255235695 -0.0900357302959057 1.3203383044884829 0 0 0 0.35 72 281 78 360 79 51 80 69 99 338 140 418 216 279 233 329 
1413 -0.4410885366930981 -0.10534486653024042 1.4035401007959654 0 0 0 0.19 72 282 106 306 150 383 233 330 78 361 
1414 -0.076758863523853 -0.07532324210438274 1.3137501509621416 0 0 0 0.17 72 283 78 362 79 52 80 70 99 339 140 419 150 384 
1415 -0.4425542268817186 -0.06526935297179756 1.3982697711421304 0 0 0 0.3 72 284 106 307 140 420 150 385 177 330 233 331 
1416 -0.3441271718992273 -0.025650026944072177 1.3619606326180234 0 0 0 0.27 72 285 78 363 79 53 99 340 106 308 140 421 143 207 150 386 216 280 228 297 
1417 -0.3514814940956196 -0.020177950864723376 1.3605514116488027 0 0 0 0.42 72 286 99 341 140 422 
1418 -0.3521006778757346 -0.014192316937225823 1.3597305212921456 0 0 0 0.2 72 287 78 364 99 342 
1419 -0.05064285930187928 -0.0014792296640893574 1.3066158424922738 0 0 0 0.3 72 288 80 71 99 343 106 309 177 331 
1420 -0.1968177925047296 0.01790333568542075 1.311867883332635 0 0 0 0.15 72 289 78 365 140 423 233 332 
1421 -0.1476727462005454 0.05760004894200472 1.310576219880412 0 0 0 0.26 72 290 80 72 106 310 143 208 
1422 -0.3341669161679335 0.08340632883514142 1.3486031784788972 0 0 0 0.21 72 291 78 366 143 209 
1423 -0.018542958535036517 0.09067019148108064 1.2930210974860339 0 0 0 0.23 72 292 78 367 99 344 
1424 -0.06856473186014538 0.09409028456921116 1.2932593507998205 0 0 0 0.35 72 293 78 368 80 73 99 345 140 424 
1425 -0.15610507029677165 0.1091548452747247 1.3010762037446488 0 0 0 0.31 72 294 78 369 80 74 99 346 140 425 233 333 
1426 -0.04219796006549872 -0.10489933754790197 1.3172890087720124 0 0 0 0.24 72 295 80 75 99 347 106 311 
1427 -0.08959922372376647 -0.08709545096322029 1.3156567017783842 0 0 0 0.29 72 296 78 370 79 54 140 426 150 387 
1428 -0.44612369916951905 -0.08109884852965674 1.4018339982199515 0 0 0 0.17 72 297 78 371 140 427 150 388 191 281 228 298 233 334 
1429 -0.2023822045641035 -0.04600771134858566 1.3229223104724361 0 0 0 0.2 72 298 78 372 216 281 233 335 
1430 -0.33818854678648796 -0.022123656141848157 1.3665343309701614 0 0 0 0.06 72 299 150 389 191 282 
1431 -0.4030755466097313 0.01800036117268201 1.3725676593061953 0 0 0 0.25 72 300 99 348 150 390 
1432 -0.05856931946014852 0.0380050787198244 1.2997532004183332 0 0 0 0.42 72 301 78 373 80 76 99 349 140 428 177 332 
1433 -0.3701170299553992 0.037393752077245775 1.3691399739443835 0 0 0 0.03 72 302 143 210 191 283 
1434 -0.3522878627999587 0.04142143210161489 1.353674612600621 0 0 0 0.18 72 303 99 350 140 429 150 391 177 333 189 257 191 284 
1435 -0.37489436541880894 0.04800940169706666 1.355199198780232 0 0 0 0.16 72 304 99 351 140 430 144 286 150 392 191 285 
1436 -0.37416340530161596 0.05959993593911138 1.356485184552178 0 0 0 0.14 72 305 99 352 140 431 150 393 177 334 
1437 -0.05801495800557835 0.07615464887855125 1.2978307618461171 0 0 0 0.27 72 306 78 374 79 55 106 312 140 432 
1438 -0.18409365761179564 0.0948816794647615 1.306515482706813 0 0 0 0.26 57 432 72 307 78 375 79 56 80 77 99 353 177 335 233 336 
1439 -0.1980209088159017 0.10517364149327915 1.2993255004832935 0 0 0 0.24 30 287 72 308 78 376 99 354 106 313 119 167 140 433 150 394 177 336 191 286 216 282 
1440 -0.5809096798121979 -0.1170285217066644 0.6436292167973886 0 0 0 0.27 72 309 102 98 151 220 153 45 168 311 
1441 -0.10944652585456281 -0.10694394994229951 1.3214547754622648 0 0 0 0.21 72 310 78 377 106 314 140 434 150 395 177 337 191 287 
1442 -0.399421613494488 -0.11705511760968922 1.387454686333102 0 0 0 0.22 72 311 99 355 106 315 150 396 189 258 191 288 233 337 
1443 -0.0722203071851013 -0.026362517871357034 1.3206673416511483 0 0 0 0.3 72 312 168 312 191 289 
1444 -0.1571372831094744 -0.010344439745153882 1.311201193343859 0 0 0 0.29 72 313 80 78 106 316 
1445 -0.4150501796390208 0.03850994058467468 1.378114605129807 0 0 0 0.16 72 314 143 211 191 290 
1446 -0.17672174057774706 0.08111371632677199 1.311136112889862 0 0 0 0.15 72 315 106 317 140 435 
1447 -0.5945876703797051 -0.18156824007916064 0.47471343948179856 0 0 0 0.37 72 316 143 212 168 313 183 83 191 291 193 213 218 175 228 299 
1448 -0.5841951695434981 -0.17831447675841006 0.5056248026365464 0 0 0 0.33 72 317 102 99 131 218 143 213 153 46 168 314 173 199 191 292 193 214 218 176 
1449 -0.5427142395193085 -0.28322632896066763 1.2104998003686573 0 0 0 0.16 72 318 168 315 226 142 
1450 -0.5906746529509801 -0.17459076123612968 0.5189759592178586 0 0 0 0.15 72 319 153 47 168 316 173 200 
1451 -0.5341694750227755 -0.2779023739844598 1.257227830522335 0 0 0 0.12 72 320 168 317 226 143 
1452 -0.6005431739968699 -0.16926471907127735 0.5873294860818418 0 0 0 0.75 72 321 115 144 168 318 
1453 -0.5101397567207664 -0.258734240298905 1.2809259256044945 0 0 0 0.4 72 322 143 214 168 319 
1454 -0.5851950372822662 -0.16820956524345543 0.6035941239867276 0 0 0 0.45 72 323 115 145 168 320 173 201 
1455 -0.5122590928116976 -0.2529545156192513 1.2607999804516203 0 0 0 0.14 72 324 143 215 168 321 
1456 -0.5165936383773689 -0.17598859208986256 0.8594159268329724 0 0 0 0.27 72 325 168 322 191 293 210 56 226 144 
1457 -0.42789220175434595 -0.17323355172240082 1.2641959894403525 0 0 0 0.11 72 326 143 216 168 323 226 145 
1458 0.1334881462053546 -0.11170300696346508 1.3125600742263845 0 0 0 0.4 24 193 72 327 78 378 150 397 168 324 
1459 -0.5966591338531365 -0.09741219257479126 0.5161082095218842 0 0 0 0.48 72 328 102 100 131 219 168 325 173 202 178 186 180 225 202 234 218 177 
1460 -0.3255501967293471 -0.11640145295122181 1.367118475784049 0 0 0 0.31 31 370 72 329 78 379 99 356 115 146 140 436 143 217 144 287 150 398 177 338 189 259 191 294 212 217 216 283 228 300 233 338 
1461 -0.29037842704929034 -0.11096972148931793 1.3563627149976059 0 0 0 0.43 72 330 99 357 106 318 140 437 144 288 150 399 177 339 233 339 
1462 -0.380657856533145 -0.10767101851289795 1.3743451878654829 0 0 0 0.07 72 331 102 101 143 218 168 326 226 146 
1463 -0.36459140375235805 -0.10391811441350815 1.3778383141945933 0 0 0 0.36 72 332 78 380 150 400 189 260 191 295 233 340 
1464 0.09736448255976982 -0.07269928408054258 1.3225669601351437 0 0 0 0.18 72 333 168 327 177 340 
1465 0.07328592846386249 -0.07272756022228104 1.3113486631303874 0 0 0 0.2 72 334 168 328 191 296 
1466 0.08378086285028408 -0.04335687950069215 1.2973400305120553 0 0 0 0.41 72 335 78 381 168 329 106 319 150 401 
1467 -0.08342968390081107 -0.0410947677357856 1.3135732528649355 0 0 0 0.5 72 336 78 382 140 438 189 261 191 297 
1468 -0.2288217504853455 -0.034547407310293286 1.3250582436223126 0 0 0 0.29 72 337 78 383 140 439 228 301 
1469 -0.03176157446860026 0.021592917710335734 1.3185732960189356 0 0 0 0.13 72 338 168 330 177 341 
1470 -0.5643933949762476 0.023448904930826093 0.49603567441286095 0 0 0 0.52 72 339 115 147 168 331 191 298 226 147 
1471 -0.5871300106170517 -0.17907220621570422 0.5150780654763106 0 0 0 0.36 72 340 168 332 173 203 178 187 
1472 -0.4336330798808987 -0.27339563258651617 1.249847929765524 0 0 0 0.24 72 341 168 333 226 148 
1473 -0.5530272493047237 -0.1656163011817093 0.7208468553793212 0 0 0 0.22 72 342 168 334 226 149 
1474 -0.5996768045644816 -0.14269219384097942 0.5360401179687474 0 0 0 0.1 72 343 153 48 168 335 173 204 
1475 -0.5844835016814658 -0.11986805233266919 0.49618643414073843 0 0 0 0.4 72 344 131 220 153 49 168 336 173 205 
1476 -0.5854791858228275 -0.1234067180025849 0.6033487603705134 0 0 0 0.23 72 345 102 102 131 221 168 337 178 188 218 178 
1477 0.1286268567037939 -0.1377581762639747 1.319690052035714 0 0 0 0.04 72 346 168 338 191 299 
1478 -0.015521992191603547 -0.1449904184714839 1.311992283821414 0 0 0 0.08 72 347 140 440 168 339 
1479 0.10547715975236283 -0.1293260845800561 1.3420441849176095 0 0 0 0.44 72 348 140 441 168 340 
1480 -0.43089047526445523 -0.15029653455399286 1.2451320485123696 0 0 0 0.36 72 349 168 341 226 150 
1481 -0.418420720605078 -0.11675277774742246 1.266544368782529 0 0 0 0.29 72 350 143 219 168 342 226 151 
1482 -0.0995729058774808 -0.10192793164513717 1.319014286357325 0 0 0 0.23 72 351 140 442 150 402 168 343 
1483 -0.41278790703793256 -0.12123718180148609 1.3860238698987195 0 0 0 0.18 72 352 168 344 226 152 
1484 0.040243652266214236 -0.06588718666838249 1.299182792570727 0 0 0 0.06 72 353 168 345 191 300 
1485 -0.42586674186013324 -0.09137875839993574 1.3154036201787271 0 0 0 0.5 72 354 168 346 178 189 225 49 173 206 
1486 -0.2707546009425875 -0.07926716760281623 1.3353618502758862 0 0 0 0.3 72 355 143 220 168 347 
1487 -0.5910360570691964 -0.05267651435405149 0.5462385031245058 0 0 0 0.23 72 356 153 50 168 348 173 207 226 153 
1488 -0.5784348353929017 -0.04637205207105992 0.6242047991949196 0 0 0 0.23 72 357 153 51 168 349 226 154 
1489 -0.6003710724325418 -0.035952698679765936 0.5280188420858882 0 0 0 0.14 72 358 153 52 168 350 173 208 
1490 0.047699980858961585 -0.0029464329122451207 1.3034249638626583 0 0 0 0.65 57 433 72 359 78 384 140 443 177 342 
1491 0.04099853149585012 0.03810783923200498 1.295167669454851 0 0 0 0.24 72 360 168 351 177 343 202 235 
1492 0.03400700944359454 0.048469833323605 1.2934499877713632 0 0 0 0.1 72 361 168 352 191 301 
1493 -0.5614739326227748 0.015508451045285402 0.5412661143517515 0 0 0 0.14 72 362 168 353 226 155 
1494 -0.43166540530867803 0.06760384022977038 1.3878668376119994 0 0 0 0.21 57 434 72 363 150 403 168 354 189 262 191 302 233 341 
1495 -0.2720391813994306 0.09861342650890118 1.3346039081993186 0 0 0 0.11 72 364 143 221 168 355 
1496 -0.5499816976508126 -0.25456568474173896 0.8713652295086604 0 0 0 0.22 72 365 168 356 226 156 
1497 -0.5763028538055576 -0.18900251313495078 0.49989970772782893 0 0 0 0.15 72 366 131 222 153 53 168 357 178 190 
1498 -0.583356918494557 -0.18427122736200535 0.4727227117483922 0 0 0 0.24 72 367 143 222 168 358 
1499 -0.5716236436906414 -0.15231706446834486 0.6743587456641988 0 0 0 0.05 72 368 168 359 226 157 
1500 -0.452426788812685 -0.21046741431082275 1.2684550007463677 0 0 0 0.21 72 369 168 360 226 158 
1501 -0.5978633357305594 -0.13847789061629148 0.5427230937457486 0 0 0 0.34 72 370 125 162 143 223 153 54 168 361 173 209 178 191 180 226 193 215 218 179 226 159 
1502 0.11266733343533054 -0.13849056938130505 1.320368078850537 0 0 0 0.18 72 371 168 362 191 303 
1503 -0.5410333026692059 -0.11782590853415323 0.8059321949491546 0 0 0 0.41 72 372 99 358 102 103 131 223 154 124 166 169 168 363 173 210 180 227 
1504 -0.28527273166255895 -0.09724301557673683 1.3643225763078817 0 0 0 0.22 72 373 168 364 171 82 
1505 -0.5645540481736467 -0.07743470856755165 0.6421956523021823 0 0 0 0.18 72 374 102 104 133 67 168 365 191 304 216 284 
1506 0.09003033945284442 -0.06559067068041533 1.3092894751898663 0 0 0 0.23 72 375 168 366 177 344 191 305 
1507 -0.296058773496788 -0.0563279136381129 1.3451480746750666 0 0 0 0.08 72 376 168 367 191 306 
1508 -0.47290812175930363 -0.05044886333409603 0.9614911543486081 0 0 0 0.25 72 377 168 368 173 211 191 307 
1509 -0.5583450250964033 -0.028998860305275972 0.7347942928703511 0 0 0 0.13 72 378 153 55 168 369 173 212 178 192 
1510 -0.4087124001074076 -0.006992882586009465 1.3783887818171783 0 0 0 0.42 59 252 72 379 99 359 106 320 115 148 119 168 137 176 143 224 144 289 150 404 168 370 189 263 202 236 212 218 216 285 226 160 233 342 
1511 -0.0643691833321466 0.016675262324842434 1.3176127131772544 0 0 0 0.6 72 380 140 444 168 371 202 237 
1512 -0.4127799820721561 0.04024432521035181 1.3816233659942365 0 0 0 0.31 72 381 106 321 143 225 144 290 189 264 191 308 233 343 
1513 -0.28349473225504973 0.07897141596297023 1.319150946459531 0 0 0 0.12 72 382 143 226 168 372 
1514 -0.5742341194518095 0.02203237812220166 0.4763780599023851 0 0 0 0.29 72 383 137 177 143 227 151 221 168 373 180 228 218 180 
1515 -0.0456463939505283 0.09775889710185841 1.2965630603097136 0 0 0 0.09 72 384 168 374 191 309 
1516 -0.4751986898115645 -0.19874557816260308 0.9497808184599481 0 0 0 1.2 72 385 131 224 168 375 173 213 177 345 202 238 
1517 -0.5758574299282484 -0.13994723821022606 0.47828010128652787 0 0 0 0.17 72 386 131 225 143 228 168 376 218 181 
1518 -0.5799717227113947 -0.1433455767086922 0.6319977350156291 0 0 0 0.5 72 387 102 105 116 162 131 226 133 68 153 56 154 125 168 377 173 214 178 193 180 229 193 216 215 131 226 161 
1519 -0.5314808715881074 -0.1251331721774074 0.8170727728489273 0 0 0 0.4 72 388 143 229 168 378 173 215 226 162 
1520 -0.5663053669248055 -0.09786569087213673 0.6790269283702924 0 0 0 0.12 72 389 168 379 226 163 
1521 -0.5541914482868825 -0.02578999176443872 0.7691405779187434 0 0 0 0.42 72 390 102 106 115 149 153 57 168 380 173 216 
1522 -0.2869703626532984 0.02443474283356767 1.3485937281232039 0 0 0 0.26 72 391 143 230 168 381 
1523 0.02333937653414552 0.04171220117306699 1.284340119665446 0 0 0 0.63 72 392 168 382 191 310 
1524 -0.19931386197770765 0.09306746367150921 1.3035030671606378 0 0 0 0.62 24 194 72 393 78 385 99 360 140 445 143 231 150 405 168 383 177 346 189 265 216 286 
1525 -0.5821698653464408 -0.16461333949638085 0.48724684642205346 0 0 0 0.1 72 394 131 227 133 69 168 384 
1526 -0.5311755276286255 -0.28283594314382926 1.2928016922654617 0 0 0 0.16 72 395 168 385 226 164 
1527 -0.6026020315755025 -0.14051876392353935 0.5353601344311572 0 0 0 0.21 72 396 102 107 168 386 218 182 
1528 -0.5178092479836001 -0.11409180769420686 0.8505993759297648 0 0 0 0.27 72 397 143 232 168 387 
1529 -0.29043101374040325 -0.12922729992782567 1.3553768239793833 0 0 0 0.63 72 398 143 233 168 388 177 347 131 228 133 70 150 406 
1530 -0.26965264018814467 -0.00893086804260611 1.3314160191956788 0 0 0 0.46 72 399 143 234 168 389 
1531 -0.025200307734259696 0.08223311673202882 1.2909891305346515 0 0 0 0.27 72 400 99 361 191 311 
1532 -0.575519414487978 -0.11081158530943878 0.4803202753936813 0 0 0 0.82 72 401 131 229 168 390 
1533 -0.5919946361952514 -0.03736123670497536 0.5343134712428846 0 0 0 0.46 72 402 143 235 168 391 218 183 
1534 -0.5906544871330199 -0.01551239255469904 0.5503184747862624 0 0 0 0.57 72 403 102 108 168 392 218 184 226 165 
1535 -0.4376034453158696 -0.19495762681054316 1.2783171456943017 0 0 0 0.27 72 404 168 393 226 166 
1536 -0.3015543352527328 -0.1662068120383114 1.3619276223500147 0 0 0 0.2 78 386 99 362 216 287 228 302 233 344 
1537 -0.326194458208982 -0.1646836948026922 1.371351162241513 0 0 0 0.4 78 387 79 57 233 345 
1538 -0.3320052540085739 -0.15598353248142172 1.3729613912695582 0 0 0 0.36 78 388 79 58 140 446 
1539 -0.31468909503270726 -0.15097680661550375 1.3668781273889878 0 0 0 0.08 78 389 99 363 216 288 233 346 
1540 -0.33364611300493924 -0.13925480247860741 1.3709556748168878 0 0 0 0.19 78 390 99 364 233 347 
1541 -0.32310367605641305 -0.1269040304779454 1.367868172830166 0 0 0 0.18 78 391 79 59 99 365 216 289 233 348 106 322 140 447 
1542 -0.3297520395277155 -0.12206953304139591 1.3695504081222376 0 0 0 0.35 78 392 216 290 228 303 
1543 -0.2842559534103725 -0.1165451123451282 1.352549981684175 0 0 0 0.89 78 393 79 60 233 349 
1544 -0.3450769816825943 -0.11140582935809748 1.3727238749119106 0 0 0 0.45 78 394 79 61 140 448 
1545 -0.0895019806490052 -0.08337349238625034 1.3162966798747529 0 0 0 0.28 78 395 80 79 99 366 140 449 
1546 -0.20002357677464644 -0.0842629877820153 1.3221629601340472 0 0 0 0.19 78 396 79 62 99 367 233 350 
1547 -0.13932182075156438 -0.0830012908287569 1.3179241580122814 0 0 0 0.5 78 397 140 450 233 351 
1548 -0.13428458153944464 -0.08003709982913998 1.3176137328354716 0 0 0 0.15 78 398 99 368 233 352 79 63 
1549 -0.3586176115586171 -0.0777593061875591 1.3712011893578486 0 0 0 0.29 78 399 228 304 233 353 
1550 -0.39277387754470044 -0.07906950655574031 1.384021276275953 0 0 0 0.24 78 400 150 407 233 354 
1551 -0.19954839613721295 -0.04569190144026027 1.322810165713768 0 0 0 0.07 78 401 216 291 233 355 
1552 -0.13904815816517915 -0.044283562968232236 1.3141478498476864 0 0 0 0.23 78 402 80 80 99 369 
1553 -0.15829208153019905 -0.03664226966339495 1.3148922579814533 0 0 0 0.12 78 403 80 81 233 356 
1554 -0.3474973777160807 -0.025989736501046648 1.3610170622792133 0 0 0 0.16 78 404 79 64 99 370 
1555 -0.05476379811052472 -0.006748300735322773 1.3066746872527946 0 0 0 0.24 78 405 80 82 99 371 
1556 -0.15794623358705506 0.001702854536100342 1.3129973297011275 0 0 0 0.1 78 406 80 83 233 357 
1557 -0.34730355501886934 0.002808844047400183 1.3581777908529125 0 0 0 0.14 78 407 79 65 99 372 140 451 150 408 
1558 -0.06187688537532793 0.0036190407354010456 1.3029334081747768 0 0 0 0.31 78 408 80 84 99 373 140 452 
1559 -0.04956687224789652 0.0063576108428772555 1.3049046796298496 0 0 0 0.09 78 409 79 66 80 85 
1560 -0.3935950010077155 0.010428283320604276 1.371784184996887 0 0 0 0.17 78 410 228 305 233 358 
1561 -0.40014062060435085 0.011526196713673107 1.3731837178766557 0 0 0 0.43 78 411 99 374 233 359 
1562 -0.16585134228998114 0.014968442183536022 1.3089653210739922 0 0 0 0.13 78 412 79 67 80 86 233 360 
1563 -0.347387608951282 0.019950072949450743 1.3550380545950675 0 0 0 0.28 78 413 79 68 140 453 228 306 
1564 -0.16273250749743218 0.029761413800456007 1.3109259756973417 0 0 0 0.21 78 414 80 87 233 361 
1565 -0.22756053299387857 0.032580721842136395 1.3178210824127523 0 0 0 0.2 78 415 80 88 99 375 233 362 
1566 -0.22592481310443344 0.03461516952474149 1.319427075762581 0 0 0 0.15 78 416 80 89 233 363 
1567 -0.42296877741473893 0.04376392472272185 1.372815699193991 0 0 0 0.14 78 417 99 376 233 364 
1568 -0.15418645205562898 0.05366864077246713 1.306215889863343 0 0 0 0.26 78 418 80 90 99 377 140 454 233 365 
1569 -0.13506221064713966 0.05335293799754064 1.3034937718014379 0 0 0 0.24 78 419 79 69 80 91 
1570 -0.12842486396854624 0.053313667194723524 1.3039358802740277 0 0 0 0.12 78 420 79 70 80 92 
1571 -0.12285406683589646 0.05321213751487169 1.3027247693606365 0 0 0 0.09 78 421 79 71 80 93 233 366 
1572 -0.1143661635474779 0.053022425715559034 1.3029230921344421 0 0 0 0.18 78 422 80 94 140 455 
1573 -0.11774129514513673 0.0532210157293743 1.302348834687431 0 0 0 0.17 78 423 79 72 80 95 233 367 
1574 -0.10803649504337372 0.05303641167192594 1.3015569361471002 0 0 0 0.12 78 424 79 73 80 96 
1575 -0.08223042628835091 0.05311580532003317 1.3012036575633399 0 0 0 0.28 78 425 79 74 80 97 
1576 -0.08381126595255887 0.054998449576342305 1.3007607505077452 0 0 0 0.27 78 426 79 75 80 98 
1577 -0.34436294677483364 0.06302153227637236 1.3522415664275198 0 0 0 0.36 78 427 79 76 228 307 
1578 -0.057488828653952315 0.06813983670015158 1.2972523887659102 0 0 0 0.16 78 428 79 77 80 99 
1579 -0.37627717457347243 0.07880324275437518 1.3477033929138453 0 0 0 0.12 78 429 99 378 140 456 233 368 
1580 -0.30363187913424894 0.07631537354795455 1.3344520467411074 0 0 0 0.14 78 430 140 457 216 292 
1581 -0.3136177853184258 0.0797870300577614 1.3404787265157818 0 0 0 0.27 78 431 99 379 140 458 
1582 -0.1723938440221812 0.08821228457998272 1.305480198887937 0 0 0 0.47 78 432 79 78 80 100 
1583 -0.1658327061467089 0.09868737035479024 1.302752495262516 0 0 0 0.21 78 433 79 79 80 101 
1584 -0.10958058338781199 0.10280942562678023 1.2971321435415681 0 0 0 0.18 78 434 79 80 80 102 
1585 -0.1058844631847814 0.10302805167063238 1.2980034663728333 0 0 0 0.6 78 435 79 81 80 103 140 459 
1586 -0.11997365460201231 0.10560938131203373 1.2974653981304516 0 0 0 0.2 78 436 79 82 80 104 
1587 -0.0996095060157517 0.10538071114843651 1.2953307520347213 0 0 0 0.29 78 437 79 83 80 105 99 380 
1588 -0.0659694089769415 0.10492900255497112 1.2922873302172513 0 0 0 0.29 78 438 79 84 80 106 99 381 
1589 -0.3258190453683264 -0.17415385179719142 1.3709753290070406 0 0 0 0.29 78 439 99 382 233 369 
1590 -0.3058265981287177 -0.16362173960758847 1.364222872553192 0 0 0 0.23 78 440 79 85 99 383 106 323 228 308 
1591 -0.2141235214931511 -0.1537844975960609 1.3394001872370298 0 0 0 0.57 78 441 79 86 233 370 
1592 -0.31351327324107914 -0.1630431113259618 1.3662928034870288 0 0 0 0.41 78 442 99 384 150 409 228 309 
1593 -0.3272854857195298 -0.16135767865754366 1.369738183073858 0 0 0 0.47 78 443 106 324 233 371 
1594 -0.22410730319486313 -0.14931456245911956 1.343949441128772 0 0 0 0.25 78 444 177 348 216 293 233 372 
1595 -0.33012401422334564 -0.15880479362752215 1.3724061787964768 0 0 0 0.28 78 445 79 87 99 385 140 460 233 373 
1596 -0.22218709350114263 -0.14457314620478406 1.341022972406371 0 0 0 0.26 78 446 106 325 150 410 216 294 228 310 233 374 
1597 -0.011565621809744412 -0.12971261105776036 1.315160868609468 0 0 0 0.24 78 447 79 88 99 386 
1598 -0.21680600137451947 -0.13869110436411278 1.337226139944465 0 0 0 0.19 78 448 99 387 150 411 233 375 
1599 -0.3086589003416636 -0.13717383261381258 1.3636529416787866 0 0 0 0.25 78 449 79 89 99 388 228 311 
1600 -0.2808050805424066 -0.1279205915859844 1.3539933073824226 0 0 0 0.13 78 450 216 295 228 312 
1601 -0.276780988736394 -0.12728363960724995 1.3538155704266979 0 0 0 0.25 78 451 216 296 228 313 
1602 -0.29965842406924775 -0.12803597838549782 1.3603080177711155 0 0 0 0.26 78 452 99 389 228 314 233 376 
1603 -0.3258429928429891 -0.13001802113619104 1.3691403345551623 0 0 0 0.3 78 453 99 390 106 326 140 461 150 412 228 315 233 377 
1604 -0.30417397350138164 -0.12439798515594254 1.3593700219680733 0 0 0 0.24 78 454 140 462 150 413 177 349 
1605 -0.19291720963291314 -0.11485168263863219 1.3314050787047464 0 0 0 0.37 78 455 79 90 233 378 
1606 -0.34070429329190804 -0.12209130303451239 1.3741622289058046 0 0 0 0.08 78 456 150 414 233 379 
1607 -0.19011406809947154 -0.1094105108979078 1.3308184022666718 0 0 0 0.41 78 457 79 91 233 380 
1608 -0.009676895105538121 -0.10404000742216427 1.3148693775400815 0 0 0 0.31 78 458 79 92 99 391 140 463 
1609 -0.2134619574772175 -0.10509788124381106 1.3247837288046391 0 0 0 0.35 78 459 140 464 216 297 233 381 
1610 -0.22153366646937428 -0.1051064121814035 1.3264106758096403 0 0 0 0.21 78 460 99 392 140 465 216 298 228 316 
1611 -0.16625576935809216 -0.10320815429959164 1.3242443883672226 0 0 0 0.14 78 461 216 299 233 382 
1612 -0.27067482217659866 -0.1033875509769633 1.3375796930329065 0 0 0 0.05 78 462 140 466 150 415 
1613 -0.20656620516896118 -0.09762476943304542 1.3290566264368124 0 0 0 0.22 78 463 150 416 233 383 
1614 -0.3921674602343483 -0.11037081125994706 1.385927530447598 0 0 0 0.13 78 464 150 417 233 384 
1615 -0.258975491684077 -0.08839008657802919 1.3297551239081433 0 0 0 0.31 78 465 99 393 228 317 233 385 
1616 -0.3724414875696735 -0.09735768932338812 1.377617678436421 0 0 0 0.36 78 466 216 300 228 318 233 386 
1617 -0.08583408214100628 -0.0829970900991862 1.3134499762581744 0 0 0 0.26 78 467 79 93 80 107 99 394 106 327 140 467 
1618 -0.20628515190468605 -0.08417056892510544 1.3224337629409517 0 0 0 0.19 78 468 99 395 150 418 233 387 
1619 -0.11202430234576592 -0.08306171741883528 1.3164140938104287 0 0 0 0.35 78 469 79 94 80 108 99 396 140 468 
1620 -0.13626105507893493 -0.08242063075529843 1.3183446128427416 0 0 0 0.09 78 470 79 95 80 109 99 397 140 469 233 388 
1621 -0.14250420160295016 -0.07972828202445324 1.3194270646914301 0 0 0 0.29 78 471 79 96 150 419 177 350 216 301 233 389 
1622 -0.08793083054154165 -0.07752898370299054 1.314462467021911 0 0 0 0.2 78 472 80 110 99 398 140 470 
1623 -0.11089300753349098 -0.07730291786077427 1.3168408112312242 0 0 0 0.13 78 473 79 97 99 399 80 111 140 471 
1624 -0.13375090585825694 -0.07669546342287466 1.3186836623391678 0 0 0 0.26 78 474 80 112 99 400 140 472 216 302 233 390 
1625 -0.10598322393637978 -0.07561349312510404 1.3198912633540385 0 0 0 0.49 78 475 106 328 140 473 
1626 -0.12823193709045283 -0.07529075837674341 1.3203372076161408 0 0 0 0.43 78 476 216 303 233 391 
1627 -0.15206539346305448 -0.0738081285413939 1.3228044667101302 0 0 0 0.27 78 477 106 329 140 474 233 392 
1628 -0.048491118220646674 -0.06575513676965937 1.3128426731614062 0 0 0 0.32 78 478 79 98 99 401 140 475 
1629 -0.13694164134090037 -0.06293295886272614 1.318965857266814 0 0 0 0.2 78 479 106 330 216 304 233 393 
1630 -0.08161439110157934 -0.059546468269619714 1.313770227737728 0 0 0 0.16 78 480 79 99 99 402 
1631 -0.139506018951314 -0.05847256565822461 1.318455361642394 0 0 0 0.3 78 481 99 403 106 331 216 305 79 100 
1632 -0.25473948458112844 -0.059154398555168027 1.3368621315895264 0 0 0 0.22 78 482 150 420 233 394 
1633 -0.1386087785171765 -0.055395375764441285 1.3182568390007678 0 0 0 0.17 78 483 80 113 140 476 216 306 233 395 
1634 -0.13309264714724456 -0.050477581039370785 1.316723460562116 0 0 0 0.04 78 484 80 114 99 404 233 396 
1635 0.017585108037809192 -0.04933660812529616 1.3063237605366562 0 0 0 0.22 78 485 79 101 99 405 140 477 
1636 -0.15706821364674942 -0.05000150119944395 1.3189718107121926 0 0 0 0.14 78 486 80 115 99 406 233 397 
1637 -0.014550407994525916 -0.0488582865226062 1.3068549530182316 0 0 0 0.17 78 487 79 102 99 407 
1638 -0.11643684745745077 -0.04815630355321974 1.3145972633301324 0 0 0 0.36 78 488 140 478 150 421 
1639 -0.05482301397441304 -0.04770095685499959 1.310790392267947 0 0 0 0.25 78 489 79 103 80 116 99 408 140 479 
1640 0.11938123572718663 -0.03956854899383016 1.3012611248551875 0 0 0 0.22 78 490 79 104 150 422 
1641 -0.1666224963607967 -0.03771716858860324 1.3182454996248947 0 0 0 0.32 78 491 79 105 80 117 150 423 106 332 140 480 
1642 -0.16294057127052652 -0.025607006051753686 1.3168389004410894 0 0 0 0.08 78 492 79 106 233 398 
1643 -0.3506689019808946 -0.02643206821237201 1.3607868476573113 0 0 0 0.22 78 493 99 409 140 481 
1644 -0.11524307917141237 -0.009507552577982236 1.3084804754049686 0 0 0 0.16 78 494 79 107 80 118 
1645 -0.23050585358597428 -0.008377971894179877 1.3203345298101978 0 0 0 0.25 78 495 99 410 140 482 216 307 233 399 
1646 -0.13835681623114215 -0.008945201900173384 1.31183018841555 0 0 0 0.11 78 496 79 108 99 411 150 424 
1647 -0.0635277891191884 -0.007789477929565965 1.3043619135593043 0 0 0 0.2 78 497 79 109 80 119 99 412 140 483 
1648 0.0317119120242092 -0.007366740923848863 1.2987215895788724 0 0 0 0.5 78 498 79 110 140 484 177 351 
1649 -0.233477255339764 -0.003907860078668682 1.3183240648689283 0 0 0 0.18 78 499 99 413 228 319 
1650 -0.07615260692424443 -0.0026304939277746273 1.3063834690317442 0 0 0 0.18 78 500 79 111 80 120 140 485 
1651 -0.14490126439817338 -0.001669135452152809 1.312478247865599 0 0 0 0.2 78 501 80 121 140 486 233 400 
1652 -0.13394156048937417 -0.001175181535086481 1.3095520529955123 0 0 0 0.15 78 502 79 112 80 122 233 401 
1653 -0.35310304097350026 -0.0015717031192936165 1.3579146314802855 0 0 0 0.24 78 503 99 414 140 487 216 308 228 320 
1654 -0.05877161410130431 0.0015161550674791821 1.3036005970162863 0 0 0 0.33 78 504 79 113 80 123 99 415 140 488 
1655 -0.036606998448336175 0.0011678493522881525 1.3019791323497534 0 0 0 0.27 78 505 79 114 80 124 99 416 140 489 
1656 -0.3994024500439139 0.008256567558783118 1.3722166997629983 0 0 0 0.13 78 506 228 321 233 402 
1657 -0.19982336944207943 0.015457748569838758 1.3133649535257774 0 0 0 0.18 78 507 79 115 99 417 140 490 
1658 -0.21824564496181603 0.018169874929174025 1.32039769335091 0 0 0 0.12 78 508 140 491 150 425 
1659 -0.24156185428089624 0.036578962683497335 1.3228350122654606 0 0 0 0.19 78 509 79 116 99 418 140 492 
1660 -0.22278821371187985 0.03646867813676192 1.3201886832590695 0 0 0 0.38 78 510 79 117 80 125 233 403 
1661 -0.02531211468056262 0.04159126458354104 1.3000123196728073 0 0 0 0.24 78 511 79 118 99 419 
1662 0.031442724319014494 0.043151879235060434 1.2941370962733214 0 0 0 0.46 78 512 99 420 140 493 
1663 -0.06572264941275066 0.0475188218035848 1.2990477707928736 0 0 0 0.39 78 513 99 421 140 494 
1664 -0.015091293732357096 0.046913819145418804 1.2953741977535507 0 0 0 0.24 78 514 79 119 140 495 
1665 -0.3974699917444027 0.05586016282249388 1.3669731512819476 0 0 0 0.38 78 515 140 496 233 404 
1666 -0.011921042898486443 0.0471007228402435 1.297468277002132 0 0 0 0.22 78 516 79 120 140 497 
1667 -0.06818739131764237 0.050103311436547754 1.298339564078079 0 0 0 0.37 78 517 80 126 99 422 140 498 
1668 -0.191873544121776 0.056409169261393055 1.316177826178146 0 0 0 0.38 78 518 79 121 80 127 
1669 -0.31142410438088164 0.07696840277185522 1.338831083719719 0 0 0 0.18 78 519 99 423 228 322 
1670 -0.2998158899930322 0.07836756986068015 1.333326060706715 0 0 0 0.2 78 520 79 122 140 499 228 323 
1671 -0.30760600137872773 0.07913115887321776 1.3380216651152337 0 0 0 0.48 78 521 99 424 140 500 216 309 228 324 
1672 -0.29208431262633305 0.07881759716350394 1.3335115818970849 0 0 0 0.48 78 522 79 123 99 425 140 501 
1673 -0.15925936795496415 0.08630975923024477 1.3048896544274742 0 0 0 0.38 78 523 80 128 99 426 140 502 233 405 
1674 -0.20362337961621552 0.09282319052705247 1.3022932417572304 0 0 0 0.36 78 524 80 129 233 406 
1675 -0.06097453247852008 0.08747886254289729 1.2953022324538475 0 0 0 0.26 78 525 80 130 99 427 140 503 
1676 -0.017093055440650592 0.08692663507303867 1.292881016048151 0 0 0 0.19 78 526 79 124 99 428 
1677 -0.25784888220734076 0.09956102643781278 1.316083879326946 0 0 0 0.33 78 527 79 125 99 429 140 504 177 352 216 310 228 325 
1678 -0.20393122854270435 0.09777716475808415 1.300941699419366 0 0 0 0.28 78 528 99 430 140 505 150 426 216 311 233 407 
1679 -0.15378116460545288 0.09822527019217697 1.302298268175389 0 0 0 0.19 78 529 80 131 99 431 140 506 
1680 -0.08497743807018047 0.09556826309446638 1.2960388685682516 0 0 0 0.18 78 530 99 432 140 507 
1681 -0.06131895182792789 0.09644277611866411 1.2932919240950276 0 0 0 0.23 78 531 79 126 80 132 99 433 
1682 -0.05690060718702664 0.09661940500951106 1.2931801555771671 0 0 0 0.11 78 532 79 127 99 434 
1683 -0.011908163855882467 0.09641849658558155 1.2898011003166348 0 0 0 0.15 78 533 79 128 140 508 
1684 0.00943835033396624 0.09599758502305278 1.2890002221465142 0 0 0 0.24 78 534 79 129 99 435 
1685 -0.15181768262189532 0.10387660264153012 1.3041856720738383 0 0 0 0.39 78 535 80 133 233 408 
1686 -0.11392139835745356 0.10327754597604376 1.2971064143375952 0 0 0 0.22 78 536 80 134 99 436 140 509 
1687 -0.08073208027172538 0.10539133256181824 1.2953858000936835 0 0 0 0.35 78 537 79 130 80 135 99 437 106 333 
1688 -0.061949107668102465 0.10489964131758435 1.292044909417087 0 0 0 0.27 78 538 80 136 99 438 79 131 
1689 -0.21284437705469497 0.12288494172516455 1.3118134892019904 0 0 0 0.37 78 539 99 439 140 510 177 353 
1690 -0.19687737091852406 0.13323419031977457 1.304506151502028 0 0 0 0.21 78 540 140 511 216 312 
1691 -0.28488468750955803 -0.16684353133726543 1.3606819671181225 0 0 0 0.27 78 541 106 334 150 427 228 326 233 409 
1692 -0.2912899176600113 -0.16231989999374385 1.3587392738313322 0 0 0 0.45 78 542 150 428 228 327 
1693 -0.2987275086220796 -0.1632788495982622 1.3634369858666247 0 0 0 0.3 78 543 150 429 216 313 
1694 -0.02990362532250024 -0.12632592024023587 1.313772050186688 0 0 0 0.35 78 544 79 132 99 440 140 512 150 430 
1695 0.0019371056832777301 -0.12427879960348401 1.3191179570765685 0 0 0 0.25 78 545 99 441 140 513 
1696 -0.3164418793815871 -0.13931692483215466 1.3667374407753876 0 0 0 0.46 78 546 79 133 99 442 228 328 
1697 -0.027110408978138933 -0.11434890541967231 1.3150656349765144 0 0 0 0.32 78 547 106 335 150 431 
1698 -0.197761041576148 -0.11721165825636455 1.328255923799055 0 0 0 0.14 78 548 143 236 216 314 
1699 0.015891153296461735 -0.10968228913169595 1.313152136524794 0 0 0 0.14 78 549 140 514 150 432 
1700 -0.39606181176247096 -0.13205545050944267 1.3892743939572583 0 0 0 0.31 78 550 140 515 177 354 191 312 233 410 
1701 -0.04544971736645822 -0.10854000337163887 1.3184014292862323 0 0 0 0.31 78 551 99 443 106 336 140 516 177 355 80 137 
1702 -0.28000646553681985 -0.1174166311612127 1.3522274246525041 0 0 0 0.06 78 552 150 433 233 411 
1703 0.003066142099143101 -0.09903635219768332 1.310321105253354 0 0 0 0.32 78 553 79 134 150 434 
1704 -0.004007678286264514 -0.09927390393147875 1.3123846274476898 0 0 0 0.31 78 554 79 135 99 444 150 435 
1705 -0.011772167537216202 -0.09829638518103578 1.3121752475355069 0 0 0 0.28 78 555 99 445 150 436 
1706 0.007466900101713654 -0.0963456980654602 1.3111829940307176 0 0 0 0.4 78 556 79 136 99 446 140 517 150 437 191 313 
1707 0.013621396869527855 -0.09605497451746772 1.3105705757597528 0 0 0 0.16 78 557 79 137 140 518 177 356 
1708 -0.3943683990900826 -0.11517922402345575 1.387729463621384 0 0 0 0.24 78 558 191 314 228 329 
1709 -0.02916247146849108 -0.09080726505136447 1.3147374421502127 0 0 0 0.26 78 559 99 447 140 519 
1710 -0.19398790432343022 -0.09063910362482358 1.3250008930607327 0 0 0 0.44 78 560 79 138 99 448 106 337 150 438 
1711 -0.11166737785631624 -0.08674326754005596 1.3173772514023825 0 0 0 0.21 78 561 106 338 150 439 177 357 
1712 -0.4149601549015234 -0.10271471698426977 1.3941299464214487 0 0 0 0.31 78 562 150 440 228 330 233 412 
1713 -0.13870661237201398 -0.08014795625772293 1.3198325390231815 0 0 0 0.27 78 563 140 520 177 358 233 413 
1714 -0.42637858740287626 -0.09484402603555667 1.3960564042546024 0 0 0 0.12 78 564 119 169 144 291 150 441 189 266 212 219 
1715 -0.2072716172209646 -0.07744661566282893 1.326152294676564 0 0 0 0.27 78 565 79 139 140 521 150 442 
1716 -0.2241773425857365 -0.07737182682223658 1.3290873851362632 0 0 0 0.42 78 566 79 140 150 443 
1717 -0.23954751956025172 -0.0769971086590248 1.331000581281788 0 0 0 0.3 78 567 79 141 150 444 228 331 
1718 -0.4506436331787024 -0.0869202692929274 1.4041332418616155 0 0 0 0.31 78 568 150 445 228 332 119 170 140 522 144 292 189 267 191 315 233 414 
1719 -0.06090323258072062 -0.06933027034904717 1.313765846672378 0 0 0 0.15 78 569 106 339 191 316 
1720 0.019633470224897885 -0.06758011214577067 1.3079455391975796 0 0 0 0.23 78 570 79 142 99 449 140 523 
1721 -0.05214127183834093 -0.058498404066881914 1.312510193779498 0 0 0 0.21 78 571 79 143 99 450 106 340 
1722 0.0397868353901185 -0.05215101421484211 1.304907456876608 0 0 0 0.22 78 572 99 451 140 524 177 359 189 268 
1723 -0.2643386227207704 -0.055400926523000625 1.3321487442428452 0 0 0 0.24 78 573 99 452 119 171 140 525 143 237 150 446 228 333 233 415 
1724 0.11235004324171542 -0.04911988853782846 1.295539080545667 0 0 0 0.19 78 574 106 341 150 447 
1725 -0.13465831016594995 -0.04623641160639388 1.316353336427901 0 0 0 0.12 78 575 150 448 233 416 
1726 0.016065010572614266 -0.042756016392566785 1.306487847960186 0 0 0 0.2 78 576 140 526 150 449 
1727 0.12452389722380075 -0.03178192783089603 1.2991616922582303 0 0 0 0.15 78 577 79 144 150 450 
1728 -0.30272338830155043 -0.027610501434382203 1.344797345828016 0 0 0 0.34 78 578 99 453 106 342 228 334 
1729 0.13652606909465811 -0.024818898841563984 1.298467794208222 0 0 0 0.4 78 579 79 145 150 451 
1730 -0.33810983036380565 -0.026002715055877732 1.3611412579814781 0 0 0 0.29 78 580 79 146 228 335 
1731 0.14254170329873364 -0.013655851813453116 1.2912411174240483 0 0 0 0.2 78 581 106 343 150 452 
1732 -0.11067071913229708 -0.0114875024782869 1.3089102235435905 0 0 0 0.15 78 582 79 147 106 344 
1733 -0.06965018066218134 -0.009504423233241063 1.3054207458670286 0 0 0 0.26 78 583 79 148 80 138 140 527 189 269 
1734 -0.13496965683607912 -0.006402835496249707 1.310795255964289 0 0 0 0.41 78 584 79 149 140 528 233 417 
1735 0.11515534254058417 -0.007021143929274736 1.2870076731219455 0 0 0 0.24 78 585 150 453 177 360 
1736 -0.15446918139902982 -0.0034893231930594754 1.3127041790826235 0 0 0 0.16 78 586 79 150 80 139 99 454 140 529 233 418 
1737 0.13283407847667125 -0.0033829107633092516 1.2917620083873327 0 0 0 0.58 78 587 79 151 106 345 
1738 -0.045150008958402 -0.0010998074412594619 1.3028644534002922 0 0 0 0.26 78 588 79 152 99 455 
1739 -0.22903027529442652 0.0029749180672376365 1.3164556959218217 0 0 0 0.08 78 589 140 530 216 315 
1740 -0.25908280052121063 0.009639698847931784 1.3257318819521762 0 0 0 0.5 78 590 99 456 140 531 150 454 177 361 228 336 
1741 -0.16465964818163265 0.026251346724158908 1.3110022710985323 0 0 0 0.4 78 591 79 153 80 140 99 457 140 532 233 419 
1742 -0.1290443317596356 0.04225099205021312 1.3058453314730711 0 0 0 0.36 78 592 79 154 99 458 233 420 
1743 0.029261576635271392 0.04058189711923969 1.2935544106642758 0 0 0 0.18 78 593 99 459 140 533 
1744 -0.01273174586767568 0.04388150382181855 1.296637896345701 0 0 0 0.12 78 594 79 155 99 460 140 534 
1745 -0.03398815968998592 0.04736146849765987 1.2984244628288149 0 0 0 0.32 78 595 79 156 80 141 99 461 140 535 
1746 0.00617881317060545 0.0468464750981812 1.2925109019378895 0 0 0 0.44 78 596 79 157 99 462 
1747 0.032986764103025486 0.04699350355918937 1.2949998960408895 0 0 0 0.14 78 597 79 158 99 463 
1748 -0.26884557641059514 0.06380933798745689 1.3238360812858148 0 0 0 0.39 78 598 99 464 177 362 
1749 -0.35425423864710703 0.0661458810248857 1.3507655165186425 0 0 0 0.59 78 599 99 465 140 536 216 316 
1750 0.03305463282863585 0.055953524141100136 1.292917455628057 0 0 0 0.26 78 600 79 159 99 466 
1751 -0.057662314220312184 0.06099204956149348 1.2988602428144496 0 0 0 0.35 68 852 78 601 79 160 80 142 
1752 -0.3732818493803732 0.08083463207521892 1.347730849076103 0 0 0 0.28 78 602 140 537 228 337 233 421 
1753 -0.32322747169783583 0.07985681166372889 1.3411692881052346 0 0 0 0.16 78 603 140 538 177 363 
1754 -0.159591922193092 0.07915809408022334 1.3054178210972844 0 0 0 0.38 78 604 80 143 99 467 140 539 177 364 233 422 
1755 0.030963744951994724 0.07577393697797813 1.2909176394335387 0 0 0 0.3 78 605 79 161 106 346 
1756 -0.15936431206214982 0.08294955765843415 1.30565591847218 0 0 0 0.37 78 606 79 162 80 144 106 347 140 540 233 423 
1757 -0.351454213540682 0.09160111981301981 1.3498609475388517 0 0 0 0.44 78 607 99 468 119 172 140 541 150 455 216 317 228 338 
1758 -0.3191120035015149 0.09499022002106627 1.3378533133827761 0 0 0 0.23 78 608 140 542 191 317 228 339 
1759 -0.25357756732881065 0.09644150622571591 1.3135143971692658 0 0 0 0.3 78 609 150 456 177 365 228 340 
1760 -0.234649282344545 0.09830104636691185 1.3041560642310797 0 0 0 0.2 78 610 99 469 140 543 143 238 177 366 228 341 
1761 -0.2265214478207036 0.09788061695412323 1.3035203397309423 0 0 0 0.25 57 435 72 405 78 611 99 470 140 544 143 239 177 367 228 342 
1762 -0.18681533708806028 0.09845721349163795 1.3065744958204362 0 0 0 0.23 78 612 80 145 99 471 233 424 216 318 
1763 -0.16940489208332762 0.09762046980966722 1.303771615371496 0 0 0 0.39 78 613 79 163 99 472 140 545 150 457 216 319 233 425 
1764 -0.0441296675463432 0.09478634199324835 1.2955081971011688 0 0 0 0.17 78 614 79 164 140 546 
1765 0.019082107646792825 0.09837570451402385 1.2925452254489322 0 0 0 0.3 78 615 99 473 140 547 
1766 -0.2249543654044806 0.10887770447348799 1.300934105750772 0 0 0 0.2 78 616 150 458 228 343 
1767 -0.1093861797068261 0.10822046283818194 1.295830811022959 0 0 0 0.32 78 617 80 146 99 474 140 548 
1768 -0.16101039210569495 0.1129106093809379 1.3025515631035043 0 0 0 0.2 78 618 80 147 99 475 233 426 
1769 -0.11118802814369896 -0.14503661950782726 1.3271125904329553 0 0 0 0.3 78 619 79 165 99 476 106 348 150 459 31 371 
1770 -0.22587519326548983 -0.13824640316530762 1.3408026676538798 0 0 0 0.35 78 620 99 477 106 349 144 293 150 460 228 344 233 427 
1771 -0.3955040285637979 -0.14782388479055203 1.3949397535292802 0 0 0 0.32 78 621 99 478 119 173 228 345 216 320 
1772 -0.392977657683736 -0.14393316161527991 1.3985407906130352 0 0 0 0.46 78 622 99 479 119 174 191 318 216 321 228 346 
1773 -0.18573766435412412 -0.12060023455300695 1.3333272734633408 0 0 0 0.39 78 623 144 294 216 322 
1774 -0.18229282388493748 -0.09215636775356932 1.324022712465674 0 0 0 0.3 78 624 99 480 191 319 216 323 
1775 -0.23336691937823842 -0.08636021996166468 1.3233571531105617 0 0 0 0.29 78 625 106 350 150 461 189 270 228 347 233 428 
1776 -0.2688328489567362 -0.08142029767429193 1.3319362933462415 0 0 0 0.27 78 626 140 549 150 462 
1777 -0.24304851506131708 -0.07314759289608369 1.3337298366893746 0 0 0 0.14 78 627 140 550 144 295 150 463 189 271 212 220 228 348 
1778 -0.2825479630163432 -0.06280434877276715 1.3381707456025227 0 0 0 0.41 78 628 144 296 150 464 233 429 
1779 0.16957970758475627 -0.054166533771189636 1.299678381726622 0 0 0 0.45 78 629 79 166 150 465 
1780 -0.36603638089804386 -0.05060133426807702 1.3667420796635743 0 0 0 0.39 78 630 99 481 150 466 191 320 228 349 233 430 
1781 -0.12993828711002461 -0.034322962976467426 1.3161489029148645 0 0 0 0.26 78 631 150 467 191 321 
1782 -0.058578696412969075 -0.026200178832735982 1.3085766224314521 0 0 0 0.23 78 632 79 167 191 322 
1783 -0.13344528927902932 -0.020748866111673422 1.3127580231609022 0 0 0 0.21 78 633 106 351 150 468 189 272 140 551 143 240 191 323 
1784 0.1324491348439453 -0.012971633876833599 1.2948741082009332 0 0 0 0.4 78 634 79 168 106 352 150 469 
1785 -0.12622260829000817 -0.006641686847396573 1.3134505214536463 0 0 0 0.2 78 635 143 241 150 470 191 324 
1786 0.01049167983637987 -0.0025221666192234656 1.2998370181547414 0 0 0 0.17 78 636 99 482 140 552 189 273 
1787 -0.22443204248764892 0.0026342342298118692 1.3176127243983586 0 0 0 0.26 78 637 150 471 233 431 
1788 0.022957663972379125 0.0011377077579690098 1.3003898084759233 0 0 0 0.21 78 638 99 483 177 368 
1789 -0.1524803344015028 0.014926095477292557 1.3134049746088587 0 0 0 0.26 78 639 79 169 191 325 
1790 -0.11034990874633785 0.044561971050153415 1.3035957356502865 0 0 0 0.19 78 640 79 170 140 553 
1791 0.019099778963662006 0.04308049330974002 1.2977079283757251 0 0 0 0.33 78 641 99 484 189 274 191 326 
1792 -0.34356751897818966 0.0559915990248348 1.354516740210715 0 0 0 0.51 78 642 79 171 140 554 228 350 
1793 0.004117070985346651 0.05060192897888681 1.2981655556625793 0 0 0 0.34 78 643 99 485 189 275 191 327 
1794 -0.09232861233071865 0.05696995946233342 1.2986936096400468 0 0 0 0.38 78 644 80 148 99 486 
1795 -0.13263161948177202 0.09046063734471145 1.3006160057361635 0 0 0 0.23 78 645 80 149 99 487 140 555 150 472 189 276 
1796 0.04888702129752098 0.0836218775968016 1.2873623867784416 0 0 0 0.42 78 646 79 172 106 353 
