# 3D point list with one line of data per point:
#   POINT3D_ID, X, Y, Z, R, G, B, ERROR, TRACK[] as (IMAGE_ID, POINT2D_IDX)
# Number of points: 318, mean track length: 6.94
97 -0.2410140822988295 0.1193054039460444 1.0410898325648488 0 0 0 0.26 2 97 11 18 200 39 
98 -0.24113572136602712 0.11926873016582426 1.0413681944411648 0 0 0 0.3 2 98 157 32 200 40 
99 0.0008703335387622291 0.11632926402661864 1.008797196367082 0 0 0 0.31 2 99 13 78 16 19 17 4 44 56 50 41 61 30 69 2 92 46 124 49 146 40 158 17 164 28 200 41 
100 0.22407416039484365 0.11567616353549905 0.998815835262389 0 0 0 0.35 2 100 11 19 13 79 19 18 28 11 33 45 60 15 77 17 91 4 107 5 124 50 135 13 146 41 164 29 165 3 175 14 200 42 
101 -0.03316742633752018 0.1244693344611875 1.0091717198479178 0 0 0 0.28 2 101 4 33 13 80 33 46 50 42 93 39 146 42 176 38 200 43 
102 0.18097078214321752 0.12385017567656226 0.999210695766515 0 0 0 0.24 2 102 13 81 19 19 32 15 33 47 44 57 50 43 60 16 93 40 107 6 124 51 135 14 146 43 175 15 196 15 200 44 
103 -0.03325528245686222 0.12691776439249491 1.0090669546683397 0 0 0 0.14 2 103 13 82 93 41 146 44 200 45 
104 0.1831079819006738 0.1258184982317443 0.9988710886670196 0 0 0 0.34 2 104 13 83 19 20 33 48 44 58 60 17 61 31 93 42 124 52 196 16 200 46 
105 0.11007955350068734 0.12712520130150154 1.001361527550875 0 0 0 0.38 2 105 4 34 13 84 27 9 33 49 50 44 92 47 93 43 124 53 164 30 175 16 196 17 200 47 
106 -0.03894630088591106 0.1285764656003011 1.009365021933844 0 0 0 0.29 2 106 4 35 11 20 13 85 16 20 33 50 41 3 44 59 50 45 60 18 77 18 85 21 92 48 110 10 146 45 164 31 200 48 
107 -0.157904532460229 0.13179059047276342 1.0262489277044504 0 0 0 0.33 2 107 32 16 33 51 36 8 44 60 50 46 92 49 93 44 124 54 157 33 200 49 
108 -0.03697143587299704 0.13564598875208358 1.0078344003931767 0 0 0 0.49 2 108 13 86 41 4 44 61 50 47 93 45 124 55 164 32 
109 0.1825332279456597 0.13649757119733744 0.9966533522728201 0 0 0 0.35 2 109 13 87 33 52 
110 0.18046598433830233 0.13807785730721991 0.9967198331751884 0 0 0 0.27 2 110 13 88 33 53 50 48 175 17 196 18 
111 -0.039397674997491375 0.14432869503119095 1.0066078347381493 0 0 0 0.28 2 111 13 89 36 9 44 62 60 19 92 50 124 56 200 50 
112 0.18058174336219468 0.14317302635937598 0.9965177738432931 0 0 0 0.34 2 112 9 35 13 90 50 49 93 46 146 46 175 18 
113 -0.039319546124388996 0.14735113209357145 1.0061076821814743 0 0 0 0.13 2 113 13 91 36 10 44 63 60 20 
114 0.12408146588430247 0.15427540195319406 0.9998750803210601 0 0 0 0.34 2 114 13 92 77 19 92 51 146 47 164 33 200 51 
115 -0.1394886014025768 -0.14420942309620882 1.0767022078405661 0 0 0 0.38 2 115 9 36 13 93 27 10 32 17 36 11 43 0 44 64 50 50 53 2 60 21 77 20 89 0 92 52 96 3 110 11 164 34 
116 0.12683939110808012 -0.1036278148791911 1.0434345447444848 0 0 0 0.21 2 116 9 37 13 94 92 53 93 47 111 1 124 57 
117 0.06047281245535336 -0.08910089234051105 1.0434345505379445 0 0 0 0.35 2 117 13 95 19 21 77 21 111 2 157 34 158 18 164 35 
118 -0.10989223248240852 -0.09029196336003549 1.0608458614099852 0 0 0 0.23 2 118 9 38 13 96 16 21 28 12 61 32 109 24 146 48 
119 0.34443055385648175 -0.08653021392034664 1.0347300276207159 0 0 0 0.13 2 119 40 8 50 51 
120 0.07283713150479068 -0.08608730372774265 1.041226285174871 0 0 0 0.35 2 120 9 39 13 97 16 22 32 18 33 54 36 12 40 9 44 65 50 52 124 58 146 49 157 35 200 52 
121 0.07970676983931432 -0.08599800407277257 1.041583659992686 0 0 0 0.31 2 121 4 36 9 40 11 21 13 98 16 23 19 22 32 19 33 55 36 13 38 8 40 10 44 66 50 53 61 33 77 22 85 22 92 54 93 48 109 25 118 6 124 59 128 7 146 50 148 15 157 36 158 19 164 36 196 19 200 53 
122 0.12382036717573046 -0.08606392211837785 1.0395898228395153 0 0 0 0.26 2 122 4 37 9 41 11 22 13 99 17 5 38 9 40 11 41 5 44 67 52 3 60 22 77 23 85 23 91 5 92 55 93 49 109 26 112 15 124 60 128 8 146 51 148 16 159 5 164 37 176 39 200 54 
123 0.20260628313187182 -0.08474587657909027 1.0378850727091375 0 0 0 0.32 2 123 3 1 11 23 12 0 13 100 17 6 27 11 28 13 29 1 44 68 52 4 91 6 92 56 93 50 96 4 118 7 128 9 136 10 146 52 157 37 164 38 172 1 175 19 176 40 185 6 
124 0.009684983132780482 -0.08419327473128398 1.0445146073349467 0 0 0 0.28 2 124 9 42 12 1 13 101 32 20 33 56 40 12 44 69 61 34 92 57 93 51 164 39 196 20 
125 -0.08270698570383454 -0.08449933074499191 1.0544837748735827 0 0 0 0.33 2 125 13 102 32 21 50 54 77 24 124 61 157 38 176 41 200 55 
126 0.12975809152801998 -0.0833459629284593 1.0388046877641937 0 0 0 0.26 2 126 4 38 9 43 11 24 13 103 19 23 27 12 28 14 33 57 36 14 41 6 44 70 50 55 52 5 77 25 85 24 92 58 93 52 109 27 112 16 124 62 146 53 148 17 157 39 162 2 175 20 176 42 197 8 200 56 
127 0.1297509526488994 -0.08334726731214541 1.0387873795299774 0 0 0 0.24 2 127 4 39 9 44 11 25 13 104 19 24 33 58 36 15 41 7 44 71 50 56 52 6 77 26 85 25 92 59 93 53 109 28 112 17 124 63 146 54 148 18 157 40 162 3 175 21 176 43 200 57 
128 -0.12901965405850618 -0.08425177871899654 1.0623183490331458 0 0 0 0.23 2 128 4 40 9 45 13 105 17 7 19 25 32 22 33 59 50 57 53 3 60 23 61 35 92 60 124 64 146 55 148 19 157 41 158 20 164 40 196 21 200 58 
129 -0.1290282995203963 -0.08427793228831058 1.062541974668262 0 0 0 0.22 2 129 4 41 9 46 13 106 17 8 19 26 32 23 33 60 50 58 53 4 60 24 61 36 124 65 146 56 157 42 158 21 200 59 
130 -0.2317597386722309 -0.08527316420279238 1.0803244018518816 0 0 0 0.29 2 130 3 2 4 42 9 47 11 26 32 24 33 61 44 72 50 59 53 5 60 25 61 37 77 27 85 26 92 61 109 29 110 12 118 8 124 66 128 10 146 57 148 20 157 43 158 22 159 6 164 41 176 44 196 22 200 60 204 3 
131 -0.23181246611746745 -0.08526580691593443 1.080406339688823 0 0 0 0.27 2 131 4 43 9 48 27 13 32 25 44 73 50 60 60 26 61 38 77 28 85 27 92 62 109 30 110 13 111 3 118 9 124 67 128 11 148 21 157 44 158 23 159 7 164 42 172 2 176 45 196 23 200 61 204 4 
132 -0.13585827564561687 -0.08401307596562373 1.0632545441759815 0 0 0 0.28 2 132 3 3 4 44 11 27 13 107 17 9 19 27 27 14 32 26 40 13 41 8 44 74 50 61 52 7 60 27 61 39 77 29 85 28 92 63 109 31 110 14 111 4 118 10 124 68 136 11 146 58 157 45 159 8 162 4 164 43 176 46 196 24 200 62 204 5 
133 0.2321488851511362 -0.08183760497817229 1.036963304805987 0 0 0 0.47 2 133 11 28 13 108 19 28 27 15 44 75 50 62 77 30 92 64 93 54 136 12 159 9 164 44 200 63 204 6 
134 -0.17773868917600666 -0.08386393914620938 1.0705121693629314 0 0 0 0.31 2 134 4 45 9 49 13 109 17 10 27 16 32 27 33 62 60 28 77 31 92 65 110 15 124 69 128 12 146 59 157 46 158 24 164 45 176 47 200 64 
135 -0.16613431909569906 -0.0840188375884448 1.069143465546529 0 0 0 0.28 2 135 3 4 4 46 9 50 11 29 12 2 13 110 19 29 27 17 33 63 36 16 44 76 53 6 60 29 61 40 77 32 92 66 110 16 118 11 136 13 146 60 148 22 157 47 162 5 176 48 200 65 
136 0.25519953319330185 -0.08131331505882997 1.036216877827607 0 0 0 0.24 2 136 13 111 50 63 157 48 
137 0.2958338288792196 -0.0812755604007866 1.0348639629131942 0 0 0 0.32 2 137 4 47 13 112 29 2 40 14 44 77 53 7 60 30 61 41 91 7 96 5 124 70 136 14 146 61 157 49 162 6 172 3 176 49 200 66 
138 0.3164274858853225 -0.08098157151903322 1.0333248525053658 0 0 0 0.35 2 138 9 51 44 78 50 64 60 31 61 42 77 33 
139 0.3510585559312474 -0.08088447886220411 1.0341666553155793 0 0 0 0.38 2 139 3 5 92 67 
140 -0.21599844099540647 -0.08271371658993279 1.0760196583029105 0 0 0 0.25 2 140 3 6 17 11 27 18 33 64 53 8 92 68 118 12 128 13 148 23 164 46 172 4 176 50 
141 -0.16682655485914488 -0.07964770986212853 1.0683103309265527 0 0 0 0.32 2 141 13 113 19 30 92 69 204 7 
142 0.19708369092972547 -0.07744980034865181 1.0374765491352083 0 0 0 0.3 2 142 4 48 11 30 13 114 27 19 33 65 36 17 60 32 91 8 92 70 93 55 109 32 148 24 164 47 165 4 196 25 197 9 
143 0.20248599229351788 -0.07738200728470294 1.0375904801678175 0 0 0 0.32 2 143 4 49 9 52 11 31 13 115 27 20 44 79 50 65 61 43 91 9 92 71 109 33 118 13 146 62 157 50 158 25 197 10 
144 -0.21403467156590097 -0.07905030373411526 1.0788520010263127 0 0 0 0.4 2 144 13 116 148 25 
145 -0.27701989671486643 -0.056398430380726554 1.083838365355396 0 0 0 0.43 2 145 33 66 164 48 
146 -0.14001066599679265 -0.015975669556406856 1.0553354303567313 0 0 0 0.2 2 146 3 7 4 50 11 32 13 117 50 66 92 72 128 14 136 15 157 51 176 51 
147 -0.035486037527817364 0.03385981431112868 1.0233824442576782 0 0 0 0.36 2 147 9 53 13 118 44 80 124 71 
148 -0.21182422015495936 0.061282884637882236 1.0501598593728028 0 0 0 0.34 2 148 3 8 44 81 135 15 
149 -0.15105157939194258 0.06234562378351491 1.0363768056867901 0 0 0 0.31 2 149 13 119 44 82 50 67 92 73 157 52 176 52 
150 0.10939820899933565 0.06258840097468304 1.0106541742567174 0 0 0 0.25 2 150 13 120 36 18 93 56 176 53 
151 0.14296533674683218 0.06323785105754534 1.0085622149358937 0 0 0 0.41 2 151 3 9 9 54 13 121 32 28 44 83 50 68 60 33 61 44 92 74 93 57 96 6 111 5 124 72 135 16 175 22 196 26 200 67 
152 0.18151370538258707 0.06349677247640272 1.007951255192914 0 0 0 0.25 2 152 4 51 9 55 11 33 13 122 17 12 27 21 28 15 44 84 50 69 61 45 92 75 93 58 96 7 124 73 135 17 146 63 157 53 164 49 165 5 175 23 176 54 194 2 204 8 
153 0.25779724186786723 0.06460744543885329 1.0061885486482285 0 0 0 0.45 2 153 13 123 19 31 33 67 36 19 50 70 135 18 146 64 200 68 
154 0.25798020765390806 0.06460817613736616 1.0065103466685064 0 0 0 0.5 2 154 13 124 17 13 50 71 109 34 135 19 136 16 146 65 148 26 200 69 
155 0.21865567137216263 0.08225999971054644 1.006282724842767 0 0 0 0.29 2 155 9 56 13 125 19 32 33 68 43 1 44 85 50 72 60 34 61 46 92 76 93 59 96 8 111 6 135 20 158 26 162 7 164 50 175 24 196 27 200 70 
156 -0.1592264914579994 0.08756650102987718 1.0349478862189296 0 0 0 0.36 2 156 9 57 17 14 19 33 44 86 50 73 61 47 85 29 92 77 93 60 118 14 124 74 135 21 157 54 200 71 
157 0.07394599626542954 0.09234396139272019 1.0092578433618495 0 0 0 0.24 2 157 3 10 11 34 13 126 15 0 16 24 17 15 33 69 44 87 60 35 61 48 136 17 164 51 175 25 
158 0.06855825600931116 0.0932467875929727 1.0100244742794746 0 0 0 0.28 2 158 13 127 36 20 92 78 93 61 162 8 194 3 
159 -0.09489901739772388 0.09786239627640012 1.0277875663700888 0 0 0 0.33 2 159 13 128 43 2 96 9 
160 0.2190592594129811 0.09579272912676559 1.0039296977552585 0 0 0 0.24 2 160 13 129 33 70 44 88 53 9 61 49 146 66 172 5 
161 0.05548570732820152 0.09944667817750528 1.0148189252268993 0 0 0 0.36 2 161 3 11 13 130 32 29 44 89 61 50 175 26 
162 0.07105894654243895 0.10017645299024851 1.0084046914746925 0 0 0 0.22 2 162 11 35 13 131 16 25 17 16 19 34 33 71 44 90 50 74 60 36 85 30 92 79 93 62 136 18 146 67 158 27 162 9 164 52 175 27 194 4 196 28 200 72 
163 0.0736357833722987 0.10194798856717026 1.0078483563013028 0 0 0 0.2 2 163 4 52 11 36 13 132 16 26 17 17 19 35 33 72 44 91 60 37 61 51 77 34 92 80 93 63 96 10 124 75 136 19 146 68 164 53 175 28 196 29 200 73 
164 0.06851954896408774 0.10601997331606305 1.0075950996006988 0 0 0 0.34 2 164 13 133 27 22 36 21 92 81 196 30 
165 0.10762081012063554 0.12541319984678764 1.0019018430663202 0 0 0 0.34 2 165 13 134 19 36 27 23 32 30 44 92 77 35 85 31 92 82 110 17 124 76 135 22 148 27 164 54 194 5 196 31 200 74 
166 0.3083542508572918 -0.14862972262293392 1.0452585108704529 0 0 0 0.39 2 166 9 58 13 135 36 22 43 3 50 75 53 10 61 52 92 83 158 28 197 11 
167 0.030959626602393653 -0.13621087416140665 1.0504892306301128 0 0 0 0.5 2 167 3 12 9 59 13 136 17 18 33 73 43 4 44 93 61 53 71 0 92 84 109 35 112 18 
168 0.02471196867013102 -0.13047753361127257 1.0521076372425298 0 0 0 0.31 2 168 9 60 13 137 28 16 43 5 44 94 53 11 92 85 109 36 164 55 176 55 
169 -0.09982189887837725 -0.09072474960088645 1.0594244777932016 0 0 0 0.31 2 169 9 61 11 37 13 138 28 17 32 31 33 74 44 95 53 12 61 54 92 86 93 64 97 0 109 37 111 7 112 19 118 15 124 77 164 56 196 32 200 75 
170 0.2206629818379601 -0.08834992867874515 1.0390160382564666 0 0 0 0.27 2 170 4 53 9 62 11 38 12 3 13 139 19 37 28 18 33 75 44 96 50 76 53 13 60 38 71 1 77 36 85 32 91 10 92 87 93 65 96 11 109 38 118 16 124 78 146 69 148 28 158 29 164 57 165 6 176 56 185 7 196 33 197 12 
171 0.22604358298733637 -0.08861540432449751 1.0391944348409587 0 0 0 0.3 2 171 9 63 12 4 13 140 15 1 17 19 19 38 27 24 28 19 33 76 40 15 43 6 44 97 50 77 53 14 71 2 77 37 91 11 92 88 93 66 96 12 109 39 111 8 118 17 124 79 146 70 157 55 159 10 162 10 164 58 185 8 200 76 
172 0.23345433588184658 -0.08823412101261938 1.037712338253213 0 0 0 0.39 2 172 3 13 9 64 13 141 17 20 28 20 43 7 50 78 61 55 69 3 77 38 85 33 91 12 92 89 93 67 109 40 118 18 124 80 146 71 152 0 158 30 159 11 176 57 185 9 197 13 
173 -0.20663438451374333 -0.0892750889196411 1.077617707120951 0 0 0 0.3 2 173 9 65 32 32 33 77 44 98 50 79 53 15 61 56 77 39 92 90 107 7 109 41 118 19 146 72 157 56 159 12 164 59 176 58 196 34 200 77 
174 0.281634377899146 0.06562154047250626 1.010215118671668 0 0 0 0.37 2 174 3 14 44 99 50 80 124 81 135 23 
175 -0.13855171580790746 0.09451729273694592 1.0344154617688675 0 0 0 0.37 2 175 9 66 44 100 111 9 124 82 135 24 
176 0.02248863759829904 0.10245820915908774 1.0187139746700897 0 0 0 0.37 2 176 4 54 13 142 15 2 43 8 53 16 92 91 96 13 152 1 158 31 204 9 
177 0.058031335145734185 0.10231553493198331 1.013106224324761 0 0 0 0.18 2 177 13 143 44 101 50 81 111 10 124 83 152 2 158 32 200 78 
178 0.0964215802533812 0.10322594209274058 1.0088128326568686 0 0 0 0.45 2 178 3 15 4 55 11 39 12 5 13 144 16 27 28 21 32 33 33 78 44 102 50 82 61 57 92 92 96 14 110 18 118 20 146 73 204 10 
179 0.06237972542764896 0.11664356981413118 1.0020899693810035 0 0 0 0.33 2 179 13 145 16 28 44 103 50 83 61 58 69 4 118 21 124 84 146 74 152 3 
180 0.19088302168388716 0.11759247813633611 0.9997348204975968 0 0 0 0.36 2 180 4 56 13 146 124 85 146 75 200 79 
181 0.0008687730271896881 0.11998802291863858 1.0070209388457319 0 0 0 0.33 2 181 4 57 13 147 15 3 16 29 17 21 44 104 50 84 60 39 61 59 69 5 77 40 89 1 92 93 96 15 111 11 124 86 146 76 152 4 158 33 164 60 204 11 
182 0.10501400416458258 0.11972708294225566 1.0029108993562013 0 0 0 0.28 12 6 17 22 28 22 36 23 50 85 53 17 61 60 77 41 92 94 135 25 172 6 194 6 
183 -0.1119252853468183 0.13036736028629697 1.0179195110157244 0 0 0 0.21 2 182 44 105 50 86 118 22 158 34 204 12 
184 0.18620865778807094 0.14634585571404232 0.9947010154508511 0 0 0 0.32 2 183 4 58 13 148 43 9 50 87 
185 0.2914448215065141 -0.08787147853889535 1.0363371992897938 0 0 0 0.32 2 184 3 16 12 7 13 149 19 39 27 25 33 79 40 16 43 10 44 106 60 40 61 61 69 6 91 13 92 95 96 16 111 12 124 87 136 20 146 77 152 5 158 35 162 11 164 61 172 7 176 59 185 10 196 35 200 80 204 13 
186 0.30315842261874026 -0.08783994026749373 1.0365897343637045 0 0 0 0.33 2 185 3 17 4 59 9 67 19 40 27 26 33 80 43 11 44 107 50 88 60 41 61 62 71 3 85 34 91 14 92 96 96 17 146 78 152 6 158 36 164 62 176 60 196 36 197 14 200 81 
187 0.15169516328795324 0.0429729859252465 1.011995006375633 0 0 0 0.45 2 186 13 150 15 4 44 108 53 18 128 15 135 26 190 0 200 82 
188 0.21901166152140142 0.07145959355497085 1.0081953729426325 0 0 0 0.45 2 187 4 60 11 40 12 8 13 151 15 5 17 23 33 81 43 12 50 89 69 7 77 42 89 2 92 97 96 18 146 79 157 57 158 37 162 12 164 63 175 29 194 7 196 37 204 14 
189 -0.21105627396917306 0.08963075323897249 1.0427663817532464 0 0 0 0.41 2 188 17 24 77 43 158 38 190 1 
190 0.24885242320274562 0.1005735537087088 1.0018808078443966 0 0 0 0.28 2 189 4 61 17 25 43 13 44 109 50 90 61 63 77 44 118 23 146 80 190 2 200 83 
191 -0.0054599770295896246 0.10647840966635086 1.011204467149067 0 0 0 0.28 2 190 13 152 33 82 44 110 50 91 
192 0.26673112414231526 0.10661799329789044 0.9998117472535024 0 0 0 0.33 2 191 3 18 12 9 17 26 32 34 36 24 43 14 44 111 53 19 60 42 61 64 77 45 89 3 96 19 124 88 135 27 158 39 165 7 200 84 
193 0.2674088278571505 0.10667993683959268 1.0009972647624015 0 0 0 0.29 2 192 4 62 11 41 44 112 50 92 53 20 61 65 96 20 118 24 124 89 162 13 190 3 200 85 
194 0.2523524731045869 0.11001063453805653 0.9951524017248065 0 0 0 0.45 2 193 4 63 11 42 17 27 27 27 44 113 61 66 69 8 71 4 118 25 124 90 135 28 158 40 200 86 
195 0.11373192635465107 0.08595533982816077 1.0083833752191589 0 0 0 0.25 2 194 13 153 16 30 17 28 50 93 175 30 
196 0.06595620441312976 0.1014167327276409 1.0081854661470016 0 0 0 0.44 2 195 13 154 28 23 33 83 44 114 50 94 61 67 69 9 85 35 92 98 111 13 124 91 152 7 158 41 162 14 175 31 200 87 
197 0.32881620071929235 0.11225268709566164 0.9973990408190111 0 0 0 0.28 2 196 3 19 17 29 19 41 33 84 43 15 44 115 52 8 53 21 61 68 71 5 107 8 110 19 111 14 158 42 165 8 172 8 196 38 197 15 
198 0.1860838151344334 0.11934403976633345 1.0009311021543206 0 0 0 0.44 2 197 13 155 50 95 111 15 162 15 
199 0.1913530396708678 0.14593211722959346 0.9943831894421441 0 0 0 0.41 2 198 4 64 13 156 50 96 92 99 
200 -0.17767995549336368 -0.081821020672947 1.0703222544289488 0 0 0 0.34 2 199 12 10 13 157 19 42 27 28 32 35 33 85 41 9 53 22 61 69 77 46 96 21 111 16 124 92 128 16 157 58 158 43 164 64 172 9 190 4 
201 0.18232675977176557 0.05582428039646466 1.0054220635999553 0 0 0 0.18 2 200 12 11 13 158 44 116 53 23 61 70 89 4 92 100 152 8 
202 0.1822444293930198 0.05601299061858725 1.0050695408707109 0 0 0 0.31 2 201 13 159 44 117 89 5 92 101 124 93 
203 0.24454210237608737 0.1049027139837733 1.002784336874956 0 0 0 0.36 2 202 12 12 50 97 61 71 77 47 89 6 135 29 158 44 200 88 
204 0.023022815277312477 0.10734893213922175 1.0099363937407906 0 0 0 0.33 2 203 3 20 13 160 32 36 33 86 44 118 50 98 60 43 61 72 69 10 89 7 107 9 111 17 124 94 152 9 158 45 162 16 164 65 196 39 
205 0.1857812778846433 0.13051170316007493 0.9981534974023958 0 0 0 0.24 2 204 13 161 69 11 158 46 200 89 
206 -0.10935247886114974 -0.051744631801806044 1.0543613401672967 0 0 0 0.36 2 205 13 162 33 87 38 10 71 6 124 95 148 29 176 61 204 15 
207 0.1458906902707389 0.0774322707401211 1.0081270826838808 0 0 0 0.29 2 206 4 65 11 43 13 163 17 30 38 11 52 9 53 24 61 73 124 96 146 81 172 10 197 16 
208 0.18286636827399133 0.07664411985446697 1.0084073120252623 0 0 0 0.37 2 207 4 66 11 44 13 164 17 31 27 29 38 12 40 17 43 16 44 119 53 25 77 48 89 8 91 15 96 22 109 42 124 97 135 30 146 82 148 30 
209 0.18290297831297525 0.0764493353652551 1.0081112674280563 0 0 0 0.33 2 208 4 67 13 165 27 30 53 26 89 9 
210 0.28955117541364966 0.07980168578550746 1.0052969150262552 0 0 0 0.33 2 209 3 21 4 68 11 45 12 13 17 32 19 43 27 31 40 18 44 120 50 99 53 27 61 74 77 49 89 10 91 16 111 18 118 26 124 98 148 31 158 47 164 66 165 9 190 5 196 40 
211 0.2723580696006259 0.07797933030981997 1.0059244719532625 0 0 0 0.45 2 210 4 69 15 6 32 37 33 88 40 19 44 121 50 100 53 28 61 75 69 12 71 7 89 11 97 1 111 19 124 99 128 17 148 32 158 48 164 67 165 10 200 90 
212 0.19924267514487137 0.12539110703735648 1.0008934719637923 0 0 0 0.46 2 211 13 166 17 33 50 101 146 83 200 91 
213 0.18272031935843439 0.0963748172370781 1.0023635354731293 0 0 0 0.8 2 212 13 167 32 38 33 89 60 44 158 49 
214 0.21222866526217252 -0.15238299675609027 1.048307087346413 0 0 0 0.33 3 22 13 168 27 32 61 76 69 13 
215 0.07636106121829896 -0.08937290637683895 1.0423933512453967 0 0 0 0.44 3 23 4 70 9 68 12 14 13 169 17 34 19 44 27 33 29 3 33 90 40 20 43 17 44 122 53 29 60 45 61 77 85 36 96 23 107 10 109 43 111 20 118 27 124 100 148 33 152 10 159 13 162 17 164 68 176 62 185 11 196 41 
216 0.18776866556995225 -0.08864420653786745 1.0399507688220435 0 0 0 0.24 3 24 9 69 11 46 13 170 28 24 32 39 40 21 43 18 44 123 53 30 91 17 92 102 93 68 107 11 110 20 148 34 152 11 164 69 196 42 197 17 
217 0.07968842246249576 -0.08597271989706817 1.0415662934773309 0 0 0 0.33 3 25 4 71 9 70 11 47 12 15 13 171 15 7 16 31 17 35 19 45 27 34 28 25 29 4 32 40 33 91 36 25 38 13 44 124 50 102 61 78 77 50 85 37 92 103 93 69 109 44 112 20 118 28 128 18 146 84 148 35 152 12 157 59 158 50 159 14 176 63 185 12 196 43 200 92 
218 0.18115103938229885 -0.0854242721205873 1.038963693806827 0 0 0 0.33 3 26 4 72 11 48 13 172 27 35 29 5 77 51 91 18 96 24 118 29 148 36 159 15 165 11 172 11 176 64 185 13 
219 0.18622901071739634 -0.08507473719252584 1.0386610723770417 0 0 0 0.44 3 27 4 73 13 173 27 36 29 6 61 79 91 19 92 104 118 30 136 21 162 18 172 12 185 14 197 18 
220 0.20674567209369724 -0.08471858324986356 1.0372193919437447 0 0 0 0.32 3 28 13 174 17 36 27 37 29 7 32 41 43 19 77 52 91 20 92 105 96 25 146 85 176 65 197 19 204 16 
221 0.29998354939517907 -0.08382573037843909 1.0347948208331559 0 0 0 0.34 3 29 4 74 13 175 19 46 33 92 44 125 50 103 60 46 61 80 91 21 92 106 111 21 124 101 146 86 157 60 158 51 164 70 185 15 196 44 200 93 204 17 
222 0.30667224486981975 -0.08366356809766154 1.034434627428555 0 0 0 0.27 3 30 4 75 13 176 17 37 61 81 85 38 91 22 92 107 146 87 162 19 176 66 196 45 
223 0.3271663842902998 -0.0836691172078884 1.0331855238708347 0 0 0 0.55 3 31 4 76 11 49 17 38 27 38 44 126 60 47 77 53 85 39 92 108 162 20 165 12 176 67 204 18 
224 -0.22204816566622013 -0.08290540949467631 1.0783952816061437 0 0 0 0.3 3 32 4 77 9 71 11 50 27 39 32 42 33 93 36 26 41 10 44 127 60 48 61 82 77 54 92 109 97 2 110 21 124 102 146 88 148 37 157 61 159 16 162 21 164 71 200 94 
225 -0.21589827639346937 -0.08273856922995858 1.0762697715297633 0 0 0 0.27 3 33 4 78 11 51 27 40 33 94 77 55 110 22 118 31 128 19 146 89 148 38 157 62 164 72 172 13 176 68 
226 0.13979768713092197 -0.08329196036442621 1.0382795930573425 0 0 0 0.31 3 34 11 52 13 177 17 39 27 41 29 8 53 31 61 83 69 14 71 8 77 56 92 110 96 26 124 103 128 20 152 13 158 52 162 22 164 73 172 14 176 69 200 95 204 19 
227 0.06287677966238486 0.02443763038054451 1.027016237436038 0 0 0 0.16 3 35 13 178 172 15 
228 0.09028991059161078 0.04250086291347678 1.0221079718209858 0 0 0 0.1 3 36 13 179 124 104 
229 -0.135628812267567 0.04628542340029798 1.0406292099987586 0 0 0 0.3 3 37 4 79 9 72 11 53 12 16 13 180 17 40 27 42 32 43 36 27 44 128 50 104 61 84 77 57 89 12 118 32 128 21 135 31 146 90 157 63 158 53 164 74 176 70 190 6 
230 -0.14634399331390452 0.04998998840626249 1.0413079604182882 0 0 0 0.3 3 38 13 181 61 85 92 111 96 27 118 33 157 64 176 71 204 20 
231 0.09976522558806958 0.06916007957831585 1.0153097799470652 0 0 0 0.15 3 39 13 182 17 41 50 105 
232 0.29961820721242155 0.09324764863055807 1.002324539602498 0 0 0 0.11 3 40 11 54 50 106 158 54 
233 0.13831959646089623 0.10750730959848827 1.002282721157791 0 0 0 0.27 3 41 11 55 12 17 13 183 17 42 32 44 44 129 92 112 96 28 124 105 146 91 172 16 175 32 
234 0.02694141095816195 0.1159248663937002 1.0054931440662258 0 0 0 0.4 3 42 13 184 32 45 50 107 53 32 61 86 69 15 96 29 124 106 152 14 158 55 
235 0.03199405718984132 0.12073826542010575 1.006487932672612 0 0 0 0.31 3 43 13 185 16 32 17 43 50 108 53 33 61 87 69 16 118 34 124 107 152 15 158 56 190 7 
236 0.2465563240087724 -0.08841361313302411 1.0379940339229135 0 0 0 0.26 3 44 9 73 11 56 13 186 43 20 44 130 50 109 53 34 69 17 77 58 92 113 146 92 200 96 
237 0.31934565090292527 -0.0879356469111824 1.0363675219420918 0 0 0 0.28 3 45 9 74 12 18 27 43 43 21 61 88 85 40 92 114 164 75 176 72 196 46 197 20 204 21 
238 0.2960203805077226 -0.08474087931901664 1.035826990033826 0 0 0 0.38 3 46 12 19 13 187 29 9 43 22 52 10 53 35 60 49 69 18 71 9 111 22 124 108 136 22 157 65 162 23 172 17 176 73 204 22 
239 0.09392331813289627 0.05084190263877573 1.0166613805992528 0 0 0 0.21 3 47 13 188 44 131 61 89 111 23 124 109 176 74 200 97 204 23 
240 0.09408038732267796 0.050831840455596564 1.0174091922162396 0 0 0 0.2 3 48 13 189 61 90 111 24 158 57 172 18 176 75 200 98 204 24 
241 0.13969075740848932 0.0526581343686571 1.012868655831734 0 0 0 0.37 3 49 13 190 96 30 124 110 
242 -0.10235277639402851 0.06790903484961308 1.0317031684604583 0 0 0 0.24 3 50 13 191 176 76 
243 0.10225322087686489 0.07175128172861589 1.011111313397858 0 0 0 0.37 3 51 13 192 27 44 28 26 97 3 118 35 176 77 204 25 
244 0.26057060005336863 0.07480276628643993 1.0062858724244954 0 0 0 0.32 3 52 11 57 15 8 17 44 33 95 44 132 50 110 77 59 96 31 111 25 124 111 164 76 172 19 175 33 
245 0.280457347799782 0.09750211590853043 1.00354423762102 0 0 0 0.32 3 53 4 80 11 58 15 9 17 45 27 45 32 46 33 96 43 23 50 111 53 36 61 91 69 19 71 10 77 60 89 13 91 23 96 32 111 26 118 36 124 112 158 58 164 77 165 13 172 20 190 8 196 47 197 21 200 99 
246 0.08238594893608628 0.09869631624582155 1.0102818144469918 0 0 0 0.36 3 54 13 193 43 24 50 112 61 92 124 113 146 93 152 16 158 59 172 21 175 34 200 100 
247 0.09084523556219325 0.10242509277780841 1.0104701740642408 0 0 0 0.18 3 55 13 194 69 20 158 60 175 35 190 9 
248 0.13149646052400835 0.10252624960162467 1.008108279498838 0 0 0 0.41 3 56 13 195 17 46 43 25 44 133 50 113 69 21 77 61 89 14 92 115 96 33 111 27 118 37 146 94 162 24 164 78 172 22 175 36 
249 0.0985352210367105 0.10707816450464629 1.0101532802286008 0 0 0 0.47 3 57 13 196 44 134 50 114 118 38 146 95 175 37 
250 0.2986853743766738 0.10939076721479826 0.9967113497259918 0 0 0 0.23 3 58 44 135 61 93 69 22 135 32 158 61 172 23 
251 -0.15544406845033804 0.10794061635949125 1.0293707664452885 0 0 0 0.28 3 59 12 20 36 28 43 26 53 37 61 94 92 116 97 4 110 23 
252 0.05141537383239382 -0.13563318791696108 1.0512929134124855 0 0 0 0.54 3 60 9 75 13 197 19 47 32 47 44 136 93 70 110 24 172 24 196 48 200 101 
253 0.010147690656175835 -0.13231761275441448 1.0517270399434313 0 0 0 0.48 3 61 4 81 9 76 12 21 13 198 16 33 28 27 36 29 43 27 44 137 53 38 60 50 71 11 77 62 85 41 89 15 92 117 97 5 109 45 111 28 112 21 124 114 146 96 152 17 157 66 159 17 172 25 176 78 185 16 190 10 204 26 
254 0.250514363615807 0.04412061489800574 1.0137883073300342 0 0 0 0.39 3 62 17 47 44 138 50 115 53 39 61 95 92 118 128 22 135 33 146 97 158 62 
255 0.08846988261658958 0.051451827477101766 1.0191554373349567 0 0 0 0.22 3 63 13 199 43 28 53 40 92 119 96 34 97 6 124 115 135 34 176 79 185 17 
256 0.08853468487588907 0.05149416605257469 1.0193486306847588 0 0 0 0.22 3 64 13 200 53 41 135 35 176 80 
257 0.09879268738992406 0.05417209077619324 1.0153612580788893 0 0 0 0.37 3 65 13 201 28 28 43 29 53 42 69 23 89 16 96 35 97 7 111 29 112 22 124 116 152 18 158 63 175 38 176 81 185 18 204 27 
258 -0.04561247266310647 -0.107240136687621 1.051392140491166 0 0 0 0.47 3 66 12 22 13 202 28 29 36 30 41 11 53 43 85 42 89 17 92 120 96 36 97 8 112 23 159 18 176 82 185 19 204 28 
259 0.11270483667376303 0.05329333977959037 1.0117669644864686 0 0 0 0.35 3 67 13 203 92 121 96 37 135 36 
260 0.07624991937486969 0.09194738648814023 1.00869546325933 0 0 0 0.42 3 68 13 204 44 139 124 117 200 102 
261 0.2935806552462306 0.10502718743099923 0.9978861296298843 0 0 0 0.37 3 69 19 48 50 116 61 96 69 24 107 12 111 30 124 118 158 64 162 25 200 103 
262 0.1123450151276409 0.12692494752568698 1.0018405928740852 0 0 0 0.28 3 70 12 23 13 205 17 48 32 48 61 97 69 25 96 38 124 119 158 65 
263 0.2380848781219939 -0.09713032187266173 1.0357322831418954 0 0 0 0.51 3 71 9 77 12 24 13 206 53 44 61 98 89 18 92 122 93 71 96 39 176 83 190 11 204 29 
264 -0.1402790081596894 0.06228510234445708 1.0360992697517426 0 0 0 0.53 3 72 43 30 44 140 53 45 60 51 61 99 92 123 96 40 97 9 158 66 
265 0.18853431474603244 -0.1172370378445667 1.0448962905362615 0 0 0 0.31 3 73 13 207 41 12 43 31 92 124 162 26 
266 0.18854995069445604 -0.11721256254663893 1.0449539787855178 0 0 0 0.3 3 74 12 25 13 208 41 13 53 46 61 100 92 125 96 41 111 31 162 27 
267 -0.16700627183732028 -0.10142991173003457 1.0702874435731051 0 0 0 0.87 3 75 92 126 111 32 
268 0.2685273261927174 0.09841708116829034 0.9992171107310819 0 0 0 0.96 3 76 11 59 28 30 50 117 69 26 128 23 135 37 172 26 190 12 200 104 
269 -0.13422915736300095 -0.08808544457569942 1.0705086370570553 0 0 0 0.83 3 77 13 209 124 120 
270 0.2896604475299175 0.07979024948776475 1.005603075310243 0 0 0 0.33 3 78 4 82 11 60 12 26 15 10 27 46 32 49 40 22 43 32 44 141 53 47 61 101 77 63 89 19 111 33 124 121 148 39 158 67 164 79 165 14 172 27 190 13 
271 0.13369265003798228 -0.11173679353966287 1.04011541024374 0 0 0 0.38 3 79 4 83 9 78 13 210 17 49 43 33 53 48 89 20 92 127 152 19 190 14 
272 -0.03776060194885505 -0.12101799145804366 1.0515748631754425 0 0 0 0.34 4 84 9 79 13 211 16 34 28 31 50 118 109 46 112 24 146 98 
273 -0.25937533213380715 -0.12016864406894148 1.0965683596133282 0 0 0 0.41 4 85 33 97 50 119 157 67 164 80 176 84 
274 -0.007705033153690422 -0.09712268307548953 1.0489302941016505 0 0 0 0.25 4 86 9 80 13 212 93 72 124 122 136 23 146 99 157 68 159 19 200 105 
275 -0.0529899308965179 -0.09633079816325016 1.0513926050437874 0 0 0 0.33 4 87 9 81 13 213 92 128 176 85 
276 -0.01154254837066409 -0.09400269766939837 1.0478563600143331 0 0 0 0.17 4 88 13 214 16 35 112 25 124 123 157 69 176 86 
277 -0.27502579876676087 -0.09492902969640897 1.086830679244756 0 0 0 0.36 4 89 9 82 33 98 44 142 148 40 
278 -0.27504401212498514 -0.09490445862063579 1.0870484026845246 0 0 0 0.35 4 90 9 83 33 99 44 143 
279 -0.04233202887578195 -0.09114613106900188 1.0492301423926311 0 0 0 0.19 4 91 13 215 16 36 93 73 124 124 157 70 176 87 
280 -0.05556002762633844 -0.09118157641132203 1.0505603526920024 0 0 0 0.36 4 92 11 61 13 216 28 32 38 14 112 26 124 125 146 100 148 41 157 71 176 88 200 106 
281 0.09826028879416403 -0.08660476755014551 1.0414118894586664 0 0 0 0.46 4 93 9 84 13 217 44 144 85 43 93 74 164 81 200 107 
282 -0.1360557202589753 -0.08906052068540841 1.06544171880054 0 0 0 0.48 4 94 13 218 50 120 124 126 
283 -0.09756752625497457 -0.08734199987419723 1.057334424447664 0 0 0 0.33 4 95 11 62 13 219 16 37 33 100 44 145 50 121 61 102 77 64 92 129 96 42 110 25 124 127 136 24 148 42 157 72 159 20 164 82 176 89 200 108 204 30 
284 -0.13021192878284682 -0.08708483123440688 1.064011433487986 0 0 0 0.26 4 96 9 85 11 63 13 220 32 50 44 146 61 103 92 130 124 128 146 101 176 90 200 109 204 31 
285 0.30076938373578405 -0.08109165687277543 1.0357829860645453 0 0 0 0.48 4 97 13 221 19 49 92 131 
286 0.3004908631220188 -0.08097928952070044 1.0352829335953109 0 0 0 0.57 4 98 13 222 92 132 
287 -0.21394967318716127 -0.08756860702157537 1.0774006934557054 0 0 0 0.46 4 99 11 64 50 122 157 73 200 110 
288 -0.14694052122568038 -0.08662017036695943 1.0653345593350443 0 0 0 0.31 4 100 11 65 13 223 33 101 85 44 110 26 148 43 
289 -0.017451186419249528 -0.08453909744106089 1.0462142941776686 0 0 0 0.35 4 101 13 224 36 31 77 65 124 129 
290 0.017982171995504892 -0.08375863166768271 1.0435785610978228 0 0 0 0.22 4 102 9 86 11 66 13 225 16 38 19 50 27 47 32 51 33 102 44 147 50 123 69 27 77 66 85 45 92 133 93 75 111 34 112 27 118 39 124 130 146 102 157 74 158 68 164 83 176 91 196 49 200 111 
291 -0.051559817841399166 -0.08493324573754193 1.0477422254821194 0 0 0 0.35 4 103 9 87 13 226 44 148 50 124 93 76 109 47 110 27 112 28 146 103 148 44 
292 -0.2126497786633795 -0.08562775677477917 1.0769704108703413 0 0 0 0.35 4 104 9 88 11 67 13 227 33 103 50 125 124 131 146 104 157 75 176 92 200 112 
293 0.08086341888620803 0.05131173194283455 1.0167040257359314 0 0 0 0.2 4 105 13 228 16 39 50 126 118 40 124 132 146 105 157 76 175 39 176 93 
294 -0.133817559575621 0.05073102508166056 1.0395669548229076 0 0 0 0.29 4 106 13 229 92 134 157 77 
295 0.1467639926511856 0.05763283659990347 1.0076329470906873 0 0 0 0.15 4 107 13 230 93 77 176 94 
296 0.275711160683261 0.06282325073888512 1.0100532599121472 0 0 0 0.22 4 108 13 231 91 24 92 135 146 106 164 84 
297 0.2082090499390709 0.06699006621495365 1.013188932494181 0 0 0 0.2 4 109 9 89 13 232 28 33 44 149 50 127 61 104 93 78 124 133 157 78 164 85 200 113 
298 0.17685569177690624 0.06615448901850504 1.0088265891984969 0 0 0 0.17 4 110 13 233 44 150 110 28 
299 0.11223938142168394 0.06568145924448925 1.0116351000909225 0 0 0 0.28 4 111 13 234 16 40 77 67 93 79 109 48 146 107 176 95 197 22 
300 -0.11016602636278867 0.0643444119525024 1.0294103470730056 0 0 0 0.21 4 112 13 235 16 41 38 15 44 151 50 128 92 136 93 80 110 29 124 134 135 38 146 108 148 45 157 79 159 21 176 96 200 114 
301 -0.11174432860130205 0.074667933237144 1.0289300845414944 0 0 0 0.19 4 113 13 236 16 42 33 104 36 32 44 152 60 52 92 137 93 81 124 135 135 39 136 25 146 109 176 97 
302 -0.11173130243209424 0.07468023415488916 1.0290391950565323 0 0 0 0.21 4 114 11 68 13 237 16 43 38 16 44 153 92 138 124 136 135 40 136 26 146 110 157 80 
303 -0.15811309274419694 0.08424928324317486 1.0350555494377454 0 0 0 0.35 4 115 13 238 36 33 44 154 92 139 109 49 110 30 124 137 136 27 176 98 
304 0.2727019084488925 0.0938786880837694 1.0048951920065468 0 0 0 0.3 4 116 11 69 13 239 19 51 33 105 44 155 85 46 107 13 109 50 124 138 136 28 146 111 194 8 200 115 
305 0.03567176921158712 0.08940332384065848 1.0124975564301066 0 0 0 0.33 4 117 13 240 16 44 28 34 33 106 44 156 52 11 77 68 85 47 92 140 93 82 200 116 
306 -0.11538406843943239 0.08868371669547788 1.0285155330372477 0 0 0 0.36 4 118 9 90 13 241 16 45 146 112 
307 0.24151355032841884 0.09475562216897408 1.0082722869825504 0 0 0 0.19 4 119 28 35 124 139 135 41 200 117 
308 0.2546004047480265 0.09487254827644963 1.0035801738361894 0 0 0 0.23 4 120 11 70 13 242 27 48 96 43 109 51 146 113 148 46 165 15 194 9 196 50 
309 0.21823299146507236 0.0994011440401525 1.0028796740939345 0 0 0 0.18 4 121 11 71 13 243 28 36 33 107 60 53 85 48 93 83 110 31 135 42 146 114 164 86 175 40 194 10 
310 0.13837259154574227 0.09851576887189342 1.0033350371714875 0 0 0 0.34 4 122 13 244 32 52 38 17 44 157 60 54 61 105 107 14 135 43 
311 0.011368396988885124 0.09918578529784709 1.0166584114509483 0 0 0 0.09 4 123 13 245 16 46 38 18 44 158 146 115 
312 0.10151677440415734 0.10305050582879986 1.0053871603490743 0 0 0 0.23 4 124 13 246 16 47 36 34 53 49 60 55 92 141 110 32 124 140 146 116 175 41 
313 0.10379095828289132 0.10365035868534953 1.0058565481196569 0 0 0 0.17 4 125 13 247 28 37 93 84 146 117 
314 0.10802689409688782 0.11241053847823727 1.0043286384939285 0 0 0 0.26 4 126 13 248 16 48 85 49 124 141 135 44 136 29 164 87 196 51 
315 0.00539457137724771 0.1118795101643478 1.0092996487452834 0 0 0 0.28 4 127 13 249 44 159 60 56 69 28 77 69 92 142 124 142 146 118 164 88 172 28 200 118 
316 -0.038630731079139766 0.12299049019860919 1.0102158366198275 0 0 0 0.35 4 128 13 250 28 38 33 108 38 19 52 12 92 143 93 85 110 33 124 143 146 119 
317 0.10880758340639868 0.1297514370023747 1.0012649407722987 0 0 0 0.33 4 129 13 251 17 50 32 53 33 109 36 35 52 13 135 45 194 11 
318 0.2154203307534686 0.13939177047662218 0.9966912158943643 0 0 0 0.27 4 130 13 252 50 129 146 120 
319 0.05425543276512611 -0.08929442302886162 1.0431779746476861 0 0 0 0.37 4 131 9 91 13 253 32 54 50 130 124 144 157 81 
320 0.02898528453614617 -0.08947908572640136 1.044757041528293 0 0 0 0.29 4 132 9 92 13 254 16 49 32 55 33 110 61 106 77 70 109 52 112 29 124 145 157 82 164 89 200 119 
321 0.03557262225351368 -0.0893028480719106 1.0445006224394164 0 0 0 0.23 4 133 13 255 16 50 19 52 27 49 33 111 36 36 44 160 50 131 61 107 107 15 110 34 
322 0.33413993413341614 -0.08371381081394544 1.033782455369039 0 0 0 0.31 4 134 9 93 52 14 61 108 91 25 92 144 107 16 146 121 196 52 
323 0.22005294314743595 -0.08464745980447293 1.037500418225627 0 0 0 0.39 4 135 11 72 13 256 15 11 19 53 28 39 32 56 33 112 52 15 60 57 91 26 92 145 107 17 118 41 148 47 158 69 162 28 176 99 
324 0.28054832378337735 -0.08387773078848977 1.0355760080681853 0 0 0 0.24 4 136 13 257 28 40 85 50 176 100 
325 0.28034848043218363 -0.08385863929935941 1.0354403510247119 0 0 0 0.36 4 137 13 258 15 12 27 50 28 41 85 51 176 101 197 23 
326 0.16553165648558227 -0.08542458178876501 1.0394866476963838 0 0 0 0.33 4 138 9 94 13 259 17 51 44 161 61 109 71 12 85 52 91 27 92 146 93 86 109 53 112 30 118 42 124 146 157 83 164 90 165 16 176 102 196 53 200 120 
327 0.2145816924904584 -0.08466591233931917 1.0374908254958606 0 0 0 0.33 4 139 9 95 11 73 13 260 19 54 29 10 32 57 33 113 44 162 60 58 85 53 91 28 93 87 107 18 109 54 128 24 159 22 164 91 165 17 185 20 200 121 
328 0.22740349046603647 -0.08419155511620571 1.0373250438831407 0 0 0 0.29 4 140 9 96 13 261 19 55 33 114 61 110 77 71 92 147 93 88 107 19 124 147 146 122 157 84 165 18 200 122 
329 -0.09326546593246374 -0.0869636516010178 1.0570035952857548 0 0 0 0.18 4 141 11 74 13 262 16 51 17 52 27 51 28 42 32 58 38 20 44 163 61 111 77 72 92 148 93 89 109 55 112 31 124 148 128 25 157 85 159 23 164 92 176 103 185 21 196 54 200 123 
330 0.16191045296353399 -0.08253073616779415 1.0389397378253453 0 0 0 0.22 4 142 9 97 13 263 32 59 44 164 50 132 61 112 77 73 92 149 93 90 107 20 109 56 146 123 157 86 176 104 197 24 200 124 
331 0.2372953629144795 -0.08147221171149478 1.0363857820972056 0 0 0 0.35 4 143 9 98 13 264 52 16 60 59 85 54 91 29 92 150 93 91 96 44 124 149 136 30 148 48 164 93 165 19 204 32 
332 0.23725844873489355 -0.08150533462670885 1.0364333543154265 0 0 0 0.37 4 144 9 99 11 75 13 265 17 53 44 165 52 17 60 60 61 113 85 55 91 30 92 151 93 92 96 45 112 32 124 150 136 31 146 124 148 49 164 94 165 20 176 105 204 33 
333 -0.005151594641434244 -0.0845688767193873 1.0462760253371992 0 0 0 0.27 4 145 9 100 13 266 16 52 28 43 32 60 44 166 50 133 53 50 61 114 92 152 93 93 124 151 146 125 157 87 164 95 176 106 200 125 
334 -0.16258659698380756 -0.08634864283771304 1.0685644929895688 0 0 0 0.22 4 146 9 101 11 76 13 267 17 54 19 56 32 61 33 115 44 167 50 134 53 51 60 61 61 115 77 74 92 153 96 46 118 43 124 152 146 126 158 70 159 24 164 96 176 107 185 22 200 126 204 34 
335 -0.13601004506624736 -0.08413219291778459 1.0636969075309428 0 0 0 0.19 4 147 9 102 13 268 19 57 44 168 53 52 61 116 77 75 85 56 92 154 93 94 107 21 110 35 118 44 124 153 136 32 146 127 164 97 176 108 200 127 
336 -0.15986009420329556 -0.08403437108856265 1.0680736623289113 0 0 0 0.22 4 148 13 269 32 62 36 37 60 62 61 117 77 76 92 155 96 47 110 36 136 33 148 50 159 25 176 109 204 35 
337 0.19792350561857358 -0.026711984241081416 1.0306229255917314 0 0 0 0.24 4 149 11 77 13 270 17 55 36 38 50 135 61 118 77 77 124 154 146 128 197 25 200 128 
338 0.35308575082990495 -0.009515831587868492 1.0248037792398323 0 0 0 0.31 4 150 17 56 43 34 53 53 92 156 152 20 
339 0.08236229520384623 0.048780676771347044 1.019623700877597 0 0 0 0.37 4 151 13 271 16 53 50 136 118 45 124 155 146 129 
340 0.2111916767293108 0.05118995983617683 1.014113258668981 0 0 0 0.22 4 152 9 103 13 272 44 169 69 29 92 157 118 46 135 46 146 130 152 21 157 88 158 71 165 21 185 23 200 129 204 36 
341 0.2025536655002514 0.05617688566356776 1.0137187443768154 0 0 0 0.2 4 153 13 273 17 57 33 116 44 170 92 158 93 95 135 47 175 42 
342 0.11751656317972387 0.06372772124160114 1.0115593789350499 0 0 0 0.25 4 154 9 104 13 274 15 13 16 54 61 119 69 30 77 78 92 159 118 47 124 156 152 22 157 89 175 43 
343 0.07138319881872814 0.08827845857314474 1.01044879291169 0 0 0 0.13 4 155 11 78 13 275 16 55 17 58 33 117 44 171 50 137 60 63 61 120 69 31 85 57 92 160 93 96 136 34 146 131 148 51 164 98 172 29 175 44 194 12 196 55 
344 0.25178192016641743 0.09327332339948229 1.0036863847087873 0 0 0 0.4 4 156 13 276 17 59 50 138 148 52 164 99 165 22 
345 0.0236364872655161 0.09668157813735147 1.0178316989490166 0 0 0 0.24 4 157 13 277 16 56 50 139 53 54 61 121 92 161 96 48 124 157 172 30 
346 0.10135560283674032 0.10757665592889284 1.0045905157147537 0 0 0 0.18 4 158 12 27 13 278 17 60 33 118 38 21 50 140 92 162 146 132 164 100 172 31 175 45 
347 0.10442517368619174 0.1139235529408176 1.0038998333498208 0 0 0 0.35 4 159 11 79 12 28 13 279 27 52 28 44 32 63 36 39 44 172 50 141 53 55 61 122 77 79 92 163 96 49 118 48 135 48 146 133 162 29 164 101 175 46 194 13 
348 -0.11549082003848096 0.12706652985199998 1.0193884745616422 0 0 0 0.39 4 160 12 29 17 61 36 40 92 164 118 49 146 134 157 90 172 32 176 110 
349 0.07130394143857588 0.13153186113543225 1.002799520653028 0 0 0 0.19 4 161 13 280 16 57 52 18 53 56 61 123 77 80 93 97 124 158 146 135 148 53 
350 0.3333999100070312 -0.08710482459743216 1.0347996593527882 0 0 0 0.42 4 162 11 80 43 35 50 142 61 124 124 159 152 23 158 72 165 23 176 111 196 56 
351 -0.2779627140737256 -0.08830951224622349 1.0885706223079175 0 0 0 0.05 4 163 53 57 200 130 
352 -0.16106055955576387 -0.021345646128708037 1.0570431034863916 0 0 0 0.35 4 164 12 30 13 281 32 64 36 41 43 36 53 58 61 125 71 13 96 50 124 160 157 91 
353 0.2277961492433936 0.0701968693183424 1.0080477770511027 0 0 0 0.29 4 165 13 282 15 14 17 62 77 81 109 57 146 136 
354 0.21907954306727392 0.07711926111959728 1.0072638478849394 0 0 0 0.28 4 166 11 81 13 283 15 15 17 63 28 45 43 37 53 59 71 14 77 82 92 165 96 51 109 58 110 37 118 50 146 137 164 102 165 24 172 33 185 24 194 14 196 57 
355 0.2539900974995005 0.1064819886954929 0.9988513591952006 0 0 0 0.25 4 167 11 82 12 31 17 64 33 119 43 38 44 173 50 143 61 126 69 32 71 15 77 83 91 31 96 52 124 161 164 103 165 25 172 34 200 131 
356 0.06191143750126447 0.10551061188470223 1.0100217526729367 0 0 0 0.35 4 168 11 83 13 284 16 58 17 65 44 174 53 60 61 127 69 33 77 84 89 21 146 138 
357 0.21229453777293342 0.10814268465934936 1.0016365854218867 0 0 0 0.28 4 169 12 32 13 285 28 46 32 65 44 175 50 144 71 16 77 85 110 38 124 162 146 139 158 73 172 35 175 47 
358 0.10468459766667237 0.1308228051532086 1.001049235719052 0 0 0 0.29 4 170 12 33 13 286 33 120 50 145 61 128 69 34 92 166 93 98 110 39 124 163 135 49 146 140 164 104 200 132 
359 0.21133317104919733 0.06452140816210158 1.0112932757804214 0 0 0 0.44 4 171 9 105 11 84 12 34 13 287 15 16 17 66 27 53 43 39 52 19 60 64 71 17 77 86 85 58 91 32 92 167 93 99 96 53 109 59 110 40 146 141 158 74 164 105 165 26 197 26 204 37 
360 0.21656041135555656 0.1092603673178915 0.9999299047201439 0 0 0 0.34 4 172 11 85 12 35 13 288 17 67 27 54 28 47 32 66 40 23 43 40 44 176 50 146 53 61 60 65 61 129 69 35 77 87 111 35 124 164 135 50 146 142 158 75 162 30 164 106 165 27 172 36 175 48 190 15 200 133 
361 0.1766874593546476 0.1454624891928432 0.9965608686858044 0 0 0 0.34 4 173 13 289 43 41 77 88 93 100 
362 0.05213155486536213 -0.08069498444996528 1.039881291982241 0 0 0 0.7 4 174 9 106 12 36 13 290 16 59 36 42 50 147 107 22 112 33 118 51 146 143 
363 -0.2370160965948171 -0.019552704623168448 1.0702675664512653 0 0 0 0.3 4 175 41 14 53 62 60 66 61 130 111 36 118 52 157 92 159 26 204 38 
364 0.173336019610039 0.05048344872229435 1.016793123092935 0 0 0 0.33 4 176 13 291 92 168 97 10 118 53 128 26 158 76 175 49 190 16 
365 0.21441007335683487 0.0757530920523297 1.008102316565695 0 0 0 0.31 4 177 12 37 13 292 36 43 53 63 89 22 158 77 
366 -0.2091273601531677 -0.08114374682104543 1.0743919836926654 0 0 0 0.42 4 178 9 107 12 38 27 55 43 42 53 64 60 67 92 169 190 17 204 39 
367 0.190292472448895 0.06119985555564148 1.0108850916351788 0 0 0 0.39 4 179 13 293 17 68 92 170 
368 0.11725599464608633 -0.10615933355109167 1.043564907748489 0 0 0 0.83 4 180 9 108 12 39 13 294 43 43 50 148 53 65 61 131 92 171 96 54 97 11 111 37 146 144 200 134 204 40 
369 -0.06178183689960363 -0.088182844705088 1.0521725646457378 0 0 0 1.16 4 181 13 295 16 60 17 69 36 44 43 44 52 20 61 132 85 59 97 12 107 23 109 60 118 54 146 145 159 27 190 18 200 135 
370 0.14597327432338136 0.07740893713839458 1.0084120132004546 0 0 0 0.39 4 182 13 296 53 66 124 165 172 37 197 27 
371 0.25509611787506736 0.07973664191404843 1.006983400609308 0 0 0 0.27 4 183 12 40 17 70 27 56 43 45 71 18 77 89 91 33 96 55 118 55 128 27 146 146 148 54 164 107 165 28 172 38 190 19 
372 0.25508620428882683 0.07974141904409009 1.0068494744498147 0 0 0 0.28 4 184 11 86 12 41 17 71 27 57 36 45 43 46 50 149 61 133 69 36 71 19 77 90 91 34 96 56 118 56 135 51 146 147 148 55 164 108 172 39 190 20 
373 0.18119371231741294 0.1167052781193274 0.999169761125814 0 0 0 0.48 4 185 11 87 13 297 69 37 77 91 110 41 158 78 
374 -0.015230982240569133 -0.014906675244844583 1.0299735311059637 0 0 0 0.37 4 186 13 298 44 177 
375 0.01947271844763549 -0.07001514169675845 1.0378725699459233 0 0 0 1.27 4 187 13 299 146 148 204 41 
376 0.14699819306772063 0.09811856038795454 1.0047600739261882 0 0 0 1.05 4 188 13 300 36 46 85 60 
377 0.2572841194501218 -0.13003721134943097 1.045354965992163 0 0 0 0.27 9 109 13 301 36 47 
378 -0.011553466227344936 -0.1392983473469651 1.048584617774661 0 0 0 0.18 9 110 13 302 124 166 
379 -0.01222363823757429 -0.13294114234753635 1.0520069991571936 0 0 0 0.26 9 111 13 303 33 121 
380 -0.11043574070345324 -0.13729039929395753 1.070833625411568 0 0 0 0.28 9 112 13 304 36 48 
381 0.08354059628402076 -0.12230986449914369 1.047806567012823 0 0 0 0.23 9 113 13 305 32 67 92 172 
382 0.08341730544781858 -0.12226096877261826 1.047602035578688 0 0 0 0.13 9 114 13 306 92 173 
383 -0.15000776032225574 -0.1332760155281553 1.0741333300273395 0 0 0 0.34 9 115 92 174 176 112 
384 -0.1476179979279209 -0.132759844461892 1.0744267147694642 0 0 0 0.15 9 116 32 68 92 175 
385 0.028328763432843237 -0.11926425825528342 1.0502800361154332 0 0 0 0.24 9 117 13 307 157 93 
386 0.05429958880123788 -0.10437931717316865 1.0457977845667423 0 0 0 0.21 9 118 13 308 36 49 92 176 124 167 
387 -0.022211884753185574 -0.10715943064096935 1.0514587011232843 0 0 0 0.11 9 119 13 309 60 68 107 24 124 168 
388 0.036228643885704286 -0.09978341560526331 1.0456469490775238 0 0 0 0.38 9 120 13 310 124 169 
389 0.10080585712263883 -0.0957986528246048 1.0430482882655838 0 0 0 0.31 9 121 13 311 36 50 92 177 110 42 124 170 
390 0.07566130705640856 -0.09441086948902583 1.0428695427335837 0 0 0 0.2 9 122 13 312 36 51 92 178 124 171 
391 0.10499412898730842 -0.09068495877064889 1.0409289725135298 0 0 0 0.14 9 123 13 313 93 101 124 172 
392 0.06755422239512437 -0.09214988080128451 1.0439583188413026 0 0 0 0.06 9 124 13 314 176 113 
393 0.09255321791500261 -0.0909075192593155 1.0420146582150287 0 0 0 0.21 9 125 13 315 50 150 61 134 85 61 93 102 124 173 164 109 
394 0.09643838234506502 -0.0910080604824636 1.0425986620049368 0 0 0 0.52 9 126 13 316 124 174 159 28 
395 -0.047024046366275656 -0.09718799385862006 1.050952275357397 0 0 0 0.3 9 127 13 317 109 61 124 175 157 94 
396 0.05916964534218271 -0.09129566341306848 1.042708660138218 0 0 0 0.41 9 128 13 318 44 178 124 176 146 149 
397 0.12752569520896295 -0.08808392711503081 1.039078573060118 0 0 0 0.21 9 129 13 319 124 177 200 136 
398 0.1325759550585712 -0.08791548766183913 1.039166219728534 0 0 0 0.24 9 130 13 320 85 62 91 35 93 103 124 178 164 110 176 114 200 137 
399 0.03895136104725327 -0.09159086579940152 1.0441255633766313 0 0 0 0.23 9 131 13 321 28 48 124 179 
400 0.0317801697214809 -0.09171482069718324 1.0447728606779356 0 0 0 0.24 9 132 13 322 36 52 61 135 92 179 93 104 110 43 124 180 
401 0.036227438548218506 -0.09165850839768509 1.0444490296466342 0 0 0 0.33 9 133 13 323 44 179 
402 0.013322656615116776 -0.09160462174856412 1.0453873023424194 0 0 0 0.26 9 134 13 324 28 49 44 180 92 180 93 105 109 62 124 181 157 95 176 115 200 138 
403 0.016526147208309673 -0.09144872866070525 1.0450088897289687 0 0 0 0.37 9 135 13 325 33 122 38 22 44 181 146 150 176 116 
404 0.12838618439947158 -0.08594677217467332 1.0388077383343064 0 0 0 0.22 9 136 13 326 33 123 44 182 92 181 93 106 124 182 157 96 164 111 200 139 
405 0.04938428472165042 -0.08936757917780032 1.044141274806891 0 0 0 0.27 9 137 13 327 16 61 19 58 27 58 36 53 44 183 50 151 61 136 85 63 92 182 93 107 109 63 110 44 196 58 
406 0.10996144609320621 -0.08628107335684776 1.0402113892313745 0 0 0 0.31 9 138 13 328 28 50 91 36 92 183 93 108 109 64 110 45 200 140 
407 -0.03813665620688225 -0.09370100223379338 1.0495919316405857 0 0 0 0.2 9 139 13 329 32 69 36 54 44 184 61 137 92 184 124 183 146 151 157 97 172 40 
408 0.10749333621988044 -0.08632725148878523 1.0404266450941133 0 0 0 0.56 9 140 13 330 19 59 33 124 77 92 92 185 93 109 109 65 
409 0.022658938616815748 -0.08959111494614962 1.0456547414169555 0 0 0 0.29 9 141 13 331 16 62 33 125 36 55 44 185 61 138 77 93 93 110 109 66 157 98 158 79 176 117 
410 -0.022009961225478464 -0.09134044870189084 1.0481982023370262 0 0 0 0.24 9 142 13 332 92 186 93 111 124 184 172 41 176 118 204 42 
411 -0.019427507435826077 -0.08904313741076514 1.0475786515142462 0 0 0 0.08 9 143 13 333 157 99 200 141 
412 0.011347638185356283 -0.08641760125448322 1.0441556971883732 0 0 0 0.26 9 144 13 334 92 187 
413 -0.0010315541291910945 -0.08459382491118812 1.0457768100251281 0 0 0 0.32 9 145 13 335 32 70 92 188 93 112 124 185 
414 0.014530559277064434 -0.08404677637814237 1.0442692695260334 0 0 0 0.14 9 146 13 336 92 189 93 113 146 152 
