# 3D point list with one line of data per point:
#   POINT3D_ID, X, Y, Z, R, G, B, ERROR, TRACK[] as (IMAGE_ID, POINT2D_IDX)
# Number of points: 390, mean track length: 6.77
6297 0.16032976390024994 0.08081191080107437 0.8542444983885299 0 0 0 0.42 146 1395 175 300 213 2496 214 899 
6298 0.1693208314089561 0.08157830176984136 0.8532043845330215 0 0 0 0.47 165 765 175 301 200 843 213 2497 235 1103 
6299 -0.4266648730762978 0.07146950105904534 0.9090553846790338 0 0 0 0.15 113 139 157 1368 213 2498 
6300 0.007810141670074833 0.07929558543888528 0.8623421550226208 0 0 0 0.56 92 1502 110 1078 146 1396 176 1192 194 363 213 2499 214 900 223 824 
6301 0.11768836036878082 0.08674606514062153 0.8529277240366288 0 0 0 0.05 146 1397 194 364 214 901 
6302 0.15827254804532076 0.0886390637472219 0.851540537026763 0 0 0 0.17 175 302 200 844 213 2500 
6303 -0.12435077293811922 0.08292053037542205 0.8625633663572709 0 0 0 0.11 110 1079 146 1398 176 1193 213 2501 214 902 
6304 -0.12217147996024691 0.08290951264959498 0.8625242125288256 0 0 0 0.11 146 1399 213 2502 214 903 
6305 0.07985978058480973 0.08809908241786213 0.8519660213437603 0 0 0 0.11 146 1400 194 365 214 904 
6306 0.15463184983541778 0.08974850101785148 0.8526769400746224 0 0 0 0.1 165 766 175 303 214 905 235 1104 
6307 0.2393514185070223 0.09310307777467824 0.8508732826400078 0 0 0 0.24 175 304 184 449 194 366 213 2503 
6308 0.17420159762419166 0.09176761007272013 0.8497225720181785 0 0 0 0.28 85 1513 135 255 148 1809 164 1338 165 767 175 305 194 367 196 1129 200 845 213 2504 220 698 235 1105 
6309 -0.12223762113621213 0.08657425837653633 0.8615924612855147 0 0 0 0.32 92 1503 110 1080 146 1401 176 1194 213 2505 214 906 
6310 -0.12226022075496587 0.08656027009308026 0.8613428875081464 0 0 0 0.35 92 1504 146 1402 176 1195 213 2506 214 907 
6311 -0.0441740621036597 0.08868758717268029 0.8589379431923715 0 0 0 0.35 110 1081 146 1403 175 306 194 368 213 2507 214 908 
6312 0.16476704950897472 0.09299221904607581 0.8504090225585247 0 0 0 0.77 175 307 213 2508 214 909 223 825 235 1106 
6313 -0.17546364844696674 0.08820697196126902 0.8696758860096666 0 0 0 0.27 146 1404 176 1196 213 2509 
6314 -0.12055513952806747 0.08881484891000017 0.8595330028212094 0 0 0 0.2 146 1405 176 1197 213 2510 
6315 0.15799738242736733 0.09620389430383611 0.8508076007878419 0 0 0 0.13 165 768 175 308 213 2511 
6316 -0.12255769833288199 0.08960690477658163 0.8607534726379044 0 0 0 0.27 92 1505 146 1406 176 1198 213 2512 214 910 
6317 -0.2042926654914041 0.08862106948349605 0.8685866373050048 0 0 0 0.28 146 1407 176 1199 213 2513 
6318 -0.12692428311551238 0.0914853136404845 0.8611354523682826 0 0 0 0.24 110 1082 146 1408 148 1810 164 1339 213 2514 214 911 
6319 0.31200073516874943 0.10443760136818038 0.8479108436381004 0 0 0 0.51 85 1514 164 1340 213 2515 235 1107 
6320 -0.12238948506444405 0.09292880596191633 0.8606229366117536 0 0 0 0.19 146 1409 213 2516 214 912 
6321 -0.2044612381550631 0.09251679932017226 0.8687519430985413 0 0 0 0.31 92 1506 110 1083 146 1410 176 1200 214 913 
6322 -0.04490283328448484 0.09766288014454626 0.8586641388198937 0 0 0 0.1 146 1411 175 309 213 2517 
6323 -0.20714705380949566 0.09473526888437091 0.8693942822060984 0 0 0 0.31 92 1507 146 1412 176 1201 213 2518 214 914 
6324 0.31651247335735405 0.10753239386048995 0.8463278369252591 0 0 0 0.33 85 1515 164 1341 165 769 213 2519 223 826 235 1108 
6325 -0.007681322501981181 0.10064447663656426 0.8547640401572827 0 0 0 0.18 146 1413 194 369 200 846 214 915 
6326 -0.12035717860676369 0.09847537596658151 0.8595299267097621 0 0 0 0.23 146 1414 200 847 213 2520 
6327 -0.12032100589921312 0.09860690355158241 0.8598865915089203 0 0 0 0.28 146 1415 213 2521 214 916 
6328 0.1148087154608461 0.10457846150348375 0.8501074658202324 0 0 0 0.6 85 1516 92 1508 146 1416 148 1811 164 1342 194 370 214 917 223 827 
6329 0.32069407748979883 0.1102647905662104 0.8462853222752648 0 0 0 0.49 85 1517 110 1084 148 1812 164 1343 165 770 184 450 196 1130 213 2522 223 828 
6330 -0.35171084059865126 0.09638004467307014 0.8925772426618517 0 0 0 0.27 157 1369 200 848 213 2523 
6331 -0.12238910772182661 0.10020627141814259 0.8593671810438832 0 0 0 0.35 92 1509 146 1417 148 1813 176 1202 213 2524 214 918 
6332 -0.00020044820711860654 0.10581070083507094 0.8512629460996842 0 0 0 0.13 146 1418 200 849 213 2525 
6333 0.027597565425863554 0.10969282517497321 0.8497268379803301 0 0 0 0.14 146 1419 175 310 213 2526 
6334 -0.1248946500850998 0.10842528225257053 0.8579233253054619 0 0 0 0.31 146 1420 176 1203 214 919 
6335 -0.2075061574515395 0.11282447302911872 0.8664313354830312 0 0 0 0.21 146 1421 157 1370 200 850 
6336 -0.2077858483301935 0.11616717605316239 0.866149202266571 0 0 0 0.15 146 1422 157 1371 200 851 
6337 -0.3632200811440871 -0.21379884623921147 0.9540256647912434 0 0 0 0.07 157 1372 164 1344 200 852 
6338 0.2619688359423123 -0.21065269110871424 0.9055736249916371 0 0 0 0.53 159 577 164 1345 200 853 
6339 0.2623403371899283 -0.2109163265696036 0.9059490583438697 0 0 0 0.24 182 220 184 451 200 854 
6340 0.1315289332325154 -0.20742661049828365 0.9077106146444164 0 0 0 0.52 118 2777 146 1423 213 2527 221 1189 234 396 
6341 0.15309595835174997 -0.20919790516604922 0.9198009431199128 0 0 0 1.13 146 1424 157 1373 223 829 
6342 -0.23529262626885347 -0.19216918153813164 0.9296333240720542 0 0 0 0.31 92 1510 110 1085 146 1425 157 1374 176 1204 
6343 -0.08744810571376788 -0.18926621633227805 0.9075559753679031 0 0 0 0.35 146 1426 157 1375 176 1205 185 407 
6344 -0.3129171655312338 -0.19506206355016703 0.9783340677073366 0 0 0 0.53 157 1376 176 1206 213 2528 
6345 -0.2552638194546813 -0.18076190857199886 0.9306657002038359 0 0 0 0.45 146 1427 213 2529 221 1190 
6346 -0.06844703590614538 -0.17350047952754122 0.9082621082518015 0 0 0 0.36 146 1428 157 1377 158 475 159 578 
6347 -0.2980879462887014 -0.17543887274312142 0.9390395218761003 0 0 0 0.28 146 1429 157 1378 200 855 213 2530 
6348 -0.02273862812321696 -0.17287115055043498 0.9076685519276524 0 0 0 0.51 146 1430 148 1814 157 1379 176 1207 213 2531 
6349 0.027041444947186147 -0.17247615039278197 0.9076594335413006 0 0 0 0.27 146 1431 185 408 196 1131 213 2532 
6350 0.009378809960011865 -0.1713048650989312 0.9060835956530466 0 0 0 0.37 85 1518 92 1511 110 1086 146 1432 148 1815 164 1346 213 2533 214 920 223 830 
6351 0.009557931435291949 -0.17127053277396562 0.9060891502960772 0 0 0 0.37 85 1519 92 1512 110 1087 118 2778 146 1433 147 738 148 1816 152 522 157 1380 159 579 164 1347 185 409 196 1132 213 2534 214 921 223 831 232 1842 
6352 -0.20279264388698368 -0.17063665860843988 0.925900058419032 0 0 0 0.5 92 1513 110 1088 146 1434 213 2535 
6353 -0.2928710056760692 -0.17031498121469224 0.9391554482885105 0 0 0 0.47 77 2145 158 476 164 1348 213 2536 224 642 
6354 -0.3372055343058045 -0.16910396734919625 0.9475273430387344 0 0 0 0.3 118 2779 128 859 152 523 159 580 213 2537 
6355 -0.02837296317561581 -0.164569461980348 0.9057632897015705 0 0 0 0.29 146 1435 176 1208 213 2538 
6356 0.13006923342954033 -0.16368512351491338 0.9023146234850439 0 0 0 0.39 146 1436 157 1381 172 640 176 1209 182 221 234 397 
6357 -0.030046309453178446 -0.16059179855227637 0.9053452611801476 0 0 0 0.15 146 1437 157 1382 176 1210 196 1133 213 2539 214 922 
6358 0.2526671538147122 -0.16477052865252476 0.9025354380856176 0 0 0 0.38 92 1514 158 477 172 641 176 1211 197 682 213 2540 
6359 0.1186552467061547 -0.16102638176401418 0.9059075265194411 0 0 0 0.32 77 2146 92 1515 146 1438 176 1212 197 683 213 2541 
6360 -0.12295612637053856 -0.15769395638694542 0.9092687742113009 0 0 0 0.23 92 1516 146 1439 157 1383 164 1349 213 2542 
6361 0.004752190308499673 -0.15851372184882367 0.9036015820647353 0 0 0 0.47 85 1520 110 1089 118 2780 127 1144 146 1440 157 1384 159 581 213 2543 214 923 223 832 
6362 0.2546107262980685 -0.15847463874787526 0.9011911425333905 0 0 0 0.21 92 1517 176 1213 197 684 
6363 -0.22127872695444264 -0.15718969718532433 0.9249458820425929 0 0 0 0.56 77 2147 92 1518 146 1441 158 478 
6364 -0.29931884796035907 -0.15784552822047723 0.9357640617953665 0 0 0 0.8 92 1519 176 1214 185 410 213 2544 
6365 -0.2970266742533635 -0.1575196503355649 0.9326831462405053 0 0 0 0.34 127 1145 176 1215 219 777 
6366 0.003356506263067676 -0.15509121641598092 0.9033642122304714 0 0 0 0.33 85 1521 146 1442 148 1817 159 582 164 1350 196 1134 200 856 213 2545 214 924 223 833 234 398 
6367 -0.05680415892207393 -0.15107021977334553 0.9032528357095879 0 0 0 0.59 92 1520 146 1443 157 1385 213 2546 224 643 
6368 -0.04815388119116695 -0.14673214660364978 0.9018470711574121 0 0 0 0.43 77 2148 85 1522 146 1444 157 1386 164 1351 185 411 196 1135 213 2547 214 925 223 834 
6369 -0.10096911912522658 -0.14594670062791595 0.9062159067418946 0 0 0 0.23 146 1445 157 1387 176 1216 213 2548 
6370 0.07617382896770891 -0.1465422803480287 0.8953149625245765 0 0 0 0.3 146 1446 175 311 200 857 213 2549 
6371 -0.29108674567301496 -0.1455017377067504 0.9284152952325375 0 0 0 0.56 77 2149 85 1523 148 1818 157 1388 159 583 164 1352 176 1217 213 2550 219 778 224 644 
6372 -0.11008462649929622 -0.1424992501849611 0.9026202028616119 0 0 0 0.21 77 2150 146 1447 164 1353 
6373 0.10098115479363354 -0.14364327566923024 0.8951082710325129 0 0 0 0.38 146 1448 164 1354 165 771 213 2551 235 1109 
6374 -0.30946276318369076 -0.14544782736244521 0.9323358226962098 0 0 0 0.39 92 1521 157 1389 176 1218 213 2552 
6375 -0.3002598625031824 -0.14513757331347898 0.9280594420529338 0 0 0 0.36 77 2151 157 1390 159 584 164 1355 213 2553 224 645 
6376 0.0491099102396091 -0.14415349026144728 0.9002465275578186 0 0 0 0.44 146 1449 148 1819 164 1356 176 1219 213 2554 223 835 
6377 0.1106647932565856 -0.1432099311857392 0.8945075873065993 0 0 0 0.49 77 2152 85 1524 110 1090 146 1450 148 1820 165 772 185 412 196 1136 221 1191 235 1110 
6378 0.1418770355120789 -0.14273818278967484 0.8926504237284048 0 0 0 0.39 77 2153 85 1525 146 1451 165 773 213 2555 235 1111 
6379 -0.11334270062961942 -0.13966387891433218 0.902575235929271 0 0 0 0.19 77 2154 146 1452 148 1821 157 1391 176 1220 222 764 
6380 -0.02706135768597466 -0.14023846585034802 0.9022148329775054 0 0 0 0.71 77 2155 146 1453 164 1357 196 1137 223 836 
6381 0.2939795355246454 -0.14167228425922102 0.8922246491344643 0 0 0 0.31 77 2156 159 585 164 1358 165 774 196 1138 235 1112 
6382 -0.3259124043555112 -0.1422821617772489 0.9341614910464291 0 0 0 0.36 110 1091 148 1822 157 1392 200 858 224 646 
6383 0.036964580078544106 -0.1386874593101428 0.8983746007656004 0 0 0 0.4 146 1454 157 1393 164 1359 175 312 176 1221 185 413 196 1139 200 859 213 2556 223 837 234 399 
6384 -0.389645856757902 -0.14120042848623923 0.943581663963907 0 0 0 0.17 148 1823 176 1222 213 2557 224 647 
6385 -0.018362887932841385 -0.13667656499920602 0.8985499003519343 0 0 0 0.27 146 1455 148 1824 157 1394 159 586 164 1360 213 2558 231 290 
6386 -0.01337408912409618 -0.1369184540921266 0.897963828295815 0 0 0 0.45 85 1526 146 1456 148 1825 164 1361 213 2559 
6387 0.005575347523483062 -0.13662420948429796 0.8995751526827557 0 0 0 0.26 77 2157 146 1457 148 1826 157 1395 164 1362 213 2560 214 926 
6388 -0.42300566896894837 -0.14101318779087904 0.9482420720150166 0 0 0 0.39 77 2158 110 1092 148 1827 176 1223 196 1140 204 954 
6389 0.16917530126115474 -0.13735496912152553 0.8954472839987486 0 0 0 0.62 92 1522 146 1458 159 587 162 413 213 2561 234 400 
6390 0.03984883306951572 -0.13613323567707597 0.8972835826744097 0 0 0 0.37 77 2159 146 1459 148 1828 157 1396 213 2562 223 838 234 401 
6391 -0.09900574357482911 -0.13445093764583832 0.9019694138136212 0 0 0 0.1 146 1460 176 1224 213 2563 
6392 0.045995711968262847 -0.1354620310618838 0.8980968797034906 0 0 0 0.46 92 1523 146 1461 148 1829 176 1225 200 860 213 2564 234 402 
6393 0.017296381684124274 -0.13387786150305703 0.8988919487163194 0 0 0 0.27 85 1527 92 1524 146 1462 148 1830 157 1397 158 479 164 1363 175 313 176 1226 196 1141 200 861 213 2565 214 927 223 839 231 291 234 403 
6394 0.017291316000141454 -0.1338575205447694 0.898899773028091 0 0 0 0.29 85 1528 92 1525 110 1093 146 1463 148 1831 157 1398 158 480 164 1364 175 314 176 1227 196 1142 200 862 213 2566 214 928 219 779 223 840 231 292 234 404 
6395 -0.2474751367496721 -0.13477993900821172 0.9233944215457356 0 0 0 0.4 77 2160 92 1526 146 1464 148 1832 176 1228 185 414 200 863 204 955 213 2567 220 699 224 648 
6396 -0.306854109057468 -0.1341032675032511 0.9310463313346428 0 0 0 0.25 110 1094 148 1833 200 864 
6397 -0.23323355533848164 -0.13212448499276383 0.919969431651843 0 0 0 0.38 92 1527 110 1095 146 1465 148 1834 157 1399 164 1365 176 1229 200 865 204 956 213 2568 224 649 
6398 0.05873598673450488 -0.13055369347141843 0.8959114775635146 0 0 0 0.38 77 2161 85 1529 92 1528 127 1146 146 1466 148 1835 157 1400 159 588 164 1366 176 1230 185 415 213 2569 214 929 223 841 231 293 234 405 
6399 -0.2532468638824998 -0.13199717219333124 0.9233385527488893 0 0 0 0.39 77 2162 146 1467 148 1836 157 1401 164 1367 176 1231 200 866 213 2570 
6400 -0.14065199914578524 -0.1295954863382232 0.9024844521520071 0 0 0 0.08 146 1468 148 1837 214 930 
6401 -0.12756033365148098 -0.12953048341233273 0.9015157572242685 0 0 0 0.45 77 2163 146 1469 148 1838 157 1402 158 481 164 1368 200 867 213 2571 214 931 220 700 231 294 
6402 -0.1236249717450701 -0.12996236300660782 0.9038642888688583 0 0 0 0.52 92 1529 146 1470 148 1839 157 1403 158 482 213 2572 214 932 
6403 0.06824939911756746 -0.1304063528715671 0.8970900113711326 0 0 0 0.4 77 2164 85 1530 92 1530 146 1471 148 1840 159 589 185 416 197 685 204 957 213 2573 214 933 
6404 0.07554995262514637 -0.13014814863751703 0.8948234337274885 0 0 0 0.23 92 1531 128 860 146 1472 158 483 164 1369 176 1232 196 1143 197 686 204 958 213 2574 214 934 219 780 234 406 
6405 -0.11955201224440609 -0.12925867097539137 0.9011073046306761 0 0 0 0.37 77 2165 92 1532 146 1473 148 1841 157 1404 158 484 176 1233 196 1144 200 868 214 935 231 295 
6406 -0.09437593231134739 -0.1290613773927837 0.9000449310900257 0 0 0 0.61 146 1474 157 1405 176 1234 200 869 213 2575 214 936 224 650 231 296 
6407 -0.1678814739915916 -0.12934006253228633 0.9087916043726878 0 0 0 0.36 146 1475 157 1406 158 485 176 1235 213 2576 222 765 
6408 -0.06797577256468838 -0.12823990907223012 0.8973654345178235 0 0 0 0.54 92 1533 110 1096 146 1476 176 1236 213 2577 223 842 224 651 231 297 
6409 -0.009440601499038496 -0.1278256391045671 0.8973427039710802 0 0 0 0.14 77 2166 146 1477 176 1237 214 937 
6410 0.14612574593476274 -0.12890846800254097 0.8950575389749637 0 0 0 0.4 77 2167 85 1531 92 1534 96 1164 146 1478 157 1407 175 315 176 1238 197 687 204 959 213 2578 219 781 222 766 234 407 235 1113 
6411 0.19229374280568326 -0.12804430440647294 0.8947244260431353 0 0 0 0.67 85 1532 157 1408 164 1370 175 316 196 1145 200 870 213 2579 
6412 -0.35632891218921814 -0.13066830583957376 0.9422452294721692 0 0 0 0.33 110 1097 157 1409 204 960 219 782 
6413 -0.3708889687459349 -0.1302851263394374 0.9412790931074634 0 0 0 0.38 92 1535 110 1098 148 1842 157 1410 176 1239 200 871 
6414 0.09637393887493637 -0.12664029597145354 0.8960628061969105 0 0 0 0.44 77 2168 85 1533 92 1536 146 1479 148 1843 157 1411 164 1371 175 317 176 1240 197 688 200 872 213 2580 214 938 220 701 223 843 
6415 -0.3075342844227657 -0.1281910288869856 0.9288805580137949 0 0 0 0.24 127 1147 158 486 164 1372 224 652 
6416 -0.4233926721688005 -0.12952559555082724 0.9487933048399043 0 0 0 0.17 148 1844 176 1241 200 873 
6417 -0.38595644525619516 -0.12727958596617547 0.943613599937604 0 0 0 0.44 110 1099 157 1412 176 1242 224 653 
6418 -0.12687271611768552 -0.12040122838562815 0.9008345925877578 0 0 0 0.1 146 1480 157 1413 158 487 176 1243 
6419 -0.0441454751968877 -0.11912329000459738 0.8986966955368484 0 0 0 0.54 92 1537 146 1481 157 1414 176 1244 204 961 219 783 231 298 
6420 0.08869552557395005 -0.11663539294532335 0.8922140715180111 0 0 0 0.25 146 1482 157 1415 158 488 176 1245 213 2581 
6421 -0.08553935575346805 -0.11480384385733755 0.8999684023848386 0 0 0 0.39 146 1483 213 2582 214 939 
6422 -0.1638341452892762 -0.11279456029335262 0.8982877664077992 0 0 0 0.22 146 1484 176 1246 213 2583 
6423 0.13140274718778008 -0.11336572954105109 0.8940113836708526 0 0 0 0.18 146 1485 165 775 176 1247 
6424 -0.04272517461795034 -0.1107538424182371 0.8947390298134795 0 0 0 0.21 135 256 146 1486 200 874 
6425 0.12124535760907054 -0.11086811728092583 0.893167412187269 0 0 0 0.17 146 1487 175 318 213 2584 
6426 0.03954868375517871 -0.10708457365620525 0.8935080737370322 0 0 0 0.26 77 2169 92 1538 146 1488 176 1248 213 2585 214 940 231 299 
6427 0.08081664714795171 -0.10619223971595883 0.8921739211561465 0 0 0 0.54 85 1534 146 1489 157 1416 164 1373 175 319 176 1249 185 417 213 2586 214 941 223 844 234 408 
6428 0.20330313387448815 -0.1044257051291469 0.8902548358328817 0 0 0 0.17 77 2170 148 1845 164 1374 213 2587 
6429 -0.15610218143499893 -0.10330184018319453 0.8988040479018093 0 0 0 0.23 146 1490 148 1846 159 590 176 1250 200 875 213 2588 214 942 
6430 -0.1559528951063885 -0.10346746532459036 0.899237650327344 0 0 0 0.16 146 1491 157 1417 213 2589 214 943 
6431 0.11491052809577297 -0.1035292125906775 0.8949191062567516 0 0 0 0.17 146 1492 157 1418 175 320 176 1251 182 222 
6432 -0.3862611422660409 -0.10648613846721444 0.9410413229951645 0 0 0 0.16 77 2171 157 1419 213 2590 
6433 0.17924721950812236 -0.1020236705259135 0.8947202373273845 0 0 0 0.18 146 1493 157 1420 200 876 
6434 -0.211174994967917 -0.1017895296707711 0.9099157634559003 0 0 0 0.27 110 1100 146 1494 214 944 224 654 
6435 0.03764836005039576 -0.10074123921771762 0.8916434643744405 0 0 0 0.32 92 1539 146 1495 164 1375 176 1252 214 945 234 409 
6436 -0.334616994716725 -0.10464326460812906 0.9346068493766237 0 0 0 0.23 148 1847 164 1376 196 1146 224 655 
6437 -0.04776564364577518 -0.10016164346324508 0.8934601247435848 0 0 0 0.49 85 1535 146 1496 157 1421 200 877 213 2591 223 845 
6438 0.034976483483553936 -0.09995788519006223 0.8926037757333323 0 0 0 0.32 146 1497 164 1377 200 878 213 2592 
6439 0.03492848326972607 -0.09999205609168785 0.8927549146010997 0 0 0 0.32 146 1498 164 1378 213 2593 234 410 
6440 -0.2951280411071223 -0.10281698215868902 0.9241979730952417 0 0 0 0.36 92 1540 157 1422 159 591 
6441 -0.2951413947817038 -0.10283067820500534 0.9242630796342158 0 0 0 0.17 146 1499 157 1423 213 2594 
6442 -0.08069056521855443 -0.09983516195319962 0.8946679610437785 0 0 0 0.23 146 1500 148 1848 157 1424 164 1379 214 946 
6443 -0.421280363068893 -0.1050172666407574 0.9485296634100892 0 0 0 0.3 77 2172 118 2781 148 1849 157 1425 164 1380 213 2595 224 656 
6444 -0.09240376885774829 -0.10005149736503398 0.9032020859374403 0 0 0 0.3 92 1541 146 1501 213 2596 
6445 -0.42335308554026385 -0.10332543075515721 0.9463582392429912 0 0 0 0.43 77 2173 157 1426 164 1381 213 2597 
6446 -0.15593268835846785 -0.09747690698223481 0.8986225847736735 0 0 0 0.17 146 1502 157 1427 176 1253 213 2598 214 947 231 300 
6447 -0.15604973683556286 -0.09739807154395166 0.8978651946891979 0 0 0 0.13 146 1503 157 1428 213 2599 
6448 -0.25359676933353353 -0.09901752902213393 0.9169306091916827 0 0 0 0.14 146 1504 157 1429 164 1382 200 879 213 2600 
6449 0.15833228553061263 -0.09675188742611425 0.8893992039180905 0 0 0 0.23 146 1505 157 1430 158 489 182 223 200 880 
6450 -0.3845812838280254 -0.10039459660345619 0.938391225313517 0 0 0 0.17 77 2174 157 1431 176 1254 213 2601 
6451 -0.16002942130563644 -0.0960392200178683 0.8986028930451583 0 0 0 0.15 146 1506 213 2602 214 948 
6452 0.07624420164006405 -0.09440807390271544 0.8905284917440282 0 0 0 0.3 92 1542 146 1507 157 1432 213 2603 
6453 0.1858926722047935 -0.09556733721386011 0.8956856836861303 0 0 0 0.07 165 776 200 881 235 1114 
6454 0.18955756037984398 -0.09583862123872529 0.8958999453191047 0 0 0 0.04 165 777 200 882 235 1115 
6455 0.319341048967453 -0.0948993496412425 0.8867168373459475 0 0 0 0.46 92 1543 176 1255 200 883 213 2604 
6456 -0.15830485105474626 -0.09342622431388571 0.8976795213984593 0 0 0 0.34 146 1508 157 1433 213 2605 214 949 
6457 -0.15629854807035748 -0.09035728140893762 0.8970799084482429 0 0 0 0.24 146 1509 157 1434 200 884 
6458 -0.14807041524546716 -0.08670308755486751 0.9009720357717341 0 0 0 0.02 146 1510 148 1850 214 950 
6459 -0.00659490401018001 -0.08377820821016267 0.8920485113249104 0 0 0 0.36 128 861 146 1511 175 321 213 2606 
6460 -0.2537206492350675 -0.08520022969574206 0.9146924064277621 0 0 0 0.34 146 1512 157 1435 158 490 164 1383 176 1256 204 962 232 1843 
6461 -0.00654255979476024 -0.07962574641383822 0.8913437677438115 0 0 0 0.39 146 1513 157 1436 175 322 
6462 -0.4484520921390088 -0.08541629713033615 0.9463201600891458 0 0 0 0.13 110 1101 157 1437 176 1257 213 2607 
6463 -0.006852567704495689 -0.07478224864323096 0.8892224633261998 0 0 0 0.33 146 1514 157 1438 164 1384 175 323 200 885 
6464 -0.16363149162609114 -0.07398352648659691 0.8935830966805082 0 0 0 0.24 146 1515 200 886 213 2608 
6465 -0.44473887100463433 -0.07878691804258299 0.9448874972853254 0 0 0 0.35 157 1439 176 1258 200 887 213 2609 
6466 -0.10850387426881684 -0.07344542794211578 0.8986356514763333 0 0 0 0.27 146 1516 148 1851 213 2610 214 951 
6467 -0.10354027072515236 -0.07321638196307971 0.8986266996952662 0 0 0 0.07 146 1517 148 1852 213 2611 
6468 -0.09774853942477092 -0.07320046581606199 0.8988409397525668 0 0 0 0.16 110 1102 146 1518 176 1259 
6469 -0.0929766301955779 -0.07300808455949348 0.8961940805203684 0 0 0 0.07 146 1519 176 1260 213 2612 
6470 -0.09036037623372735 -0.07130395792756561 0.8967049714765929 0 0 0 0.08 146 1520 176 1261 213 2613 
6471 0.07192382884420688 -0.06997144269454904 0.8872749629657257 0 0 0 0.33 146 1521 152 524 157 1440 176 1262 200 888 219 784 
6472 -0.04771387570003394 -0.07010054363728048 0.8897480802156574 0 0 0 0.22 146 1522 157 1441 175 324 200 889 213 2614 
6473 0.034126587344027716 -0.06783239425591682 0.8861076228699821 0 0 0 0.28 146 1523 157 1442 175 325 213 2615 234 411 
6474 0.1313115349441669 -0.06776151097146144 0.8873437014945047 0 0 0 0.47 146 1524 172 642 175 326 
6475 -0.10500944793069514 -0.06819520961652521 0.894339474173762 0 0 0 0.17 146 1525 157 1443 213 2616 214 952 
6476 -0.27674428674948 -0.070722333247557 0.9214387898107195 0 0 0 0.16 146 1526 176 1263 213 2617 
6477 -0.025783949785104846 -0.06675339380523625 0.8882344089415243 0 0 0 0.24 127 1148 128 862 136 634 146 1527 148 1853 159 592 176 1264 213 2618 231 301 
6478 -0.42190068378725937 -0.06913070758945009 0.9418757943756234 0 0 0 0.35 148 1854 164 1385 176 1265 213 2619 
6479 -0.16375688273442138 -0.06371217104489878 0.8910821866954505 0 0 0 0.16 146 1528 157 1444 158 491 213 2620 
6480 -0.009544261091042434 -0.06297910125271008 0.8874796272515681 0 0 0 0.39 135 257 146 1529 157 1445 175 327 176 1266 200 890 213 2621 223 846 
6481 -0.28659478105516023 -0.06609708401517034 0.9203928133551688 0 0 0 0.24 146 1530 157 1446 176 1267 213 2622 
6482 -0.13064760753156351 -0.06249541437630955 0.8922565986291832 0 0 0 0.19 146 1531 157 1447 214 953 
6483 -0.047493518030969024 -0.06103940705925533 0.8887804851061349 0 0 0 0.49 92 1544 135 258 146 1532 148 1855 157 1448 158 492 175 328 214 954 
6484 -0.0194565579250627 -0.060019760140833364 0.8877440100464702 0 0 0 0.41 77 2175 127 1149 135 259 146 1533 158 493 159 593 176 1268 185 418 196 1147 223 847 
6485 -0.011806210059202718 -0.05947683732045575 0.8873218664871889 0 0 0 0.35 135 260 146 1534 157 1449 176 1269 213 2623 
6486 0.10909003910669003 -0.05770125688545269 0.8833837542305171 0 0 0 0.35 146 1535 176 1270 213 2624 234 412 
6487 0.028941094829738244 -0.05505646313879414 0.8867786288680422 0 0 0 0.42 127 1150 146 1536 159 594 175 329 194 371 234 413 
6488 0.011667875902966305 -0.05491641017727703 0.8885334111148012 0 0 0 0.22 146 1537 176 1271 213 2625 
6489 0.015873134691309593 -0.05474877468290844 0.8871402306631172 0 0 0 0.2 146 1538 175 330 176 1272 
6490 -0.40991388971208037 -0.05999177350019347 0.9365224143153742 0 0 0 0.29 157 1450 200 891 213 2626 
6491 -0.3385906293361511 -0.05864610334795062 0.9237202330428963 0 0 0 0.29 157 1451 158 494 159 595 176 1273 
6492 -0.01711965325736906 -0.05406703341940436 0.8878223200176691 0 0 0 0.47 146 1539 148 1856 157 1452 159 596 164 1386 175 331 176 1274 200 892 213 2627 214 955 
6493 -0.3415625649885265 -0.0579202691782487 0.924014261440499 0 0 0 0.31 92 1545 157 1453 176 1275 213 2628 
6494 0.19357304690714322 -0.05090730798799663 0.8827880778506804 0 0 0 0.29 146 1540 157 1454 164 1387 176 1276 184 452 213 2629 235 1116 
6495 -0.32847443351699046 -0.054729485799976274 0.9223097420059675 0 0 0 0.22 92 1546 157 1455 200 893 213 2630 
6496 -0.03303532107046071 -0.049889827492339237 0.888757519960939 0 0 0 0.17 146 1541 157 1456 172 643 
6497 -0.012572955509590986 -0.04964170423187508 0.8885718643187228 0 0 0 0.16 146 1542 158 495 164 1388 176 1277 200 894 
6498 0.04887772435130422 -0.04897012233252818 0.8844331026598304 0 0 0 0.23 85 1536 146 1543 157 1457 200 895 213 2631 214 956 
6499 -0.3176072993621107 -0.05219643494971325 0.9212147517565685 0 0 0 0.14 148 1857 157 1458 159 597 200 896 204 963 213 2632 224 657 
6500 0.15531189456064035 -0.046336558445542624 0.8846829287948351 0 0 0 0.49 77 2176 146 1544 176 1278 213 2633 
6501 -0.026094299225040328 -0.04748928140349056 0.8882492351899266 0 0 0 0.53 146 1545 213 2634 223 848 
6502 -0.015077570365742152 -0.04729125191794146 0.89019906533864 0 0 0 0.48 92 1547 146 1546 157 1459 175 332 176 1279 200 897 213 2635 
6503 0.06225077619991178 -0.046636748408881705 0.8858603034338921 0 0 0 0.49 85 1537 146 1547 148 1858 164 1389 185 419 196 1148 223 849 
6504 -0.0981363068795147 -0.04753308912199416 0.8941493155457756 0 0 0 0.18 77 2177 92 1548 110 1103 146 1548 157 1460 176 1280 213 2636 214 957 
6505 -0.09356132406917538 -0.04755482133346795 0.8927446740191973 0 0 0 0.24 146 1549 157 1461 158 496 213 2637 231 302 
6506 -0.0656485438899017 -0.047088590759967054 0.8926209894003141 0 0 0 0.13 77 2178 110 1104 146 1550 176 1281 213 2638 
6507 0.27257090096723624 -0.0447439662425238 0.8809338155537934 0 0 0 0.3 176 1282 200 898 235 1117 
6508 -0.17520233977491362 -0.04754379568106512 0.8973458833331096 0 0 0 0.07 146 1551 213 2639 231 303 
6509 -0.007649400124142334 -0.044892180033279036 0.8834370415674968 0 0 0 0.43 146 1552 175 333 200 899 
6510 0.2239429491348524 -0.04359535864872914 0.8843350225699111 0 0 0 0.24 92 1549 135 261 164 1390 176 1283 200 900 
6511 -0.011126027528466925 -0.04483633364133059 0.8917433377016962 0 0 0 0.44 146 1553 157 1462 158 497 175 334 176 1284 
6512 -0.07289263219444583 -0.04423306605788111 0.8909685095607244 0 0 0 0.21 128 863 146 1554 157 1463 158 498 176 1285 213 2640 
6513 -0.1317413909376902 -0.04327024229657422 0.8919871434953072 0 0 0 0.32 146 1555 176 1286 213 2641 
6514 0.026431992665828716 -0.04232157635861571 0.887139481267882 0 0 0 0.37 146 1556 157 1464 158 499 200 901 213 2642 
6515 0.03377469183577426 -0.04195208533546996 0.8815162029360823 0 0 0 0.18 146 1557 157 1465 175 335 213 2643 234 414 
6516 -0.0004459113352991383 -0.04185320563186719 0.8828430353155299 0 0 0 0.21 146 1558 164 1391 213 2644 
6517 -0.19969381775706996 -0.04363829513163302 0.899575026926813 0 0 0 0.3 77 2179 146 1559 157 1466 213 2645 
6518 -0.24528076062086943 -0.04428973725882497 0.9098277871848613 0 0 0 0.17 146 1560 164 1392 213 2646 
6519 -0.05480139497056659 -0.041834953213493176 0.8904737339502774 0 0 0 0.22 128 864 146 1561 164 1393 
6520 -0.09095167218185624 -0.04034264227889854 0.8916845272793195 0 0 0 0.34 77 2180 146 1562 213 2647 214 958 
6521 -0.3927702398057689 -0.03521336186171746 0.9280363245114371 0 0 0 0.38 148 1859 164 1394 224 658 
6522 -0.37889359402316725 -0.03520730574416645 0.9277632100215776 0 0 0 0.5 77 2181 127 1151 148 1860 164 1395 213 2648 224 659 
6523 -0.14264344493373401 -0.02682370587345106 0.8913544601768915 0 0 0 0.13 135 262 146 1563 172 644 176 1287 
6524 -0.43762521617644884 -0.030993280189702137 0.9325545663263791 0 0 0 0.55 127 1152 148 1861 157 1467 162 414 213 2649 224 660 227 740 
6525 -0.25027861854701644 -0.026747416803646448 0.9021766729382648 0 0 0 0.36 146 1564 148 1862 164 1396 
6526 0.14031264825119033 -0.01080377054472511 0.8797277492032325 0 0 0 0.43 135 263 146 1565 157 1468 182 224 
6527 0.14112668688807575 -0.010666418682246997 0.8819970248727926 0 0 0 0.3 146 1566 157 1469 182 225 213 2650 
6528 -0.10961709756238676 -0.012733336424391018 0.889245560679932 0 0 0 0.09 146 1567 176 1288 213 2651 
6529 0.14402282373639705 -0.00881892623500155 0.8817502811238048 0 0 0 0.39 146 1568 157 1470 182 226 197 689 
6530 -0.4457681250582519 -0.010540646692565128 0.9326523571736987 0 0 0 0.4 85 1538 92 1550 148 1863 157 1471 162 415 164 1397 172 645 176 1289 196 1149 220 702 
6531 0.19343973412904117 -0.001492125293589399 0.8743499597307327 0 0 0 0.32 96 1165 146 1569 157 1472 158 500 182 227 234 415 
6532 0.08607547643292038 -0.001648108935640133 0.8726620088111354 0 0 0 0.61 96 1166 135 264 146 1570 157 1473 204 964 219 785 
6533 -0.3372724545053936 -0.0027855391567545625 0.9168713273677204 0 0 0 0.33 77 2182 113 140 148 1864 164 1398 200 902 220 703 224 661 
6534 0.14173513413543165 0.005664286078965305 0.8814187522257887 0 0 0 0.23 146 1571 157 1474 232 1844 
6535 -0.04092827874652409 0.005232563469273757 0.8728511396369434 0 0 0 0.27 92 1551 146 1572 157 1475 175 336 200 903 213 2652 214 959 
6536 -0.0940935380382928 0.007362719756916576 0.8850044664800192 0 0 0 0.05 146 1573 176 1290 213 2653 
6537 -0.09115782800083402 0.007382756323847083 0.8841046225636948 0 0 0 0.17 146 1574 176 1291 213 2654 
6538 -0.20069493294161395 0.007546115908245567 0.8883481066722987 0 0 0 0.28 92 1552 146 1575 176 1292 213 2655 
6539 0.07427779163096286 0.012553610979453367 0.8666716555705577 0 0 0 0.31 146 1576 164 1399 214 960 
6540 -0.0761948619166097 0.010778056601196592 0.8739099872900077 0 0 0 0.2 146 1577 157 1476 176 1293 
6541 0.017484325280138064 0.011993360903559824 0.8787108252694887 0 0 0 0.26 77 2183 146 1578 172 646 221 1192 
6542 0.028614151227275324 0.012371664961035832 0.8782132164431736 0 0 0 0.13 146 1579 176 1294 200 904 
6543 0.2035772982569159 0.014740609389618816 0.8651990996095914 0 0 0 0.16 135 265 184 453 213 2656 
6544 0.09993266223481437 0.013666646152229248 0.8760766439705745 0 0 0 0.26 77 2184 146 1580 164 1400 176 1295 197 690 
6545 0.151579815241152 0.014399117490312332 0.8752162839563578 0 0 0 0.33 77 2185 158 501 175 337 235 1118 
6546 0.15116300699612986 0.014336020801758541 0.874446415534938 0 0 0 0.26 146 1581 158 502 175 338 
6547 0.1617409979680141 0.01575476202274968 0.8625980454091603 0 0 0 0.21 77 2186 136 635 146 1582 148 1865 157 1477 164 1401 165 778 175 339 176 1296 185 420 196 1150 213 2657 235 1119 
6548 -0.3528003878338787 0.009327811883593468 0.9101846913194587 0 0 0 0.23 164 1402 176 1297 213 2658 
6549 -0.32257378857151675 0.010262862272700452 0.913721889872745 0 0 0 0.21 164 1403 176 1298 200 905 
6550 -0.13286593643982042 0.013238639114032957 0.8791878967563321 0 0 0 0.11 128 865 146 1583 157 1478 176 1299 213 2659 
6551 -0.38281772435868294 0.011223831229841637 0.934334700980474 0 0 0 0.2 77 2187 92 1553 164 1404 
6552 -0.19849469733192823 0.013473528259420364 0.8871807453545384 0 0 0 0.07 146 1584 176 1300 213 2660 
6553 0.060120088147048424 0.018121853668585836 0.8715089486679395 0 0 0 0.19 110 1105 146 1585 176 1301 
6554 0.06954814500083603 0.018202322552593048 0.872817973869129 0 0 0 0.36 146 1586 176 1302 213 2661 
6555 -0.13066888892598283 0.015475231344462515 0.8780528624278884 0 0 0 0.12 146 1587 157 1479 176 1303 213 2662 
6556 -0.07052253646313872 0.016582334381656516 0.8762213695991607 0 0 0 0.23 146 1588 157 1480 176 1304 231 304 
6557 -0.053506407968849035 0.016854552362690695 0.8775325066712891 0 0 0 0.18 146 1589 157 1481 176 1305 213 2663 
6558 -0.11503474281243384 0.01679589787602442 0.8724830022574512 0 0 0 0.08 92 1554 146 1590 157 1482 176 1306 
6559 0.15324032133465149 0.02057442019337919 0.8648086131654263 0 0 0 0.36 146 1591 164 1405 214 961 
6560 -0.07878257428581635 0.017879689225225277 0.8741337705282348 0 0 0 0.53 146 1592 157 1483 175 340 213 2664 
6561 -0.08944589329973004 0.019588055433476775 0.8732264738926118 0 0 0 0.26 135 266 146 1593 176 1307 222 767 
6562 -0.053710781180450605 0.019719923590781657 0.8775623938763092 0 0 0 0.07 146 1594 176 1308 188 36 213 2665 
6563 -0.20968526207758179 0.01815951112821351 0.8792654707642436 0 0 0 0.15 77 2188 146 1595 176 1309 213 2666 214 962 224 662 
6564 -0.20969890151900772 0.018220131719477155 0.879558090746858 0 0 0 0.2 77 2189 92 1555 128 866 146 1596 176 1310 200 906 213 2667 214 963 
6565 -0.12068324036822503 0.020852514411350588 0.8697219169530508 0 0 0 0.28 146 1597 148 1866 157 1484 164 1406 176 1311 213 2668 224 663 
6566 0.05169862784364588 0.02463802738437988 0.8723458422572652 0 0 0 0.11 146 1598 200 907 231 305 
6567 0.06459899387162935 0.025181194771364865 0.870878465799295 0 0 0 0.21 77 2190 146 1599 176 1312 
6568 -0.16603136915162908 0.021693266565293624 0.8707916471129932 0 0 0 0.13 146 1600 157 1485 213 2669 
6569 -0.053839883798899965 0.023694101545885755 0.8767456971665076 0 0 0 0.06 146 1601 176 1313 188 37 
6570 -0.013563903795984975 0.023800394397056418 0.872890997715602 0 0 0 0.18 146 1602 157 1486 175 341 188 38 
6571 -0.14699190209190865 0.022565003807566143 0.8779521939173716 0 0 0 0.14 146 1603 176 1314 213 2670 
6572 -0.013494242861688209 0.02594011734841873 0.8727169704815848 0 0 0 0.23 146 1604 175 342 188 39 
6573 0.051720158147564387 0.02728533634557926 0.8717456791450152 0 0 0 0.28 146 1605 200 908 231 306 
6574 0.051720158147564387 0.02728533634557926 0.8717456791450152 0 0 0 0.28 146 1606 200 909 231 307 
6575 -0.08732764183711604 0.025629464805837287 0.8684753007584527 0 0 0 0.22 92 1556 146 1607 158 503 176 1315 
6576 -0.1260121223221837 0.02546610497216183 0.8694599136498882 0 0 0 0.18 146 1608 157 1487 176 1316 213 2671 231 308 
6577 -0.3652108360551029 0.02443895977756293 0.9130872492986027 0 0 0 0.25 157 1488 176 1317 200 910 213 2672 
6578 -0.3609844384934339 0.024070524432693273 0.9082732372192291 0 0 0 0.17 157 1489 176 1318 213 2673 
6579 0.10651029197881297 0.03346980267081741 0.8624780974758637 0 0 0 0.29 146 1609 157 1490 176 1319 
6580 0.2436681046339111 0.03724676694072212 0.8618977686827503 0 0 0 0.5 92 1557 110 1106 157 1491 164 1407 165 779 194 372 213 2674 
6581 0.31101263776534105 0.038219377664020164 0.8579257571583814 0 0 0 0.58 77 2191 85 1539 92 1558 110 1107 164 1408 165 780 175 343 176 1320 196 1151 213 2675 223 850 235 1120 
6582 -0.10842173326598206 0.031072125699970633 0.8737944806201927 0 0 0 0.27 146 1610 157 1492 176 1321 196 1152 213 2676 
6583 0.11442365265879983 0.035509275247022076 0.8610754380103671 0 0 0 0.29 77 2192 85 1540 146 1611 157 1493 165 781 175 344 194 373 200 911 213 2677 235 1121 
6584 0.04300839771531373 0.03440264675735183 0.8633874042378394 0 0 0 0.45 77 2193 85 1541 92 1559 146 1612 148 1867 164 1409 176 1322 194 374 213 2678 214 964 223 851 234 416 
6585 0.09929924692370407 0.03571719683950182 0.865255690241126 0 0 0 0.52 110 1108 146 1613 148 1868 164 1410 176 1323 194 375 213 2679 214 965 223 852 
6586 0.1845915743107949 0.03733448427146705 0.8658448991294764 0 0 0 0.42 85 1542 148 1869 165 782 176 1324 196 1153 213 2680 223 853 235 1122 
6587 -0.1949329687465311 0.03084656474241503 0.8811035249023927 0 0 0 0.35 146 1614 159 598 164 1411 176 1325 213 2681 214 966 
6588 -0.18476496748568288 0.03108580509079002 0.8798683587420273 0 0 0 0.26 146 1615 176 1326 185 421 213 2682 214 967 
6589 0.022564161630689052 0.03476990169669655 0.8680168569723449 0 0 0 0.12 146 1616 176 1327 214 968 234 417 
6590 0.05209033921717486 0.03505298729094642 0.8661137738308993 0 0 0 0.14 146 1617 176 1328 213 2683 
6591 0.10446721532234696 0.03605483767163767 0.8648338856082181 0 0 0 0.35 146 1618 164 1412 213 2684 
6592 -0.02449709866421842 0.0343620474474794 0.8704789268967988 0 0 0 0.43 85 1543 146 1619 148 1870 159 599 188 40 213 2685 214 969 
6593 -0.018924638037618846 0.03408002140247088 0.8697877922401243 0 0 0 0.28 146 1620 157 1494 213 2686 214 970 
6594 -0.09697418671872046 0.033778091350498377 0.8739466796741754 0 0 0 0.39 92 1560 146 1621 157 1495 176 1329 213 2687 231 309 
6595 -0.08899934563262595 0.033473562034541306 0.8696345923901617 0 0 0 0.09 92 1561 146 1622 176 1330 214 971 
6596 -0.08897753338832724 0.033481693428801744 0.8697095919545319 0 0 0 0.1 146 1623 176 1331 214 972 
6597 0.30835913530761433 0.04079512039012912 0.857694616028698 0 0 0 0.2 164 1413 176 1332 184 454 234 418 
6598 -0.06112523972650238 0.0346707779499643 0.8714910698330799 0 0 0 0.38 92 1562 146 1624 157 1496 164 1414 176 1333 188 41 213 2688 214 973 
6599 0.30420623491882665 0.04102025105643099 0.8647983028292876 0 0 0 0.25 92 1563 164 1415 165 783 213 2689 
6600 0.25822278102421276 0.040634634278107484 0.8640589657026503 0 0 0 0.2 77 2194 136 636 148 1871 164 1416 194 376 213 2690 235 1123 
6601 0.14296795634367784 0.03940226414048409 0.865655875072618 0 0 0 0.3 85 1544 146 1625 148 1872 164 1417 165 784 185 422 194 377 213 2691 235 1124 
6602 0.31650788997323986 0.042229915436756464 0.8562242406462353 0 0 0 0.22 148 1873 164 1418 213 2692 
6603 -0.008106326169775212 0.037000684485652524 0.8673158733784829 0 0 0 0.17 146 1626 175 345 200 912 
6604 0.003319607488278912 0.037450944558998944 0.8665861477489916 0 0 0 0.26 146 1627 157 1497 176 1334 214 974 
6605 0.040775777199618224 0.03768115854150695 0.8639189202234548 0 0 0 0.42 77 2195 85 1545 92 1564 110 1109 136 637 146 1628 148 1874 157 1498 164 1419 176 1335 185 423 194 378 197 691 213 2693 214 975 223 854 234 419 
6606 0.040888345766200984 0.03747967073071394 0.8638262720793852 0 0 0 0.54 77 2196 85 1546 146 1629 176 1336 197 692 213 2694 214 976 223 855 
6607 0.10755906869095412 0.03925917137503083 0.8663493942133549 0 0 0 0.42 146 1630 158 504 164 1420 176 1337 214 977 
6608 -0.1191153656461481 0.035900095705553144 0.8706177175739174 0 0 0 0.17 85 1547 92 1565 146 1631 148 1875 185 424 200 913 214 978 231 310 
6609 -0.11895019390535105 0.03581605564650123 0.870050109376738 0 0 0 0.3 85 1548 92 1566 146 1632 148 1876 157 1499 176 1338 185 425 196 1154 213 2695 214 979 223 856 224 664 
6610 -0.04092830627213541 0.03707102651490749 0.8670677024383336 0 0 0 0.39 92 1567 146 1633 148 1877 157 1500 158 505 175 346 188 42 194 379 196 1155 200 914 213 2696 223 857 
6611 -0.15819290889345786 0.03542375375043621 0.8692260498166815 0 0 0 0.31 146 1634 176 1339 213 2697 214 980 224 665 
6612 -0.1535449902273107 0.035644528286124515 0.871083260307218 0 0 0 0.22 92 1568 146 1635 164 1421 176 1340 213 2698 214 981 
6613 -0.12598286215696564 0.03593447413677708 0.8702142906032582 0 0 0 0.27 85 1549 127 1153 146 1636 148 1878 157 1501 176 1341 213 2699 214 982 231 311 
6614 -0.11506770226612788 0.03618877972893052 0.8713543770241967 0 0 0 0.57 146 1637 157 1502 176 1342 185 426 214 983 223 858 
6615 0.15951769186358128 0.04116013608737691 0.8602973712503257 0 0 0 0.3 146 1638 164 1422 176 1343 194 380 213 2700 214 984 
6616 -0.10860067174973047 0.03696411554700451 0.8736923022850926 0 0 0 0.19 77 2197 92 1569 146 1639 164 1423 214 985 
6617 -0.10308276489994478 0.036885979501566066 0.8741748314763682 0 0 0 0.12 92 1570 146 1640 176 1344 214 986 
6618 -0.09997884594890775 0.03713364087963595 0.8741004868658088 0 0 0 0.16 92 1571 146 1641 164 1424 176 1345 214 987 
6619 -0.06635148460632728 0.03764856482988582 0.8730022337990216 0 0 0 0.25 92 1572 110 1110 146 1642 157 1503 164 1425 214 988 
6620 -0.062396842746322 0.03761679815356502 0.8740151582755958 0 0 0 0.33 92 1573 110 1111 135 267 146 1643 164 1426 188 43 214 989 231 312 
6621 -0.2534909856154979 0.036326025489625866 0.8885009818244727 0 0 0 0.25 92 1574 110 1112 128 867 146 1644 148 1879 157 1504 158 506 164 1427 176 1346 204 965 213 2701 214 990 
6622 0.12579661721551055 0.04273982210478616 0.860448255591732 0 0 0 0.49 110 1113 146 1645 157 1505 175 347 200 915 213 2702 223 859 
6623 -0.37328478189053016 0.03529382451557053 0.9104146717401845 0 0 0 0.52 92 1575 148 1880 164 1428 176 1347 200 916 213 2703 224 666 
6624 -0.36543018500066204 0.035272513681625435 0.9100937007483583 0 0 0 0.1 148 1881 157 1506 213 2704 
6625 -0.27645829734807764 0.037456462688348444 0.8961547808573599 0 0 0 0.17 146 1646 213 2705 214 991 
6626 -0.2896067708806168 0.037315347121228755 0.8991805921914477 0 0 0 0.28 77 2198 85 1550 92 1576 148 1882 164 1429 213 2706 
6627 -0.3501574969004564 0.03730788001060186 0.9032181876448978 0 0 0 0.11 157 1507 200 917 213 2707 
6628 -0.350240415489369 0.03731663601464051 0.9033510411432123 0 0 0 0.16 157 1508 176 1348 200 918 213 2708 
6629 -0.11502520050604027 0.040874313603336765 0.8703164779264067 0 0 0 0.34 92 1577 146 1647 200 919 214 992 
6630 -0.20152500943440133 0.04080760333166273 0.8799930514685501 0 0 0 0.35 77 2199 85 1551 92 1578 128 868 135 268 146 1648 148 1883 164 1430 176 1349 185 427 213 2709 214 993 223 860 
6631 0.20344989322157972 0.04804828250120129 0.8604416812759302 0 0 0 0.23 157 1509 164 1431 235 1125 
6632 0.07546054169060422 0.04631907634563618 0.8609991494805771 0 0 0 0.37 146 1649 164 1432 213 2710 234 420 
6633 -0.41898118295560766 0.038692549979109474 0.9203354883141059 0 0 0 0.26 77 2200 110 1114 148 1884 157 1510 159 600 164 1433 176 1350 213 2711 
6634 0.04111333898696471 0.04589237037562912 0.8651905293553157 0 0 0 0.36 146 1650 157 1511 213 2712 
6635 -0.43858276196277185 0.03843979790456354 0.9180659564390241 0 0 0 0.37 77 2201 92 1579 110 1115 113 141 118 2782 157 1512 164 1434 176 1351 204 966 213 2713 
6636 -0.11981892994338714 0.04378709945058463 0.8692380772692758 0 0 0 0.24 77 2202 85 1552 92 1580 146 1651 148 1885 157 1513 176 1352 214 994 219 786 
6637 0.155796893700824 0.0492786517344006 0.8600743456932706 0 0 0 0.13 110 1116 146 1652 175 348 
6638 -0.301246261366316 0.042356429876716804 0.8946553235299093 0 0 0 0.21 146 1653 176 1353 214 995 
6639 -0.0039322580258289025 0.05201627945021924 0.8634597809745795 0 0 0 0.64 92 1581 110 1117 146 1654 164 1435 194 381 213 2714 223 861 
6640 -0.25388945932070284 0.04901958737585534 0.8866037256928334 0 0 0 0.27 77 2203 135 269 157 1514 176 1354 
6641 -0.3856679905095378 0.04902764023530776 0.9075514882792166 0 0 0 0.27 157 1515 176 1355 213 2715 
6642 -0.12301822734976119 0.05333209725564373 0.8681115565721143 0 0 0 0.22 146 1655 213 2716 214 996 
6643 -0.3406980243773682 0.05144332651817301 0.8999817072601826 0 0 0 0.18 92 1582 110 1118 176 1356 
6644 -0.4394148255548131 0.05167603728516551 0.9175723522301003 0 0 0 0.27 110 1119 157 1516 213 2717 
6645 -0.299330187658248 0.053219058068373064 0.8916370236934972 0 0 0 0.15 92 1583 157 1517 176 1357 213 2718 
6646 -0.3019594840402661 0.05413635566915744 0.8928193077031087 0 0 0 0.19 113 142 157 1518 164 1436 213 2719 
6647 -0.19632286899029705 0.05630734656994411 0.8845322023931801 0 0 0 0.31 146 1656 176 1358 213 2720 
6648 0.02923419067140521 0.06040668751842534 0.8602733087098521 0 0 0 0.84 146 1657 194 382 223 862 
6649 -0.3405527008432468 0.05633137840689899 0.9000224619706736 0 0 0 0.26 110 1120 113 143 176 1359 213 2721 
6650 -0.19868800443743057 0.05852718121503798 0.8818446595036564 0 0 0 0.17 146 1658 176 1360 213 2722 
6651 0.2088141521137655 0.06677811438299984 0.8575356960229272 0 0 0 0.28 148 1886 194 383 213 2723 235 1126 
6652 0.16782646284989072 0.06622867848359906 0.8567105110917761 0 0 0 0.55 85 1553 110 1121 127 1154 135 270 146 1659 148 1887 164 1437 165 785 175 349 194 384 196 1156 200 920 213 2724 214 997 223 863 235 1127 
6653 -0.20421489086824154 0.058853687386118174 0.8751820839533527 0 0 0 0.23 146 1660 157 1519 176 1361 200 921 213 2725 
6654 0.0402218077057798 0.06307213791300831 0.8592897890867458 0 0 0 0.89 146 1661 194 385 213 2726 223 864 
6655 0.19581434077363685 0.06894844777672907 0.8562683269462629 0 0 0 0.38 77 2204 148 1888 164 1438 165 786 213 2727 235 1128 
6656 0.2694875594582269 0.07056546723718986 0.8537937012540475 0 0 0 0.53 85 1554 110 1122 148 1889 159 601 164 1439 213 2728 223 865 
6657 -0.11938497627505557 0.0619618793208609 0.866189339171339 0 0 0 0.19 146 1662 176 1362 213 2729 
6658 -0.03729525620258644 0.06421451643099406 0.8640002860935941 0 0 0 0.12 146 1663 188 44 213 2730 231 313 
6659 0.19901375942149202 0.07040358200470101 0.8563037846048036 0 0 0 0.28 77 2205 85 1555 96 1167 110 1123 148 1890 164 1440 165 787 194 386 196 1157 213 2731 223 866 235 1129 
6660 -0.04222250641030185 0.06487718275167643 0.8631019056523668 0 0 0 0.81 146 1664 214 998 223 867 
6661 0.21732624727341746 0.07147381979640188 0.8579990188253881 0 0 0 0.22 165 788 175 350 213 2732 
6662 -0.2573516704971844 0.0629199940667575 0.88402943819421 0 0 0 0.27 92 1584 157 1520 200 922 
6663 0.2308670302911908 0.07189870355856885 0.8547927010770097 0 0 0 0.14 85 1556 148 1891 165 789 235 1130 
6664 -0.2042594204853081 0.06331228973624756 0.8736875738608668 0 0 0 0.2 135 271 146 1665 157 1521 176 1363 213 2733 
6665 0.040447401775549514 0.06823175285936946 0.858964630149668 0 0 0 0.15 146 1666 213 2734 214 999 
6666 -0.05730598435664567 0.06710526961142244 0.8708061485686976 0 0 0 0.27 92 1585 146 1667 158 507 175 351 200 923 213 2735 231 314 
6667 -0.0018052616095566223 0.06761519351711157 0.8608243564042916 0 0 0 0.57 77 2206 85 1557 92 1586 110 1124 146 1668 148 1892 164 1441 194 387 200 924 213 2736 214 1000 223 868 234 421 
6668 0.15602974803748507 0.07065003568967715 0.8562526256072395 0 0 0 0.53 77 2207 85 1558 96 1168 110 1125 148 1893 164 1442 194 388 196 1158 213 2737 223 869 235 1131 
6669 0.11039419270899152 0.07065464411298755 0.8585635788323878 0 0 0 0.48 146 1669 175 352 200 925 
6670 -0.23360902019262178 0.06530916969429042 0.8839149233961751 0 0 0 0.35 77 2208 92 1587 113 144 157 1522 164 1443 213 2738 
6671 -0.11930245120172597 0.0670158368190538 0.8652791041958185 0 0 0 0.33 92 1588 146 1670 164 1444 176 1364 213 2739 214 1001 
6672 -0.12341503512810013 0.06722699902946004 0.8645960718074359 0 0 0 0.33 92 1589 146 1671 164 1445 176 1365 213 2740 214 1002 
6673 -0.2741850345532365 0.06565160899301371 0.8896096331872311 0 0 0 0.25 113 145 157 1523 213 2741 224 667 
6674 -0.2741670014136745 0.06593055721346847 0.8899312326377335 0 0 0 0.44 148 1894 164 1446 176 1366 213 2742 
6675 -0.09136980461111355 0.07103492031169627 0.8637657420556609 0 0 0 0.21 146 1672 148 1895 213 2743 
6676 0.227153356980278 0.0784617993918896 0.8567354780508107 0 0 0 0.19 110 1126 164 1447 165 790 175 353 200 926 235 1132 
6677 -0.2331303062485078 0.06925657075958536 0.8840720107752504 0 0 0 0.32 77 2209 92 1590 110 1127 113 146 135 272 157 1524 164 1448 176 1367 213 2744 224 668 
6678 -0.04473483876474753 0.07250606358507093 0.8619000583870178 0 0 0 0.47 92 1591 146 1673 148 1896 213 2745 214 1003 
6679 0.07783347186156231 0.07486277697217525 0.8549158655222412 0 0 0 0.56 92 1592 110 1128 146 1674 148 1897 164 1449 194 389 213 2746 214 1004 223 870 234 422 
6680 -0.16555673181742162 0.06989878379819493 0.8653090213269887 0 0 0 0.28 146 1675 148 1898 164 1450 
6681 -0.1260605005373342 0.07181422203205502 0.8641140212213827 0 0 0 0.23 77 2210 146 1676 176 1368 213 2747 214 1005 
6682 -0.12346872301559343 0.07154367217843424 0.8641890909041469 0 0 0 0.26 92 1593 146 1677 164 1451 176 1369 213 2748 214 1006 
6683 0.00039906441456810605 0.07504299403769293 0.8589745118772787 0 0 0 0.61 85 1559 146 1678 175 354 176 1370 194 390 214 1007 223 871 231 315 
6684 -0.07065440599242051 0.07490265680096825 0.8717679436502698 0 0 0 0.02 146 1679 175 355 213 2749 
6685 -0.0649885145782595 0.07466128792394336 0.8683404188851481 0 0 0 0.8 127 1155 146 1680 148 1899 175 356 196 1159 213 2750 223 872 
6686 -0.03429141548913645 0.07633726714341116 0.8643762751822401 0 0 0 0.34 146 1681 175 357 213 2751 
