# 3D point list with one line of data per point:
#   POINT3D_ID, X, Y, Z, R, G, B, ERROR, TRACK[] as (IMAGE_ID, POINT2D_IDX)
# Number of points: 277, mean track length: 7.46
951 0.17019542979334684 -0.0832090837317694 1.0269809466921713 0 0 0 0.53 3 196 4 307 17 157 136 19 148 55 159 75 162 119 172 66 196 136 204 91 222 58 234 13 
952 -0.0987343198355512 -0.08243337366580294 1.0450256348907094 0 0 0 0.22 3 197 4 308 136 20 164 358 172 67 
953 -0.0987136188522944 -0.08250579932609112 1.0449459834836485 0 0 0 0.24 3 198 4 309 9 133 136 21 158 71 164 359 200 133 
954 -0.0923384629553474 -0.08243973171546587 1.0462972266330917 0 0 0 0.26 3 199 11 141 27 237 136 22 
955 0.18584912390316394 -0.08295664064137866 1.028224540849693 0 0 0 0.73 3 200 4 310 11 142 15 49 27 238 136 23 162 120 172 68 185 58 197 29 220 115 222 59 223 49 
956 0.2017110666167082 -0.08253647040608035 1.0265430589195566 0 0 0 0.41 2 824 3 201 9 134 11 143 12 52 17 158 27 239 128 48 136 24 146 38 157 187 159 76 162 121 164 360 165 136 172 69 176 123 185 59 204 92 213 332 219 85 222 60 223 50 234 14 235 134 
957 -0.16126316305450034 -0.08182297461821726 1.0554276616128777 0 0 0 0.29 2 825 3 202 4 311 9 135 12 53 17 159 19 138 27 240 124 13 127 43 128 49 136 25 146 39 148 56 152 90 157 188 158 72 159 77 162 122 172 70 176 124 196 137 200 134 213 333 217 93 220 116 224 106 232 146 
958 -0.13160415232023168 -0.08182538460026659 1.050100066617375 0 0 0 0.32 2 826 3 203 4 312 17 160 19 139 27 241 124 14 127 44 136 26 146 40 157 189 159 78 162 123 164 361 176 125 196 138 200 135 204 93 213 334 219 86 220 117 224 107 227 103 
959 -0.11871172482343682 -0.08180855094827269 1.0462517944787901 0 0 0 0.48 3 204 19 140 27 242 127 45 152 91 159 79 162 124 164 362 219 87 
960 -0.18294222460219006 -0.08123019353804657 1.0592741762790128 0 0 0 0.32 2 827 3 205 4 313 17 161 19 141 27 243 124 15 128 50 148 57 157 190 158 73 159 80 162 125 164 363 172 71 176 126 190 50 200 136 204 94 213 335 224 108 227 104 
961 -0.21048158718381696 -0.08067719945317317 1.0628650443827503 0 0 0 0.29 2 828 3 206 4 314 9 136 17 162 19 142 27 244 127 46 128 51 146 41 148 58 152 92 157 191 158 74 159 81 162 126 164 364 172 72 176 127 185 60 196 139 213 336 219 88 224 109 232 147 
962 0.1398042170832235 -0.08105679551685223 1.0266018040344798 0 0 0 0.37 2 829 3 207 4 315 9 137 11 144 17 163 19 143 27 245 128 52 136 27 148 59 152 93 158 75 159 82 162 127 164 365 172 73 176 128 185 61 196 140 197 30 200 137 204 95 213 337 214 48 222 61 223 51 227 105 232 148 234 15 
963 -0.10288985107342453 -0.07916235120926131 1.0443404724064862 0 0 0 0.43 3 208 17 164 27 246 146 42 159 83 164 366 172 74 176 129 204 96 213 338 217 94 219 89 221 103 227 106 232 149 
964 -0.3051092557583605 -0.07934275744086762 1.0842081469583 0 0 0 0.23 3 209 172 75 219 90 227 107 
965 -0.3046509170024603 -0.07933479739204043 1.0803246200547438 0 0 0 0.34 2 830 3 210 4 316 9 138 127 47 128 53 157 192 164 367 172 76 204 97 213 339 219 91 227 108 232 150 
966 0.00926283328436092 -0.07882465551760501 1.0315670238337917 0 0 0 0.39 3 211 4 317 11 145 15 50 16 56 17 165 19 144 27 247 128 54 136 28 146 43 148 60 152 94 157 193 159 84 162 128 164 368 172 77 176 130 185 62 196 141 200 138 204 98 213 340 214 49 219 92 220 118 221 104 222 62 223 52 224 110 231 23 232 151 
967 0.2005783338709408 -0.07970723029595349 1.025999830733112 0 0 0 0.38 3 212 11 146 128 55 136 29 148 61 162 129 165 137 196 142 219 93 235 135 
968 -0.01600482988508845 -0.07818225511165454 1.033851756827365 0 0 0 0.49 3 213 9 139 11 147 12 54 15 51 27 248 128 56 146 44 147 40 148 62 158 76 159 85 164 369 172 78 176 131 200 139 219 94 220 119 222 63 224 111 232 152 
969 0.28109346351148984 -0.0788515234043025 1.0213329510729057 0 0 0 0.33 3 214 4 318 11 148 27 249 136 30 148 63 164 370 204 99 
970 0.28133352658725586 -0.0788371328425389 1.0223828114723907 0 0 0 0.42 2 831 3 215 4 319 11 149 19 145 27 250 136 31 148 64 157 194 163 14 164 371 200 140 204 100 
971 -0.3225647879184226 -0.07840001524489194 1.0874923768947578 0 0 0 0.45 3 216 4 320 12 55 17 166 128 57 172 79 190 51 213 341 219 95 221 105 227 109 
972 -0.3453234153234069 -0.07025051663577629 0.8998760505489587 0 0 0 0.49 3 217 12 56 17 167 172 80 219 96 221 106 232 153 
973 -0.31763649290488344 -0.07466947981802471 1.0838045246201777 0 0 0 0.36 2 832 3 218 4 321 17 168 157 195 164 372 213 342 232 154 
974 -0.3101426663077999 -0.0722478616939557 1.0774029279736672 0 0 0 0.38 2 833 3 219 4 322 12 57 17 169 19 146 27 251 127 48 138 3 148 65 152 95 157 196 162 130 164 373 172 81 176 132 204 101 213 343 217 95 219 97 220 120 221 107 224 112 227 110 232 155 
975 0.319410328131419 -0.07112264444909401 1.0194777708209513 0 0 0 0.46 3 220 9 140 15 52 127 49 176 133 181 44 204 102 222 64 
976 0.05387936528438948 -0.06953582272074643 1.034681573403262 0 0 0 0.26 3 221 11 150 16 57 17 170 172 82 213 344 221 108 
977 0.41392810061356633 -0.0716983724000475 1.0540183992892251 0 0 0 1.16 2 834 3 222 17 171 147 41 213 345 232 156 
978 -0.3249688522346726 -0.06696510773441086 1.0843829503129718 0 0 0 0.4 3 223 4 323 172 83 190 52 213 346 217 96 227 111 
979 0.28587191230923026 -0.06254081999679685 1.025777772670841 0 0 0 0.54 2 835 3 224 4 324 15 53 17 172 27 252 120 28 152 96 159 86 165 138 184 92 185 63 190 53 213 347 222 65 235 136 
980 -0.347059946103267 -0.06035104697495306 0.8903361010820934 0 0 0 0.26 3 225 157 197 219 98 
981 0.15380029602980866 -0.06215107793152167 1.028109285896922 0 0 0 0.04 3 226 147 42 227 112 
982 0.29057098283050725 -0.06250605835860318 1.0209458845975312 0 0 0 0.36 3 227 4 325 9 141 148 66 159 87 164 374 204 103 222 66 227 113 235 137 
983 0.290585944945558 -0.06231001277818411 1.0210271710911751 0 0 0 0.24 3 228 128 58 162 131 200 141 222 67 
984 -0.34574399806608386 -0.060341879153893004 1.087431439696322 0 0 0 0.72 2 836 3 229 9 142 19 147 27 253 148 67 162 132 196 143 221 109 
985 0.3563164300301152 -0.059754786258659605 1.018346290272424 0 0 0 0.08 3 230 147 43 162 133 
986 0.07529156847817829 -0.058010564142742194 1.026890964099693 0 0 0 0.4 3 231 16 58 17 173 19 148 148 68 176 134 196 144 214 50 
987 0.13823523377927904 -0.057087076007095956 1.0262569836105515 0 0 0 0.22 3 232 17 174 146 45 164 375 
988 -0.343862831557305 -0.04850567948097623 0.917434801601927 0 0 0 0.75 2 837 3 233 17 175 159 88 164 376 196 145 219 99 220 121 232 157 
989 -0.33712174303458703 -0.04620448149955098 1.0825314261382748 0 0 0 0.34 2 838 3 234 4 326 9 143 17 176 19 149 127 50 148 69 162 134 164 377 172 84 196 146 220 122 221 110 224 113 227 114 
990 0.20176029051571945 -0.04125332658965556 1.0252232002277604 0 0 0 0.31 3 235 146 46 147 44 
991 0.42381450734860393 -0.03976252718468086 1.0285211903391038 0 0 0 0.42 2 839 3 236 4 327 9 144 12 58 15 54 17 177 19 150 120 29 152 97 163 15 164 378 165 139 184 93 197 31 204 104 217 97 232 158 235 138 
992 0.3840657521355018 -0.038443317490699576 1.0166869979590887 0 0 0 0.2 3 237 217 98 221 111 222 68 
993 0.18408184254164625 -0.033701852422317415 1.018559723364458 0 0 0 0.23 3 238 157 198 164 379 
994 0.1842365497321764 -0.03403246999271152 1.0190484491537153 0 0 0 0.37 3 239 11 151 17 178 148 70 164 380 213 348 
995 0.00883214407838208 -0.030574916837560282 1.025477446099988 0 0 0 0.41 2 840 3 240 4 328 11 152 16 59 27 254 128 59 148 71 158 77 162 135 164 381 176 135 185 64 200 142 204 105 213 349 214 51 217 99 
996 -0.05629477671051888 -0.027259629718131048 1.0283501032593376 0 0 0 0.41 2 841 3 241 4 329 11 153 15 55 16 60 17 179 19 151 27 255 127 51 128 60 136 32 146 47 147 45 148 72 157 199 159 89 164 382 172 85 176 136 185 65 190 54 196 147 200 143 213 350 214 52 222 69 223 53 224 114 232 159 
997 0.2074064454188406 -0.02539139593412249 1.019167295745345 0 0 0 0.21 3 242 17 180 120 30 128 61 146 48 176 137 219 100 222 70 
998 -0.16391057147093033 -0.024377708893021228 1.0470429577186255 0 0 0 0.28 3 243 138 4 158 78 172 86 176 138 204 106 219 101 
999 0.20082032535836236 -0.021652258981992946 1.0157474804040987 0 0 0 0.08 3 244 172 87 219 102 
1000 -0.0895116734190832 -0.02191408274946028 1.034506013722189 0 0 0 0.23 2 842 3 245 4 330 9 145 11 154 16 61 17 181 19 152 27 256 124 16 127 52 128 62 136 33 146 49 147 46 148 73 158 79 159 90 162 136 164 383 172 88 176 139 185 66 200 144 213 351 214 53 219 103 220 123 221 112 224 115 227 115 231 24 232 160 
1001 0.26920341765618605 -0.020842826259647413 1.0155092708150422 0 0 0 0.08 3 246 17 182 152 98 
1002 -0.1730716338641872 -0.020648074661739253 1.0488309310428905 0 0 0 0.33 2 843 3 247 4 331 9 146 17 183 19 153 27 257 124 17 127 53 128 63 146 50 148 74 157 200 158 80 159 91 164 384 172 89 176 140 190 55 200 145 204 107 221 113 224 116 227 116 232 161 
1003 0.0418129625727293 -0.02050325821128766 1.0226938315883867 0 0 0 0.25 3 248 222 71 227 117 
1004 0.3750900103467342 -0.02012670638691889 1.012703052396408 0 0 0 0.19 3 249 128 64 204 108 
1005 0.12066061621920997 -0.021086448467508616 1.0177565656694278 0 0 0 0.53 3 250 4 332 9 147 11 155 17 184 127 54 147 47 157 201 159 92 175 18 176 141 200 146 204 109 213 352 214 54 222 72 223 54 227 118 
1006 -0.10025359149561822 -0.019314962885041986 1.0352369628974099 0 0 0 0.47 3 251 4 333 11 156 16 62 146 51 147 48 158 81 159 93 172 90 213 353 227 119 
1007 -0.10044670926722216 -0.01990506393258352 1.0367655065018515 0 0 0 0.23 3 252 136 34 196 148 220 124 
1008 -0.2359429883605582 -0.017119661664460335 1.0576831030708056 0 0 0 0.24 3 253 17 185 172 91 176 142 204 110 219 104 227 120 
1009 -0.34702875536285455 -0.01944465904409319 0.8794329668092473 0 0 0 0.52 3 254 12 59 17 186 219 105 221 114 232 162 
1010 -0.2202854619300535 -0.015325995095776881 1.0562780040746724 0 0 0 0.2 2 844 3 255 4 334 17 187 27 258 127 55 128 65 148 75 157 202 159 94 162 137 164 385 176 143 204 111 213 354 224 117 227 121 
1011 0.13829541843517773 -0.01473330390301693 1.016490890123558 0 0 0 0.39 2 845 3 256 4 335 11 157 15 56 16 63 17 188 27 259 120 31 136 35 146 52 147 49 148 76 158 82 159 95 163 16 164 386 172 92 175 19 176 144 185 67 194 11 204 112 213 355 219 106 222 73 223 55 227 122 234 16 
1012 -0.13555827981973081 -0.014906944792355615 1.041886681729393 0 0 0 0.21 2 846 3 257 4 336 12 60 16 64 17 189 19 154 128 66 148 77 158 83 159 96 176 145 185 68 196 149 214 55 220 125 232 163 
1013 -0.28220061903207394 -0.013966593002918273 1.0649276757077855 0 0 0 0.43 3 258 162 138 204 113 
1014 -0.3498092100813879 -0.016153304535712964 0.9158078015769193 0 0 0 0.36 3 259 17 190 219 107 232 164 
1015 -0.09797528793887028 -0.012352111380256879 1.0352732612384778 0 0 0 0.23 3 260 4 337 16 65 127 56 128 67 146 53 147 50 164 387 172 93 185 69 213 356 221 115 
1016 -0.03421983320385626 -0.012869314954454175 1.0229623848016967 0 0 0 0.39 2 847 3 261 9 148 16 66 127 57 128 68 136 36 157 203 158 84 159 97 162 139 164 388 172 94 185 70 196 150 200 147 214 56 217 100 219 108 221 116 231 25 
1017 -0.004959806145887432 -0.012466313228360129 1.025275009068193 0 0 0 0.22 2 848 3 262 4 338 9 149 11 158 16 67 17 191 124 18 146 54 152 99 157 204 158 85 164 389 172 95 176 146 213 357 214 57 219 109 221 117 232 165 
1018 0.012441324724042503 -0.012309724847840564 1.024089302177671 0 0 0 0.27 2 849 3 263 4 339 9 150 11 159 15 57 16 68 17 192 19 155 120 32 124 19 128 69 146 55 147 51 152 100 157 205 158 86 159 98 162 140 164 390 172 96 176 147 185 71 196 151 200 148 204 114 213 358 214 58 221 118 223 56 232 166 
1019 0.04692100807760802 -0.011970192980840372 1.0223428979370877 0 0 0 0.36 2 850 3 264 9 151 11 160 12 61 16 69 17 193 27 260 147 52 157 206 158 87 159 99 164 391 172 97 176 148 185 72 190 56 200 149 204 115 214 59 217 101 231 26 
1020 0.3752252661817869 -0.01111058410625032 1.0071262879067249 0 0 0 0.1 3 265 11 161 204 116 
1021 -0.12981777692835114 -0.011915127889435651 1.0438450571229247 0 0 0 0.6 3 266 185 73 204 117 
1022 -0.34538415473118944 -0.010469167925230735 1.076696922984859 0 0 0 0.28 3 267 4 340 17 194 159 100 221 119 
1023 0.2641265122313941 -0.009224155172887117 1.0137478187929374 0 0 0 0.28 2 851 3 268 4 341 9 152 11 162 15 58 17 195 27 261 120 33 128 70 157 207 158 88 159 101 163 17 164 392 165 140 172 98 176 149 185 74 197 32 204 118 213 359 222 74 235 139 
1024 0.3331814629657055 -0.008575970957377044 1.0124939835852755 0 0 0 0.38 2 852 3 269 4 342 9 153 11 163 12 62 15 59 17 196 19 156 27 262 147 53 148 78 159 102 162 141 164 393 165 141 172 99 176 150 184 94 190 57 196 152 197 33 204 119 213 360 217 102 221 120 222 75 227 123 232 167 235 140 
1025 -0.06386239280096767 -0.009342406181519162 1.0241657967360736 0 0 0 0.26 3 270 4 343 128 71 162 142 
1026 0.3158262435149979 -0.008692748476885639 1.0144944636209008 0 0 0 0.3 2 853 3 271 4 344 11 164 15 60 17 197 159 103 162 143 165 142 172 100 176 151 184 95 200 150 204 120 213 361 221 121 222 76 232 168 235 141 
1027 -0.32640436494676206 0.002487669421332837 1.0690637522313438 0 0 0 0.54 3 272 164 394 213 362 
1028 -0.345572276890213 -0.003499617581442727 0.8853593803124971 0 0 0 0.39 3 273 17 198 221 122 
1029 0.4893620326613799 0.008079776534262244 1.0462669136420801 0 0 0 0.57 3 274 15 61 217 103 222 77 
1030 -0.008963695802883125 0.005925993620489897 1.0260011110137395 0 0 0 0.18 3 275 146 56 157 208 
1031 0.012418275162206921 0.006372806441114433 1.025455435950326 0 0 0 0.11 3 276 16 70 213 363 
1032 -0.3490335342534554 0.0022900805707507625 0.9412459593616208 0 0 0 0.34 3 277 17 199 219 110 
1033 -0.3490335342534554 0.0022900805707507625 0.9412459593616208 0 0 0 0.34 3 278 17 200 219 111 
1034 -0.3498573678835726 0.0025266347930931327 0.8906429876353115 0 0 0 0.53 3 279 17 201 219 112 232 169 
1035 0.43409272831519496 0.011658879869416442 1.0260059292659074 0 0 0 0.48 2 854 3 280 4 345 19 157 27 263 162 144 164 395 165 143 184 96 190 58 196 153 221 123 222 78 235 142 
1036 -0.004005385191373666 0.01100938308914903 1.0248519857827332 0 0 0 0.39 3 281 4 346 11 165 146 57 172 101 176 152 213 364 
1037 0.3942586004074452 0.014442382318049236 1.0058004018698932 0 0 0 0.37 2 855 3 282 4 347 15 62 17 202 19 158 27 264 120 34 127 58 128 72 136 37 147 54 162 145 163 18 164 396 165 144 176 153 184 97 190 59 196 154 204 121 213 365 217 104 222 79 232 170 235 143 
1038 0.42750609257188943 0.017700047982663978 1.0221689948082622 0 0 0 0.46 2 856 3 283 19 159 27 265 127 59 128 73 164 397 165 145 235 144 
1039 0.4174464965960906 0.02217951804216641 1.0185719101680373 0 0 0 0.43 3 284 4 348 9 154 11 166 12 63 15 63 17 203 27 266 120 35 128 74 136 38 147 55 152 101 158 89 162 146 163 19 164 398 165 146 184 98 190 60 204 122 217 105 221 124 222 80 227 124 232 171 235 145 
1040 0.48365860387042925 0.024038042257461003 1.0454585658474402 0 0 0 0.49 3 285 4 349 15 64 17 204 19 160 162 147 163 20 165 147 217 106 221 125 222 81 235 146 
1041 0.44989794686188816 0.023910135554437318 1.0303171910119437 0 0 0 0.36 3 286 17 205 128 75 147 56 152 102 163 21 222 82 
1042 0.383877316838089 0.024181100459268395 1.008377283795936 0 0 0 0.17 3 287 120 36 162 148 
1043 -0.29556181529346304 0.02604184925810629 1.0629472332353038 0 0 0 0.3 3 288 17 206 164 399 213 366 
1044 0.3944049211988733 0.034557840139236316 1.0039633831862453 0 0 0 0.28 3 289 11 167 15 65 27 267 147 57 184 99 232 172 
1045 0.2908442538314175 0.03510579574797553 1.0057913050331322 0 0 0 0.22 3 290 162 149 227 125 
1046 0.4399227331148084 0.03766268361491335 1.0250860746332717 0 0 0 0.29 3 291 4 350 9 155 12 64 15 66 17 207 136 39 165 148 190 61 197 34 198 20 204 123 221 126 235 147 
1047 0.13795621136048272 0.03958976640714708 1.0099465148602749 0 0 0 0.14 3 292 135 0 227 126 
1048 0.35248574611362826 0.04225311137023696 0.996803019741358 0 0 0 0.33 2 857 3 293 4 351 11 168 15 67 17 208 27 268 128 76 152 103 158 90 164 400 176 154 204 124 213 367 
1049 -0.04325406669898696 0.041338103038454296 1.019584853225795 0 0 0 0.11 3 294 17 209 176 155 
1050 -0.009565095836980918 0.0420218914702402 1.0220560965897085 0 0 0 0.56 3 295 172 102 222 83 
1051 -0.1963249149829101 0.04214677879820819 1.0342694710294746 0 0 0 0.28 2 858 3 296 4 352 11 169 17 210 157 209 164 401 172 103 176 156 190 62 204 125 213 368 221 127 227 127 232 173 
1052 0.09141829154946311 0.043053960527928994 1.0134595446772112 0 0 0 0.15 3 297 135 1 162 150 227 128 
1053 0.15150615586123847 0.04247733806522204 0.9998771325333555 0 0 0 0.24 3 298 15 68 128 77 147 58 176 157 204 126 
1054 0.24556151835640663 0.04513196212752867 1.0077729626997063 0 0 0 0.32 3 299 12 65 147 59 152 104 232 174 
1055 -0.02247180458402775 0.04732536549309295 1.0139348200345397 0 0 0 0.32 2 859 3 300 4 353 11 170 15 69 16 71 17 211 19 161 27 269 128 78 135 2 146 58 148 79 157 210 158 91 159 104 162 151 164 402 176 158 185 75 204 127 213 369 222 84 224 118 231 27 232 175 
1056 -0.0700420591618622 0.04780536476660129 1.0074757744754 0 0 0 0.18 3 301 185 76 219 113 
1057 -0.013620450537847545 0.04824084574480897 1.0085522976254042 0 0 0 0.31 3 302 135 3 190 63 204 128 
1058 -0.3100635737300939 0.05032949110957461 1.0509667602508055 0 0 0 0.22 3 303 172 104 176 159 204 129 213 370 219 114 
1059 -0.14194168365350684 0.049989075309586975 1.029835573376606 0 0 0 0.32 2 860 3 304 4 354 9 156 11 171 17 212 19 162 27 270 127 60 128 79 136 40 146 59 148 80 157 211 158 92 159 105 162 152 164 403 172 105 176 160 190 64 204 130 213 371 219 115 220 126 224 119 227 129 
1060 -0.0679011988533127 0.05118263875837373 1.0067272730162287 0 0 0 0.35 2 861 3 305 4 355 9 157 11 172 136 41 158 93 162 153 164 404 176 161 185 77 200 151 213 372 219 116 222 85 
1061 -0.1081733216827711 0.05181194238591608 1.01692109370177 0 0 0 0.42 2 862 3 306 4 356 9 158 11 173 16 72 19 163 136 42 146 60 164 405 176 162 190 65 200 152 214 60 220 127 221 128 227 130 
1062 -0.06291094348395655 0.054506027180038344 1.007509655035885 0 0 0 0.47 2 863 3 307 11 174 16 73 19 164 27 271 136 43 146 61 164 406 172 106 196 155 200 153 213 373 222 86 224 120 227 131 
1063 -0.025291720073291384 0.055250913296742504 1.011266170466807 0 0 0 0.18 3 308 15 70 128 80 176 163 219 117 222 87 227 132 
1064 -0.0782692438072536 0.055509238506173716 1.0147508001847045 0 0 0 0.28 3 309 157 212 219 118 
1065 -0.06704143096292023 0.05580314305808328 1.0061073044957023 0 0 0 0.08 3 310 172 107 204 131 227 133 
1066 -0.17563001878584866 0.06028038392016845 1.0302389931985032 0 0 0 0.04 3 311 135 4 227 134 
1067 -0.20615997379983975 0.06096682747231424 1.0347523284673612 0 0 0 0.2 2 864 3 312 17 213 148 81 164 407 
1068 0.4259217089416516 0.06631737816555991 1.0142208498426255 0 0 0 0.42 2 865 3 313 4 357 9 159 12 66 19 165 27 272 136 44 164 408 165 149 184 100 196 156 197 35 221 129 222 88 235 148 
1069 -0.15352640192059763 0.06169576397543668 1.0230404449462223 0 0 0 0.33 2 866 3 314 4 358 11 175 17 214 146 62 164 409 176 164 190 66 204 132 213 374 221 130 232 176 
1070 0.2786817046180332 0.06570350329198893 0.9977613612083461 0 0 0 0.29 2 867 3 315 15 71 17 215 124 20 127 61 148 82 152 105 176 165 197 36 200 154 204 133 213 375 232 177 234 17 235 149 
1071 0.27906963022375214 0.06581187355804922 0.9984622386019804 0 0 0 0.32 2 868 3 316 12 67 17 216 124 21 164 410 165 150 176 166 184 101 197 37 200 155 204 134 213 376 232 178 235 150 
1072 0.35665356818658117 0.06567162630967012 0.9916562931344797 0 0 0 0.39 2 869 3 317 4 359 9 160 11 176 15 72 17 217 27 273 128 81 136 45 148 83 162 154 164 411 165 151 172 108 176 167 184 102 196 157 197 38 204 135 213 377 222 89 223 57 232 179 234 18 235 151 
1073 -0.20036489517305872 0.06360503173203122 1.031561563523173 0 0 0 0.17 3 318 172 109 204 136 
1074 0.3963556532102133 0.06724738719573761 0.9962144288268955 0 0 0 0.44 2 870 3 319 4 360 9 161 12 68 15 73 17 218 27 274 127 62 128 82 147 60 164 412 165 152 184 103 190 67 197 39 204 137 213 378 217 107 221 131 235 152 
1075 0.39180558988505143 0.0678566120476673 0.9954226007791172 0 0 0 0.4 2 871 3 320 9 162 11 177 12 69 15 74 17 219 19 166 27 275 120 37 128 83 148 84 163 22 164 413 190 68 196 158 204 138 213 379 222 90 
1076 0.026875152178274884 0.06795253368352329 1.0036054432992223 0 0 0 0.34 3 321 17 220 27 276 157 213 213 380 
1077 0.3622413101386771 0.07221248594143685 0.9914509014380346 0 0 0 0.34 2 872 3 322 4 361 11 178 27 277 164 414 165 153 176 168 213 381 235 153 
1078 0.3967423117934251 0.07376319765588793 0.9966991555877042 0 0 0 0.41 2 873 3 323 4 362 9 163 11 179 12 70 15 75 17 221 19 167 27 278 128 84 136 46 148 85 158 94 162 155 165 154 184 104 196 159 197 40 204 139 213 382 220 128 222 91 227 135 235 154 
1079 -0.315557848225424 0.07117586118554518 1.0512735115714489 0 0 0 0.54 2 874 3 324 4 363 9 164 17 222 27 279 148 86 157 214 159 106 162 156 164 415 172 110 176 169 190 69 196 160 217 108 221 132 224 121 227 136 232 180 
1080 -0.2995136996613246 0.07183490016698837 1.0489049625925648 0 0 0 0.45 2 875 3 325 4 364 17 223 19 168 27 280 148 87 157 215 159 107 162 157 164 416 176 170 190 70 196 161 204 140 213 383 217 109 219 119 220 129 221 133 224 122 227 137 232 181 
1081 0.4173166412615173 0.0786603290849817 1.0078379564339206 0 0 0 0.61 2 876 3 326 9 165 19 169 27 281 128 85 147 61 164 417 184 105 196 162 197 41 222 92 
1082 -0.19085835898639888 0.077833859694249 1.0302503974705028 0 0 0 0.49 3 327 172 111 196 163 
1083 -0.06285898740599309 0.08203639669011568 1.00504227531342 0 0 0 0.53 3 328 4 365 11 180 16 74 146 63 147 62 158 95 176 171 213 384 214 61 219 120 232 182 
1084 0.06394690493163949 0.08467524715506491 1.0062785583377833 0 0 0 0.41 3 329 172 112 204 141 
1085 0.29355600101017393 0.09086498687979969 0.9917738376819621 0 0 0 0.55 3 330 12 71 227 138 
1086 0.027226232934432954 0.08929953012295053 1.0045575386074623 0 0 0 0.32 2 877 3 331 4 366 11 181 15 76 16 75 17 224 27 282 120 38 146 64 147 63 152 106 158 96 172 113 190 71 204 142 213 385 214 62 219 121 222 93 
1087 0.366220580446226 0.09343245049853857 0.9920176494401866 0 0 0 0.49 3 332 11 182 162 158 213 386 222 94 
1088 0.07017348579063112 0.09068001136511322 1.0013622013373296 0 0 0 0.45 3 333 221 134 227 139 231 28 
1089 0.07464548545826036 0.09199907587364253 0.9978606134262731 0 0 0 0.56 2 878 3 334 4 367 11 183 15 77 16 76 17 225 120 39 136 47 146 65 148 88 164 418 200 156 213 387 214 63 223 58 227 140 231 29 232 183 
1090 0.37196198036448125 0.09465696911811464 0.9911966890629634 0 0 0 0.56 3 335 11 184 27 283 190 72 222 95 
1091 -0.3193179038511691 0.0944769040917304 1.045969404852077 0 0 0 0.22 3 336 4 368 172 114 227 141 
1092 -0.13437311193558887 0.09342842177297285 1.0216411746924356 0 0 0 0.44 2 879 3 337 9 166 12 72 19 170 157 216 196 164 200 157 220 130 224 123 
1093 -0.12289050366631293 0.0962643358822964 1.0180667681389768 0 0 0 0.48 3 338 4 369 11 185 135 5 157 217 158 97 164 419 213 388 
1094 0.36416430650708603 0.10011305724627555 0.9873226002142883 0 0 0 0.15 3 339 4 370 222 96 235 155 
1095 0.3905495208915632 0.10155765925920839 0.9896562136607217 0 0 0 0.55 2 880 3 340 4 371 9 167 12 73 17 226 19 171 27 284 147 64 148 89 164 420 165 155 184 106 190 73 196 165 197 42 213 389 223 59 235 156 
1096 -0.18191700940497216 0.09801964675174336 1.0273748032683598 0 0 0 0.31 2 881 3 341 4 372 17 227 19 172 27 285 128 86 148 90 157 218 158 98 162 159 164 421 172 115 176 172 196 166 200 158 204 143 213 390 219 122 220 131 221 135 224 124 
1097 0.05529445833510969 0.09823000733237804 1.0005434151038155 0 0 0 0.34 3 342 120 40 227 142 
1098 -0.10060221042959384 0.09797896266006056 1.0132914622563733 0 0 0 0.48 2 882 3 343 4 373 11 186 19 173 27 286 136 48 147 65 148 91 157 219 162 160 164 422 176 173 196 167 200 159 204 144 213 391 219 123 220 132 224 125 
1099 -0.18127694457633906 0.10057349908889344 1.0224590262914925 0 0 0 0.32 3 344 4 374 11 187 157 220 158 99 172 116 176 174 204 145 213 392 232 184 
1100 0.09695153407188546 0.10261450227970377 0.9985604039992703 0 0 0 0.65 2 883 3 345 4 375 11 188 15 78 16 77 17 228 19 174 27 287 120 41 127 63 136 49 146 66 204 146 213 393 214 64 222 97 223 60 227 143 
1101 -0.120537949381736 0.10169420478008444 1.0134975898692482 0 0 0 0.67 2 884 3 346 4 376 11 189 17 229 136 50 146 67 147 66 157 221 164 423 176 175 204 147 213 394 224 126 
1102 0.4525812009607342 0.11086666108569995 1.0172434397301964 0 0 0 0.46 3 347 4 377 12 74 17 230 19 175 136 51 162 161 163 23 164 424 165 156 184 107 196 168 235 157 
1103 -0.1776071695028159 0.10294937223677661 1.0233895460744475 0 0 0 0.49 2 885 3 348 4 378 11 190 12 75 17 231 27 288 164 425 172 117 176 176 204 148 213 395 219 124 221 136 232 185 
1104 -0.11878993354736983 0.10389579689713631 1.0091601034995008 0 0 0 0.29 3 349 157 222 158 100 227 144 
1105 -0.0636685741445551 0.10473137010024838 1.0008731545823517 0 0 0 0.38 2 886 3 350 4 379 11 191 16 78 17 232 19 176 128 87 136 52 146 68 147 67 148 92 158 101 164 426 172 118 176 177 196 169 200 160 204 149 213 396 214 65 219 125 220 133 222 98 224 127 227 145 232 186 
1106 -0.1943797225006109 0.1059986251898898 1.023128444536797 0 0 0 0.35 2 887 3 351 4 380 17 233 19 177 27 289 128 88 157 223 162 162 164 427 172 119 176 178 196 170 200 161 204 150 213 397 217 110 219 126 220 134 224 128 232 187 
1107 0.46616866714525634 0.11785618426464503 1.028868937794238 0 0 0 0.36 3 352 162 163 227 146 
1108 -0.06459377645990601 0.11310858613281659 1.0001244431499148 0 0 0 0.38 2 888 3 353 19 178 27 290 136 53 148 93 164 428 196 171 220 135 224 129 227 147 
1109 0.41964989246950124 0.12138548484441926 1.0020408809632189 0 0 0 0.58 2 889 3 354 4 381 9 168 12 76 17 234 19 179 27 291 127 64 136 54 158 102 163 24 164 429 165 157 220 136 223 61 235 158 
1110 0.023419915780359464 0.11499761750422026 0.9935128985663908 0 0 0 0.22 3 355 172 120 200 162 231 30 
1111 0.028449755896585383 0.11512413600531714 0.9942543311679083 0 0 0 0.43 3 356 4 382 11 192 15 79 16 79 17 235 120 42 146 69 152 107 158 103 172 121 219 127 222 99 223 62 227 148 232 188 
1112 0.3627037979085649 0.1273609432396849 0.9816799527144227 0 0 0 0.54 2 890 3 357 4 383 11 193 17 236 19 180 148 94 158 104 165 158 196 172 197 43 213 398 220 137 223 63 234 19 235 159 
1113 0.040128087292759 0.12441403327252787 0.9862432113248135 0 0 0 0.15 3 358 147 68 213 399 
1114 0.1136979008362776 0.13146749465261676 0.9884687117225973 0 0 0 0.2 2 891 3 359 146 70 227 149 234 20 
1115 0.309423807416006 -0.17192125541547693 1.0404850755679753 0 0 0 0.26 3 360 4 384 190 74 
1116 0.3173380478345951 -0.16379448130582547 1.047014788938558 0 0 0 0.74 3 361 17 237 213 400 221 137 227 150 
1117 -0.015141807288607758 -0.16188947279827254 1.1117428438736225 0 0 0 0.82 3 362 4 385 15 80 138 5 147 69 152 108 213 401 217 111 232 189 
1118 -0.05936486087167346 -0.1446376447029241 1.0481949045247743 0 0 0 0.43 2 892 3 363 4 386 19 181 27 292 127 65 146 71 148 95 152 109 157 224 162 164 172 122 176 179 185 78 204 151 213 402 217 112 224 130 227 151 
1119 -0.13509505844642003 -0.14091657842741911 1.0632279823923332 0 0 0 0.36 2 893 3 364 4 387 9 169 12 77 17 238 19 182 27 293 127 66 128 89 136 55 138 6 146 72 148 96 152 110 158 105 159 108 162 165 164 430 172 123 176 180 185 79 190 75 196 173 204 152 213 403 217 113 219 128 220 138 221 138 224 131 227 152 232 190 
1120 -0.11857790509936039 -0.14086196942356377 1.062327427513528 0 0 0 0.47 2 894 3 365 4 388 9 170 17 239 27 294 128 90 147 70 152 111 158 106 159 109 162 166 164 431 176 181 181 45 185 80 190 76 204 153 213 404 217 114 219 129 221 139 227 153 232 191 
1121 -0.2528261397615842 -0.13849360208233724 1.0833333173284454 0 0 0 0.37 2 895 3 366 4 389 17 240 19 183 27 295 127 67 128 91 138 7 162 167 164 432 204 154 213 405 217 115 219 130 220 139 221 140 224 132 227 154 
1122 0.08994088762415042 -0.13733029559128496 1.0313136078894454 0 0 0 0.39 2 896 3 367 4 390 9 171 11 194 15 81 17 241 19 184 27 296 120 43 127 68 128 92 146 73 147 71 148 97 152 112 157 225 158 107 159 110 162 168 164 433 172 124 176 182 185 81 196 174 199 33 204 155 213 406 217 116 220 140 221 141 222 100 223 64 227 155 231 31 232 192 
1123 -0.24626374076574406 -0.1367191121024779 1.0789356189654462 0 0 0 0.45 2 897 3 368 4 391 9 172 12 78 17 242 27 297 127 69 128 93 152 113 157 226 162 169 164 434 172 125 190 77 204 156 213 407 217 117 219 131 220 141 221 142 227 156 232 193 
1124 0.30077921394518714 -0.13461753865731574 1.0341885836033156 0 0 0 0.39 2 898 3 369 4 392 15 82 17 243 27 298 120 44 128 94 136 56 147 72 148 98 152 114 164 435 165 159 176 183 184 108 185 82 190 78 213 408 217 118 221 143 227 157 235 160 
1125 -0.24862432364018322 -0.1323055605065039 1.0801062491858364 0 0 0 0.41 2 899 3 370 4 393 9 173 19 185 27 299 127 70 148 99 152 115 159 111 162 170 164 436 172 126 196 175 217 119 220 142 224 133 232 194 
1126 0.20802091759925914 -0.13096661300348736 1.0357946052315572 0 0 0 0.38 3 371 4 394 11 195 120 45 127 71 128 95 164 437 176 184 190 79 213 409 217 120 219 132 227 158 232 195 
1127 0.30430290374183455 -0.13034561904952835 1.0289028238999576 0 0 0 0.14 3 372 152 116 227 159 
1128 0.3046641994770832 -0.13043920201275389 1.0304012425442484 0 0 0 0.29 2 900 3 373 120 46 127 72 152 117 158 108 162 171 227 160 
1129 -0.2460457903178038 -0.12840132432165496 1.078418397101912 0 0 0 0.27 2 901 3 374 4 395 17 244 19 186 27 300 127 73 128 96 148 100 157 227 159 112 162 172 164 438 190 80 196 176 204 157 213 410 217 121 220 143 221 144 224 134 227 161 232 196 
1130 0.3125682727648675 -0.1303684774935105 1.0322303877216321 0 0 0 0.47 3 375 127 74 148 101 162 173 164 439 196 177 
1131 0.1221166233823702 -0.12781821669744825 1.0291346356708764 0 0 0 0.17 3 376 128 97 204 158 
1132 -0.25178432102586323 -0.12709654194523584 1.0802319000135223 0 0 0 0.41 3 377 17 245 127 75 157 228 172 127 176 185 196 178 200 163 213 411 217 122 227 162 
1133 0.07859617671894532 -0.1272961125602491 1.0378534622363413 0 0 0 0.4 2 902 3 378 4 396 9 174 11 196 15 83 17 246 27 301 120 47 124 22 127 76 128 98 146 74 147 73 148 102 152 118 157 229 158 109 159 113 162 174 164 440 172 128 176 186 185 83 190 81 200 164 204 159 213 412 217 123 220 144 222 101 227 163 231 32 232 197 
1134 -0.039448159500567286 -0.12449822341950141 1.0356704921791235 0 0 0 0.42 2 903 3 379 4 397 9 175 11 197 17 247 27 302 128 99 146 75 147 74 148 103 157 230 176 187 200 165 204 160 213 413 217 124 227 164 232 198 
1135 -0.24466467850776363 -0.12467316803168083 1.0814401591102898 0 0 0 0.52 2 904 3 380 4 398 17 248 19 187 27 303 127 77 148 104 152 119 157 231 159 114 162 175 164 441 190 82 200 166 204 161 213 414 217 125 219 133 220 145 227 165 232 199 
1136 0.3651425817662978 -0.12668341390241328 1.030687373926242 0 0 0 0.43 2 905 3 381 15 84 17 249 120 48 147 75 165 160 184 109 190 83 197 44 213 415 221 145 232 200 
1137 -0.18451078325368722 -0.12307873184344795 1.0705812303784705 0 0 0 0.03 3 382 219 134 227 166 
1138 0.18563681993358025 -0.12331689742910941 1.0329568605058173 0 0 0 0.3 3 383 11 198 15 85 120 49 127 78 147 76 152 120 190 84 204 162 213 416 222 102 235 161 
1139 -0.04567478281422467 -0.12070391392440992 1.0353270666367635 0 0 0 0.34 2 906 3 384 4 399 11 199 12 79 17 250 27 304 147 77 157 232 172 129 176 188 204 163 213 417 217 126 219 135 222 103 227 167 232 201 
1140 -0.020318214126895894 -0.11938258826551737 1.0419460252819472 0 0 0 0.54 3 385 15 86 17 251 148 105 158 110 190 85 
1141 -0.10476428954559472 -0.11871031921586721 1.0553750825491928 0 0 0 0.44 2 907 3 386 147 78 185 84 217 127 
1142 0.10203359255261735 -0.11798991579383357 1.0350208233460458 0 0 0 0.71 2 908 3 387 4 400 11 200 15 87 17 252 19 188 27 305 120 50 127 79 146 76 147 79 148 106 152 121 157 233 158 111 159 115 162 176 164 442 172 130 185 85 190 86 200 167 204 164 213 418 217 128 219 136 220 146 221 146 222 104 223 65 227 168 232 202 
1143 -0.27150611001430786 -0.11693635958466614 1.0837963089862563 0 0 0 0.39 2 909 3 388 19 189 27 306 148 107 162 177 164 443 185 86 220 147 221 147 224 135 
1144 -0.34397882651210954 -0.10085877441758334 0.8617234268017147 0 0 0 0.36 3 389 12 80 17 253 219 137 232 203 
1145 -0.06327043846223968 -0.10655963573856347 1.03392220141296 0 0 0 0.46 2 910 3 390 4 401 16 80 17 254 27 307 127 80 128 100 136 57 146 77 147 80 148 108 157 234 162 178 164 444 172 131 185 87 204 165 213 419 214 66 217 129 222 105 227 169 
1146 -0.024444125940121193 -0.10680764676592751 1.0383938715090841 0 0 0 0.27 2 911 3 391 4 402 9 176 11 201 15 88 16 81 17 255 19 190 27 308 120 51 124 23 127 81 128 101 136 58 138 8 146 78 147 81 148 109 152 122 157 235 158 112 159 116 162 179 164 445 172 132 176 189 185 88 190 87 196 179 200 168 213 420 214 67 217 130 220 148 222 106 224 136 227 170 232 204 
1147 -0.2451128654117819 -0.1074256636090134 1.0792259472268726 0 0 0 0.55 2 912 3 392 4 403 17 256 27 309 127 82 128 102 157 236 158 113 162 180 164 446 176 190 204 166 213 421 217 131 220 149 221 148 224 137 227 171 232 205 
1148 0.18814736523526873 -0.10633109013717677 1.0317547432301832 0 0 0 0.44 3 393 11 202 17 257 120 52 128 103 147 82 164 447 172 133 176 191 196 180 204 167 213 422 219 138 
1149 0.1306251214797554 -0.10471136423692155 1.0308036144505357 0 0 0 0.49 2 913 3 394 4 404 9 177 11 203 12 81 15 89 17 258 19 191 27 310 120 53 124 24 127 83 146 79 148 110 152 123 157 237 158 114 159 117 162 181 164 448 172 134 176 192 185 89 190 88 196 181 200 169 204 168 213 423 217 132 219 139 221 149 222 107 223 66 232 206 234 21 
1150 -0.08100448807600352 -0.1003950379090186 1.0389554342963194 0 0 0 0.35 3 395 19 192 172 135 176 193 200 170 204 169 220 150 
1151 0.3000819127026678 -0.09966124200937254 1.020871840298215 0 0 0 0.63 3 396 136 59 176 194 204 170 222 108 227 172 
1152 0.4563360019558699 -0.10047199485651571 1.0555498640411347 0 0 0 0.47 3 397 4 405 15 90 17 259 120 54 128 104 136 60 152 124 162 182 163 25 164 449 165 161 190 89 204 171 222 109 227 173 235 162 
1153 0.45586649339282986 -0.10029598368088005 1.0545280643355566 0 0 0 0.44 3 398 15 91 17 260 120 55 128 105 162 183 163 26 190 90 222 110 
1154 -0.06959478096212914 -0.09269640527760394 1.038987165813923 0 0 0 0.33 2 914 3 399 9 178 16 82 147 83 196 182 200 171 214 68 217 133 220 151 
1155 -0.09636415749119631 -0.0883358093709151 1.0463182266830955 0 0 0 0.3 2 915 3 400 4 406 9 179 11 204 16 83 17 261 19 193 27 311 124 25 147 84 148 111 157 238 158 115 159 118 162 184 164 450 172 136 196 183 200 172 204 172 213 424 219 140 220 152 221 150 224 138 227 174 232 207 
1156 -0.20123446696006675 -0.08705320666908486 1.0638411557573602 0 0 0 0.31 2 916 3 401 9 180 19 194 27 312 146 80 152 125 157 239 158 116 159 119 164 451 176 195 196 184 200 173 204 173 213 425 217 134 219 141 220 153 221 151 224 139 227 175 232 208 
1157 -0.27781636261655157 -0.0860575288636997 1.0768102876152543 0 0 0 0.36 3 402 148 112 157 240 162 185 172 137 185 90 
1158 -0.2778801881115059 -0.08612594064966425 1.0765989918114887 0 0 0 0.36 2 917 3 403 4 407 9 181 17 262 27 313 127 84 148 113 152 126 157 241 159 120 164 452 176 196 185 91 190 91 196 185 204 174 213 426 224 140 227 176 
1159 -0.25937262389862936 -0.08623070322894642 1.0730744582716938 0 0 0 0.33 3 404 4 408 17 263 19 195 148 114 157 242 162 186 172 138 190 92 227 177 
1160 -0.2592367838124886 -0.08628589881466066 1.0732078375037026 0 0 0 0.29 2 918 3 405 4 409 9 182 17 264 27 314 127 85 128 106 148 115 157 243 159 121 164 453 176 197 190 93 196 186 204 175 213 427 219 142 227 178 232 209 
1161 -0.2500720164143704 -0.08624279493733654 1.0717024634058732 0 0 0 0.33 2 919 3 406 4 410 19 196 148 116 157 244 159 122 164 454 172 139 176 198 190 94 196 187 200 174 227 179 
1162 -0.3458878645456171 -0.08569469596831321 1.0898694929915667 0 0 0 0.46 2 920 3 407 4 411 9 183 12 82 17 265 19 197 27 315 148 117 159 123 162 187 164 455 176 199 181 46 196 188 219 143 220 154 221 152 224 141 232 210 
1163 -0.3064362526964075 -0.08566872711121944 1.0817961174054722 0 0 0 0.41 2 921 3 408 4 412 9 184 12 83 17 266 19 198 27 316 128 107 148 118 157 245 164 456 176 200 185 92 190 95 196 189 200 175 213 428 217 135 219 144 220 155 221 153 224 142 227 180 232 211 
1164 0.21179447192779816 -0.08601450588109086 1.0275235344879212 0 0 0 0.34 2 922 3 409 4 413 9 185 11 205 12 84 15 92 17 267 19 199 27 317 120 56 124 26 128 108 146 81 147 85 148 119 152 127 157 246 158 117 162 188 164 457 165 162 172 140 176 201 185 93 196 190 197 45 200 176 204 176 213 429 217 136 219 145 220 156 227 181 234 22 235 163 
1165 0.21964821108159086 -0.08596944110010923 1.0277069714246891 0 0 0 0.39 2 923 3 410 4 414 9 186 11 206 12 85 15 93 17 268 19 200 27 318 124 27 146 82 147 86 148 120 152 128 157 247 158 118 159 124 162 189 164 458 165 163 172 141 176 202 185 94 196 191 197 46 204 177 213 430 219 146 220 157 221 154 223 67 227 182 232 212 234 23 235 164 
1166 0.23238872592601434 -0.08594152620290456 1.0269030986614673 0 0 0 0.46 2 924 3 411 9 187 11 207 12 86 15 94 17 269 19 201 27 319 120 57 124 28 146 83 147 87 148 121 152 129 157 248 158 119 159 125 164 459 172 142 176 203 185 95 196 192 197 47 200 177 204 178 213 431 217 137 219 147 220 158 221 155 222 111 223 68 227 183 232 213 234 24 235 165 
1167 0.2454738840551262 -0.08612402321673285 1.0272465565149365 0 0 0 0.52 2 925 3 412 9 188 11 208 12 87 15 95 17 270 19 202 146 84 148 122 159 126 162 190 164 460 184 110 190 96 196 193 197 48 200 178 213 432 217 138 220 159 221 156 227 184 232 214 235 166 
1168 0.2894266082572378 -0.08552965515414049 1.0252622821040374 0 0 0 0.39 2 926 3 413 11 209 12 88 17 271 19 203 27 320 120 58 136 61 152 130 158 120 162 191 164 461 172 143 176 204 184 111 185 96 190 97 196 194 200 179 204 179 217 139 221 157 227 185 234 25 
1169 0.3000534639986112 -0.08520583201895211 1.0220028188273027 0 0 0 0.18 3 414 17 272 162 192 172 144 
1170 0.30094721907261157 -0.08540479918277537 1.0247923060375614 0 0 0 0.41 2 927 3 415 4 415 9 189 11 210 15 96 17 273 19 204 27 321 120 59 127 86 147 88 152 131 157 249 158 121 159 127 162 193 163 27 164 462 165 164 172 145 176 205 184 112 185 97 190 98 196 195 197 49 200 180 204 180 213 433 217 140 227 186 235 167 
1171 0.31674719567312376 -0.08554584669807788 1.024452710550253 0 0 0 0.3 2 928 3 416 9 190 11 211 12 89 15 97 17 274 19 205 27 322 120 60 124 29 128 109 136 62 147 89 148 123 152 132 158 122 162 194 163 28 164 463 165 165 172 146 176 206 196 196 200 181 204 181 213 434 217 141 227 187 232 215 235 168 
1172 0.35056458667596047 -0.08480854008923312 1.0224844290015025 0 0 0 0.42 3 417 4 416 9 191 11 212 15 98 17 275 27 323 120 61 164 464 176 207 213 435 217 142 227 188 232 216 234 26 
1173 0.36281659973391356 -0.08450710378288064 1.0222980658349967 0 0 0 0.34 2 929 3 418 4 417 9 192 12 90 15 99 17 276 19 206 27 324 147 90 148 124 152 133 162 195 163 29 164 465 165 166 172 147 176 208 184 113 190 99 196 197 197 50 200 182 204 182 213 436 217 143 220 160 221 158 222 112 227 189 232 217 234 27 235 169 
1174 0.3706167063745093 -0.08443729036236183 1.0225708681028767 0 0 0 0.55 2 930 3 419 4 418 9 193 15 100 17 277 19 207 27 325 120 62 147 91 148 125 165 167 176 209 197 51 200 183 204 183 213 437 220 161 221 159 222 113 232 218 234 28 235 170 
1175 -0.34929450564200437 -0.08129974009387442 1.0892533172801868 0 0 0 0.59 2 931 3 420 4 419 9 194 12 91 17 278 19 208 27 326 148 126 159 128 164 466 176 210 181 47 196 198 220 162 221 160 224 143 232 219 
1176 0.2613827482070482 -0.08250231401054826 1.0257325119762746 0 0 0 0.31 3 421 11 213 120 63 128 110 136 63 159 129 172 148 204 184 222 114 227 190 232 220 
1177 0.11721181067166307 -0.07427538905860595 1.0252681897569824 0 0 0 0.36 3 422 11 214 120 64 148 127 213 438 
1178 0.06400424602712793 -0.07309360815899235 1.0293874697511138 0 0 0 0.39 2 932 3 423 4 420 9 195 11 215 15 101 16 84 17 279 120 65 127 87 128 111 147 92 152 134 157 250 158 123 162 196 172 149 176 211 185 98 190 100 213 439 214 69 217 144 219 148 221 161 222 115 231 33 232 221 
1179 0.0861882338962834 -0.07288535921190628 1.028267826178657 0 0 0 0.46 2 933 3 424 4 421 9 196 11 216 12 92 15 102 16 85 17 280 19 209 27 327 120 66 129 3 147 93 148 128 152 135 157 251 158 124 159 130 162 197 164 467 172 150 176 212 181 48 185 99 190 101 196 199 200 184 204 185 213 440 214 70 217 145 219 149 220 163 221 162 223 69 232 222 
1180 0.12249946467608624 -0.07249966675832176 1.026125483658221 0 0 0 0.35 2 934 3 425 9 197 11 217 15 103 16 86 17 281 19 210 27 328 120 67 128 112 146 85 147 94 148 129 152 136 157 252 158 125 159 131 162 198 164 468 172 151 176 213 190 102 196 200 197 52 198 21 204 186 213 441 214 71 217 146 219 150 220 164 221 163 222 116 223 70 232 223 
1181 0.1369406288567241 -0.07240633531693082 1.0258781811151172 0 0 0 0.38 2 935 3 426 4 422 9 198 11 218 15 104 17 282 19 211 27 329 120 68 128 113 146 86 147 95 152 137 157 253 162 199 164 469 172 152 176 214 185 100 196 201 198 22 204 187 213 442 214 72 217 147 219 151 221 164 232 224 
1182 -0.345692379753722 -0.06872983042384355 0.9218887266733276 0 0 0 0.33 3 427 12 93 17 283 219 152 232 225 
1183 -0.2763740297561932 -0.07138462861234837 1.0722475909573668 0 0 0 0.14 3 428 17 284 157 254 190 103 213 443 217 148 
1184 0.46283341257102223 -0.07044397169103594 1.0499358039436166 0 0 0 0.46 3 429 4 423 15 105 152 138 162 200 190 104 197 53 217 149 222 117 227 191 235 171 
1185 -0.31123802663783534 -0.06708376206457572 1.0802337507640782 0 0 0 0.32 2 936 3 430 4 424 9 199 17 285 27 330 148 130 213 444 224 144 227 192 232 226 
1186 -0.05894158487140344 -0.0664584215146631 1.0326535059367552 0 0 0 0.27 2 937 3 431 11 219 16 87 152 139 157 255 213 445 
1187 0.4411452695887993 -0.06512339948918984 1.0402411953192297 0 0 0 0.42 3 432 4 425 17 286 120 69 164 470 165 168 221 165 222 118 235 172 
1188 0.44228561807078304 -0.06501204143184448 1.043053032220143 0 0 0 0.41 2 938 3 433 4 426 9 200 12 94 120 70 152 140 165 169 184 114 190 105 197 54 221 166 222 119 227 193 232 227 235 173 
1189 0.3378748008877667 -0.06244752495761457 1.0308301705915828 0 0 0 0.32 3 434 15 106 147 96 
1190 0.44637802250486847 -0.06321251591739695 1.0403232275092902 0 0 0 0.5 3 435 9 201 17 287 152 141 162 201 184 115 222 120 235 174 
1191 -0.3457552184291143 -0.057347843885851374 0.9019156970079912 0 0 0 0.34 3 436 12 95 17 288 157 256 172 153 227 194 232 228 
1192 -0.34538315698907496 -0.056892429872329155 0.8981625762940868 0 0 0 0.51 3 437 12 96 157 257 219 153 221 167 232 229 
1193 0.1295533353043114 -0.05706305475998809 1.0291059605002246 0 0 0 0.1 4 427 17 289 232 230 
1194 0.21269070890085018 -0.055449434248479104 1.0305890334454952 0 0 0 0.42 3 438 213 446 219 154 
1195 0.48313310415358507 -0.05733843071934528 1.0607111575158465 0 0 0 0.41 3 439 15 107 17 290 120 71 129 4 147 97 152 142 184 116 190 106 217 150 221 168 227 195 232 231 
1196 0.07879938691908774 -0.05500758611146232 1.026361367597422 0 0 0 0.34 2 939 3 440 4 428 11 220 16 88 17 291 27 331 128 114 147 98 157 258 158 126 176 215 185 101 190 107 200 185 213 447 214 73 217 151 221 169 231 34 232 232 
1197 0.24825387104942057 -0.05487624165021652 1.029166843248042 0 0 0 0.44 2 940 3 441 11 221 17 292 120 72 152 143 213 448 221 170 222 121 
1198 0.3682033479332303 -0.05338829183545399 1.0182029554278211 0 0 0 0.43 2 941 3 442 11 222 12 97 17 293 19 212 128 115 152 144 164 471 172 154 204 188 213 449 222 122 227 196 
1199 0.1715983618634907 -0.05229242644844399 1.031945624356389 0 0 0 0.14 3 443 11 223 120 73 
1200 0.23386956745221882 -0.05224747270260644 1.0240801244436366 0 0 0 0.28 3 444 17 294 157 259 219 155 
1201 0.008853397776701572 -0.05181936351129596 1.0279353947955254 0 0 0 0.39 2 942 3 445 4 429 11 224 16 89 17 295 27 332 128 116 136 64 146 87 147 99 152 145 162 202 164 472 213 450 219 156 221 171 222 123 231 35 232 233 
1202 -0.05899728911246879 -0.04312481662098281 1.0299746960965661 0 0 0 0.3 3 446 4 430 11 225 128 117 152 146 157 260 176 216 219 157 232 234 
1203 0.06561200730558282 -0.04321796712598421 1.0291787500612912 0 0 0 0.2 3 447 11 226 157 261 
1204 0.0798594548237548 -0.04312474676928807 1.0265469355723518 0 0 0 0.73 3 448 16 90 17 296 146 88 147 100 157 262 158 127 172 155 190 108 219 158 232 235 
1205 0.4492065802412073 -0.04198231563001004 1.0406550940851809 0 0 0 0.34 3 449 12 98 17 297 120 74 152 147 164 473 165 170 184 117 190 109 197 55 222 124 232 236 235 175 
1206 0.1940682251287206 -0.04137456643310468 1.0240377555467342 0 0 0 0.3 3 450 15 108 17 298 120 75 128 118 146 89 157 263 175 20 198 23 219 159 
1207 -0.29824232775118964 -0.04070039897246353 1.0745548796137032 0 0 0 0.2 3 451 4 431 128 119 213 451 232 237 
1208 0.46316479105628816 -0.04128023306897215 1.0473269530250877 0 0 0 0.41 3 452 4 432 12 99 15 109 17 299 19 213 120 76 128 120 147 101 152 148 162 203 163 30 164 474 165 171 181 49 184 118 190 110 197 56 198 24 217 152 221 172 222 125 227 197 232 238 235 176 
1209 0.04342871884717179 -0.03971286144399711 1.0255860215660042 0 0 0 0.36 3 453 16 91 17 300 128 121 147 102 152 149 231 36 232 239 
1210 -0.3464522161152932 -0.038941122656193594 0.8775033642148812 0 0 0 0.62 3 454 12 100 27 333 219 160 221 173 232 240 
1211 0.41794862035803254 -0.036757670368978985 1.0255035893840285 0 0 0 0.36 2 943 3 455 4 433 9 202 12 101 15 110 17 301 19 214 27 334 120 77 147 103 152 150 162 204 163 31 164 475 165 172 184 119 190 111 197 57 204 189 213 452 217 153 221 174 222 126 232 241 235 177 
1212 -0.059235894530591304 -0.035302087840813214 1.030990422947234 0 0 0 0.25 3 456 138 9 185 102 219 161 
1213 -0.31746109131985756 -0.03327112804825426 1.0752063483754737 0 0 0 0.29 2 944 3 457 4 434 17 302 19 215 27 335 127 88 138 10 148 131 157 264 164 476 172 156 176 217 196 202 204 190 213 453 217 154 219 162 221 175 224 145 227 198 232 242 
1214 0.4257912350374078 -0.03203090858368754 1.0291802944273867 0 0 0 0.34 2 945 3 458 4 435 9 203 12 102 15 111 17 303 19 216 120 78 136 65 152 151 158 128 163 32 164 477 165 173 184 120 197 58 204 191 217 155 220 165 221 176 222 127 227 199 232 243 235 178 
1215 -0.29849774550988795 -0.031241678817639555 1.0721543940693357 0 0 0 0.43 3 459 4 436 9 204 148 132 157 265 164 478 190 112 204 192 
1216 0.19292250727064839 -0.03030120592941651 1.0185746090289667 0 0 0 0.53 3 460 27 336 147 104 159 132 163 33 199 34 200 186 213 454 217 156 235 179 
1217 0.397116382229713 -0.02638476410720725 1.0145642033126814 0 0 0 0.26 2 946 3 461 4 437 9 205 12 103 15 112 17 304 27 337 147 105 152 152 162 205 164 479 165 174 184 121 197 59 213 455 217 157 221 177 222 128 227 200 232 244 235 180 
1218 -0.29777373228237 -0.023683563946669678 1.0695620461729214 0 0 0 0.36 3 462 9 206 12 104 157 266 159 133 172 157 190 113 213 456 227 201 
1219 0.10581491825780781 -0.023561223973159087 1.0196932092195559 0 0 0 0.5 3 463 4 438 9 207 15 113 128 122 136 66 148 133 159 134 164 480 185 103 194 12 217 158 223 71 
1220 0.28122468316590843 -0.020671438516532258 1.0182336558589862 0 0 0 0.42 3 464 4 439 9 208 11 227 15 114 17 305 27 338 120 79 127 89 128 123 146 90 147 106 148 134 152 153 157 267 158 129 159 135 165 175 172 158 176 218 185 104 196 203 200 187 213 457 217 159 222 129 223 72 227 202 232 245 235 181 
1221 0.3159881891710402 -0.019983453588066743 1.0172542849931416 0 0 0 0.15 3 465 217 160 227 203 
1222 -0.15620649939423015 -0.020431649962646625 1.0424976324207487 0 0 0 0.24 3 466 4 440 11 228 138 11 157 268 158 130 172 159 176 219 190 114 204 193 213 458 219 163 227 204 232 246 
1223 0.3499083247233119 -0.020058415833514403 1.0157343857787824 0 0 0 0.29 2 947 3 467 4 441 11 229 15 115 17 306 27 339 147 107 148 135 152 154 164 481 172 160 176 220 190 115 198 25 204 194 213 459 227 205 232 247 
1224 -0.3527504671552785 -0.02027291175792538 0.8969048457192728 0 0 0 0.32 3 468 17 307 219 164 
1225 0.38397553299506865 -0.014356374758640513 1.0136911257692591 0 0 0 0.23 3 469 12 105 15 116 152 155 172 161 176 221 204 195 222 130 232 248 234 29 
1226 -0.18377716580035738 -0.015800528189138435 1.0525642096651047 0 0 0 0.23 3 470 157 269 172 162 
1227 -0.29731885803047176 -0.014479979540122178 1.066425848953224 0 0 0 0.16 3 471 172 163 190 116 227 206 
