# 3D point list with one line of data per point:
#   POINT3D_ID, X, Y, Z, R, G, B, ERROR, TRACK[] as (IMAGE_ID, POINT2D_IDX)
# Number of points: 265, mean track length: 14.94
266 -0.41237056981242076 0.17620715546601273 0.6891665500573335 30 20 21 0.49 0 30 1 30 2 29 3 30 5 23 6 39 7 49 8 50 9 56 10 54 11 55 12 51 13 49 14 43 15 44 16 43 17 46 19 190 98 27 99 27 
267 -0.3197864790827147 0.20940932742016355 0.525150903026327 84 85 82 0.6 0 31 1 31 2 30 3 31 4 27 5 24 6 40 7 50 8 51 9 57 10 55 11 56 12 52 13 50 14 44 15 45 98 28 99 28 
268 -0.6545962537606197 0.26478620995133084 0.7318578866466162 103 97 109 0.85 0 32 1 32 2 31 3 32 4 28 5 25 6 41 7 51 8 52 9 58 10 56 11 57 12 53 13 51 14 45 15 46 98 29 99 29 
269 -0.465309340254129 0.06837010417492659 0.7783081665672335 83 68 75 0.37 0 33 1 33 2 32 3 33 4 29 7 52 8 53 9 59 10 57 11 58 12 54 13 52 14 46 15 47 16 44 17 47 98 30 99 30 
270 -0.6040174659264724 0.05895110125870641 0.9771081569760226 93 85 82 0.47 0 34 1 34 2 33 3 34 4 30 8 54 9 60 10 58 11 59 12 55 13 53 14 47 15 48 16 45 17 48 98 31 99 31 
271 -0.6701143090184881 0.27244488934172917 0.7571742728737935 91 66 74 0.77 0 35 1 35 2 34 3 35 4 31 5 26 6 42 7 53 8 55 9 61 10 59 11 60 12 56 13 54 14 48 15 49 98 32 99 32 
272 -0.6828635252240707 0.2996441649731216 0.73945903284633 43 61 34 0.66 0 36 1 36 2 35 3 36 4 32 5 27 6 43 7 54 8 56 9 62 10 60 11 61 12 57 13 55 15 50 98 33 99 33 
273 -0.6609931385945295 0.15411847489359257 1.0413698642299405 123 111 99 0.41 0 37 1 37 2 36 3 37 4 33 5 28 9 63 10 61 11 62 12 58 13 56 14 49 15 51 16 46 17 49 98 34 99 34 
274 -0.6350734667621365 0.2777073123822517 0.7057139204640168 119 123 133 0.5 0 38 1 38 2 37 3 38 4 34 5 29 6 44 7 55 8 57 9 64 10 62 11 63 12 59 13 57 14 50 15 52 98 35 99 35 
275 -0.464247852096869 -0.05147305982068343 0.8180943619340105 197 212 225 0.58 0 39 1 39 2 38 3 39 4 35 6 45 7 56 8 58 9 65 10 63 11 64 12 60 13 58 14 51 15 53 16 47 17 50 18 173 19 191 98 36 99 36 
276 -0.45640921207552787 0.15600453804406209 0.7624249524334449 71 55 58 0.61 0 40 1 40 2 39 3 40 4 36 6 46 7 57 8 59 9 66 10 64 11 65 12 61 13 59 14 52 15 54 16 48 17 51 19 192 98 37 99 37 
277 -0.4862624637229095 -0.08472289924161393 0.8450968338901708 152 148 139 0.49 0 41 1 41 2 40 3 41 4 37 6 47 7 58 8 60 9 67 10 65 11 66 12 62 13 60 14 53 15 55 16 49 17 52 98 38 99 38 
278 -0.63552777002004 0.09232688670680386 1.0187821498771672 74 68 68 0.47 0 42 1 42 2 41 3 42 4 38 5 30 9 68 10 66 11 67 12 63 13 61 14 54 15 56 16 50 17 53 98 39 99 39 
279 -0.4923107832531361 0.27773425208046876 0.7261764059486702 98 91 78 0.68 0 43 1 43 2 42 3 43 4 39 5 31 6 48 7 59 8 61 9 69 10 67 11 68 12 64 13 62 14 55 15 57 16 51 17 54 
280 -0.5515957679661534 0.09135361923331733 0.8838944908424192 186 199 217 0.42 0 44 1 44 2 43 3 44 4 40 8 62 9 70 10 68 11 69 12 65 13 63 14 56 15 58 16 52 17 55 98 40 99 40 
281 -0.4069466860600951 0.0429684685907668 0.7048657367526838 150 143 135 0.51 0 45 1 45 2 44 3 45 6 49 7 60 8 63 9 71 10 69 11 70 12 66 13 64 14 57 15 59 16 53 17 56 98 41 99 41 
282 -0.45319636021233384 0.2463630975286135 0.7360376728084548 70 53 60 0.48 0 46 1 46 2 45 3 46 4 41 5 32 6 50 7 61 8 64 9 72 10 70 11 71 12 67 13 65 14 58 15 60 16 54 17 57 
283 -0.4066493377764754 0.1933772238417315 0.6705936293910274 145 136 128 0.56 0 47 1 47 2 46 3 47 4 42 5 33 6 51 7 62 8 65 9 73 10 71 11 72 12 68 13 66 14 59 15 61 16 55 17 58 98 42 99 42 
284 0.8442877064198355 0.31487007761065344 1.132005789508088 76 73 77 1.01 35 145 39 187 40 178 41 19 42 172 43 170 46 13 47 17 48 24 49 20 
285 0.5698401771608573 0.17428465548995456 1.6197328336260957 128 122 117 0.22 41 20 42 173 43 171 46 14 47 18 48 25 49 21 
286 0.755739475712791 0.3446437536919896 1.351811706757667 58 52 50 0.37 41 21 42 174 43 172 46 15 47 19 48 26 49 22 
287 0.9165901584962188 0.3735243308319685 1.3698087732293824 31 34 40 0.19 46 16 47 20 48 27 49 23 
288 0.16572246617601658 -0.026781218582643432 0.6346200526150299 115 116 119 1.32 4 43 12 69 13 67 14 60 15 62 16 56 17 59 18 174 19 193 20 184 21 197 22 209 23 206 26 154 36 164 38 202 39 188 40 179 41 22 42 175 43 173 46 17 47 21 48 28 49 24 
289 0.6890672196292381 0.0687749574242851 1.277558099857197 114 118 127 0.7 6 52 8 66 9 74 19 194 22 210 23 207 35 146 36 165 37 151 38 203 39 189 40 180 41 23 42 176 43 174 46 18 47 22 48 29 49 25 
290 0.7929775640555915 0.2934762640492582 1.3255823314437853 86 72 68 0.37 21 198 35 147 37 152 41 24 42 177 43 175 46 19 47 23 48 30 49 26 
291 0.7902409133862778 0.17751027235906877 1.3245906239892487 62 39 39 0.75 6 53 8 67 20 185 35 148 41 25 42 178 43 176 46 20 47 24 48 31 49 27 
292 0.929556852069446 0.36603774314463694 1.340414270671053 29 29 34 0.38 43 177 46 21 47 25 48 32 
293 0.3804244803265451 0.551301427371565 1.7606568616786535 84 98 112 0.32 46 22 47 26 48 33 49 28 
294 0.6822264824319892 0.28256688925932205 1.2121195606048014 36 25 28 0.48 6 54 22 211 35 149 37 153 38 204 39 190 40 181 41 26 42 179 43 178 46 23 47 27 48 34 49 29 
295 0.2943224384963462 -0.16508273709787502 0.770194371292415 60 56 54 1.47 7 63 8 68 9 75 10 72 11 73 12 70 13 68 14 61 15 63 16 57 17 60 18 175 19 195 20 186 21 199 22 212 23 208 26 155 36 166 38 205 39 191 40 182 41 27 42 180 43 179 46 24 47 28 48 35 49 30 
296 0.5333305593050209 -0.13372240623616796 0.9584897500070931 207 219 226 0.99 7 64 8 69 9 76 10 73 11 74 12 71 13 69 14 62 15 64 16 58 17 61 18 176 19 196 20 187 21 200 22 213 23 209 35 150 36 167 37 154 38 206 39 192 40 183 41 28 42 181 43 180 46 25 47 29 48 36 49 31 
297 0.6276460202009254 -0.18036641977114506 1.0451799943353686 51 47 44 0.88 7 65 9 77 10 74 11 75 12 72 13 70 14 63 15 65 16 59 17 62 18 177 19 197 20 188 21 201 35 151 37 155 38 207 39 193 40 184 41 29 42 182 43 181 46 26 47 30 48 37 49 32 
298 0.7120476686298224 0.10264134358981371 1.4649969524953712 135 130 126 0.26 41 30 42 183 43 182 46 27 47 31 48 38 49 33 
299 0.847459660111017 0.3158013349088034 1.177829585693733 25 23 28 1.14 35 152 39 194 40 185 41 31 42 184 43 183 46 28 47 32 48 39 49 34 
300 0.7911343738944195 0.39057033512148104 1.4842337683255682 45 45 41 0.35 46 29 47 33 48 40 49 35 
301 0.7767085506853426 0.28864006359012184 1.2794949065755157 95 82 81 0.36 35 153 41 32 42 185 43 184 46 30 47 34 48 41 49 36 
302 0.6601176090860424 0.034340707409511444 1.2608059691267381 122 120 116 0.88 6 55 8 70 9 78 20 189 22 214 35 154 37 156 38 208 39 195 40 186 41 33 42 186 43 185 46 31 47 35 48 42 49 37 
303 0.25663482265614174 0.21343710078479233 0.8692239936029187 65 46 41 1.15 5 34 6 56 7 66 8 71 9 79 10 75 13 71 19 198 20 190 26 156 39 196 40 187 41 34 42 187 46 32 47 36 48 43 49 38 
304 0.6461626361470785 -0.008859319080646855 1.260291224202191 137 134 126 0.84 6 57 8 72 9 80 10 76 20 191 23 210 35 155 36 168 37 157 38 209 39 197 40 188 41 35 42 188 43 186 46 33 47 37 48 44 49 39 
305 0.8192533159272557 -0.09546207447274513 1.4102077579532293 138 155 166 1.01 20 192 41 36 42 189 43 187 46 34 47 38 48 45 49 40 
306 0.7493282790594166 0.29691008667055085 1.2529735187064859 119 119 118 0.54 6 58 35 156 41 37 42 190 43 188 46 35 47 39 48 46 49 41 
307 0.7950842031510136 0.2245249947801913 1.3392574642209414 121 118 116 0.54 20 193 21 202 35 157 41 38 42 191 43 189 46 36 47 40 48 47 49 42 
308 0.7945379132281307 0.007394587420531178 1.387645948311493 134 132 127 0.64 20 194 41 39 42 192 43 190 46 37 47 41 48 48 49 43 
309 0.3974706517255511 0.11686225236228823 1.8442464170655346 135 129 124 0.37 40 189 41 40 42 193 43 191 46 38 47 42 48 49 49 44 
310 0.5974589380098518 -0.0369988991968785 1.23221128409579 122 121 119 0.9 6 59 8 73 9 81 10 77 17 63 20 195 21 203 35 158 36 169 37 158 38 210 39 198 40 190 41 41 42 194 43 192 46 39 47 43 48 50 49 45 
311 0.5594103608202479 0.2482229532108647 1.6193954577865417 105 90 82 0.3 40 191 41 42 42 195 46 40 47 44 48 51 49 46 
312 0.23778645874593127 0.41318390703565977 1.9798552522077946 94 91 88 0.36 40 192 46 41 47 45 48 52 49 47 
313 0.7835663637289442 0.1281649094687425 1.333718402698218 137 137 134 0.52 6 60 8 74 9 82 20 196 35 159 41 43 42 196 43 193 46 42 47 46 48 53 49 48 
314 0.7722660685043655 0.21548399504088175 1.3647659778187118 124 122 118 0.21 41 44 42 197 43 194 46 43 47 47 48 54 49 49 
315 0.7386383605053597 0.26376796969788435 1.2568761327807525 93 102 111 0.83 6 61 21 204 22 215 23 211 35 160 37 159 38 211 39 199 40 193 41 45 42 198 43 195 46 44 47 48 48 55 49 50 
316 0.9043093082320194 0.3716207112374808 1.3622195203686998 15 19 23 0.35 46 45 47 49 48 56 49 51 
317 0.26597225526159607 -0.18659206391693153 0.7569309275340513 220 230 232 1.6 7 67 9 83 10 78 11 76 12 73 13 72 14 64 15 66 17 64 18 178 19 199 20 197 21 205 22 216 26 157 36 170 37 160 38 212 39 200 40 194 41 46 42 199 43 196 46 46 47 50 48 57 49 52 
318 0.751861613928515 0.16874483138030136 1.4010232021730868 107 99 96 0.32 41 47 42 200 43 197 46 47 47 51 48 58 49 53 
319 0.5549239914504444 0.1674107027535342 1.6430990644167707 123 120 116 0.27 40 195 41 48 42 201 43 198 46 48 47 52 48 59 49 54 
320 0.4849377631046639 -0.18329844860527506 1.828132756333393 21 19 30 0.63 41 49 42 202 43 199 46 49 47 53 48 60 49 55 
321 0.7725805618737882 0.24627567039894913 1.35909204142405 103 92 88 0.26 21 206 41 50 42 203 43 200 46 50 47 54 48 61 49 56 
322 0.1548323706678342 -0.2443286983894937 0.6830681462521568 164 172 178 1.06 4 44 5 35 9 84 10 79 11 77 12 74 13 73 14 65 15 67 16 60 17 65 18 179 19 200 20 198 21 207 22 217 23 212 26 158 38 213 39 201 40 196 41 51 42 204 43 201 46 51 47 55 48 62 49 57 
323 0.48350149904082207 -0.14989444400562638 1.799751532745888 37 32 30 0.63 40 197 41 52 42 205 43 202 46 52 47 56 48 63 49 58 
324 0.6936493019977173 -0.03254048228256229 1.329896195071717 110 123 136 1.09 6 62 9 85 10 80 19 201 22 218 35 161 37 161 38 214 39 202 40 198 41 53 42 206 43 203 46 53 47 57 48 64 49 59 
325 0.46448204073852695 0.19093252862245216 1.0432083183729226 72 75 82 1.38 6 63 7 68 8 75 9 86 10 81 11 78 19 202 22 219 39 203 40 199 41 54 42 207 43 204 46 54 47 58 48 65 49 60 
326 0.6919895723634931 0.0037252279085366272 1.5110463530678455 122 115 109 0.38 40 200 41 55 42 208 43 205 46 55 47 59 48 66 49 61 
327 0.1492890051736458 -0.2689457047288909 0.6676113122334564 18 14 18 1.7 4 45 11 79 12 75 13 74 14 66 15 68 16 61 17 66 38 215 39 204 40 201 41 56 42 209 46 56 47 60 48 67 49 62 
328 0.5925879560197675 -0.024962167928676986 0.9744565745655656 68 52 45 1.39 8 76 9 87 10 82 11 80 12 76 13 75 14 67 16 62 17 67 18 180 19 203 20 199 21 208 22 220 23 213 26 159 35 162 36 171 37 162 38 216 39 205 40 202 41 57 42 210 43 206 46 57 47 61 48 68 49 63 
329 0.4622025561144971 0.0733695933136591 1.7818479447960718 122 120 118 0.38 40 203 41 58 42 211 43 207 46 58 47 62 48 69 49 64 
330 0.8260648476215459 0.31443203159980704 1.0819171684346944 48 47 49 0.7 41 59 42 212 43 208 46 59 47 63 48 70 49 65 
331 0.47803520710542946 0.22383638191691302 1.7203586845474164 123 118 114 0.25 40 204 41 60 42 213 43 209 46 60 47 64 48 71 49 66 
332 0.8751446333382061 0.3073997935494866 1.1906062464590348 39 42 41 1.32 35 163 39 206 40 205 42 214 43 210 46 61 47 65 48 72 49 67 
333 0.2068268759721784 0.14409791569437738 0.635100592248481 70 62 64 1.76 4 46 7 69 8 77 9 88 12 77 13 76 14 68 15 69 16 63 17 68 18 181 36 172 39 207 40 206 41 61 42 215 43 211 46 62 47 66 48 73 49 68 
334 0.4739444802771473 0.18974024213586413 0.8476376411232532 101 88 80 1.29 4 47 15 70 17 69 18 182 20 200 21 209 22 221 23 214 40 207 41 62 42 216 43 212 46 63 
335 0.31746467563650954 -0.24276078235205073 0.8020464711371998 186 195 195 1.4 7 70 8 78 9 89 10 83 11 81 12 78 13 77 14 69 15 71 16 64 17 70 18 183 19 204 20 201 21 210 36 173 37 163 38 217 39 208 40 208 41 63 42 217 43 213 46 64 47 67 48 74 49 69 
336 0.8060808092762585 0.37562237305903795 1.3980326595140204 28 22 19 0.42 42 218 43 214 46 65 47 68 48 75 49 70 
337 0.681346555953006 0.23891858543009192 1.2382785235909228 31 39 42 0.9 6 64 19 205 20 202 22 222 35 164 37 164 38 218 39 209 40 209 41 64 42 219 43 215 46 66 47 69 48 76 49 71 
338 0.7688377164680493 -0.06308460506074438 1.379048705535684 100 106 110 0.56 20 203 41 65 42 220 43 216 46 67 47 70 48 77 49 72 
339 0.7433535045000017 0.29984360275708277 1.0640854137373168 41 39 40 1.03 36 174 37 165 38 219 39 210 40 210 41 66 42 221 43 217 46 68 47 71 48 78 49 73 
340 0.6044132100916554 0.13074181578191935 0.9721204719728594 84 88 90 1.38 4 48 9 90 12 79 13 78 14 70 17 71 18 184 20 204 22 223 23 215 35 165 36 175 37 166 38 220 39 211 40 211 41 67 42 222 43 218 46 69 
341 0.6754745576067104 0.2294546337514119 1.231865253274344 116 136 158 0.91 6 65 19 206 20 205 22 224 35 166 37 167 38 221 39 212 40 212 41 68 42 223 43 219 46 70 47 72 48 79 49 74 
342 0.23643599585257724 0.15157444251972768 2.041255363354938 94 88 83 0.72 40 213 41 69 42 224 43 220 46 71 47 73 48 80 49 75 
343 0.6807992014661852 0.15999382518176705 1.25107705748607 32 28 27 0.77 19 207 20 206 22 225 23 216 35 167 36 176 37 168 38 222 39 213 40 214 41 70 42 225 43 221 46 72 47 74 48 81 49 76 
344 0.4543131484829778 -0.033417404892274884 0.897945430498566 87 75 65 1.08 21 211 22 226 23 217 26 160 36 177 37 169 38 223 39 214 40 215 41 71 42 226 43 222 
345 0.2207203222313342 0.10543882153280215 2.069818150327862 107 98 95 0.93 40 216 41 72 42 227 43 223 46 73 47 75 48 82 49 77 
346 0.4220831496248834 -0.12354191909490876 0.8636041594307192 129 129 130 0.9 7 71 8 79 9 91 10 84 11 82 12 80 13 79 14 71 15 72 16 65 17 72 36 178 37 170 38 224 39 215 40 217 41 73 42 228 43 224 46 74 47 76 48 83 49 78 
347 0.802047052352862 0.19464494621305722 1.3303199392356875 122 112 109 0.63 6 66 20 207 41 74 42 229 43 225 46 75 47 77 48 84 49 79 
348 0.7495232611926864 0.09042276643766943 1.3156081482833193 112 113 119 0.8 6 67 8 80 9 92 35 168 37 171 39 216 40 218 41 75 42 230 43 226 46 76 47 78 48 85 49 80 
349 0.5839164366656745 0.27743119649081593 0.7784520239420853 32 30 32 1.53 20 208 21 212 23 218 35 169 38 225 40 219 41 76 42 231 43 227 46 77 47 79 48 86 
350 0.7960406638763112 0.05092805896692918 1.370240658686247 107 100 101 0.96 6 68 7 72 8 81 9 93 18 185 20 209 41 77 42 232 43 228 46 78 47 80 48 87 49 81 
351 0.9718678494334405 0.33073236681842344 1.1951799190523718 66 53 54 0.58 46 79 47 81 48 88 49 82 
352 0.7712746954012241 -0.0755164642819496 1.4395201646889992 78 76 75 0.17 41 78 43 229 46 80 47 82 48 89 49 83 
353 0.35276715728849717 -0.17132429803001412 0.8222893096084303 216 226 228 1.0 7 73 8 82 9 94 10 85 11 83 12 81 13 80 14 72 15 73 16 66 17 73 18 186 19 208 20 210 21 213 36 179 37 172 38 226 39 217 40 220 41 79 42 233 43 230 46 81 47 83 48 90 49 84 
354 0.7403148784296273 0.1446002775426835 1.29190495957664 117 106 105 0.79 6 69 8 83 9 95 21 214 35 170 37 173 38 227 39 218 40 221 41 80 42 234 43 231 46 82 47 84 48 91 49 85 
355 0.7804245561443754 0.196753575339421 1.3096059983222568 118 119 119 0.7 6 70 8 84 20 211 35 171 41 81 42 235 43 232 46 83 47 85 48 92 49 86 
356 0.790018638113601 0.017779145455786176 1.3719390342053757 138 138 136 0.89 6 71 7 74 8 85 9 96 20 212 41 82 42 236 43 233 46 84 47 86 48 93 49 87 
357 0.996167102209984 0.38654806049126683 1.4171602593248032 17 20 24 0.84 46 85 47 87 48 94 49 88 
358 0.6723565767091209 0.19403644839039408 1.4939520688816301 116 108 104 0.42 40 222 41 83 42 237 43 234 46 86 47 88 48 95 49 89 
359 0.6963304411105837 0.29968924029502525 1.2016287891052309 76 71 70 0.9 6 72 22 227 23 219 35 172 37 174 38 228 39 219 40 223 41 84 42 238 43 235 46 87 47 89 48 96 49 90 
360 0.7019457935122433 0.04637057071809259 1.492040931050146 139 133 127 0.27 40 224 41 85 42 239 43 236 46 88 47 90 48 97 49 91 
361 0.7726597900795871 0.15962794907142625 1.3123480180942684 119 117 115 0.69 6 73 8 86 20 213 35 173 41 86 42 240 43 237 46 89 47 91 48 98 49 92 
362 0.6074998517354884 0.1813017462850589 0.9597505104492129 70 72 73 1.35 4 49 9 97 17 74 18 187 19 209 20 214 21 215 22 228 23 220 35 174 36 180 37 175 38 229 39 220 40 225 41 87 42 241 43 238 
363 0.789390484410712 0.15690276191331587 1.3302329939113446 124 120 115 0.59 6 74 8 87 20 215 35 175 41 88 42 242 43 239 46 90 47 92 48 99 49 93 
364 0.5303290605359176 -0.015884330532586394 1.7108877540274485 135 129 122 0.28 40 226 41 89 42 243 43 240 46 91 47 93 48 100 49 94 
365 0.7332644823581618 0.15179451664190244 1.2845721217456034 121 108 100 0.74 6 75 8 88 9 98 21 216 35 176 37 176 38 230 39 221 40 227 41 90 42 244 43 241 46 92 47 94 48 101 49 95 
366 0.6743725897518644 0.10323424005750828 1.249126593952894 82 70 68 0.81 6 76 8 89 9 99 10 86 19 210 20 216 22 229 23 221 35 177 36 181 37 177 38 231 39 222 40 228 41 91 42 245 43 242 46 93 47 95 48 102 49 96 
367 0.8138192220824367 0.33563833028738466 1.427492013325175 23 30 22 0.13 46 94 47 96 48 103 49 97 
368 0.5251973045136232 0.2617181581420009 1.0414831438715957 66 62 55 1.78 7 75 8 90 10 87 18 188 23 222 38 232 42 246 43 243 47 97 48 104 49 98 
369 0.7827976563404395 0.2359669315237528 1.3012856066662826 120 117 113 0.51 20 217 35 178 41 92 42 247 43 244 46 95 47 98 48 105 49 99 
370 0.620644311221967 0.27963164668175294 1.1354656859079948 35 32 33 1.38 6 77 7 76 20 218 41 93 42 248 43 245 46 96 47 99 48 106 49 100 
371 0.16532092515826585 -0.23810511334864198 0.6929164532481079 196 211 215 0.91 9 100 10 88 11 84 12 82 13 81 14 73 15 74 16 67 17 75 18 189 19 211 20 219 22 230 23 223 38 233 39 223 40 229 41 94 42 249 43 246 46 97 47 100 48 107 49 101 
372 0.5348625724138754 -0.15140587883715154 1.1746171463272954 11 11 14 0.49 35 179 36 182 37 178 38 234 39 224 40 230 41 95 42 250 43 247 46 98 47 101 48 108 49 102 
373 0.8211039420139146 0.32047390898875383 1.0403297263115945 59 63 30 1.13 35 180 39 225 41 96 42 251 43 248 46 99 47 102 48 109 49 103 
374 0.7994643212546587 0.1506684728394944 1.3472226003467604 117 112 111 0.53 8 91 20 220 41 97 42 252 43 249 46 100 47 103 48 110 49 104 
375 0.9540327905057453 0.33920524766543547 1.2272051214497126 82 84 89 1.19 43 250 46 101 47 104 48 111 49 105 
376 0.42100851888712354 0.2322364149890437 0.7236020936745171 18 19 22 1.32 4 50 18 190 19 212 38 235 39 226 40 231 41 98 42 253 43 251 46 102 
377 0.5788203102128854 -0.08296482407083385 1.2298871290438904 41 37 35 0.7 6 78 8 92 9 101 10 89 17 76 20 221 21 217 22 231 35 181 36 183 37 179 38 236 39 227 40 232 41 99 42 254 43 252 46 103 47 105 48 112 49 106 
378 0.8032839484229174 0.29721860442751485 1.2979286468559368 120 117 117 0.45 35 182 41 100 42 255 43 253 46 104 47 106 48 113 49 107 
379 0.8107712371791123 0.3142325979545517 1.4366312155269423 13 17 10 0.62 35 183 43 254 46 105 47 107 48 114 49 108 
380 0.4715613610940438 -0.07125691973918866 1.8028343356194385 147 149 146 0.37 40 233 41 101 42 256 43 255 46 106 47 108 48 115 49 109 
381 0.7275419866328514 -0.05836585762862741 1.3463224383579095 104 105 108 0.72 6 79 7 77 9 102 35 184 37 180 39 228 40 234 41 102 42 257 43 256 46 107 47 109 48 116 49 110 
382 0.690822450880484 0.05477257311104481 1.300818030133975 122 181 215 0.77 19 213 22 232 23 224 35 185 36 184 37 181 38 237 39 229 40 235 41 103 42 258 43 257 46 108 47 110 48 117 49 111 
383 0.3908938561902686 -0.35677196591444943 0.8923426103242019 157 165 174 1.19 7 78 8 93 9 103 11 85 12 83 13 82 14 74 15 75 16 68 17 77 18 191 20 222 21 218 22 233 23 225 37 182 38 238 39 230 40 236 41 104 42 259 43 258 46 109 47 111 48 118 49 112 
384 0.47219084715514886 0.15075497596699358 0.8488829728971925 94 84 79 1.59 4 51 15 76 19 214 20 223 21 219 22 234 38 239 39 231 40 237 41 105 
385 0.46699876239177657 0.09753433940060822 0.863141188473369 67 66 64 1.81 4 52 18 192 19 215 20 224 21 220 22 235 23 226 36 185 37 183 38 240 39 232 40 238 41 106 
386 0.3187798249563519 -0.01556306374429423 0.7789032558187803 65 57 56 2.26 4 53 7 79 22 236 36 186 38 241 39 233 40 239 47 112 48 119 49 113 
387 0.7455565755238973 -0.029703740301403166 1.351328870067882 143 145 142 0.74 6 80 7 80 9 104 35 186 41 107 42 260 43 259 46 110 47 113 48 120 49 114 
388 0.2385373056036911 0.5876643775225071 1.953637158195004 25 23 18 0.78 43 260 46 111 47 114 48 121 49 115 
389 0.4184426185994587 0.2816620029159047 1.788071226239052 94 82 79 0.68 40 240 41 108 43 261 46 112 47 115 48 122 49 116 
390 0.7509715368998069 0.19355864336785047 1.2856367427184654 116 113 113 0.73 6 81 21 221 35 187 37 184 40 241 41 109 42 261 43 262 46 113 47 116 48 123 49 117 
391 0.7840221666492847 -0.04137749373458392 1.3855025142717852 73 79 86 0.5 20 225 41 110 42 262 43 263 46 114 47 117 48 124 49 118 
392 0.7960505441702691 0.13476760421578987 1.3435335579621888 129 124 120 0.51 8 94 20 226 35 188 41 111 42 263 43 264 46 115 47 118 48 125 49 119 
393 0.754625836958552 0.2545958981710209 1.2711743612196746 116 117 116 0.6 6 82 21 222 35 189 41 112 42 264 43 265 46 116 47 119 48 126 49 120 
394 0.32325326770740576 0.015083056952472624 0.7679851655377895 65 65 66 1.86 7 81 12 84 13 83 14 75 17 78 18 193 19 216 20 227 21 223 22 237 35 190 37 185 38 242 39 234 40 242 
395 0.8282827649054068 0.2914301104896164 1.1500578206028749 14 15 17 0.72 35 191 39 235 40 243 41 113 42 265 43 266 46 117 47 120 48 127 49 121 
396 0.645126479316449 0.21899319054322064 1.5234499127264107 92 78 70 0.43 40 244 41 114 42 266 43 267 46 118 47 121 48 128 49 122 
397 0.3773409220762669 0.15996982981293903 1.859871222398176 104 103 100 0.55 40 245 41 115 42 267 43 268 46 119 47 122 48 129 49 123 
398 0.36071856243607864 -0.047418654950729514 1.9654938426511166 18 14 16 0.65 40 246 41 116 42 268 43 269 46 120 47 123 48 130 49 124 
399 0.44741262372940643 -0.07409764309234063 1.832503557940742 131 140 138 0.54 40 247 41 117 42 269 43 270 46 121 47 124 48 131 49 125 
400 0.7489275155301224 0.0036961900975771337 1.4430876453162116 128 121 112 0.39 41 118 42 270 43 271 46 122 47 125 48 132 49 126 
401 0.8056338153601232 0.31596663214879084 1.2958975411577676 112 108 105 0.26 41 119 42 271 43 272 46 123 47 126 48 133 49 127 
402 0.14239769553087145 0.041553274265040414 0.6435218800230497 124 124 127 1.33 4 54 5 36 8 95 9 105 10 90 11 86 12 85 13 84 14 76 15 77 16 69 17 79 18 194 19 217 20 228 21 224 38 243 39 236 40 248 43 273 46 124 
403 -0.6818892251583005 0.25456876672853757 0.49452919633433357 79 63 71 1.25 0 48 1 48 2 47 3 48 4 55 5 37 6 83 7 82 8 96 9 106 
404 -0.006278711561724668 -0.13793550498319912 0.7748141519512103 140 124 116 1.65 5 38 6 84 7 83 8 97 9 107 10 91 11 87 12 86 13 85 14 77 15 78 16 70 37 186 48 134 
405 -0.4301762041714671 0.2534260114688439 0.6441979971300154 92 81 63 0.82 0 49 1 49 2 48 3 49 4 56 5 39 6 85 7 84 8 98 9 108 10 92 11 88 12 87 13 86 14 78 15 79 98 43 99 43 
406 -0.18536748570471542 0.15723236129502216 0.3660980041175578 77 67 69 0.76 2 49 5 40 6 86 7 85 8 99 9 109 10 93 11 89 12 88 13 87 14 79 15 80 17 80 
407 -0.5582357922975753 0.23165545206194277 0.8580611241547299 63 69 58 0.85 0 50 1 50 2 50 3 50 4 57 5 41 7 86 8 100 9 110 10 94 11 90 12 89 13 88 14 80 15 81 16 71 17 81 18 195 98 44 99 44 
408 -0.6846769846496165 0.18259835289927412 1.0690536205007914 78 76 77 0.63 0 51 1 51 2 51 3 51 4 58 5 42 6 87 9 111 10 95 11 91 12 90 13 89 14 81 15 82 16 72 17 82 18 196 98 45 99 45 
409 0.11053707029792319 -0.17602348083768896 0.6968959357221554 142 150 158 1.06 4 59 5 43 6 88 7 87 8 101 9 112 10 96 11 92 12 91 13 90 14 82 15 83 16 73 17 83 18 197 19 218 20 229 21 225 22 238 39 237 40 249 41 120 42 272 43 274 
410 -0.6434001659868788 0.2821757666637617 0.9791441113966408 42 40 43 0.85 0 52 1 52 2 52 3 52 4 60 5 44 6 89 7 88 8 102 9 113 10 97 11 93 12 92 13 91 14 83 15 84 16 74 17 84 98 46 99 46 
411 -0.22720402863151762 0.19796655141022312 0.3278313468812642 125 90 98 1.06 2 53 5 45 6 90 7 89 8 103 9 114 10 98 11 94 
412 -0.6795632652107736 0.03563496575631491 0.24167896933074168 59 78 47 1.59 2 54 3 53 5 46 6 91 7 90 40 250 
413 -0.856173963517857 0.3129199386081179 0.9140645139128367 16 22 27 1.05 0 53 1 53 2 55 3 54 4 61 5 47 6 92 7 91 8 104 9 115 10 99 98 47 99 47 
414 -0.5107533637057505 0.2591264061554971 0.551093047455695 72 60 59 0.75 0 54 1 54 2 56 3 55 4 62 5 48 6 93 7 92 8 105 9 116 10 100 11 95 12 93 13 92 99 48 
415 -0.42507456712146974 0.21579128383801074 0.4348548454139068 59 81 47 0.74 0 55 1 55 2 57 3 56 4 63 5 49 6 94 7 93 8 106 9 117 10 101 11 96 12 94 13 93 14 84 
416 -0.3238036779605314 -0.26775182576776524 0.6464791741975519 105 95 96 0.79 0 56 2 58 3 57 4 64 5 50 6 95 7 94 8 107 9 118 10 102 11 97 12 95 13 94 14 85 15 85 16 75 17 85 21 226 98 48 99 49 
417 -0.6703571665639777 0.23895556491887598 0.7664423680328579 50 48 51 0.63 0 57 1 56 2 59 3 58 4 65 5 51 6 96 7 95 8 108 9 119 10 103 11 98 12 96 13 95 98 49 99 50 
418 -0.28281141164257406 0.1651653301723867 0.5058554945724445 167 164 156 0.71 0 58 1 57 2 60 3 59 4 66 5 52 6 97 7 96 8 109 9 120 10 104 11 99 12 97 13 96 14 86 15 86 16 76 17 86 26 161 98 50 99 51 
419 0.0323812475967405 0.16547997198907058 0.4540061292506142 12 18 14 1.87 5 53 6 98 7 97 8 110 9 121 10 105 11 100 12 98 13 97 14 87 15 87 16 77 17 87 18 198 26 162 40 251 
420 -0.3233410580351482 -0.12547917751492013 0.630612938940644 153 149 143 0.76 0 59 1 58 3 60 4 67 5 54 6 99 7 98 8 111 9 122 10 106 11 101 12 99 13 98 14 88 15 88 16 78 17 88 98 51 99 52 
421 -0.6899632222534328 0.1703170932756788 0.286888143862959 44 44 45 1.46 3 61 6 100 7 99 
422 -0.22785564654550014 0.21546629729998262 0.40649169418181463 103 90 94 0.86 0 60 1 59 2 61 3 62 4 68 5 55 6 101 7 100 8 112 9 123 10 107 11 102 12 100 13 99 
423 0.1405056290176385 0.1625953190251235 0.576685500532691 149 144 149 1.57 19 219 20 230 21 227 22 239 23 227 26 163 36 187 38 244 42 273 43 275 47 127 
424 -0.6765835474629924 0.3002252621440871 0.7056844289219114 57 79 43 0.62 0 61 1 60 2 62 3 63 4 69 5 56 6 102 7 101 8 113 9 124 10 108 11 103 12 101 13 100 98 52 99 53 
425 -0.6905590023595511 0.06767309184366371 0.25835584165782205 28 39 23 1.8 3 64 5 57 6 103 7 102 
426 -0.2164119643459317 -0.20768714780703992 0.6391368117350384 78 66 66 0.94 5 58 6 104 7 103 8 114 9 125 10 109 11 104 12 102 13 101 14 89 15 89 16 79 17 89 18 199 19 220 20 231 21 228 22 240 23 228 26 164 48 135 
427 -0.6757341364114141 0.24492828500858757 1.0520799740028839 55 39 42 0.8 0 62 1 61 2 63 3 65 4 70 5 59 6 105 8 115 9 126 10 110 11 105 12 103 13 102 14 90 15 90 16 80 17 90 98 53 99 54 
428 -0.3291628377350796 0.1106720624186741 0.5777699543774568 106 99 94 0.61 0 63 1 62 4 71 5 60 6 106 7 104 8 116 9 127 10 111 11 106 12 104 13 103 14 91 15 91 16 81 17 91 98 54 99 55 
429 -0.28724760131232446 -0.12238689723494374 0.5806602467121961 183 175 165 0.76 0 64 3 66 4 72 5 61 6 107 7 105 8 117 9 128 10 112 11 107 12 105 13 104 14 92 15 92 16 82 17 92 98 55 99 56 
430 -0.6403928456208445 -0.2448568420919235 1.0662046654542854 112 96 87 0.8 0 65 1 63 2 64 3 67 4 73 5 62 8 118 9 129 10 113 11 108 12 106 13 105 14 93 15 93 16 83 17 93 
431 0.14258636093466576 -0.021607487585169012 0.6634211904315243 137 141 146 1.42 4 74 5 63 6 108 7 106 8 119 9 130 10 114 11 109 12 107 13 106 14 94 15 94 16 84 17 94 18 200 19 221 20 232 21 229 38 245 40 252 41 121 42 274 43 276 
432 0.0002734470950095036 0.22838725491970396 0.617357558495157 106 102 110 1.18 5 64 6 109 7 107 8 120 9 131 10 115 11 110 12 108 13 107 14 95 
433 -0.2864720581961663 -0.2617966486675535 0.6028045265501634 77 66 61 0.87 0 66 2 65 3 68 4 75 5 65 6 110 7 108 8 121 9 132 10 116 11 111 12 109 13 108 14 96 15 95 16 85 17 95 26 165 38 246 98 56 99 57 
434 -0.8141162738282427 0.2799352059235754 0.8170656042576147 19 25 33 1.08 0 67 1 64 2 66 3 69 4 76 5 66 6 111 7 109 8 122 9 133 10 117 
435 -0.27801356779039693 0.1330072661345824 0.5069451734725031 170 160 150 0.69 0 68 3 70 4 77 5 67 6 112 7 110 8 123 9 134 10 118 11 112 12 110 13 109 14 97 15 96 16 86 17 96 26 166 36 188 98 57 99 58 
436 -0.6585105921858195 -0.21751104468970808 1.037342091063717 111 104 86 0.82 0 69 1 65 2 67 3 71 4 78 5 68 6 113 7 111 8 124 9 135 10 119 11 113 12 111 13 110 14 98 15 97 16 87 17 97 99 59 
437 -0.28825734142685144 -0.2773850339532689 0.5925289890529626 155 171 187 0.65 0 70 1 66 3 72 4 79 5 69 6 114 7 112 8 125 9 136 10 120 11 114 12 112 13 111 14 99 15 98 16 88 17 98 99 60 
438 0.011153483401569972 -0.17436140220778348 0.7999270785747306 55 58 67 0.96 5 70 6 115 7 113 8 126 9 137 10 121 11 115 12 113 13 112 14 100 15 99 16 89 17 99 18 201 19 222 20 233 21 230 22 241 23 229 47 128 48 136 
439 -0.7804461468587665 -0.02071948684701739 0.9167340061612946 82 89 62 1.15 1 67 2 68 3 73 4 80 5 71 6 116 7 114 8 127 9 138 11 116 12 114 13 113 15 100 98 58 
440 -0.6688906022828075 0.20822387587131333 1.0584067078349597 60 44 45 0.78 0 71 1 68 2 69 3 74 4 81 5 72 6 117 9 139 10 122 11 117 12 115 13 114 14 101 15 101 16 90 17 100 98 59 99 61 
441 -0.8263732708873711 0.34318240334814015 0.9100618813371174 61 59 61 1.12 0 72 1 69 2 70 3 75 4 82 5 73 6 118 7 115 8 128 9 140 10 123 11 118 98 60 99 62 
442 -0.7362797698079764 0.22073916045696762 1.1259903661875053 45 53 45 0.7 0 73 1 70 2 71 3 76 4 83 5 74 6 119 9 141 10 124 11 119 12 116 13 115 14 102 15 102 16 91 17 101 
443 0.12657357432198274 -0.26675342709887545 0.6767286044498064 68 66 68 1.18 3 77 4 84 5 75 6 120 7 116 8 129 9 142 10 125 11 120 12 117 13 116 14 103 15 103 16 92 17 102 18 202 19 223 20 234 21 231 22 242 26 167 38 247 39 238 40 253 41 122 42 275 43 277 46 125 
444 -0.3260842787217656 -0.2742075236638048 0.6487770401344366 95 99 100 1.02 0 74 2 72 3 78 4 85 5 76 6 121 7 117 8 130 9 143 10 126 11 121 12 118 13 117 14 104 15 104 16 93 17 103 18 203 19 224 21 232 98 61 99 63 
445 -0.67553047428523 -0.18220856076669525 0.3608700177034376 255 241 237 1.69 1 71 4 86 5 77 7 118 40 254 
446 -0.7775972421389747 0.32153213739992237 0.8318755063014764 69 68 69 0.88 0 75 1 72 2 73 3 79 4 87 5 78 6 122 7 119 8 131 9 144 10 127 11 122 12 119 98 62 99 64 
447 -0.1597901958822488 -0.06021186746150992 0.6341875683987361 89 85 81 1.04 4 88 5 79 6 123 7 120 8 132 9 145 10 128 11 123 12 120 13 118 14 105 15 105 16 94 17 104 18 204 19 225 20 235 21 233 22 243 26 168 39 239 40 255 
448 -0.28402963803591763 -0.2855295063951722 0.5833590637093818 35 35 38 1.02 0 76 1 73 2 74 3 80 4 89 5 80 6 124 7 121 8 133 9 146 10 129 11 124 12 121 13 119 14 106 15 106 16 95 17 105 18 205 19 226 20 236 22 244 99 65 
449 -0.5785991118958801 0.22351593842172976 0.7291842228167142 201 209 227 0.62 0 77 1 74 2 75 3 81 4 90 5 81 6 125 7 122 8 134 9 147 10 130 11 125 12 122 13 120 14 107 15 107 99 66 
450 -0.8754706034837061 0.3104292086293501 0.905276850771767 18 21 23 1.43 0 78 1 75 2 76 3 82 4 91 5 82 6 126 7 123 8 135 9 148 10 131 98 63 99 67 
451 -0.2685832047977459 0.18395867206950828 0.48399131233271925 140 111 101 0.76 0 79 1 76 2 77 3 83 4 92 5 83 6 127 7 124 8 136 9 149 10 132 11 126 12 123 13 121 14 108 15 108 16 96 17 106 26 169 98 64 99 68 
452 -0.12056448650593296 -0.036392296388169446 0.653012383695073 107 88 83 0.62 4 93 5 84 6 128 7 125 8 137 9 150 10 133 11 127 12 124 13 122 14 109 48 137 
453 -0.6809393962361069 0.2500754038398098 0.4770756234201974 81 66 73 1.02 1 77 2 78 3 84 5 85 6 129 7 126 8 138 9 151 
454 -0.6670444038388297 0.22148781002482681 1.0543296595955105 45 34 35 0.81 0 80 1 78 2 79 3 85 4 94 5 86 6 130 8 139 9 152 10 134 11 128 12 125 13 123 14 110 15 109 16 97 17 107 98 65 99 69 
455 -0.2191205374656203 -0.07151158721582819 0.5903983341166795 121 111 108 1.18 4 95 5 87 6 131 7 127 8 140 9 153 10 135 11 129 12 126 13 124 14 111 15 110 16 98 17 108 18 206 19 227 20 237 26 170 36 189 38 248 
456 -0.3572079782980889 0.1610426226132137 0.6083659615151127 160 149 134 0.61 0 81 1 79 2 80 3 86 4 96 5 88 6 132 7 128 8 141 9 154 10 136 11 130 12 127 13 125 14 112 15 111 16 99 17 109 98 66 99 70 
457 -0.6707857538561214 -0.22746846514619226 1.060016060695893 58 78 46 0.62 0 82 1 80 2 81 3 87 4 97 5 89 6 133 8 142 9 155 10 137 11 131 12 128 13 126 14 113 15 112 16 100 17 110 
458 -0.6138846759576477 0.2322279679343409 0.6983345701570381 164 172 191 0.65 0 83 1 81 2 82 3 88 4 98 5 90 6 134 7 129 8 143 9 156 10 138 11 132 12 129 13 127 14 114 15 113 98 67 99 71 
459 0.14903115964194102 -0.16270075729348613 0.6706073119312282 65 60 63 1.05 3 89 4 99 5 91 6 135 7 130 8 144 9 157 10 139 11 133 12 130 13 128 14 115 15 114 16 101 17 111 18 207 19 228 20 238 21 234 22 245 26 171 38 249 39 240 40 256 41 123 42 276 43 278 46 126 47 129 48 138 
460 -0.1629371032171898 -0.20522702555137795 0.6825363958108078 34 25 27 0.68 3 90 5 92 6 136 7 131 8 145 9 158 10 140 11 134 12 131 13 129 14 116 15 115 16 102 17 112 18 208 39 241 
461 -0.5826645841122764 0.237281151572512 0.718051646754711 167 176 193 0.75 0 84 1 82 2 83 3 91 4 100 5 93 6 137 7 132 8 146 9 159 10 141 11 135 12 132 13 130 14 117 15 116 98 68 99 72 
462 0.322818348912594 0.12599013064107498 0.7099147691780577 129 130 130 0.78 6 138 8 147 9 160 10 142 11 136 12 133 13 131 14 118 15 117 16 103 17 113 18 209 19 229 20 239 21 235 22 246 23 230 26 172 35 192 36 190 37 187 38 250 39 242 40 257 41 124 42 277 43 279 46 127 47 130 48 139 49 128 
463 0.6029423626234576 0.14844895922304535 1.179830461872263 128 124 124 0.82 6 139 7 133 8 148 9 161 10 143 17 114 20 240 21 236 22 247 26 173 35 193 36 191 37 188 38 251 39 243 40 258 41 125 42 278 43 280 46 128 47 131 48 140 49 129 
464 0.4424515440496261 -0.11618852439058726 0.8843683299749849 73 64 59 0.99 7 134 8 149 9 162 10 144 11 137 12 134 13 132 14 119 15 118 16 104 17 115 18 210 19 230 20 241 21 237 22 248 23 231 35 194 36 192 37 189 38 252 39 244 40 259 41 126 42 279 43 281 46 129 47 132 48 141 49 130 
465 0.49068163633655293 0.1974655544478096 0.854688232782953 75 70 64 1.77 10 145 11 138 19 231 20 242 21 238 22 249 35 195 36 193 37 190 38 253 39 245 40 260 41 127 42 280 43 282 47 133 
466 -0.050870715992985586 0.12881958352586836 0.6731787083365955 90 89 90 0.97 6 140 7 135 8 150 9 163 10 146 11 139 12 135 13 133 14 120 15 119 16 105 17 116 18 211 19 232 20 243 21 239 22 250 23 232 26 174 36 194 38 254 41 128 42 281 48 142 
467 0.6673926816581194 0.1959002367151497 1.215907524220569 125 115 106 0.81 6 141 7 136 8 151 9 164 10 147 19 233 20 244 22 251 23 233 35 196 36 195 37 191 38 255 39 246 40 261 41 129 42 282 43 283 46 130 47 134 48 143 49 131 
468 0.5882493308138125 0.13430368842844323 1.172410176591141 81 86 85 0.98 6 142 7 137 8 152 9 165 10 148 17 117 18 212 20 245 21 240 22 252 23 234 26 175 35 197 36 196 37 192 38 256 39 247 40 262 41 130 42 283 43 284 46 131 47 135 48 144 49 132 
469 0.5380722691654453 0.16003277769245655 1.142766496265015 63 75 83 0.68 6 143 7 138 8 153 9 166 10 149 11 140 15 120 18 213 19 234 21 241 22 253 23 235 26 176 35 198 36 197 37 193 38 257 39 248 40 263 41 131 42 284 43 285 46 132 47 136 48 145 49 133 
470 0.634476281455899 0.2664435320496453 1.167319981587847 133 127 123 0.85 6 144 8 154 19 235 20 246 35 199 36 198 37 194 38 258 39 249 40 264 41 132 42 285 43 286 46 133 47 137 48 146 49 134 
471 0.48549987301199626 0.2284058576059003 0.8253948605842398 28 24 25 1.06 11 141 12 136 13 134 14 121 16 106 17 118 18 214 19 236 20 247 21 242 22 254 23 236 26 177 35 200 36 199 37 195 38 259 39 250 40 265 41 133 42 286 43 287 
472 0.6404460982457862 0.29722958472048905 0.9218255671583558 60 62 68 1.43 11 142 12 137 13 135 18 215 21 243 22 255 23 237 35 201 36 200 38 260 39 251 40 266 48 147 
473 0.7733708704907164 0.3065914657842378 1.0439170509813651 37 34 34 1.13 35 202 36 201 38 261 39 252 40 267 41 134 42 287 43 288 46 134 47 138 48 148 49 135 
474 0.5335598452931445 0.12317998177774685 1.1284967564121007 117 113 112 0.78 6 145 7 139 8 155 9 167 10 150 11 143 18 216 19 237 21 244 22 256 23 238 26 178 35 203 36 202 37 196 38 262 39 253 40 268 41 135 42 288 43 289 46 135 47 139 48 149 49 136 
475 0.15097130813476795 -0.023157256506669867 0.8649425227283586 60 49 44 0.75 5 94 6 146 7 140 8 156 9 168 10 151 11 144 12 138 13 136 14 122 15 121 16 107 17 119 18 217 21 245 22 257 23 239 26 179 36 203 37 197 38 263 39 254 41 136 42 289 43 290 46 136 47 140 48 150 49 137 
476 0.5983538568740191 0.03727277581939723 1.212627379144143 65 71 74 0.87 6 147 7 141 8 157 9 169 10 152 20 248 21 246 22 258 26 180 35 204 36 204 37 198 38 264 39 255 40 269 41 137 42 290 43 291 46 137 47 141 48 151 49 138 
477 0.7105076311944364 0.30982018154059054 0.8881133276598568 57 50 48 0.9 8 158 35 205 36 205 40 270 41 138 
478 0.5829797926052511 -0.008066391631338012 0.9717173747037755 95 99 96 1.1 4 101 7 142 8 159 9 170 10 153 11 145 12 139 13 137 14 123 15 122 16 108 17 120 18 218 19 238 20 249 21 247 22 259 23 240 26 181 35 206 36 206 37 199 38 265 39 256 40 271 41 139 42 291 43 292 46 138 47 142 48 152 49 139 
479 0.020355044559033753 0.1158487443327166 0.7190773588463338 27 26 29 1.12 5 95 6 148 7 143 8 160 9 171 10 154 11 146 12 140 13 138 14 124 15 123 16 109 17 121 18 219 19 239 20 250 36 207 37 200 39 257 40 272 41 140 42 292 47 143 48 153 49 140 
480 0.6026123152531474 -0.0790015194168508 1.023625506518567 89 80 78 0.9 4 102 7 144 8 161 9 172 10 155 11 147 12 141 13 139 14 125 15 124 16 110 17 122 18 220 19 240 20 251 21 248 22 260 23 241 26 182 35 207 36 208 37 201 38 266 39 258 40 273 41 141 42 293 43 293 46 139 47 144 48 154 49 141 
481 0.3915460460191211 0.1335908980511368 1.016299761931352 95 104 118 0.81 6 149 7 145 8 162 9 173 10 156 11 148 12 142 13 140 17 123 18 221 20 252 21 249 22 261 23 242 35 208 36 209 37 202 38 267 40 274 41 142 42 294 43 294 46 140 47 145 48 155 49 142 
482 0.6130047967929875 -0.08254336820011271 1.258429976667201 117 109 102 0.68 10 157 20 253 21 250 35 209 36 210 37 203 38 268 39 259 40 275 41 143 42 295 43 295 46 141 47 146 48 156 49 143 
483 0.3199583118832368 0.06085347906721713 0.7312026730513281 135 137 138 0.87 7 146 8 163 9 174 10 158 11 149 12 143 13 141 14 126 15 125 16 111 17 124 18 222 19 241 20 254 21 251 22 262 23 243 26 183 35 210 36 211 37 204 38 269 39 260 40 276 41 144 42 296 43 296 46 142 47 147 48 157 
484 0.7585251549023285 0.26984340378904587 0.914458212361646 28 36 24 0.99 9 175 35 211 36 212 38 270 39 261 40 277 41 145 42 297 43 297 46 143 47 148 48 158 
485 0.5597486910910798 0.26312266979972443 0.7233186186760463 22 24 28 0.86 20 255 21 252 22 263 23 244 26 184 35 212 36 213 38 271 39 262 40 278 41 146 42 298 43 298 47 149 
486 0.491163444783467 0.25291965065580296 0.6737758185631209 24 25 30 0.79 21 253 22 264 23 245 26 185 35 213 36 214 38 272 39 263 40 279 41 147 42 299 43 299 
487 0.665153161282184 0.30117409051456195 0.9410616061128455 42 41 42 1.35 11 150 12 144 18 223 21 254 22 265 23 246 35 214 36 215 38 273 40 280 43 300 46 144 47 150 48 159 49 144 
488 0.1070592453946684 0.0858656350262174 0.8133589375829593 79 81 80 1.28 6 150 7 147 8 164 9 176 10 159 11 151 12 145 13 142 14 127 15 126 16 112 17 125 18 224 19 242 22 266 23 247 26 186 35 215 36 216 37 205 38 274 39 264 40 281 42 300 43 301 46 145 47 151 48 160 49 145 
489 0.034988041568861455 0.16611518178079918 0.7043157269500667 21 20 21 1.47 5 96 6 151 7 148 8 165 9 177 10 160 11 152 12 146 13 143 14 128 15 127 16 113 18 225 36 217 37 206 48 161 49 146 
490 0.5883313524044638 0.04643192541949332 0.9544742780736047 147 150 145 0.94 4 103 8 166 9 178 10 161 11 153 12 147 13 144 14 129 16 114 17 126 19 243 20 256 21 255 22 267 23 248 26 187 35 216 36 218 37 207 38 275 39 265 40 282 41 148 42 301 43 302 46 146 47 152 48 162 49 147 
491 0.7748264411862734 0.31966102926847834 0.9526427624205178 73 65 64 2.49 9 179 35 217 40 283 41 149 
492 0.6996116524351504 -0.08363037760223958 1.332821388767821 104 82 76 0.65 19 244 22 268 23 249 35 218 36 219 37 208 38 276 39 266 40 284 41 150 42 302 43 303 46 147 47 153 48 163 49 148 
493 0.5678935833452091 -0.09832504971392347 0.9774076200378334 81 74 71 1.04 7 149 8 167 9 180 10 162 11 154 12 148 13 145 14 130 15 128 16 115 17 127 18 226 19 245 20 257 21 256 22 269 23 250 26 188 35 219 36 220 37 209 38 277 39 267 40 285 41 151 42 303 43 304 46 148 47 154 48 164 49 149 
494 0.009590416191379628 0.03330430017483641 0.7387311357339091 26 23 28 0.88 5 97 6 152 7 150 8 168 9 181 10 163 11 155 12 149 13 146 14 131 15 129 16 116 17 128 18 227 36 221 37 210 40 286 41 152 42 304 47 155 48 165 49 150 
495 0.11681341172801063 -0.10652311564025128 0.8773202696980106 41 36 30 1.18 7 151 8 169 9 182 10 164 11 156 12 150 13 147 14 132 15 130 16 117 17 129 18 228 19 246 22 270 23 251 26 189 36 222 37 211 38 278 39 268 42 305 43 305 47 156 48 166 49 151 
496 0.6848429082887668 0.12985468223210664 1.250947467754995 133 122 114 0.66 6 153 7 152 8 170 9 183 10 165 19 247 22 271 23 252 35 220 36 223 37 212 38 279 39 269 40 287 41 153 42 306 43 306 46 149 47 157 48 167 49 152 
497 0.32449647220688355 0.22850949276680113 0.5638194128202872 26 26 27 1.35 12 151 18 229 19 248 20 258 21 257 22 272 23 253 26 190 36 224 39 270 
498 0.1486926828578085 0.08907037257928861 0.8320630793138855 80 92 91 0.89 5 98 6 154 7 153 8 171 9 184 10 166 11 157 12 152 13 148 14 133 15 131 16 118 17 130 18 230 21 258 22 273 23 254 26 191 35 221 36 225 37 213 38 280 39 271 41 154 42 307 43 307 46 150 47 158 48 168 49 153 
499 0.6283444724412601 0.2549163968552471 0.7942074814653436 114 102 101 1.52 9 185 23 255 36 226 38 281 39 272 40 288 41 155 42 308 43 308 46 151 47 159 
500 0.6195356145115645 0.21785203922875376 0.9451982651142106 118 110 105 1.51 4 104 8 172 9 186 10 167 11 158 12 153 13 149 14 134 16 119 17 131 18 231 19 249 20 259 21 259 22 274 23 256 26 192 35 222 36 227 37 214 38 282 39 273 40 289 41 156 42 309 43 309 48 169 49 154 
501 -0.033091108021923894 -0.07851495077914415 0.7478730856219262 65 76 78 1.28 6 155 7 154 8 173 9 187 10 168 11 159 12 154 13 150 14 135 15 132 16 120 17 132 18 232 19 250 20 260 21 260 22 275 23 257 26 193 36 228 37 215 38 283 41 157 42 310 48 170 49 155 
502 0.38722150445181697 0.24074044977826298 0.6427438138667043 75 69 72 1.28 9 188 10 169 12 155 14 136 16 121 17 133 18 233 19 251 20 261 21 261 22 276 23 258 26 194 36 229 38 284 39 274 40 290 41 158 42 311 43 310 46 152 47 160 
503 0.2098743997382466 0.19596363913826295 0.5694551146624691 89 76 73 1.38 15 133 16 122 17 134 18 234 19 252 20 262 21 262 22 277 23 259 36 230 38 285 39 275 40 291 41 159 42 312 43 311 46 153 
504 0.6919666564422347 0.15673116963048003 1.2568339107136428 20 16 15 0.84 6 156 10 170 19 253 22 278 23 260 35 223 36 231 37 216 38 286 39 276 40 292 41 160 42 313 43 312 46 154 47 161 48 171 49 156 
505 0.39770186155096277 -0.08206173564371691 1.091297871337973 45 38 32 1.27 6 157 7 155 8 174 9 189 10 171 11 160 12 156 13 151 16 123 17 135 20 263 21 263 22 279 23 261 26 195 35 224 36 232 37 217 39 277 40 293 41 161 42 314 43 313 46 155 47 162 48 172 49 157 
506 -0.19355592304718147 0.004207034215631313 0.5917131156397311 42 33 31 1.04 5 99 6 158 7 156 8 175 9 190 10 172 11 161 12 157 13 152 14 137 15 134 16 124 17 136 18 235 22 280 23 262 26 196 36 233 40 294 41 162 
507 0.6228341369708577 0.1734405717526166 1.1850830070207783 137 136 136 0.77 6 159 7 157 8 176 9 191 10 173 17 137 20 264 21 264 26 197 35 225 36 234 37 218 38 287 39 278 40 295 41 163 42 315 43 314 46 156 47 163 48 173 49 158 
508 0.7782696218181054 0.2696760309351672 0.9726320930670365 56 68 59 0.91 35 226 36 235 37 219 38 288 39 279 40 296 41 164 42 316 43 315 46 157 47 164 48 174 
509 0.4736017635189601 -0.10883102632705777 0.91806589219494 91 89 91 0.87 7 158 8 177 9 192 10 174 11 162 12 158 13 153 14 138 15 135 16 125 17 138 18 236 19 254 20 265 21 265 22 281 23 263 26 198 35 227 36 236 37 220 38 289 39 280 40 297 41 165 42 317 43 316 46 158 47 165 48 175 49 159 
510 0.5803356221768344 -0.002135980458228892 1.2101708128225137 111 110 115 0.89 6 160 7 159 9 193 10 175 20 266 21 266 22 282 23 264 26 199 35 228 36 237 37 221 38 290 39 281 40 298 41 166 42 318 43 317 46 159 47 166 48 176 49 160 
511 0.6263135073703283 0.25167651641832267 0.9343705206929567 140 142 144 1.39 11 163 12 159 13 154 17 139 18 237 19 255 20 267 21 267 22 283 23 265 26 200 35 229 36 238 37 222 38 291 39 282 40 299 41 167 
512 -0.20594705411745431 0.1381439628477652 0.5383598516935737 93 93 88 1.08 5 100 7 160 8 178 9 194 10 176 11 164 12 160 13 155 14 139 15 136 16 126 17 140 18 238 19 256 20 268 21 268 22 284 23 266 26 201 36 239 38 292 41 168 
513 0.6281202520708101 -0.10584425329174486 1.2733073961065382 66 53 48 0.69 19 257 20 269 23 267 26 202 35 230 36 240 37 223 38 293 39 283 40 300 41 169 42 319 43 318 46 160 47 167 48 177 49 161 
514 0.6678940811503677 -0.06792623201565852 1.303495647519778 68 53 53 0.72 6 161 7 161 20 270 22 285 23 268 35 231 36 241 37 224 38 294 39 284 40 301 41 170 42 320 43 319 46 161 47 168 48 178 49 162 
515 0.3703721309200318 0.21840938269531088 0.4946696535347809 89 84 78 1.69 20 271 22 286 23 269 26 203 36 242 
516 0.603363208665379 0.2756583485688583 0.8368021945066516 70 74 84 0.8 19 258 20 272 21 269 22 287 23 270 26 204 35 232 36 243 38 295 39 285 40 302 41 171 42 321 43 320 
517 0.5874964711475007 0.26429938747985116 1.137172994120858 106 108 112 0.85 6 162 7 162 8 179 10 177 17 141 20 273 21 270 22 288 35 233 36 244 37 225 38 296 39 286 40 303 41 172 42 322 43 321 46 162 47 169 48 179 49 163 
518 0.3310977789491711 -0.14249379646578886 0.8257679776363863 54 44 37 1.13 8 180 9 195 10 178 11 165 12 161 13 156 14 140 15 137 16 127 17 142 18 239 19 259 20 274 21 271 22 289 23 271 26 205 36 245 37 226 38 297 39 287 40 304 41 173 42 323 43 322 46 163 47 170 48 180 49 164 
519 0.48437190339856584 -0.06540698268474329 1.1302171311126936 38 27 20 0.82 6 163 7 163 9 196 10 179 11 166 15 138 18 240 19 260 22 290 23 272 26 206 35 234 36 246 37 227 38 298 39 288 40 305 41 174 42 324 43 323 46 164 47 171 48 181 49 165 
520 0.5856868205620108 0.2382861150717502 1.147570579465709 101 95 100 0.99 6 164 7 164 8 181 9 197 10 180 17 143 18 241 20 275 21 272 22 291 23 273 35 235 36 247 37 228 38 299 39 289 40 306 41 175 42 325 43 324 46 165 47 172 48 182 49 166 
521 0.5661687765613105 0.27170849531546004 0.7192299366717162 93 69 64 0.86 35 236 36 248 38 300 40 307 41 176 42 326 43 325 
522 0.4425197716822236 0.013604764695620287 0.8458388750362809 129 119 108 0.96 7 165 8 182 9 198 10 181 11 167 12 162 13 157 14 141 15 139 16 128 17 144 18 242 19 261 20 276 21 273 22 292 23 274 26 207 35 237 36 249 37 229 38 301 39 290 40 308 41 177 42 327 43 326 46 166 47 173 48 183 49 167 
523 0.6796107902264542 0.2971600624191826 1.1879160781819893 77 69 69 0.55 6 165 35 238 36 250 37 230 38 302 39 291 40 309 41 178 42 328 43 327 46 167 47 174 48 184 49 168 
524 0.4401710386956428 0.07801425306544983 0.8280164982633974 94 75 64 0.6 35 239 36 251 37 231 38 303 39 292 40 310 41 179 42 329 43 328 46 168 47 175 
525 0.5285942618846549 0.037652552466552275 1.1606930487262157 168 186 200 0.64 6 166 7 166 8 183 9 199 10 182 11 168 15 140 18 243 19 262 21 274 22 293 23 275 26 208 35 240 36 252 37 232 38 304 39 293 40 311 41 180 42 330 43 329 46 169 47 176 48 185 49 169 
526 0.6380266672687686 0.2389956671823648 1.1776020530336029 122 116 117 0.95 6 167 7 167 8 184 19 263 20 277 23 276 35 241 36 253 37 233 38 305 39 294 40 312 41 181 42 331 43 330 46 170 47 177 48 186 49 170 
527 0.6087381379003399 0.07929600404980872 0.9571917603218817 182 195 203 1.02 4 105 7 168 8 185 9 200 10 183 11 169 12 163 13 158 14 142 16 129 17 145 18 244 19 264 20 278 21 275 22 294 23 277 26 209 35 242 36 254 37 234 38 306 39 295 40 313 41 182 42 332 43 331 46 171 47 178 48 187 49 171 
528 0.481835118276263 0.22853648557053036 0.6852990144396602 33 36 41 1.49 8 186 9 201 12 164 19 265 20 279 22 295 23 278 35 243 36 255 38 307 39 296 40 314 41 183 47 179 
529 0.6382960852364056 0.08544213008245095 1.2248255992508366 134 122 113 0.74 6 168 7 169 8 187 9 202 10 184 20 280 21 276 23 279 26 210 35 244 36 256 37 235 38 308 39 297 40 315 41 184 42 333 43 332 46 172 47 180 48 188 49 172 
530 0.3583893076015242 0.2277174150303552 0.9521777688588521 111 116 116 0.95 6 169 7 170 8 188 9 203 10 185 11 170 12 165 13 159 18 245 19 266 21 277 22 296 23 280 26 211 35 245 36 257 37 236 38 309 39 298 42 334 43 333 46 173 47 181 48 189 49 173 
