# 3D point list with one line of data per point:
#   POINT3D_ID, X, Y, Z, R, G, B, ERROR, TRACK[] as (IMAGE_ID, POINT2D_IDX)
# Number of points: 388, mean track length: 6.88
1429 0.3336468661998577 0.11867490904978403 0.9671208161636674 0 0 0 0.13 3 109 36 137 107 304 
1430 0.3884730644624769 0.07170670903373122 0.9756252965170217 0 0 0 0.51 3 110 17 128 19 226 35 9 43 79 44 544 107 305 111 147 165 58 184 36 222 19 235 47 
1431 0.4548844445904634 0.10919054942745468 1.004734706540536 0 0 0 0.43 3 111 44 545 53 113 61 300 85 163 107 306 120 0 129 15 163 42 217 15 222 20 235 48 
1432 0.4346035249915556 0.12588728040988295 0.9922854911003359 0 0 0 0.48 3 112 4 245 19 227 44 546 50 436 77 178 85 164 105 92 107 307 147 14 163 43 
1433 0.42275446927964155 0.11597108064440634 0.9886893957417727 0 0 0 0.54 3 113 43 80 50 437 53 114 61 301 69 14 77 179 100 9 107 308 198 8 217 16 
1434 0.3802591897754268 0.1324786685075111 0.9665014310189565 0 0 0 0.42 3 114 107 309 111 148 
1435 0.34270074278132723 0.1137842828751535 0.9640286437039907 0 0 0 0.28 3 115 4 246 19 228 33 388 40 112 43 81 61 302 63 28 69 15 73 33 77 180 81 33 85 165 100 10 107 310 110 160 111 149 118 34 129 16 158 30 162 78 163 44 165 59 71 67 198 9 213 64 
1436 0.3593146333906322 0.07458455443254777 0.9700903972878047 0 0 0 0.56 3 116 33 389 43 82 52 30 71 68 73 34 107 311 110 161 111 150 129 17 136 29 162 79 163 45 198 10 213 65 217 17 221 16 
1437 0.39267783863050854 0.0820952621213515 0.9789255601994172 0 0 0 0.56 3 117 4 247 35 10 43 83 63 29 107 312 129 18 147 15 165 60 198 11 221 17 235 49 
1438 0.4233600404401531 0.08565906052439858 0.9959469272290388 0 0 0 0.32 3 118 71 69 107 313 129 19 162 80 163 46 
1439 -0.003444964659997428 -0.12630576737361626 1.0169837498673877 0 0 0 0.54 4 248 13 468 32 269 43 84 44 547 53 115 60 216 61 303 92 356 107 314 157 21 158 31 
1440 -0.1727134649430862 -0.09858579444177554 1.031630894432214 0 0 0 0.18 4 249 19 229 33 390 77 181 107 315 164 97 176 24 200 48 224 33 
1441 0.3621494910992915 -0.028297734843675548 0.9927320942642681 0 0 0 0.37 4 250 50 438 107 316 165 61 184 37 213 66 235 50 
1442 0.4461984329974462 -0.015930909442762445 1.0208722923936124 0 0 0 0.43 4 251 35 11 107 317 
1443 0.13257485722499074 -0.013648009590448174 0.994931318137875 0 0 0 0.33 4 252 17 129 50 439 77 182 91 62 107 318 127 29 136 30 157 22 
1444 0.452948672937269 0.017673566509280862 1.019008341311097 0 0 0 0.58 4 253 19 230 105 93 107 319 165 62 
1445 0.46629015394080037 0.029646267103763727 1.021775570312807 0 0 0 0.51 4 254 85 166 107 320 
1446 0.3444757625662768 0.050131453764093364 0.9701707339450029 0 0 0 0.11 4 255 44 548 107 321 
1447 0.439307525962753 0.07144839656986354 0.9987629884288705 0 0 0 0.31 4 256 105 94 107 322 136 31 164 98 165 63 
1448 0.4381394019845432 0.07363199328604726 1.0004955258686776 0 0 0 0.3 4 257 107 323 164 99 165 64 
1449 0.39005049887870175 0.09855751617405938 0.9744783237418425 0 0 0 0.32 4 258 11 146 19 231 61 304 73 35 77 183 105 95 107 324 148 64 162 81 164 100 165 65 
1450 0.15020977900460242 0.09707721515697317 0.9729101312925643 0 0 0 0.41 4 259 42 33 44 549 52 31 85 167 107 325 111 151 164 101 194 36 196 55 213 67 
1451 0.3585180230735497 0.10293433532516998 0.9624103724772971 0 0 0 0.18 4 260 19 232 44 550 91 63 105 96 107 326 164 102 165 66 184 38 194 37 235 51 
1452 0.3850957011277713 0.10718572937521022 0.9713722853489596 0 0 0 0.34 4 261 19 233 105 97 107 327 165 67 
1453 0.3617268400813339 0.11289523792196261 0.9658766080112325 0 0 0 0.58 4 262 33 391 85 168 91 64 105 98 107 328 110 162 148 65 165 68 194 38 235 52 
1454 0.3703952271339013 0.12046258081343264 0.9630107606308624 0 0 0 0.31 4 263 19 234 33 392 35 12 42 34 85 169 105 99 107 329 110 163 148 66 164 103 165 69 184 39 235 53 
1455 0.4310664930325274 0.12736778314137578 0.990163095356335 0 0 0 0.32 4 264 19 235 50 440 77 184 85 170 105 100 107 330 110 164 164 104 
1456 0.20560717267708575 -0.08274322072981766 1.0020326629794902 0 0 0 0.37 4 265 9 356 11 147 13 469 19 236 32 270 33 393 38 75 44 551 60 217 85 171 91 65 93 325 107 331 109 167 159 25 164 105 175 14 182 25 194 39 200 49 213 68 214 25 
1457 -0.13185528971938798 -0.0844876403068911 1.0275464797495713 0 0 0 0.12 4 266 38 76 85 172 107 332 176 25 
1458 0.4445834104219603 -0.039153483368194644 1.0229650716059888 0 0 0 0.48 4 267 32 271 42 35 85 173 105 101 107 333 164 106 19 237 111 152 
1459 0.3881467671407819 0.003935400136614899 0.9902009303589462 0 0 0 0.35 4 268 11 148 19 238 33 394 50 441 61 305 77 185 91 66 92 357 105 102 107 334 136 32 148 67 162 82 163 47 164 107 165 70 213 69 235 54 
1460 0.40682057003828725 0.01609369785694312 0.9967233888298871 0 0 0 0.3 4 269 17 130 19 239 42 36 60 218 61 306 77 186 92 358 107 335 110 165 118 35 148 68 162 83 164 108 184 40 235 55 
1461 0.44224286648489247 0.02024816517413919 1.0124599652238375 0 0 0 0.32 4 270 42 37 44 552 85 174 105 103 107 336 163 48 164 109 
1462 0.35655113477169154 0.04437437332991001 0.9789283272738603 0 0 0 0.24 4 271 9 357 91 67 107 337 111 153 162 84 
1463 0.38432846370876167 0.06525776214182226 0.974726731697582 0 0 0 0.32 4 272 19 240 33 395 63 30 105 104 107 338 110 166 127 30 136 33 163 49 164 110 11 149 17 131 35 13 44 553 60 219 73 36 77 187 85 175 92 359 111 154 165 71 213 70 235 56 184 41 220 41 
1464 0.4079681489050154 0.06835744762394483 0.9887462215349989 0 0 0 0.38 4 273 11 150 35 14 42 38 44 554 85 176 105 105 107 339 136 34 164 111 
1465 0.40979777526070327 0.08561949057643997 0.9870562110442253 0 0 0 0.19 4 274 44 555 107 340 
1466 0.2663236730928565 0.10036090610052299 0.9680282326257619 0 0 0 0.65 4 275 19 241 40 113 60 220 73 37 96 68 107 341 111 155 127 31 163 50 164 112 165 72 11 151 43 85 135 40 184 42 185 11 222 21 227 13 
1467 0.3560414913802785 0.10247021533675824 0.9629448885979239 0 0 0 0.22 4 276 19 242 107 342 136 35 165 73 
1468 0.36744544288743625 0.11358137964607742 0.9669441339013074 0 0 0 0.4 4 277 42 39 43 86 60 221 73 38 85 177 107 343 110 167 221 18 235 57 
1469 0.3505896120149108 0.12411162822337707 0.96132127996445 0 0 0 0.28 4 278 11 152 19 243 33 396 40 114 44 556 61 307 77 188 107 344 111 156 148 69 164 113 197 25 213 71 235 58 
1470 0.4293748365549198 0.13229858902395175 0.9905049321609527 0 0 0 0.3 4 279 11 153 17 132 44 557 50 442 73 39 77 189 105 106 107 345 163 51 165 74 184 43 235 59 
1471 0.3697294108013687 0.006896273503685284 0.9867291891861688 0 0 0 0.22 4 280 11 154 52 32 105 107 107 346 111 157 162 85 164 114 
1472 0.4348853839815342 0.013072159787940707 1.0101291708725444 0 0 0 0.3 4 281 19 244 71 70 73 40 77 190 85 178 91 68 92 360 105 108 107 347 162 86 163 52 165 75 184 44 194 40 
1473 0.21758149307013872 0.08940700516742774 0.9721465113224175 0 0 0 0.51 4 282 17 133 19 245 71 71 77 191 107 348 109 168 110 168 111 158 127 32 194 41 213 72 
1474 -0.2668646532179836 0.08704296510369941 1.0189806956239358 0 0 0 0.51 4 283 33 397 44 558 107 349 
1475 0.3688953733132665 0.13656033994497646 0.9709911098262326 0 0 0 0.24 4 284 19 246 43 87 85 179 107 350 110 169 111 159 163 53 
1476 0.21043706791714578 0.040346595161539746 0.9771264054398366 0 0 0 0.35 4 285 19 247 77 192 107 351 159 26 40 115 85 180 88 17 
1477 0.34808490679727977 0.08967519147427783 0.96495566862632 0 0 0 0.28 4 286 33 398 43 88 63 31 71 72 73 41 85 181 88 18 91 69 105 109 107 352 111 160 127 33 148 70 162 87 164 115 165 76 198 12 222 22 235 60 
1478 0.441733313219966 0.13314668951809902 0.99337092325626 0 0 0 0.6 4 287 44 559 53 116 69 16 73 42 107 353 147 16 158 32 
1479 0.3280319196858931 0.09529586278013594 0.9684740601139993 0 0 0 0.48 4 288 11 155 19 248 33 399 40 116 44 560 52 33 53 117 63 32 71 73 73 43 77 193 85 182 91 70 105 110 107 354 110 170 111 161 118 36 129 20 136 36 147 17 148 71 164 116 165 77 194 42 198 13 213 73 235 61 
1480 0.40902386495949883 0.12437143545454486 0.9815941931074021 0 0 0 0.62 4 289 44 561 107 355 164 117 11 156 43 89 
1481 0.07766110818833981 -0.1434001055248711 1.0140230648179522 0 0 0 0.27 9 358 61 308 85 183 107 356 220 42 232 17 
1482 -0.23852899815695053 -0.15236216939087271 1.0589643632941161 0 0 0 0.32 17 134 44 562 50 443 107 357 
1483 0.14927527837029117 -0.09125905493110224 1.0020896296951263 0 0 0 0.04 9 359 13 470 107 358 
1484 -0.035672645529685666 -0.09146472486338661 1.0135572420935437 0 0 0 0.06 9 360 107 359 109 169 
1485 -0.3367115927700368 -0.0749775233121778 1.0645600448432848 0 0 0 0.42 36 138 52 34 85 184 92 361 107 360 109 170 157 23 
1486 0.3812574475703178 -0.03062734210545544 0.9935054462804177 0 0 0 0.19 32 272 33 400 85 185 91 71 107 361 
1487 -0.34923819802021633 -0.054123290755031486 1.0578593223890247 0 0 0 0.51 77 194 107 362 110 171 
1488 0.22035022579742292 -0.0149273466286226 0.9922551790886005 0 0 0 0.24 9 361 19 249 85 186 105 111 107 363 194 43 196 56 
1489 -0.16076606088297166 -0.019918337520683605 1.0240968182578774 0 0 0 0.67 9 362 52 35 60 222 85 187 107 364 
1490 0.37937699563253946 0.11021639478522154 0.9686533635577071 0 0 0 0.21 19 250 60 223 105 112 107 365 164 118 165 78 
1491 0.3672979159287966 0.11694665671770468 0.9640909189261284 0 0 0 0.07 19 251 32 273 107 366 
1492 0.37859107461509284 0.12650838471998638 0.9648657457761952 0 0 0 0.35 33 401 40 117 42 40 105 113 107 367 127 34 148 72 164 119 
1493 0.17138408729178362 0.1253905765358436 0.9658922480244397 0 0 0 0.21 9 363 33 402 93 326 107 368 
1494 -0.13211478094697132 -0.13977080796189967 1.0389857249457415 0 0 0 0.3 9 364 19 252 32 274 36 139 44 563 53 118 60 224 63 33 77 195 89 6 92 362 107 369 159 27 164 120 196 57 214 26 224 34 
1495 -0.2878101707569415 -0.1389349597242464 1.0884410520815737 0 0 0 0.26 52 36 107 370 109 171 
1496 0.14606301992615206 -0.095827628090417 0.9999860073790966 0 0 0 0.26 9 365 13 471 92 363 107 371 
1497 0.35276781158469706 -0.08097397967384531 0.9974463991590681 0 0 0 0.48 35 15 44 564 107 372 
1498 0.30753805115367816 -0.07950588905171649 0.9990638126322903 0 0 0 0.37 9 366 33 403 40 118 50 444 60 225 61 309 92 364 93 327 105 114 107 373 146 32 164 121 196 58 213 74 
1499 0.3100359489260428 -0.0793739840579682 0.9985192113640536 0 0 0 0.39 9 367 19 253 33 404 92 365 93 328 105 115 107 374 163 54 200 50 213 75 
1500 0.2029180940280074 -0.08296956475851214 1.0032731550141207 0 0 0 0.39 9 368 19 254 32 275 42 41 44 565 77 196 93 329 107 375 109 172 157 24 197 26 200 51 213 76 214 27 
1501 0.1490326133574075 -0.08374758424433965 1.0035015280517547 0 0 0 0.42 9 369 92 366 93 330 107 376 109 173 44 566 50 445 135 41 214 28 222 23 197 27 200 52 221 19 
1502 0.15118675928257894 -0.08089528999282772 1.003709670717475 0 0 0 0.35 9 370 13 472 50 446 92 367 93 331 107 377 109 174 135 42 194 44 213 77 214 29 
1503 0.15530014249245525 -0.08076430394027287 1.0035030668727425 0 0 0 0.19 9 371 13 473 19 255 85 188 92 368 93 332 107 378 109 175 194 45 197 28 214 30 
1504 -0.09618320805393542 -0.08207810855664159 1.0173310811842924 0 0 0 0.27 9 372 32 276 92 369 107 379 164 122 
1505 -0.34329198874027095 -0.09896975284880719 1.066894059795749 0 0 0 0.57 92 370 93 333 107 380 110 172 164 123 
1506 -0.21783163808081485 -0.08125702005554518 1.0426461615409752 0 0 0 0.43 9 373 13 474 19 256 33 405 44 567 53 119 92 371 93 334 96 69 107 381 109 176 148 73 162 88 164 124 196 59 224 35 
1507 -0.32794948826553233 -0.07658012977009679 1.062781150111486 0 0 0 0.33 19 257 32 277 53 120 92 372 107 382 109 177 110 173 159 28 
1508 0.43044791056741183 -0.04042751923230529 1.0151658594435988 0 0 0 0.33 85 189 107 383 110 174 19 258 44 568 77 197 92 373 163 55 194 46 220 43 
1509 0.4331833184408898 -0.037848266727971265 1.0180789553684422 0 0 0 0.43 19 259 32 278 44 569 63 34 85 190 92 374 107 384 110 175 164 125 165 79 184 45 235 62 
1510 0.20304875575710854 -0.012456369482522461 0.9923662426367593 0 0 0 0.26 9 374 92 375 107 385 
1511 0.1852949201258242 -0.012714913613717925 0.9936918854787194 0 0 0 0.18 9 375 19 260 38 77 107 386 135 43 148 74 
1512 -0.2722600654278147 -0.018262651991128923 1.0425992851845545 0 0 0 0.63 33 406 93 335 107 387 
1513 0.3802322470895845 0.010647558980922796 0.9842387359466517 0 0 0 0.38 35 16 44 570 85 191 107 388 19 261 91 72 92 376 162 89 165 80 182 26 232 18 235 63 
1514 0.12295754438197877 0.03894291847243261 0.9882811318251725 0 0 0 0.24 9 376 19 262 52 37 60 226 107 389 
1515 0.11585572605847975 0.04160547332331672 0.9808884279677925 0 0 0 0.66 9 377 19 263 33 407 107 390 136 37 14 9 85 192 
1516 0.19636192059957697 0.05328147521003875 0.9802206269434919 0 0 0 0.28 9 378 85 193 107 391 110 176 
1517 0.13370143094342044 0.06127856021150757 0.9756734630032279 0 0 0 0.14 9 379 44 571 107 392 
1518 -0.241833785626614 0.059135014553833236 1.0231855387834383 0 0 0 0.27 9 380 19 264 107 393 164 126 
1519 -0.2692990232823607 0.059863215067726766 1.0226217172831211 0 0 0 0.47 19 265 44 572 107 394 146 33 
1520 0.34465237150734623 0.07358396774330722 0.9693216413532295 0 0 0 0.08 19 266 33 408 107 395 
1521 0.3289505055877318 0.08948374695849481 0.9715548606741504 0 0 0 0.47 19 267 44 573 50 447 61 310 107 396 
1522 0.06874685295196817 0.10328307382435445 0.9722945677860613 0 0 0 0.03 9 381 33 409 107 397 
1523 0.179784042739167 0.12135130617880416 0.9655027100187907 0 0 0 0.13 9 382 33 410 50 448 107 398 162 90 
1524 0.3880624907874702 0.12827122590361373 0.970735944193017 0 0 0 0.37 44 574 107 399 111 162 
1525 0.20509547398750547 -0.13452367439518997 1.0144589815440685 0 0 0 0.49 9 383 69 17 85 194 107 400 185 12 197 29 232 19 
1526 -0.24901707336176043 -0.15478307598613694 1.0569488742166262 0 0 0 0.17 32 279 36 140 44 575 92 377 107 401 
1527 0.08741485828139213 -0.11331275155849774 1.0118583848440654 0 0 0 0.37 9 384 13 475 92 378 107 402 
1528 -0.24192525011773547 -0.13086254446144996 1.0548511194693786 0 0 0 0.28 19 268 40 119 85 195 107 403 148 75 196 60 224 36 
1529 -0.24978598724385476 -0.13140252800081104 1.057471763608479 0 0 0 0.55 77 198 92 379 107 404 109 178 
1530 -0.18000681894583712 -0.12181069405209202 1.0440091889073573 0 0 0 0.39 9 385 85 196 92 380 107 405 40 120 146 34 
1531 -0.18573616678262073 -0.12179461773151984 1.043238892444842 0 0 0 0.3 9 386 85 197 107 406 
1532 0.023553567901733984 -0.10491370135865055 1.0130282662551087 0 0 0 0.19 9 387 44 576 61 311 92 381 107 407 109 179 
1533 -0.009523003007097054 -0.09661361722843582 1.0133871933162373 0 0 0 0.4 9 388 13 476 19 269 44 577 50 449 77 199 93 336 107 408 135 44 152 14 159 29 164 127 
1534 -0.3832698893117972 -0.06508646019298527 1.0729078138631067 0 0 0 0.48 44 578 85 198 92 382 107 409 
1535 -0.30902742622873125 -0.04741300618956242 1.0535426808209354 0 0 0 0.26 96 70 107 410 109 180 118 37 
1536 -0.17315869242009596 -0.020210932330609478 1.0260227642058628 0 0 0 0.24 9 389 92 383 93 337 107 411 164 128 
1537 -0.3631345286859042 0.013450356873242244 1.0500510566016488 0 0 0 0.47 85 199 107 412 148 76 159 30 
1538 0.2025181855981048 0.047140991188345534 0.9805865423434602 0 0 0 0.36 9 390 60 227 92 384 107 413 136 38 185 13 200 53 
1539 -0.2419398431260839 0.04093137046954735 1.0268628262614874 0 0 0 0.34 44 579 52 38 107 414 159 31 
1540 0.2627698421674761 0.09652530849795822 0.9727681665859941 0 0 0 0.37 9 391 60 228 96 71 107 415 182 27 213 78 
1541 0.40192350745358496 0.11304781645970254 0.9799940541583336 0 0 0 0.26 19 270 32 280 42 42 105 116 107 416 111 163 136 39 148 77 
1542 -0.24656339429957055 -0.14831668420301897 1.057843304332531 0 0 0 0.25 44 580 93 338 107 417 
1543 0.3497192216022785 -0.08500100943948996 0.9985470295472341 0 0 0 0.27 61 312 92 385 107 418 
1544 0.23621820764828927 -0.08657139388263684 1.0027917806950664 0 0 0 0.21 9 392 92 386 107 419 
1545 -0.06419481268775046 -0.08913244353011199 1.0143513627986502 0 0 0 0.4 9 393 12 7 13 477 61 313 107 420 
1546 0.40388621885681025 -0.039120679271787084 1.003854039529761 0 0 0 0.31 32 281 43 90 92 387 107 421 197 30 222 24 
1547 -0.3579028358800027 -0.07347475047884494 1.0688689322526093 0 0 0 0.43 85 200 107 422 109 181 
1548 0.30589355950239955 -0.022938006819238483 0.9967553998257409 0 0 0 0.25 53 121 89 7 107 423 
1549 -0.19453123331346933 -0.013278056357075196 1.0275422853614409 0 0 0 0.24 9 394 40 121 63 35 93 339 107 424 109 182 124 1252 159 32 
1550 0.20561101207845417 0.03918962016682169 0.979335421378327 0 0 0 0.29 9 395 19 271 60 229 85 201 107 425 109 183 111 164 
1551 0.20103045474405629 0.05495857464206123 0.9776882218412213 0 0 0 0.28 9 396 19 272 40 122 107 426 111 165 
1552 0.3679522396896663 0.08801050534692814 0.9711456565983284 0 0 0 0.29 9 397 19 273 60 230 73 44 105 117 107 427 111 166 162 91 163 56 220 44 227 14 
1553 0.398627115479193 0.10228978835342571 0.9792830447806993 0 0 0 0.31 42 43 43 91 60 231 77 200 105 118 107 428 
1554 -0.27655320408910644 0.09623647827855908 1.0200004669650382 0 0 0 0.57 19 274 52 39 85 202 107 429 148 78 159 33 164 129 196 61 224 37 
1555 -0.33961441953214555 -0.08153436634156852 1.0652825372344343 0 0 0 0.49 12 8 40 123 44 581 77 201 85 203 92 388 107 430 109 184 110 177 159 34 196 62 232 20 
1556 -0.3183399584324966 -0.07956438641700098 1.0577027514477126 0 0 0 0.2 85 204 93 340 107 431 109 185 
1557 0.28828211573762025 -0.03041319155634405 0.9933145887262561 0 0 0 0.32 53 122 61 314 107 432 164 130 
1558 0.39129825555633807 0.07920798327091591 0.9813944418810856 0 0 0 0.3 17 135 35 17 60 232 107 433 118 38 165 81 217 18 221 20 235 64 
1559 -0.2128569886953838 -0.11438592490896457 1.0490033736908617 0 0 0 0.42 44 582 88 19 92 389 107 434 164 131 220 45 224 38 
1560 -0.16851479939309907 -0.0798350927896169 1.0327045793139997 0 0 0 0.27 9 398 19 275 85 205 107 435 159 35 162 92 213 79 220 46 224 39 
1561 -0.3241676246884499 -0.04647646242192749 1.0560387935116948 0 0 0 0.36 92 390 107 436 110 178 
1562 0.35420261715475715 0.038782771963294965 0.972215751461461 0 0 0 0.47 35 18 107 437 162 93 164 132 
1563 0.2247158915336862 -0.03579488584440572 0.9997207274784684 0 0 0 0.1 9 399 77 202 107 438 129 21 
1564 0.19733298805501442 -0.12025232252304875 1.017985937863654 0 0 0 0.52 9 400 81 34 107 439 
1565 -0.03460146932341014 -0.12145674707063876 1.014175405428191 0 0 0 0.35 9 401 43 92 92 391 107 440 
1566 0.24971911849431844 -0.0950060440688495 0.9975209585653432 0 0 0 0.61 9 402 53 123 61 315 81 35 92 392 96 72 107 441 129 22 152 15 
1567 0.13747650903262237 -0.08136172103883638 0.9960062980277636 0 0 0 0.62 9 403 12 9 17 136 43 93 107 442 152 16 
1568 -0.08646725541820352 -0.07187906578357145 1.0254122062540958 0 0 0 1.3 9 404 107 443 109 186 
1569 0.37745472622854664 0.04532408873330213 0.9805743779645298 0 0 0 0.76 19 276 43 94 63 36 89 8 107 444 111 167 129 23 9 405 73 45 162 94 163 57 184 46 198 14 
1570 0.38745461455195157 0.009360015326426977 0.9902022922623714 0 0 0 0.4 11 157 33 411 40 124 91 73 107 445 127 35 136 40 164 133 
1571 0.3807223584770016 0.08234451341282016 0.9706072922156289 0 0 0 0.47 11 158 107 446 164 134 165 82 
1572 0.3746521499297023 0.09287193358824906 0.9691468582091272 0 0 0 0.25 11 159 33 412 44 583 60 233 107 447 165 83 
1573 0.21850013408268681 0.10663957983819072 0.9672311851519122 0 0 0 0.32 11 160 13 478 38 78 40 125 50 450 77 203 107 448 135 45 146 35 148 79 164 135 200 54 213 80 
1574 0.27901218156786467 0.1141788402636359 0.9647896220630486 0 0 0 0.45 11 161 33 413 44 584 50 451 107 449 
1575 0.35283229547970496 0.12364533180483357 0.9571274397714774 0 0 0 0.17 11 162 33 414 107 450 
1576 0.21595494231104514 0.09608998437686907 0.9676779214707637 0 0 0 0.43 11 163 19 277 60 234 61 316 93 341 107 451 135 46 158 33 185 14 200 55 214 31 
1577 0.05793246652690961 0.10062221397405163 0.9743758216999757 0 0 0 0.36 11 164 107 452 147 18 194 47 220 47 221 21 232 21 
1578 0.1349156868605518 -0.1144293268036536 1.0135667687501904 0 0 0 0.59 12 10 73 46 107 453 
1579 0.29667080274426033 -0.10573442821581192 1.006944451132044 0 0 0 0.45 19 278 35 19 52 40 77 204 105 119 107 454 111 168 163 58 
1580 -0.3411551587594213 -0.06649271208475886 1.0631095484524102 0 0 0 0.23 12 11 52 41 85 206 107 455 
1581 0.158115562184708 -0.028098242500727483 0.9954321528504158 0 0 0 0.13 32 282 107 456 157 25 
1582 -0.09133647179939125 -0.02202999663859094 1.0115174475613795 0 0 0 0.38 12 12 13 479 107 457 
1583 0.46244506794999884 0.015589800767747066 1.0213229396859578 0 0 0 0.31 44 585 50 452 53 124 77 205 92 393 107 458 111 169 163 59 165 84 182 28 235 65 
1584 0.4314763866423547 0.030764878711337422 1.0077906623628894 0 0 0 0.28 73 47 107 459 136 41 158 34 
1585 0.08484394931965425 0.04717289144557238 0.984961701170892 0 0 0 0.12 12 13 36 141 107 460 
1586 0.3774754543988224 0.08461657084853604 0.9722414837707055 0 0 0 0.41 19 279 42 44 60 235 77 206 85 207 107 461 163 60 164 136 165 85 
1587 0.23796757077383068 0.09367130328288238 0.9635957785823942 0 0 0 0.26 73 48 107 462 162 95 
1588 0.24322551608318468 0.09981148054490607 0.9665678273364291 0 0 0 0.43 14 10 19 280 40 126 42 45 43 95 52 42 60 236 71 74 85 208 105 120 107 463 111 170 135 47 148 80 162 96 
1589 0.4693026451524922 0.11508225166485327 1.0107999256557088 0 0 0 0.53 19 281 32 283 35 20 50 453 77 207 107 464 
1590 0.40162577503599983 0.1296554787039149 0.9778206266216377 0 0 0 0.29 19 282 44 586 107 465 
1591 -0.053985676721551926 -0.14901386392231228 1.0249709918214036 0 0 0 0.26 12 14 36 142 107 466 
1592 0.11175140578144106 -0.09651161602270915 1.0061828201761396 0 0 0 0.27 12 15 107 467 109 187 
1593 0.16919363006222105 -0.08689473644590062 1.00419440133312 0 0 0 0.4 12 16 42 46 53 125 63 37 107 468 194 48 196 63 
1594 -0.08752266505319868 -0.024045907983366713 1.010506279481685 0 0 0 0.06 12 17 32 284 43 96 107 469 
1595 0.46751151573269706 0.07285415877534061 1.0132641658218082 0 0 0 0.39 32 285 35 21 53 126 61 317 107 470 147 19 
1596 0.2093507883736885 0.09640837249494762 0.9695023573013448 0 0 0 0.55 13 480 17 137 19 283 40 127 43 97 52 43 60 237 69 18 85 209 107 471 111 171 148 81 158 35 163 61 
1597 0.2311122037973604 0.10587466230909276 0.9675428456087586 0 0 0 0.39 14 11 19 284 43 98 52 44 53 127 60 238 85 210 91 74 93 342 96 73 105 121 107 472 109 188 110 179 111 172 127 36 135 48 147 20 162 97 165 86 182 29 194 49 227 15 
1598 0.1374545115034419 -0.14796653909398982 1.0145509805307644 0 0 0 0.16 12 18 89 9 107 473 
1599 0.311117266332678 0.04272096062183654 0.9744366062593367 0 0 0 0.54 44 587 85 211 105 122 107 474 110 180 
1600 0.24786116695831328 0.09351772647304768 0.9699925831276374 0 0 0 0.41 42 47 52 45 63 38 85 212 88 20 107 475 110 181 148 82 164 137 165 87 185 15 194 50 196 64 220 48 
1601 -0.10701356861274465 -0.11504475566528277 1.0313425683617339 0 0 0 0.33 12 19 107 476 109 189 110 182 
1602 0.05395938426244333 -0.012817515715562212 0.9969308627767635 0 0 0 1.02 12 20 33 415 107 477 
1603 0.18857330928591506 -0.14783891756897374 1.0124816290977388 0 0 0 0.24 13 481 61 318 107 478 92 394 
1604 0.21092155564638831 -0.08277026782646671 1.0025604863131374 0 0 0 0.35 13 482 42 48 92 395 107 479 148 83 19 285 33 416 91 75 162 98 
1605 -0.21660742887045348 0.02666245708936759 1.0268274052951707 0 0 0 0.18 13 483 44 588 52 46 107 480 159 36 
1606 0.03088282901652634 0.059895756906101855 0.9822755623836907 0 0 0 0.12 13 484 107 481 135 49 
1607 0.13296919523029685 0.09215418411224748 0.9708268994626341 0 0 0 0.27 13 485 19 286 32 286 33 417 44 589 50 454 60 239 107 482 135 50 162 99 175 15 196 65 200 56 
1608 -0.1326064067908097 -0.1500244453413724 1.0393542380981748 0 0 0 0.38 13 486 63 39 92 396 107 483 
1609 0.13966303812959285 -0.09223093334951823 1.0035108270178665 0 0 0 0.05 13 487 92 397 107 484 
1610 0.012312785764148241 0.0556788175007939 0.9868297959145651 0 0 0 0.36 13 488 14 12 107 485 
1611 -0.03245216688639823 0.05732014964119079 0.9852135008713429 0 0 0 0.15 13 489 107 486 158 36 
1612 -0.07319099483877263 -0.09726075086128415 1.014461581212957 0 0 0 0.54 13 490 92 398 107 487 
1613 0.20450772571525314 -0.10569955823259268 1.004962142765536 0 0 0 0.35 13 491 44 590 92 399 107 488 
1614 -0.10593708027605817 -0.10061745304395336 1.0303097105302106 0 0 0 1.17 13 492 93 343 107 489 
1615 -0.07037264409745604 -0.09425023943533421 1.014855229583796 0 0 0 0.8 13 493 32 287 36 143 43 99 92 400 107 490 
1616 -0.012218039572326462 -0.07023595828670656 1.008757967938469 0 0 0 0.95 13 494 92 401 107 491 
1617 0.48696322869546205 -0.08522242122002689 0.8270313950128448 0 0 0 0.43 14 13 17 138 107 492 182 30 184 47 
1618 0.46125592357229134 0.04472084694501578 0.8921482332362496 0 0 0 0.26 14 14 61 319 107 493 158 37 
1619 0.46853046981100105 0.09822696949076559 0.8538585381856133 0 0 0 0.35 14 15 107 494 158 38 162 100 
1620 0.45831720200444664 0.10549281560208643 0.8791634779101323 0 0 0 0.35 14 16 17 139 61 320 82 0 105 123 107 495 111 173 162 101 163 62 
1621 0.4582489907444542 0.108516040865649 0.884118229554993 0 0 0 0.43 14 17 17 140 61 321 107 496 182 31 227 16 
1622 0.48169854942972024 -0.017252708903099226 0.8368693502074541 0 0 0 0.29 14 18 100 11 107 497 114 3 120 1 
1623 0.4639851134403313 0.0011660006367916007 0.879901083617047 0 0 0 0.3 14 19 17 141 61 322 82 1 107 498 111 174 114 4 118 39 120 2 158 39 162 102 165 88 182 32 197 31 
1624 0.4607294887004635 0.05114321333675217 0.8886851912175416 0 0 0 0.22 14 20 17 142 19 287 35 22 61 323 69 19 82 2 89 10 107 499 111 175 114 5 120 3 162 103 163 63 182 33 222 25 227 17 
1625 0.47341984667472375 0.05714068418752272 0.8507011479603503 0 0 0 0.14 14 21 61 324 107 500 
1626 0.46274015360804277 0.06423757057619787 0.874826933832502 0 0 0 0.24 14 22 17 143 53 128 61 325 69 20 77 208 107 501 111 176 114 6 163 64 
1627 0.4598909321326125 0.09851944603420101 0.8751082168230968 0 0 0 0.27 14 23 69 21 82 3 107 502 120 4 
1628 0.4723334087309568 -0.02140073460882428 0.8585650395943738 0 0 0 0.33 14 24 69 22 107 503 111 177 120 5 
1629 0.4738482726834305 0.0020179488744065982 0.8537370986202909 0 0 0 0.34 14 25 17 144 69 23 107 504 114 7 120 6 165 89 182 34 227 18 
1630 0.4650115557612916 0.004393744169825461 0.873928527080187 0 0 0 0.31 14 26 17 145 61 326 69 24 77 209 89 11 100 12 107 505 114 8 165 90 182 35 227 19 
1631 0.460988681220502 0.008353872735149632 0.8966989425549008 0 0 0 0.19 14 27 61 327 69 25 100 13 107 506 
1632 0.4746802118914608 0.01094283259133005 0.8532104227667452 0 0 0 0.36 14 28 17 146 61 328 69 26 100 14 107 507 158 40 182 36 227 20 
1633 0.4656767308564569 0.0558999788553864 0.8666772165860082 0 0 0 0.21 14 29 17 147 61 329 69 27 89 12 107 508 114 9 147 21 182 37 227 21 
1634 0.46513068371417293 0.06328646674410897 0.8647151124587956 0 0 0 0.23 14 30 17 148 61 330 69 28 89 13 107 509 114 10 163 65 
1635 0.21779268256030676 0.10109624715756153 0.9687710089759262 0 0 0 0.46 14 31 19 288 42 49 43 100 52 47 60 240 63 40 85 213 91 76 107 510 109 190 111 178 147 22 162 104 194 51 200 57 214 32 220 49 222 26 
1636 0.467534574814546 0.09399516831889873 0.8543239517546637 0 0 0 0.31 14 32 35 23 61 331 69 29 81 36 100 15 107 511 118 40 184 48 197 32 
1637 0.46878928217326304 -0.023360055445282767 0.8752249798725764 0 0 0 0.34 14 33 61 332 69 30 81 37 82 4 89 14 100 16 107 512 114 11 129 24 
1638 0.4737350270998345 -0.011183663918083975 0.8515759641306891 0 0 0 0.49 14 34 89 15 100 17 107 513 158 41 182 38 227 22 
1639 0.45972080175354446 0.03723086238760614 0.8966563849082203 0 0 0 0.51 14 35 35 24 61 333 69 31 81 38 89 16 100 18 107 514 114 12 158 42 182 39 227 23 
1640 0.3911328924348251 0.05547496058280301 0.9788996422532455 0 0 0 0.31 14 36 50 455 107 515 
1641 0.45847625220933 0.054541596290739784 0.8925780658003416 0 0 0 0.23 14 37 17 149 61 334 69 32 81 39 107 516 
1642 0.4618399067002671 0.09319882554091663 0.8755751540660516 0 0 0 0.35 14 38 61 335 69 33 89 17 100 19 107 517 111 179 120 7 129 25 162 105 163 66 182 40 217 19 
1643 0.47127232024564103 -0.042250295399010054 0.8698448555321773 0 0 0 0.64 14 39 53 129 69 34 81 40 89 18 91 77 100 20 107 518 111 180 118 41 129 26 163 67 165 91 197 33 235 66 
1644 0.47256747666933124 0.0031083299601232114 0.8578633886981853 0 0 0 0.31 14 40 17 150 69 35 89 19 107 519 111 181 114 13 129 27 
1645 0.4729516764603007 0.01918149539414096 0.8554700091608072 0 0 0 0.39 14 41 69 36 81 41 89 20 100 21 107 520 114 14 120 8 129 28 
1646 -0.21549031069384988 -0.002076122388302863 1.0311622902344644 0 0 0 0.42 52 48 93 344 107 521 148 84 
1647 0.4631888024277459 -0.05803019475551308 0.913537646194492 0 0 0 0.19 17 151 61 336 107 522 
1648 0.46442803582315434 0.00438521637954846 1.0273297463694713 0 0 0 0.44 17 152 85 214 107 523 163 68 
1649 -0.2151445497046496 0.05920412549130001 1.0166051836966772 0 0 0 0.13 17 153 52 49 93 345 107 524 
1650 0.492241893318878 0.10339904285641673 1.023261597479413 0 0 0 0.47 17 154 32 288 35 25 44 591 107 525 184 49 235 67 
1651 0.46881983172050756 0.10038760942710254 0.8484302533293543 0 0 0 0.26 17 155 61 337 107 526 162 106 163 69 182 41 217 20 
1652 -0.26762348328626273 -0.02158763947035876 1.0418908646554448 0 0 0 0.35 17 156 50 456 61 338 107 527 159 37 
1653 0.4312104411501278 0.009822679210102523 1.0104383618557313 0 0 0 0.18 17 157 19 289 43 101 73 49 77 210 85 215 107 528 163 70 165 92 
1654 0.47950542235034044 0.027285040635910193 0.8273576472685421 0 0 0 0.24 17 158 82 5 107 529 120 9 163 71 
1655 0.4611745389395768 0.06029915551237397 0.8884697892139083 0 0 0 0.34 17 159 35 26 107 530 111 182 118 42 147 23 165 93 184 50 197 34 227 24 235 68 
1656 0.4593251487959042 0.062440060714309444 0.8977144906401562 0 0 0 0.51 17 160 19 290 107 531 163 72 
1657 0.4603431357156095 0.06413966842583692 0.8929408908232911 0 0 0 0.28 17 161 61 339 69 37 107 532 118 43 162 107 
1658 0.4603762289056033 0.06639003037367383 0.8857474648537291 0 0 0 0.27 17 162 61 340 69 38 77 211 107 533 114 15 163 73 165 94 227 25 235 69 
1659 0.46314750799758375 0.005358216985588582 0.8841848570873245 0 0 0 0.4 17 163 89 21 107 534 114 16 
1660 0.4713657437451721 0.012498080258313138 0.8613386067264436 0 0 0 0.16 17 164 61 341 89 22 100 22 107 535 
1661 0.47485715435453496 0.04462090552228111 0.848061446426728 0 0 0 0.21 17 165 35 27 61 342 69 39 89 23 100 23 107 536 114 17 120 10 162 108 182 42 227 26 
1662 0.47226069705118473 0.04619678481023025 0.8573351828948202 0 0 0 0.16 17 166 61 343 69 40 82 6 89 24 100 24 107 537 114 18 182 43 227 27 
1663 0.4655991493624715 0.04789322132519558 0.8679702696324538 0 0 0 0.27 17 167 61 344 100 25 107 538 111 183 114 19 118 44 120 11 147 24 162 109 163 74 165 95 182 44 235 70 
1664 0.462808170175087 0.04927568373917624 0.8772054781368954 0 0 0 0.19 17 168 69 41 82 7 107 539 111 184 114 20 120 12 182 45 184 51 222 27 227 28 
1665 0.4587399564229787 0.05290528056774117 0.8987950628857557 0 0 0 0.13 17 169 35 28 107 540 114 21 120 13 
1666 0.4750957764933775 0.05265209423173096 0.8472220447156501 0 0 0 0.33 17 170 61 345 69 42 89 25 100 26 107 541 114 22 182 46 227 29 
1667 0.47258576611607395 0.054066187796349814 0.8566599535143226 0 0 0 0.22 17 171 61 346 69 43 89 26 100 27 107 542 114 23 182 47 227 30 
1668 0.46307397842427067 0.05773096082794455 0.8760685021294912 0 0 0 0.5 17 172 53 130 61 347 89 27 107 543 111 185 114 24 120 14 182 48 197 35 
1669 0.471797794665721 0.06131412785531729 0.8544387839669837 0 0 0 0.23 17 173 61 348 107 544 114 25 
1670 0.4740936375593258 0.060042181433792155 0.8443592540845077 0 0 0 0.16 17 174 61 349 69 44 89 28 107 545 114 26 182 49 227 31 
1671 0.45835641762689144 0.06774826735546548 0.8958283536977864 0 0 0 0.19 17 175 61 350 69 45 107 546 
1672 0.4661711997055074 -0.05638296866048243 0.8903173035783255 0 0 0 0.4 17 176 69 46 81 42 107 547 114 27 182 50 227 32 197 36 232 22 235 71 
1673 0.15202240279628815 -0.04258134730283882 1.0003500792902966 0 0 0 0.11 17 177 107 548 157 26 
1674 0.4710705971862719 -0.028911022100856092 0.8677854651355957 0 0 0 0.42 17 178 89 29 107 549 120 15 129 29 163 75 
1675 0.46019167147813445 -0.022991149021804914 0.9012130949154776 0 0 0 0.44 17 179 81 43 107 550 162 110 61 351 89 30 100 28 120 16 
1676 0.4665102491316097 -0.04619559681636394 0.8890050839753548 0 0 0 0.42 17 180 77 212 81 44 89 31 91 78 107 551 111 186 114 28 162 111 163 76 165 96 184 52 197 37 
1677 0.47697564027616945 0.009861980877766163 0.8419557978958686 0 0 0 0.35 17 181 69 47 81 45 82 8 89 32 100 29 105 124 107 552 111 187 114 29 120 17 129 30 162 112 
1678 0.47411091352348483 0.04804465630286185 0.8525738740916575 0 0 0 0.37 17 182 35 29 81 46 89 33 107 553 118 45 120 18 129 31 162 113 184 53 222 28 227 33 
1679 0.43805422811991657 0.10620682391184362 0.9969009918715895 0 0 0 0.37 17 183 44 592 107 554 111 188 
1680 0.3443020285552094 -0.10885640373343054 1.0038372831382403 0 0 0 0.28 19 291 107 555 136 42 
1681 0.3457581312425871 -0.08153452970703896 0.9997913834300336 0 0 0 0.67 19 292 33 418 107 556 
1682 0.29882599231494383 -0.08195139928215817 1.000487011865374 0 0 0 0.43 19 293 107 557 163 77 
1683 0.221955529830557 -0.08054895623648245 1.0040710421221095 0 0 0 0.21 19 294 42 50 107 558 
1684 0.40506026082010005 0.007196674696211763 0.9976419133252435 0 0 0 0.36 19 295 40 128 63 41 85 216 107 559 110 183 148 85 164 138 
1685 -0.1992944935962119 -0.022869575005678478 1.0301612729885512 0 0 0 0.32 19 296 93 346 107 560 
1686 0.3130480965755187 0.026063270941154026 0.9806929282855221 0 0 0 0.09 19 297 92 402 107 561 
1687 0.4373401351578569 0.03595487482733252 1.008343635987086 0 0 0 0.3 19 298 42 51 105 125 107 562 136 43 162 114 164 139 
1688 0.30966187577686793 0.03366245427058873 0.9794346279973174 0 0 0 0.28 19 299 40 129 107 563 
1689 0.34156322261545424 0.03600711228184919 0.9769208959383543 0 0 0 0.1 19 300 40 130 107 564 
1690 -0.20656716159304053 0.0068984412808049825 1.0306863559779302 0 0 0 0.38 19 301 32 289 107 565 
1691 -0.1787376320086969 0.02233162236433174 1.0204174487290378 0 0 0 0.29 19 302 93 347 107 566 196 66 200 58 
1692 0.3562496553879741 0.05913457760230804 0.9734441060409865 0 0 0 0.31 19 303 33 419 105 126 107 567 165 97 
1693 0.3279493450705929 0.05856333434460899 0.9739648465794657 0 0 0 0.15 19 304 105 127 107 568 
1694 0.1941515142479372 0.05180207509221302 0.9808107529140907 0 0 0 0.26 19 305 33 420 40 131 85 217 93 348 107 569 136 44 164 140 194 52 196 67 
1695 0.34402301925236106 0.06062589423655011 0.9713013941699413 0 0 0 0.05 19 306 40 132 107 570 
1696 0.3703610479088162 0.06822484912428849 0.9721479962837889 0 0 0 0.21 19 307 85 218 107 571 
1697 -0.10853546639398617 0.044572552952581584 0.9964847149464525 0 0 0 0.24 19 308 93 349 107 572 136 45 162 115 196 68 224 40 
1698 -0.24022323757938116 0.04435289187350934 1.0258817607123105 0 0 0 0.42 19 309 40 133 52 50 107 573 164 141 44 593 110 184 176 26 
1699 -0.18650035402317122 0.05864923129869744 1.007192245721216 0 0 0 0.51 19 310 60 241 107 574 200 59 224 41 
1700 -0.2212612317467669 0.05842889452032104 1.016222035828726 0 0 0 0.12 19 311 93 350 107 575 
1701 -0.2308773265024701 0.05866955128574709 1.0168312701122433 0 0 0 0.2 19 312 93 351 107 576 196 69 224 42 
1702 0.19370407482063112 0.08765401148541892 0.9758517879446094 0 0 0 0.22 19 313 50 457 107 577 
1703 0.3441730767894896 0.0942392912889734 0.9650389746074708 0 0 0 0.23 19 314 33 421 105 128 107 578 
1704 0.3745012973221812 0.09632164697194047 0.9679943611540708 0 0 0 0.31 19 315 35 30 44 594 107 579 148 86 164 142 165 98 
1705 0.23598507906906593 0.09616586199532534 0.9737858797615051 0 0 0 0.21 19 316 107 580 162 116 
1706 0.2717310532974963 0.09802635714373936 0.9660797178777146 0 0 0 0.32 19 317 85 219 105 129 107 581 136 46 164 143 
1707 -0.1864003495608064 0.08018962237888548 1.0069803189646787 0 0 0 0.38 19 318 107 582 111 189 162 117 
1708 0.42615956213675976 0.10871984613887552 0.9886922372121069 0 0 0 0.23 19 319 73 50 105 130 107 583 163 78 
1709 0.42889150260830944 0.10896780170432709 0.9912084160545381 0 0 0 0.29 19 320 107 584 136 47 
1710 -0.26271433567095637 0.0800903610618335 1.0224325663575946 0 0 0 0.39 19 321 40 134 107 585 
1711 0.4322901172947873 0.11153908854845533 0.9917616730335422 0 0 0 0.42 19 322 35 31 105 131 107 586 110 185 165 99 
1712 0.44199700553169624 0.11212805622426426 0.9965785213549478 0 0 0 0.31 19 323 44 595 107 587 164 144 184 54 194 53 
1713 0.27760799712147216 0.10257346901251105 0.965060556210426 0 0 0 0.18 19 324 33 422 52 51 85 220 91 79 105 132 107 588 110 186 136 48 165 100 184 55 194 54 196 70 235 72 213 81 
1714 -0.20924265399301362 0.08647675901579624 1.0125185693137349 0 0 0 0.24 19 325 93 352 107 589 148 87 164 145 
1715 0.20692490922634513 0.10172993045869813 0.9677921149653989 0 0 0 0.17 19 326 107 590 109 191 148 88 
1716 0.45939688084713076 0.11756797521043641 1.0030786688800206 0 0 0 0.23 19 327 105 133 107 591 
1717 0.2487012327812382 0.10551506004061637 0.9647923389774987 0 0 0 0.39 19 328 52 52 85 221 107 592 165 101 
1718 0.11101724549108084 0.10022870777520011 0.9705598866236543 0 0 0 0.4 19 329 60 242 107 593 136 49 220 50 
1719 0.38515557433684927 0.11316313148647394 0.9711076462261641 0 0 0 0.18 19 330 33 423 107 594 110 187 165 102 184 56 235 73 
1720 -0.23486878276011613 0.09210897087390735 1.014168136505956 0 0 0 0.31 19 331 44 596 92 403 107 595 220 51 224 43 
1721 0.23086539264472578 0.10854429289193156 0.9660000816867376 0 0 0 0.5 19 332 33 424 42 52 52 53 60 243 85 222 107 596 109 192 110 188 
1722 0.11067907197788143 0.10478635279326666 0.9712001029631391 0 0 0 0.29 19 333 60 244 107 597 136 50 164 146 
1723 0.3545225640633759 0.11532905553918242 0.9628669338863123 0 0 0 0.26 19 334 107 598 127 37 
1724 0.1733312907804594 0.11121286787284373 0.9674007793869209 0 0 0 0.29 19 335 33 425 44 597 50 458 60 245 93 353 107 599 
1725 -0.26845964342954537 0.09886344993180489 1.0186189241519596 0 0 0 0.39 19 336 52 54 107 600 
1726 0.10182597172444272 0.11237258305354225 0.9708684699214596 0 0 0 0.17 19 337 32 290 44 598 107 601 
1727 0.1369962846717314 0.1142871198150481 0.967368222710592 0 0 0 0.2 19 338 107 602 135 51 
1728 0.4337198417448378 0.1315451847996006 0.9889453699934282 0 0 0 0.4 19 339 85 223 105 134 107 603 164 147 
1729 -0.29173265993508485 0.10781496727295865 1.0254298655129475 0 0 0 0.4 19 340 33 426 44 599 107 604 164 148 196 71 224 44 
1730 0.403978015458048 0.1302205340746756 0.9766897022144629 0 0 0 0.28 19 341 42 53 60 246 107 605 148 89 164 149 
1731 0.3081876481715596 0.12823719997213714 0.9614132168907054 0 0 0 0.1 19 342 40 135 107 606 
1732 0.3782472929814355 0.13190291905843576 0.9650465891346026 0 0 0 0.32 19 343 33 427 42 54 85 224 107 607 148 90 165 103 184 57 213 82 
1733 0.43944091105884314 0.14164504218136612 0.9915123950031718 0 0 0 0.39 19 344 44 600 107 608 
1734 0.27945889579476824 0.13271200918943024 0.9605273500324869 0 0 0 0.24 19 345 33 428 60 247 107 609 110 189 
1735 0.3705452791691947 0.13597025038758292 0.9622564576822894 0 0 0 0.33 19 346 85 225 107 610 162 118 
1736 0.20663154732599148 0.1327004419905869 0.9526149662435567 0 0 0 0.28 19 347 33 429 107 611 109 193 110 190 
1737 0.3011367205928815 0.1381445158923432 0.9617738875826387 0 0 0 0.55 19 348 42 55 85 226 107 612 164 150 
1738 0.3431679729607813 0.14228529751061725 0.9576827806374381 0 0 0 0.26 19 349 107 613 162 119 
1739 0.3031818505606565 0.1441056809382606 0.9562185016413334 0 0 0 0.33 19 350 60 248 107 614 
1740 0.3488444230891559 -0.12322246807242467 1.0088954873506266 0 0 0 0.23 19 351 73 51 107 615 164 151 
1741 0.28638858157516345 -0.08189284409519026 0.9998831222235184 0 0 0 0.45 19 352 107 616 111 190 
1742 0.19385340245025484 -0.07584832116347129 1.0019517861163774 0 0 0 0.22 19 353 50 459 61 352 92 404 93 354 107 617 135 52 197 38 200 60 
1743 0.4582922443459978 -0.027906484047520965 0.9106265306476428 0 0 0 0.47 19 354 91 80 107 618 162 120 
1744 0.21964652534511173 -0.012285327461121934 0.9924606952778247 0 0 0 0.11 19 355 107 619 109 194 135 53 
1745 -0.19320033814970544 -0.04420279359850012 1.0326802493606393 0 0 0 0.18 19 356 40 136 44 601 107 620 148 91 
1746 0.4346432225474334 0.019418329033008396 1.0107172140725929 0 0 0 0.34 19 357 85 227 107 621 110 191 
1747 0.4625760562869888 0.021802709330693604 1.0219753352006051 0 0 0 0.36 19 358 71 75 77 213 85 228 107 622 163 79 
1748 -0.21451830086733073 -0.017474862549773332 1.0331616132255208 0 0 0 0.34 19 359 93 355 107 623 162 121 164 152 
1749 -0.21407200168583956 0.004227647095999108 1.032812183825509 0 0 0 0.19 19 360 38 79 107 624 164 153 220 52 224 45 
1750 0.11391593694214838 0.03563635961602611 0.9885778168663987 0 0 0 0.13 19 361 52 55 91 81 107 625 136 51 
1751 -0.1779400265182171 0.03687958517753445 1.0211653411516404 0 0 0 0.33 19 362 44 602 107 626 
1752 0.11854311055767514 0.06356006474868377 0.9794671850322514 0 0 0 0.13 19 363 107 627 148 92 
1753 -0.20030795974436041 0.056519926455393346 1.0130752330548074 0 0 0 0.25 19 364 107 628 162 122 
1754 -0.19591788718045217 0.06410271708018431 1.0100102816327072 0 0 0 0.18 19 365 44 603 107 629 
1755 0.3854659715664663 0.09350623937699493 0.9750368465589276 0 0 0 0.3 19 366 33 430 44 604 105 135 107 630 127 38 
1756 0.3512562359297813 0.09753374352759997 0.9618731376344766 0 0 0 0.3 19 367 107 631 111 191 
1757 0.3438598801318954 0.09847449405959507 0.9642904548114728 0 0 0 0.12 19 368 107 632 162 123 163 80 
1758 0.42724763049620595 0.10604046423410494 0.9914485613204794 0 0 0 0.31 19 369 107 633 111 192 162 124 163 81 44 605 50 460 73 52 105 136 
1759 0.46778678295637116 0.11010018259135594 1.0129461129149862 0 0 0 0.34 19 370 107 634 162 125 
1760 0.2827313375019478 0.09861190360643352 0.9669223299596906 0 0 0 0.23 19 371 33 431 40 137 60 249 85 229 107 635 110 192 148 93 165 104 
1761 -0.21077100726529552 0.0834257439445372 1.0144051979916977 0 0 0 0.41 19 372 33 432 52 56 77 214 85 230 92 405 93 356 107 636 109 195 148 94 164 154 196 72 220 53 224 46 
1762 -0.1840518716884357 0.08630967924321759 1.0068870862319863 0 0 0 0.37 19 373 93 357 107 637 196 73 224 47 
1763 0.2638769328659245 0.10499192738057718 0.9666353973839359 0 0 0 0.37 19 374 107 638 110 193 148 95 
1764 0.14603366757167668 0.10043982510477319 0.9669350173599656 0 0 0 0.38 19 375 107 639 109 196 
1765 0.184236595197539 0.10743229550444675 0.9779516676083306 0 0 0 0.22 19 376 107 640 109 197 
1766 -0.21600793583167774 0.10097572532597003 1.0078234290125831 0 0 0 0.21 19 377 107 641 162 126 
1767 -0.1970447153035495 0.11583780541508487 1.0024392938053703 0 0 0 0.11 19 378 107 642 111 193 162 127 
1768 0.2057623837608193 0.1352364725658334 0.9525763228319868 0 0 0 0.24 19 379 33 433 107 643 127 39 
1769 0.27807803477405085 0.13667014577001835 0.9417523978376476 0 0 0 0.27 19 380 60 250 107 644 110 194 
1770 0.2864108484095769 0.14222713617556343 0.9365505718481573 0 0 0 0.31 19 381 60 251 107 645 
1771 -0.2399207483869732 -0.12739883415875372 1.0548814908253963 0 0 0 0.28 19 382 40 138 107 646 
1772 -0.23769312035788984 -0.12366807587675929 1.0558571098569842 0 0 0 0.26 19 383 92 406 107 647 127 40 146 36 
1773 0.4623845175160622 -0.03970638817302479 0.8986009974263525 0 0 0 0.51 19 384 107 648 111 194 162 128 
1774 -0.3599125769336158 -0.057605173535011524 1.0663054838099597 0 0 0 0.41 19 385 40 139 44 606 107 649 164 155 
1775 0.3534730302535281 0.025537123308102726 0.9825470554501802 0 0 0 0.12 19 386 44 607 85 231 107 650 
1776 0.45703973551285176 0.04308472470106863 0.9031861108213385 0 0 0 0.13 19 387 107 651 114 30 
1777 0.3497743846420061 0.04040813681132372 0.9753659818139708 0 0 0 0.16 19 388 107 652 111 195 
1778 0.20993387711841938 0.0499456449430944 0.9752179239532555 0 0 0 0.35 19 389 44 608 50 461 60 252 61 353 92 407 107 653 111 196 182 51 220 54 
1779 -0.26781601887112205 0.07621371430781047 1.0224801929204494 0 0 0 0.22 19 390 40 140 92 408 107 654 
1780 0.25168338819445996 0.09780612446642603 0.9670000115753674 0 0 0 0.28 19 391 71 76 91 82 107 655 164 156 
1781 -0.18809104380364364 0.08690471748104386 1.006112005637796 0 0 0 0.26 19 392 107 656 111 197 
1782 0.14861948764092348 0.09972184468144153 0.9720295813795202 0 0 0 0.3 19 393 107 657 111 198 136 52 81 47 88 21 194 55 220 55 
1783 0.2817189441363781 0.13702246288648634 0.9587008682908621 0 0 0 0.27 19 394 85 232 107 658 110 195 
1784 0.46619447789152213 -0.07061269611043906 0.894180960347929 0 0 0 0.35 19 395 69 48 82 9 105 137 107 659 111 199 
1785 -0.18744678356676595 0.051255710116233914 1.0073846110823843 0 0 0 0.2 19 396 93 358 107 660 
1786 0.22881073496789964 0.09717195983742731 0.9716330259307913 0 0 0 0.31 19 397 43 102 88 22 107 661 
1787 0.2514282710461988 0.09831456599183995 0.9681830573951994 0 0 0 0.37 19 398 42 56 88 23 107 662 163 82 
1788 -0.1779029154864713 0.09563319755682892 1.000885042912477 0 0 0 0.2 19 399 44 609 81 48 107 663 111 200 200 61 224 48 
1789 0.2766495447690709 0.13472744490413038 0.9668769991016033 0 0 0 0.32 19 400 60 253 63 42 85 233 107 664 
1790 0.0183813957929412 -0.07996292099867244 1.0076395513061644 0 0 0 0.38 19 401 43 103 107 665 176 27 194 56 220 56 
1791 0.46679506783357166 0.07250013463265723 1.0184362541605336 0 0 0 0.21 19 402 107 666 111 201 163 83 
1792 0.3533312240368361 0.0805240766544568 0.968545187381068 0 0 0 0.34 19 403 43 104 71 77 81 49 85 234 105 138 107 667 129 32 162 129 163 84 164 157 198 15 217 21 
1793 0.23443901067695158 0.09438731792153165 0.9718198913219045 0 0 0 0.38 19 404 42 57 43 105 52 57 81 50 107 668 185 16 194 57 
1794 0.1984123550565664 0.1286946010965441 0.9705551415621915 0 0 0 0.28 19 405 33 434 88 24 107 669 162 130 
1795 0.20513063616059884 0.13241155227591772 0.9656838386142577 0 0 0 0.2 19 406 107 670 127 41 
1796 0.19375186423571705 0.13531843503724086 0.982037035622383 0 0 0 0.38 19 407 33 435 107 671 127 42 
1797 -0.2240984376435464 -0.11466295097366201 1.051427616285669 0 0 0 0.3 19 408 60 254 81 51 88 25 92 409 107 672 111 202 114 31 162 131 164 158 
1798 -0.256324833257237 -0.11374818188203528 1.0578475937330356 0 0 0 0.72 19 409 44 610 107 673 159 38 
1799 0.3915281549192756 0.014646145352196046 0.9898149575845718 0 0 0 0.3 19 410 105 139 107 674 111 203 
1800 0.28252648876481434 -0.11315778281275206 1.0078082037138807 0 0 0 0.81 19 411 60 255 81 52 88 26 107 675 111 204 129 33 136 53 
1801 -0.1869802788655136 0.07196572289344258 1.009457786354898 0 0 0 0.37 19 412 33 436 93 359 107 676 
1802 -0.22477032757369017 0.07255414235318161 1.0167371114136259 0 0 0 0.15 19 413 93 360 107 677 200 62 220 57 224 49 
1803 0.42459117652290956 0.040748029751079516 1.0038542945837126 0 0 0 0.65 19 414 43 106 107 678 
1804 -0.22482472583547825 0.08392328954999098 1.0160045447122912 0 0 0 0.3 19 415 107 679 111 205 196 74 198 16 224 50 
1805 0.19038246068433873 0.11934211591761262 0.9678304043420671 0 0 0 0.45 19 416 88 27 107 680 135 54 148 96 162 132 163 85 196 75 220 58 
1806 0.01824124249359169 -0.08156367397137655 1.0078148729711718 0 0 0 0.39 69 49 89 34 107 681 40 141 152 17 
1807 -0.23931998630890125 0.08399008216659383 1.017304211481375 0 0 0 0.44 52 58 93 361 107 682 162 133 
1808 0.4120654557330748 0.008852402201007269 1.0002024036146429 0 0 0 0.23 44 611 50 462 91 83 92 410 107 683 164 159 165 105 
1809 0.20618153951408968 0.11360329022239982 0.9660418608542786 0 0 0 0.56 43 107 85 235 107 684 111 206 162 134 163 86 164 160 
1810 0.4587742897980437 -0.047329122131095976 1.0267110694745532 0 0 0 0.72 32 291 85 236 92 411 107 685 
1811 0.4774160298667262 0.00441906776910818 1.0339468847308115 0 0 0 0.46 32 292 77 215 85 237 91 84 107 686 165 106 184 58 197 39 235 74 
1812 0.42433650248385135 0.03303928468576824 1.0025646822912602 0 0 0 0.08 73 53 105 140 107 687 
1813 0.36005159231420614 0.06152292474479876 0.9737569134333811 0 0 0 0.39 32 293 33 437 107 688 165 107 
1814 0.1217960470064002 0.05870361663636214 0.9800145287119488 0 0 0 0.44 32 294 44 612 61 354 92 412 107 689 146 37 164 161 
1815 0.3079042681296428 -0.1323902598345639 1.0099535171785363 0 0 0 0.42 32 295 42 58 77 216 85 238 107 690 
1816 0.29201296047119757 -0.10315365522919243 1.0023772289477157 0 0 0 0.51 32 296 40 142 43 108 77 217 107 691 159 39 165 108 42 59 111 207 164 162 184 59 197 40 235 75 
