# 3D point list with one line of data per point:
#   POINT3D_ID, X, Y, Z, R, G, B, ERROR, TRACK[] as (IMAGE_ID, POINT2D_IDX)
# Number of points: 422, mean track length: 5.38
2213 0.4982831321094375 0.3295797112229387 1.176132651859291 0 0 0 0.3 28 823 61 304 103 207 111 268 147 218 152 164 190 231 200 419 217 192 219 245 222 215 232 419 
2214 0.5579609426225883 0.3171944877977971 1.15880201753155 0 0 0 0.13 28 824 152 165 190 232 
2215 0.44507343633245594 0.3452262913248941 1.188431225133255 0 0 0 0.4 25 537 28 825 52 196 61 305 89 92 93 243 103 208 190 233 219 246 222 216 227 170 
2216 0.5855203858359854 0.31385775062023963 1.1517787807155735 0 0 0 0.34 28 826 61 306 65 135 147 219 152 166 175 222 200 420 217 193 232 420 
2217 0.6160762288741184 0.30932189197693694 1.142388074190074 0 0 0 0.63 28 827 152 167 175 223 
2218 0.3376557753995824 0.37931061057795634 1.2304192529370817 0 0 0 0.19 28 828 219 247 232 421 
2219 0.3978951634528468 0.3664864117327129 1.2064342315760352 0 0 0 0.08 28 829 103 209 232 422 
2220 0.5864470041851615 0.32377013280103384 1.1486326045897497 0 0 0 0.43 28 830 73 501 175 224 234 442 
2221 0.6789740300602791 0.30838187579087417 1.1220788173975864 0 0 0 0.24 28 831 65 136 175 225 234 443 
2222 0.834832270252752 0.28350667385973904 1.086707577433973 0 0 0 0.66 28 832 170 9 234 444 
2223 0.3384383381174267 0.39761152738133965 1.220136215586452 0 0 0 0.26 28 833 227 171 232 423 
2224 0.6152894251220091 0.34469486967376695 1.1300724790638608 0 0 0 0.27 28 834 69 114 234 445 
2225 0.6823277208117157 0.33327545078401294 1.1125104474964105 0 0 0 0.34 28 835 52 197 54 129 91 84 165 90 235 85 
2226 0.38239742991948583 0.3983332635016092 1.2056632373622242 0 0 0 0.3 28 836 111 269 124 407 
2227 0.35517182643442985 0.40554572045723675 1.2173057681613164 0 0 0 0.44 28 837 61 307 124 408 200 421 232 424 
2228 0.6084096952372738 0.3546423462405105 1.1305415107292491 0 0 0 0.2 28 838 152 168 232 425 234 446 
2229 0.5543728759017457 0.3681457472528323 1.1473561571433237 0 0 0 0.54 28 839 111 270 124 409 147 220 200 422 219 248 227 172 234 447 
2230 0.5450469290141358 0.37235925761256394 1.146750680349913 0 0 0 0.33 1 304 25 538 28 840 52 198 103 210 147 221 190 234 232 426 234 448 
2231 0.35159436266768107 0.41138584097541325 1.2133676263461812 0 0 0 0.08 28 841 61 308 232 427 
2232 0.7620675560783643 0.3361766041833607 1.0850927496559268 0 0 0 0.6 28 842 61 309 69 115 81 162 124 410 162 232 175 226 182 63 190 235 200 423 227 173 234 449 
2233 0.39847810410518353 0.40116655095534515 1.1883490972679518 0 0 0 0.4 1 305 25 539 26 1127 97 163 147 222 190 236 198 492 199 487 219 249 232 428 
2234 0.5705951969537223 0.370385532915009 1.1344906679675049 0 0 0 0.3 28 843 232 429 234 450 
2235 0.3738308133530964 0.4138920297440713 1.200846270926213 0 0 0 0.39 28 844 61 310 93 244 
2236 0.5068388357357353 0.39269598541618433 1.146790664281761 0 0 0 0.53 28 845 61 311 69 116 124 411 232 430 
2237 0.8219538620871419 0.34238752721891635 1.060665227720077 0 0 0 0.18 28 846 69 117 234 451 
2238 0.4324568127257544 0.1736601559734534 1.2692810222257447 0 0 0 0.41 28 847 124 412 200 424 
2239 0.4835777087468997 0.19020858998496049 1.239935227062819 0 0 0 0.76 28 848 54 130 61 312 93 245 97 164 111 271 152 169 162 233 190 237 200 425 219 250 222 217 227 174 
2240 0.4164618474940058 0.24067480548581902 1.2483275258602253 0 0 0 0.49 28 849 147 223 227 175 
2241 0.4234001165396436 0.2392709530852735 1.2452155825687141 0 0 0 0.55 1 306 25 540 26 1128 28 850 61 313 71 584 81 163 88 255 89 93 97 165 111 272 124 413 129 55 147 224 162 234 181 414 200 426 217 194 219 251 227 176 232 431 
2242 0.5440090891968818 0.20295527493165402 1.2127879533580224 0 0 0 0.67 28 851 147 225 152 170 
2243 0.45951822869091324 0.27369329423657207 1.2170077159293249 0 0 0 0.45 28 852 93 246 190 238 200 427 
2244 0.47535661880401475 0.2695662107596436 1.2137599690091425 0 0 0 0.33 1 307 28 853 219 252 232 432 234 452 
2245 0.43220153935157585 0.28765893196142345 1.2223638891713768 0 0 0 0.35 28 854 61 314 124 414 147 226 190 239 219 253 232 433 
2246 0.5835491914158123 0.2711548018057008 1.171443883393952 0 0 0 0.36 28 855 69 118 234 453 
2247 0.4904706806942435 0.3214666287555292 1.1923889653115574 0 0 0 0.39 28 856 219 254 234 454 
2248 0.33644639194597464 0.3627675555638022 1.2405458544717316 0 0 0 0.41 28 857 52 199 111 273 
2249 0.6218652644269779 0.30247259371358387 1.1390948574319648 0 0 0 0.21 28 858 112 122 234 455 
2250 0.5338938492084716 0.3255473452450497 1.1679824974233228 0 0 0 0.43 28 859 69 119 181 415 234 456 
2251 0.5535791844301924 0.32029653384235424 1.160142338597411 0 0 0 0.38 28 860 112 123 234 457 
2252 0.6801814727953683 0.2993544225399098 1.1276592145115982 0 0 0 0.49 28 861 61 315 175 227 234 458 
2253 0.5745659966259088 0.3246295364335899 1.1559680782205193 0 0 0 0.26 1 308 28 862 61 316 69 120 103 211 111 274 136 149 162 235 175 228 200 428 217 195 219 255 234 459 
2254 0.653957431711985 0.312486961636132 1.1260216410941433 0 0 0 0.37 28 863 112 124 234 460 
2255 0.680768273609254 0.32424734336631367 1.1162231653385064 0 0 0 0.63 28 864 200 429 222 218 232 434 234 461 
2256 0.5652719831646963 0.3507843270051067 1.144923038061514 0 0 0 0.17 28 865 52 200 190 240 
2257 0.5344103608760243 0.36238673736902216 1.1510073957314357 0 0 0 0.17 28 866 52 201 234 462 
2258 0.4601926637065572 0.3853795348615713 1.1713182410392293 0 0 0 0.35 1 309 25 541 28 867 111 275 147 227 190 241 200 430 219 256 232 435 
2259 0.48934734229063087 0.3809641394192355 1.164598503401654 0 0 0 0.34 1 310 28 868 190 242 234 463 
2260 0.5233112252208835 0.3799747558627231 1.1522599589135936 0 0 0 0.33 28 869 69 121 190 243 
2261 0.4599339104269912 0.21332012168863593 1.2399273211247708 0 0 0 0.44 28 870 222 219 234 464 
2262 0.4280060886893916 0.24426088870082954 1.243559652647544 0 0 0 0.44 1 311 26 1129 28 871 61 317 129 56 147 228 190 244 219 257 222 220 232 436 234 465 
2263 0.8144906049766379 0.1244170109494586 1.1763090279528012 0 0 0 0.49 28 872 141 3 234 466 
2264 0.4213987048357186 0.2894586786204931 1.2291546380486136 0 0 0 0.4 25 542 26 1130 28 873 61 318 67 160 71 585 88 256 97 166 111 276 129 57 198 493 217 196 219 258 227 177 232 437 
2265 0.5016593493683161 0.3391704971961429 1.1709801929598376 0 0 0 0.32 28 874 61 319 152 171 190 245 232 438 234 467 
2266 0.8169421010045453 0.30924526653518586 1.0758136448710474 0 0 0 0.11 28 875 175 229 234 468 
2267 0.41781496841945975 0.39973429251969855 1.1879141369974255 0 0 0 0.29 26 1131 97 167 103 212 190 246 
2268 0.40432322179263136 0.4124487286095666 1.1853076515114893 0 0 0 0.25 1 312 26 1132 97 168 219 259 
2269 0.48231747272570247 0.16213707733423255 1.2569668700848193 0 0 0 1.12 28 876 93 247 124 415 200 431 234 469 
2270 0.6115398240197829 0.1332597831379031 1.2169531679461703 0 0 0 0.51 28 877 112 125 234 470 
2271 0.4487917168610368 0.2398927480738308 1.2373781687732182 0 0 0 0.18 28 878 190 247 234 471 
2272 0.6150941196074268 0.2039849851644507 1.187711732873311 0 0 0 0.52 1 313 25 543 28 879 61 320 111 277 152 172 190 248 198 494 234 472 
2273 0.6355113903982936 0.20101619436949067 1.1803478913082803 0 0 0 1.33 28 880 65 137 73 502 175 230 200 432 222 221 234 473 
2274 0.7286769104620313 0.22401528688170444 1.1459826989057156 0 0 0 0.13 28 881 112 126 234 474 
2275 0.7286769104620313 0.22401528688170444 1.1459826989057156 0 0 0 0.13 28 882 112 127 234 475 
2276 0.8038882357410752 0.3076899005409309 1.0815147248908508 0 0 0 0.37 28 883 69 122 175 231 234 476 
2277 0.803392580442759 0.3075940373548932 1.0813476863566331 0 0 0 0.32 28 884 69 123 234 477 
2278 0.7614609169230638 0.3181147332517204 1.0935207189388059 0 0 0 0.79 28 885 175 232 234 478 
2279 0.7896988928902939 0.3136355414649315 1.0846021735054514 0 0 0 0.5 28 886 175 233 234 479 
2280 0.7896988928902939 0.3136355414649315 1.0846021735054514 0 0 0 0.5 28 887 175 234 234 480 
2281 0.7311857442614327 0.3350295364293418 1.09428330643327 0 0 0 0.35 28 888 65 138 124 416 234 481 
2282 0.49361109595028446 0.39530512180057814 1.1557318254650908 0 0 0 0.25 28 889 232 439 234 482 
2283 0.5306684366177988 0.1656017446580444 1.2292014538995713 0 0 0 0.37 28 890 61 321 147 229 227 178 234 483 
2284 0.4769051301104256 0.19706473098416846 1.2392991085599696 0 0 0 1.43 28 891 52 202 93 248 111 278 162 236 200 433 219 260 222 222 227 179 234 484 
2285 0.6354565759258961 0.23880308611055764 1.1702983863449383 0 0 0 0.76 1 314 14 84 25 544 28 892 52 203 64 27 65 139 69 124 73 503 89 94 103 213 111 279 136 150 138 31 147 230 152 173 163 72 198 495 200 434 217 197 219 261 222 223 232 440 234 485 
2286 0.6835380592726095 0.24546413318574054 1.1512129137238851 0 0 0 0.76 28 893 61 322 73 504 81 164 111 280 147 231 175 235 200 435 222 224 234 486 
2287 0.6980266394661507 0.2526229119006742 1.1431449095923487 0 0 0 0.2 28 894 61 323 190 249 232 441 
2288 0.6688135423078222 0.27340548529767694 1.1452902696404452 0 0 0 0.8 14 85 28 895 52 204 61 324 69 125 91 85 97 169 111 281 129 58 136 151 147 232 152 174 162 237 198 496 217 198 222 225 227 180 
2289 0.3523363094903291 0.37582146940412536 1.2239324556529179 0 0 0 1.01 28 896 71 586 97 170 124 417 
2290 0.6829892583623026 0.326511449009943 1.1120220703921138 0 0 0 0.3 28 897 69 126 175 236 234 487 
2291 0.4804582406748278 0.18040332137128193 1.2412463227507893 0 0 0 0.71 28 898 52 205 200 436 
2292 0.5113440451428177 0.18653149758972568 1.22934758314861 0 0 0 0.64 1 315 25 545 28 899 52 206 61 325 81 165 89 95 93 249 97 171 124 418 147 233 152 175 181 416 190 250 198 497 199 488 219 262 222 226 232 442 234 488 
2293 0.46785291665855183 0.25992114466473143 1.2212066599372655 0 0 0 0.64 28 900 147 234 190 251 234 489 
2294 0.46785291665855183 0.25992114466473143 1.2212066599372655 0 0 0 0.64 28 901 147 235 190 252 234 490 
2295 0.496163062153911 0.25441830341350313 1.2120547621161322 0 0 0 1.55 28 902 147 236 200 437 
2296 0.48227789896194523 0.2616512144204754 1.2152781690935877 0 0 0 0.63 1 316 26 1133 28 903 93 250 97 172 111 282 124 419 129 59 147 237 162 238 190 253 200 438 217 199 219 263 232 443 234 491 
2297 0.5568632699588792 0.243750124312505 1.1950535905006474 0 0 0 0.39 1 317 28 904 65 140 129 60 198 498 232 444 234 492 
2298 0.5420715965419085 0.2521260085146132 1.197592015819156 0 0 0 0.78 1 318 25 546 26 1134 28 905 65 141 69 127 124 420 147 238 190 254 198 499 232 445 234 493 
2299 0.5739997073410287 0.24801309032616156 1.1895931687173504 0 0 0 0.46 28 906 175 237 234 494 
2300 0.5739997073410287 0.24801309032616156 1.1895931687173504 0 0 0 0.46 28 907 175 238 234 495 
2301 0.681805156287455 0.3042591855381655 1.1260536777139365 0 0 0 0.31 28 908 69 128 234 496 
2302 0.5609260483787303 0.34646244062363235 1.1481015639066434 0 0 0 0.2 25 547 28 909 65 142 190 255 232 446 234 497 
2303 0.5922341670326067 0.341475342970482 1.1409355489823791 0 0 0 0.27 28 910 65 143 232 447 
2304 0.5461798820531477 0.37751775910425445 1.1407721516693612 0 0 0 1.18 28 911 52 207 103 214 232 448 234 498 
2305 0.5015609321299991 0.38592245340765485 1.1522745256696987 0 0 0 0.76 28 912 61 326 65 144 81 166 93 251 97 173 103 215 111 283 190 256 198 500 200 439 217 200 232 449 234 499 
2306 0.48331369041404637 0.28506473815515315 1.2047453644685833 0 0 0 0.64 28 913 93 252 147 239 219 264 222 227 
2307 0.48331369041404637 0.28506473815515315 1.2047453644685833 0 0 0 0.64 28 914 93 253 147 240 219 265 222 228 
2308 0.4061536405408956 0.3768680207000199 1.1995973744538493 0 0 0 0.16 26 1135 190 257 199 489 232 450 
2309 0.606195727639298 0.33814631949730256 1.1317634510669357 0 0 0 0.3 1 319 25 548 65 145 147 241 190 258 198 501 232 451 
2310 0.7442333224569064 0.16291958714540722 1.161589660856663 0 0 0 0.21 105 27 136 152 165 91 184 15 235 86 
2311 0.8044226594201561 0.1716560945061786 1.1383860789670381 0 0 0 0.42 35 6 107 107 184 16 
2312 0.8810317068175022 0.12965223753309246 1.0250661834907528 0 0 0 0.5 35 7 48 2 51 1 91 86 153 0 184 17 197 80 234 500 235 87 
2313 0.8810408139144325 0.12965751385721996 1.0250632064317158 0 0 0 0.46 35 8 48 3 51 2 91 87 153 1 165 92 184 18 197 81 234 501 235 88 
2314 0.8784814655467383 0.1390646299233821 1.0261442806158347 0 0 0 0.22 35 9 227 181 234 502 
2315 0.8810604928941458 0.19503793429426988 1.1299886107039752 0 0 0 0.38 35 10 91 88 105 28 136 153 165 93 235 89 
2316 0.8949375473764024 0.12997136501455048 0.7979292111817801 0 0 0 0.18 35 11 165 94 184 19 235 90 
2317 0.8878589192211847 0.24968795054754592 0.995137007187804 0 0 0 0.26 35 12 51 3 165 95 184 20 234 503 
2318 0.8902408845083563 0.24922424697294465 0.9801412570582237 0 0 0 0.26 35 13 107 108 165 96 235 91 
2319 0.8902408845083563 0.24922424697294465 0.9801412570582237 0 0 0 0.26 35 14 107 109 165 97 235 92 
2320 0.8633866375113826 0.2902495777191152 1.0887998220253654 0 0 0 0.28 35 15 136 154 165 98 197 82 235 93 
2321 0.8931561398167142 0.29016555652933046 1.0927204062752278 0 0 0 0.59 35 16 136 155 165 99 235 94 
2322 0.8655008441557056 0.29595198896866565 1.0845946887658826 0 0 0 0.32 82 17 105 29 107 110 136 156 235 95 
2323 0.8874304264423661 0.25919224929057183 0.9684824776753655 0 0 0 0.25 35 17 107 111 165 100 234 504 
2324 0.8449653185078065 0.3195790830402742 1.0725254012491738 0 0 0 0.35 35 18 136 157 165 101 235 96 
2325 0.8915618288722822 0.3196832670630709 1.0777181307355257 0 0 0 0.32 35 19 71 587 105 30 136 158 
2326 0.833839902536566 0.3223990553023611 1.06825267181991 0 0 0 0.5 35 20 107 112 165 102 
2327 0.9466212286173328 0.3197337362013631 1.081585476719739 0 0 0 0.59 35 21 107 113 184 21 235 97 
2328 0.889632520508097 0.3317738541655941 1.072901185744369 0 0 0 0.15 35 22 107 114 170 10 
2329 0.892407548528689 0.33181004408138104 1.072620029850465 0 0 0 0.7 35 23 105 31 107 115 165 103 
2330 0.9293120502224576 0.3327647172801067 1.0789514723066986 0 0 0 0.7 35 24 107 116 170 11 184 22 
2331 0.8880775876893797 0.28878927467339094 0.9511965984133451 0 0 0 0.26 35 25 51 4 165 104 170 12 234 505 235 98 
2332 0.8881759220058693 0.29377821017792444 0.9638361485716419 0 0 0 0.15 35 26 51 5 170 13 234 506 
2333 0.8308792927437175 0.3436472613454919 1.058712348468168 0 0 0 0.27 35 27 52 208 105 32 107 117 165 105 184 23 235 99 
2334 0.8837188473108741 -0.002349997498668864 0.9025561072931635 0 0 0 0.16 35 28 74 4 82 18 141 4 184 24 
2335 0.8830495389000036 0.05879387714675261 0.9111966304496247 0 0 0 0.31 35 29 74 5 82 19 170 14 182 64 227 182 232 452 234 507 
2336 0.883774804169554 0.0721382847310088 0.9621036263535202 0 0 0 0.68 35 30 48 4 62 11 184 25 234 508 
2337 0.8788292068719934 0.0578006574245217 0.8499788208096745 0 0 0 0.33 35 31 165 106 197 83 235 100 
2338 0.7073227565811143 0.1892571575763767 1.1617162432718584 0 0 0 0.37 91 89 103 216 136 159 163 73 227 183 
2339 0.8030433915831897 0.1737389875258231 1.1383513725108139 0 0 0 0.47 35 32 91 90 103 217 105 33 136 160 162 239 165 107 222 229 235 101 
2340 0.8847237364037714 0.11172579584738988 0.9622454002344288 0 0 0 0.2 35 33 82 20 234 509 
2341 0.8813647318110182 0.13114630973140978 1.0217974612268739 0 0 0 0.76 35 34 48 5 147 242 234 510 
2342 0.8862750726570848 0.10481662712253396 0.8165177676983608 0 0 0 0.46 35 35 91 91 197 84 
2343 0.8359656999339001 0.21326486703041792 1.1163785587335637 0 0 0 0.19 35 36 107 118 197 85 
2344 0.8835902992357189 0.16483106170422165 0.9724747579809866 0 0 0 0.31 35 37 48 6 51 6 234 511 
2345 0.8856507309202752 0.14474029024814838 0.9025473863425049 0 0 0 0.26 35 38 165 108 234 512 
2346 0.8863615779874514 0.14259432531764976 0.8914839754582655 0 0 0 0.29 35 39 51 7 165 109 184 26 197 86 222 230 234 513 235 102 
2347 0.8905886841935895 0.12301012582766291 0.8082718555869245 0 0 0 0.35 35 40 91 92 197 87 222 231 
2348 0.7084102090781368 0.27683570027411686 1.1323955581033605 0 0 0 0.22 54 131 69 129 103 218 152 176 234 514 
2349 0.8347058047775242 0.24755937113643206 1.1000484527360823 0 0 0 0.42 35 41 52 209 54 132 91 93 107 119 111 284 136 161 162 240 163 74 165 110 182 65 184 27 190 259 217 201 222 232 232 453 235 103 
2350 0.8938526266239756 0.14059494677652712 0.7712815763756815 0 0 0 0.37 35 42 91 94 165 111 184 28 197 88 235 104 
2351 0.8860891327028764 0.21344563032181574 0.9770675795665069 0 0 0 0.3 35 43 184 29 197 89 234 515 
2352 0.8883393529350527 0.18342299240403187 0.8740414718198607 0 0 0 0.42 35 44 91 95 165 112 184 30 234 516 235 105 
2353 0.8871047343787676 0.19651049852273217 0.898685222647535 0 0 0 0.2 35 45 48 7 51 8 91 96 141 5 165 113 222 233 232 454 234 517 235 106 
2354 0.8890702012886162 0.18872110941586526 0.8723815915954457 0 0 0 0.2 35 46 165 114 197 90 234 518 235 107 
2355 0.8867232992484054 0.2069181269963377 0.9229481451682301 0 0 0 0.13 35 47 51 9 62 12 165 115 232 455 234 519 235 108 
2356 0.887149808078237 0.20488145604617344 0.9103894154176965 0 0 0 0.25 35 48 48 8 51 10 165 116 197 91 234 520 235 109 
2357 0.8882474595247235 0.227705173300934 0.9694304817811872 0 0 0 0.32 35 49 141 6 165 117 184 31 234 521 235 110 
2358 0.8417889821485631 0.2945381478083088 1.0799029455976301 0 0 0 0.16 35 50 73 505 107 120 111 285 136 162 165 118 235 111 
2359 0.8914292109215884 0.314147526848432 1.0808660234110923 0 0 0 0.45 35 51 105 34 136 163 165 119 235 112 
2360 0.8581383095628085 0.3260171165310198 1.0707291487111312 0 0 0 0.28 35 52 54 133 73 506 111 286 136 164 163 75 165 120 235 113 
2361 0.8204803127208314 0.3394610326652509 1.063824626022824 0 0 0 0.26 35 53 52 210 61 327 91 97 105 35 107 121 136 165 162 241 163 76 165 121 184 32 197 92 235 114 
2362 0.8204458736952077 0.3393912741016216 1.0637668089014054 0 0 0 0.3 35 54 52 211 91 98 136 166 162 242 165 122 184 33 197 93 235 115 
2363 0.8894967470038313 0.2879594382582383 0.9367766838891914 0 0 0 0.2 35 55 48 9 51 11 234 522 
2364 0.8884058778627576 -0.0009396541547956173 0.8907615954755415 0 0 0 0.46 35 56 141 7 147 243 190 260 197 94 232 456 
2365 0.8833351080535702 0.026355952515632112 0.8669992609574504 0 0 0 0.24 35 57 165 123 184 34 197 95 235 116 
2366 0.88307614709786 0.06746977863983124 0.8160384246721374 0 0 0 0.32 35 58 62 13 74 6 165 124 170 15 184 35 197 96 235 117 
2367 0.8824145873702355 0.0675810817661889 0.8153880843349713 0 0 0 0.25 35 59 48 10 62 14 197 97 235 118 
2368 0.882521235764784 0.1263711676165548 1.0229595140253003 0 0 0 0.38 35 60 91 99 147 244 165 125 197 98 234 523 
2369 0.8820767066238635 0.10558584754964402 0.9362918597980214 0 0 0 0.24 35 61 62 15 91 100 97 174 170 16 190 261 197 99 234 524 235 119 
2370 0.882021353076738 0.11356410813502037 0.9640435820828607 0 0 0 0.52 35 62 141 8 170 17 190 262 232 457 234 525 
2371 0.8826865930539022 0.09175148156409364 0.8520630652321746 0 0 0 0.06 35 63 141 9 184 36 
2372 0.8621938444385951 0.20644380657935768 1.122021724326253 0 0 0 0.34 35 64 54 134 61 328 71 588 73 507 103 219 105 36 111 287 120 13 136 167 152 177 163 77 165 126 182 66 184 37 222 234 227 184 232 458 235 120 
2373 0.8850221891638178 0.1514345521701525 0.9175451223999362 0 0 0 0.14 35 65 48 11 184 38 232 459 234 526 235 121 
2374 0.8884445687240734 0.14607183678235075 0.8362958212724022 0 0 0 0.23 35 66 54 135 91 101 147 245 165 127 197 100 222 235 235 122 
2375 0.8935223142510643 0.23856966129484355 1.1135543798264744 0 0 0 0.48 35 67 54 136 71 589 73 508 105 37 136 168 147 246 162 243 163 78 165 128 184 39 190 263 217 202 232 460 235 123 
2376 0.8869731800763606 0.1989144101821191 0.9035638627481053 0 0 0 0.23 35 68 51 12 62 16 141 10 153 2 165 129 184 40 232 461 234 527 235 124 
2377 0.8859652556563474 0.2029719557372202 0.9135639107094062 0 0 0 0.34 35 69 62 17 165 130 184 41 234 528 235 125 
2378 0.8874898217906464 0.21883441768202597 0.9593684655916016 0 0 0 0.58 35 70 107 122 111 288 120 14 162 244 182 67 227 185 
2379 0.8880585163425623 0.2574173363276427 0.9983539859951296 0 0 0 0.19 35 71 107 123 120 15 222 236 
2380 0.888278426131712 0.26182412610106764 0.9870774104584108 0 0 0 0.28 35 72 107 124 111 289 147 247 165 131 184 42 197 101 227 186 235 126 
2381 0.9234690201629318 0.29558608666750863 1.0907712930366005 0 0 0 0.1 61 329 147 248 235 127 
2382 0.8865728808716472 0.25815656690483596 0.9707834339909627 0 0 0 0.42 35 73 61 330 82 21 107 125 163 79 165 132 182 68 184 43 197 102 234 529 235 128 
2383 0.8903346068052727 0.2804522763921911 0.9202027628767826 0 0 0 0.18 35 74 62 18 141 11 165 133 197 103 234 530 235 129 
2384 0.881560034824105 0.030849440034249102 0.8731607625399868 0 0 0 0.28 35 75 141 12 184 44 232 462 235 130 
2385 0.8812505386633307 0.0421798557264902 0.8948478500198693 0 0 0 0.34 35 76 147 249 184 45 222 237 
2386 0.8812347158079139 0.08540396542930971 0.9645748652423219 0 0 0 0.47 35 77 165 134 182 69 234 531 235 131 
2387 0.8825010362837328 0.10912693184227445 0.8847002048169486 0 0 0 0.49 35 78 141 13 184 46 232 463 235 132 
2388 0.8883694265856049 0.1935082583324962 0.8917429148146682 0 0 0 0.25 35 79 54 137 62 19 91 102 97 175 147 250 153 3 165 135 184 47 190 264 222 238 234 532 235 133 
2389 0.8897821964433538 0.23793802479380258 0.9525597524140146 0 0 0 0.35 35 80 61 331 69 130 89 96 100 15 107 126 120 16 152 178 162 245 182 70 227 187 
2390 0.8470906792960746 0.3002461428064858 1.0793880710163082 0 0 0 0.55 35 81 107 127 111 290 165 136 184 48 222 239 235 134 
2391 0.8868973772242524 0.259515683296627 0.9653073157909021 0 0 0 0.22 35 82 54 138 97 176 147 251 165 137 190 265 197 104 234 533 235 135 
2392 0.8498438458584628 0.3069919195645389 1.07933389320513 0 0 0 0.34 35 83 107 128 165 138 217 203 235 136 
2393 0.8846503204611551 0.21568257460994383 0.8077214595696021 0 0 0 0.53 35 84 69 131 74 7 
2394 0.888792451879722 0.2847712984636038 0.9481939416818655 0 0 0 0.26 35 85 51 13 62 20 97 177 165 139 184 49 197 105 234 534 235 137 
2395 0.8407384279541008 0.3392705470322035 1.0633258174669917 0 0 0 0.33 35 86 61 332 71 590 105 38 107 129 111 291 147 252 162 246 163 80 165 140 184 50 197 106 217 204 222 240 235 138 
2396 0.8863146296898369 0.1369202556002859 0.8944011396010858 0 0 0 0.42 35 87 48 12 74 8 147 253 165 141 184 51 190 266 197 107 232 464 234 535 235 139 
2397 0.8500148596612018 0.242028857622821 1.1055134279984553 0 0 0 0.46 35 88 54 139 67 161 89 97 91 103 111 292 120 17 136 169 147 254 162 247 163 81 165 142 182 71 190 267 227 188 235 140 
2398 0.8872140985900885 0.19868432454727664 0.7824415416561574 0 0 0 0.49 35 89 54 140 91 104 141 14 147 255 165 143 184 52 235 141 
2399 0.8885155834253239 0.29009843433404664 0.945562710584232 0 0 0 0.48 35 90 54 141 62 21 97 178 147 256 165 144 184 53 190 268 197 108 234 536 235 142 
2400 0.887702714732937 -0.022659069248413467 0.8822587837065717 0 0 0 0.66 35 91 82 22 141 15 165 145 170 18 232 465 235 143 
2401 0.851839241928262 0.22940473571394762 1.1127474611052264 0 0 0 0.44 35 92 54 142 61 333 67 162 71 591 89 98 91 105 111 293 120 18 129 61 136 170 147 257 152 179 162 248 163 82 181 417 182 72 184 54 197 109 198 502 217 205 222 241 232 466 
2402 0.8117503279368983 0.27467592446504385 1.0899390401900995 0 0 0 0.4 35 93 107 130 162 249 227 189 
2403 0.8884832894472292 0.21110563085179143 0.9135720620109625 0 0 0 0.49 35 94 97 179 234 537 
2404 0.8879994056619325 0.2073217508666698 0.9024200718450691 0 0 0 0.46 35 95 51 14 97 180 147 258 165 146 184 55 190 269 197 110 232 467 234 538 235 144 
2405 0.8881192651430547 0.20822887537682708 0.8947295383099675 0 0 0 0.62 35 96 51 15 65 146 97 181 234 539 
2406 0.8812334295808065 -0.015548171965662189 0.9005861182021202 0 0 0 0.67 35 97 82 23 111 294 141 16 147 259 222 242 
2407 0.8841026027886635 0.0796603629032133 0.8305083826568873 0 0 0 0.14 35 98 141 17 184 56 222 243 
2408 0.8801722542255057 0.10106515588023002 0.8793615356127245 0 0 0 0.42 35 99 48 13 51 16 141 18 147 260 153 4 165 147 184 57 190 270 197 111 232 468 235 145 
2409 0.891821601273975 0.24229614709465086 0.9575658304781184 0 0 0 0.49 35 100 81 167 89 99 107 131 120 19 129 62 162 250 184 58 222 244 227 190 
2410 0.8848109581707209 0.1176843545979169 0.9461360489490456 0 0 0 0.11 48 14 51 17 62 22 165 148 234 540 235 146 
2411 0.8852921000712257 0.14719512047915284 0.9078066990740835 0 0 0 0.19 48 15 51 18 91 106 165 149 184 59 197 112 232 469 234 541 235 147 
2412 0.8860406319972391 0.24468596825512892 0.9700015581676389 0 0 0 0.35 48 16 74 9 170 19 234 542 235 148 
2413 0.8897470660254257 0.2878990711811178 0.9327991102578529 0 0 0 0.35 48 17 51 19 62 23 153 5 165 150 234 543 235 149 
2414 0.8829791057286549 0.16956823286296188 0.9725074155145452 0 0 0 0.38 48 18 51 20 153 6 
2415 0.8892041066444197 0.08180342100307508 0.7807739690862329 0 0 0 0.25 48 19 51 21 153 7 165 151 235 150 
2416 0.8874554915180733 0.22215321884594258 0.941540731995401 0 0 0 0.43 48 20 97 182 165 152 190 271 197 113 232 470 234 544 235 151 
2417 0.8890279153156176 0.27035131493650366 0.9949314727296515 0 0 0 0.09 48 21 51 22 234 545 
2418 0.8805691977024274 0.022187524793705986 0.8871884877929661 0 0 0 0.23 48 22 51 23 141 19 
2419 0.8802304967449337 0.129206278546647 1.02930992780371 0 0 0 0.61 48 23 97 183 147 261 234 546 235 152 
2420 0.8846725160419661 0.12122411036077961 0.9441637879249616 0 0 0 0.26 48 24 147 262 190 272 234 547 
2421 0.8824553030510085 0.11234500202241042 0.8926365203770312 0 0 0 0.13 48 25 141 20 234 548 
2422 0.880570911772884 0.17671710807974808 0.8768986446190985 0 0 0 0.87 48 26 51 24 153 8 219 266 
2423 0.8868195464677975 0.22860224662992196 0.9454996374032432 0 0 0 0.45 48 27 97 184 141 21 165 153 234 549 235 153 
2424 0.8805971200668505 0.1482488151277078 1.0289974999204998 0 0 0 0.62 48 28 184 60 234 550 
2425 0.8839426540882804 0.053608597363775205 0.8782177009810769 0 0 0 0.31 48 29 51 25 141 22 153 9 190 273 197 114 232 471 
2426 0.8820664541344969 0.10898216477726846 0.9430494431065245 0 0 0 0.29 48 30 82 24 91 107 141 23 165 154 184 61 197 115 222 245 234 551 235 154 
2427 0.8847914935783971 0.17917424819642996 0.9696432409963366 0 0 0 0.32 48 31 51 26 91 108 103 220 141 24 165 155 184 62 197 116 232 472 234 552 235 155 
2428 0.8876867390900501 0.16742527054494163 0.8737054422465022 0 0 0 0.52 48 32 51 27 234 553 
2429 0.886990006529165 0.22002076945902488 0.9480242250991908 0 0 0 0.54 48 33 51 28 141 25 234 554 
2430 0.8858240366701169 0.24653315535922088 0.9709289481430322 0 0 0 0.3 48 34 51 29 234 555 
2431 0.8841225352727179 0.16937867525779995 0.9679490697802497 0 0 0 0.15 48 35 51 30 153 10 
2432 0.8834933749190111 0.17011645920803797 0.95805673599622 0 0 0 0.11 48 36 51 31 234 556 
2433 0.8843259621153552 0.13332185133666846 0.8883182995772957 0 0 0 0.27 48 37 51 32 234 557 
2434 0.8880849103760157 0.2272890137212623 0.9619571482726065 0 0 0 0.16 48 38 51 33 165 156 234 558 235 156 
2435 0.8868551950485113 0.22666196277306772 0.9411730571365419 0 0 0 0.41 48 39 51 34 65 147 97 185 141 26 147 263 184 63 222 246 234 559 
2436 0.8879255346963567 0.23654214985629826 0.9580754150948468 0 0 0 0.49 48 40 51 35 62 24 147 264 165 157 190 274 234 560 
2437 0.8874729465711447 0.254058432773292 0.9899810717455906 0 0 0 0.26 48 41 51 36 153 11 170 20 234 561 
2438 0.8875100411803493 0.24770827618928 0.9647249911609663 0 0 0 0.42 48 42 62 25 103 221 165 158 234 562 235 157 
2439 0.8874403316938322 0.2476737886205497 0.9647511693546769 0 0 0 0.41 48 43 54 143 62 26 97 186 103 222 165 159 197 117 234 563 235 158 
2440 0.8893850595994375 0.21833845865981824 0.8623639733614052 0 0 0 0.28 48 44 51 37 141 27 
2441 0.8849385809189845 0.15823298879687356 0.9466017248337316 0 0 0 0.36 48 45 51 38 234 564 
2442 0.88625369003976 0.21367680829472596 0.9492786849859282 0 0 0 0.4 48 46 51 39 234 565 
2443 0.8883395010674482 0.20181616760661236 0.8892479457854775 0 0 0 0.47 48 47 97 187 232 473 234 566 
2444 0.8844735412667047 0.17807177884175301 0.9754504440255123 0 0 0 0.42 48 48 51 40 65 148 97 188 141 28 165 160 184 64 190 275 197 118 222 247 232 474 234 567 235 159 
2445 0.8889455690939042 0.24065323363000604 0.9386510355938976 0 0 0 0.43 48 49 51 41 234 568 
2446 0.884089663704223 0.0977851809372164 0.973125259656508 0 0 0 0.6 51 42 74 10 182 73 234 569 
2447 0.8841835038807865 0.168440840030124 0.9579333158971027 0 0 0 0.24 51 43 165 161 184 65 234 570 
2448 0.8883468253259897 0.19126683877853862 0.8867506411677877 0 0 0 0.19 51 44 91 109 153 12 234 571 
2449 0.887177600830715 0.2459953669080757 0.9736559083060331 0 0 0 0.25 51 45 82 25 170 21 234 572 
2450 0.8875645332252765 0.2606701796576535 0.8970186070268169 0 0 0 0.42 51 46 184 66 234 573 
2451 0.8818086625455503 0.06289884964479829 0.8179828366535365 0 0 0 0.59 51 47 82 26 170 22 182 74 
2452 0.883417201040071 0.17126348702422284 0.9955519606226034 0 0 0 0.27 51 48 197 119 234 574 
2453 0.8831946002806071 0.20070377468686731 1.0190620573595703 0 0 0 0.23 51 49 153 13 197 120 234 575 
2454 0.8878880183590041 0.16052377609454407 0.8809010792417695 0 0 0 0.11 51 50 141 29 234 576 
2455 0.8872390229817819 0.2694964348535172 0.9244970732646022 0 0 0 0.6 51 51 184 67 234 577 
2456 0.8888589969769891 0.2924914370280467 0.9433906690383496 0 0 0 0.18 51 52 165 162 234 578 
2457 0.8811453771887475 0.11357108996883983 0.954833636229684 0 0 0 0.2 51 53 141 30 234 579 
2458 0.8774268303171108 0.09134168398610128 0.8871534491352666 0 0 0 0.32 51 54 147 265 184 68 232 475 234 580 
2459 0.8862736125742497 0.15186459742164243 0.9090100294243378 0 0 0 0.31 51 55 197 121 234 581 
2460 0.8889283263516605 0.20591590499062631 0.7870701629828607 0 0 0 0.28 51 56 153 14 184 69 
2461 0.883778036775747 0.20271324551798806 0.9230287931576963 0 0 0 0.71 51 57 232 476 234 582 
2462 0.887398882519507 0.2485072311154437 0.9987447826975778 0 0 0 0.24 51 58 97 189 141 31 153 15 197 122 234 583 
2463 0.88421847070657 0.18112369757858715 0.9783132888099859 0 0 0 0.45 51 59 141 32 234 584 
2464 0.8885150634053334 0.2765779617385253 0.9515495315728726 0 0 0 0.35 51 60 190 276 234 585 
2465 0.8879842184058488 0.20840345985830838 0.894720734956184 0 0 0 0.68 51 61 65 149 222 248 234 586 
2466 0.7478099272703067 0.13662849920989825 1.1693003955697263 0 0 0 0.51 52 212 105 39 136 171 
2467 0.7433358297138539 0.1389903715002358 1.16764244205518 0 0 0 0.34 52 213 105 40 136 172 
2468 0.656627174294871 0.15206657714236624 1.1922695508101622 0 0 0 0.4 52 214 136 173 165 163 235 160 
2469 0.6465811003299362 0.1529241519735489 1.2003985826948247 0 0 0 0.41 52 215 162 251 235 161 
2470 0.7402946770519684 0.15179025337603066 1.167411806018671 0 0 0 0.16 52 216 136 174 184 70 
2471 0.6468245780333278 0.16097338829212915 1.1932075018706412 0 0 0 0.39 52 217 93 254 124 421 175 239 200 440 219 267 235 162 
2472 0.6500023826008166 0.1667191613337349 1.191600388694171 0 0 0 0.33 52 218 93 255 136 175 175 240 
2473 0.6509693371220218 0.1758704121394061 1.1895890659255606 0 0 0 0.22 52 219 165 164 235 163 
2474 0.5693375969929425 0.1862015137004872 1.2123586283330552 0 0 0 0.18 52 220 136 176 200 441 
2475 0.7422305765168369 0.18880904997203277 1.1504445804714203 0 0 0 0.23 52 221 91 110 136 177 165 165 200 442 235 164 
2476 0.5039059279968835 0.20543003361353276 1.2268625068099848 0 0 0 0.51 28 915 52 222 93 256 97 190 124 422 200 443 222 249 232 477 234 587 
2477 0.463106704855598 0.21148681678768788 1.2388394881236597 0 0 0 0.11 52 223 136 178 200 444 
2478 0.5904540949955553 0.20574065484060522 1.194536821005448 0 0 0 0.27 28 916 52 224 91 111 93 257 124 423 136 179 175 241 197 123 200 445 234 588 
2479 0.5964444265989288 0.2069914676975282 1.1921855746975123 0 0 0 0.66 52 225 93 258 136 180 197 124 
2480 0.4769113686519689 0.21797170238522345 1.2304121680395732 0 0 0 0.2 52 226 93 259 136 181 200 446 
2481 0.7431833158417532 0.2038414730602744 1.1474451253650948 0 0 0 0.17 52 227 62 27 91 112 184 71 
2482 0.5207223682417534 0.21807726963367735 1.2136161382538513 0 0 0 0.22 52 228 61 334 136 182 162 252 
2483 0.45910000143757296 0.2232166385325779 1.2342591423136622 0 0 0 0.49 28 917 52 229 61 335 93 260 200 447 
2484 0.6477795969172147 0.21361811789440702 1.1745099801357801 0 0 0 0.3 52 230 136 183 175 242 200 448 
2485 0.47918240664842526 0.22537654138149588 1.2256216811283422 0 0 0 0.35 52 231 93 261 124 424 136 184 200 449 
2486 0.6490073497304553 0.21937221346271668 1.1707438647345068 0 0 0 0.16 52 232 136 185 165 166 
2487 0.8255037944936303 0.21409639146797751 1.1167566388794292 0 0 0 0.17 52 233 91 113 105 41 
2488 0.5586707863925148 0.2365759955669611 1.1951247834956265 0 0 0 0.2 52 234 93 262 136 186 200 450 
2489 0.3505662415199799 0.25404922425997856 1.2781149349323384 0 0 0 0.31 52 235 61 336 93 263 200 451 219 268 
2490 0.5591152253841443 0.2436092405559663 1.1925075126262934 0 0 0 0.3 52 236 93 264 136 187 
2491 0.8257532782465076 0.22553053897649966 1.1110284937134807 0 0 0 0.15 52 237 105 42 136 188 
2492 0.43438828516643674 0.25455819488335923 1.2319793038746278 0 0 0 0.15 28 918 52 238 112 128 200 452 
2493 0.6695226640937855 0.2391032827283847 1.1613165146366695 0 0 0 0.19 52 239 107 132 165 167 235 165 
2494 0.8300242993444344 0.22755982345918185 1.1075279141877774 0 0 0 0.3 52 240 136 189 163 83 184 72 
2495 0.6850032482453697 0.23947933875699626 1.1523690266353914 0 0 0 0.43 52 241 105 43 136 190 
2496 0.24713343820656763 0.27577527781985794 1.322399245702357 0 0 0 0.34 52 242 93 265 103 223 111 295 200 453 219 269 227 191 
2497 0.6756572930828353 0.2428143406124547 1.1543399454525838 0 0 0 0.1 52 243 165 168 235 166 
2498 0.6958210564254648 0.24064706061162586 1.146811449813527 0 0 0 0.26 52 244 91 114 93 266 105 44 136 191 200 454 
2499 0.6585276516204335 0.24567851355657547 1.1596140029691644 0 0 0 0.22 52 245 91 115 136 192 165 169 200 455 235 167 
2500 0.7061642806455806 0.24401888363900623 1.1429332028302142 0 0 0 0.18 52 246 105 45 136 193 
2501 0.63545683147765 0.2497699425938878 1.1626272170343823 0 0 0 0.06 52 247 93 267 136 194 
2502 0.6893877059253242 0.2465186587952326 1.147795147666085 0 0 0 0.14 52 248 93 268 136 195 
2503 0.6893877059253242 0.2465186587952326 1.147795147666085 0 0 0 0.14 52 249 93 269 136 196 
2504 0.5319929348881162 0.2615157810155702 1.1962101649077401 0 0 0 0.22 52 250 93 270 136 197 
2505 0.7132245937920324 0.24636866203222793 1.13895891350903 0 0 0 0.07 52 251 91 116 105 46 184 73 
2506 0.6096556303021478 0.25555544294777605 1.169368218076017 0 0 0 0.24 52 252 93 271 136 198 200 456 
2507 0.6646161338857455 0.2515525721434277 1.155683020548502 0 0 0 0.12 52 253 165 170 235 168 
2508 0.5600184033169777 0.26293174041068507 1.1837717757960682 0 0 0 0.24 52 254 93 272 136 199 
2509 0.7370337477082669 0.24909376327806595 1.1348585502457342 0 0 0 0.08 52 255 105 47 136 200 
2510 0.5783263367302928 0.26405815631530133 1.1789652220244966 0 0 0 0.07 52 256 124 425 136 201 
2511 0.5387560560914788 0.2681951232975613 1.1899242824350584 0 0 0 0.35 28 919 52 257 61 337 93 273 112 129 124 426 200 457 
2512 0.5444407908920558 0.2677558597541095 1.1880658244884532 0 0 0 0.16 52 258 93 274 136 202 200 458 
2513 0.5939788713646756 0.2651907574833554 1.1714974522794546 0 0 0 0.22 52 259 91 117 136 203 
2514 0.6918548661371925 0.2577372556965528 1.1460200220561674 0 0 0 0.11 52 260 91 118 136 204 
2515 0.5001614311995558 0.27518854152370836 1.2005824052136076 0 0 0 0.16 52 261 93 275 136 205 200 459 
2516 0.4169054206525644 0.28842416308019414 1.2325072512569997 0 0 0 0.19 28 920 52 262 61 338 93 276 124 427 147 266 162 253 200 460 
2517 0.5502402742637155 0.27505831102697914 1.1854359670283299 0 0 0 0.28 52 263 93 277 136 206 162 254 200 461 
2518 0.5872325843064174 0.2743486430914266 1.1693494637302382 0 0 0 0.29 28 921 52 264 91 119 93 278 136 207 175 243 200 462 
2519 0.6712259699241745 0.26894459885367233 1.1493569706497075 0 0 0 0.21 52 265 91 120 235 169 
2520 0.5874528386467021 0.27617022611561065 1.1678786208366931 0 0 0 0.22 52 266 93 279 136 208 200 463 
2521 0.3562558931105163 0.308070457595864 1.2562121643185626 0 0 0 0.21 52 267 93 280 107 133 
2522 0.3499947814232752 0.31245651176981054 1.2573813305077324 0 0 0 0.19 52 268 61 339 93 281 
2523 0.31010217742389695 0.3246415100357314 1.2742222461486756 0 0 0 0.3 52 269 61 340 93 282 107 134 162 255 200 464 227 192 232 478 
2524 0.44591227095184355 0.3125209073309488 1.2059156895836853 0 0 0 0.11 52 270 93 283 200 465 
2525 0.3113593163970543 0.33358939297655366 1.269556722979406 0 0 0 0.28 52 271 93 284 107 135 124 428 200 466 
2526 0.7989680853982292 0.2776186189334264 1.0934997977001697 0 0 0 0.31 52 272 91 121 184 74 
2527 0.446072703724794 0.32046579213529314 1.2037029788416953 0 0 0 0.01 52 273 93 285 136 209 
2528 0.8025361664909715 0.27979312971808606 1.0907076977928771 0 0 0 0.13 52 274 136 210 184 75 
2529 0.6722214597512262 0.2972299426214679 1.137817574376902 0 0 0 0.14 52 275 165 171 235 170 
2530 0.6679109823731303 0.3009085150847597 1.1365234738831482 0 0 0 0.22 52 276 91 122 93 286 
2531 0.6806734560517007 0.2976854037801483 1.1247457277044337 0 0 0 0.13 52 277 91 123 165 172 235 171 
2532 0.7365065604594498 0.29280840125428065 1.11283828169551 0 0 0 0.11 52 278 184 76 235 172 
2533 0.7082232622066141 0.2957633527607109 1.1207205514329845 0 0 0 0.31 52 279 105 48 136 211 165 173 235 173 
2534 0.5301624067063991 0.31880505497564077 1.1691095185591653 0 0 0 0.25 28 922 52 280 93 287 136 212 234 589 
2535 0.6912152391061633 0.30204987186263815 1.1248568007812612 0 0 0 0.19 52 281 105 49 136 213 
2536 0.7128170490870853 0.3001601368299224 1.1108754039703599 0 0 0 0.24 28 923 52 282 91 124 93 288 175 244 200 467 
2537 0.6668417635676757 0.3071286584385414 1.1290908014425802 0 0 0 0.18 52 283 93 289 136 214 200 468 
2538 0.6681634348368967 0.310059151456645 1.12675270217361 0 0 0 0.18 52 284 93 290 136 215 
2539 0.6724955337133093 0.30987828800701 1.126288078619041 0 0 0 0.17 52 285 93 291 136 216 
2540 0.5287484774607742 0.3276444466626128 1.1631708798885374 0 0 0 0.25 52 286 93 292 200 469 
2541 0.6004764135485824 0.32004964428699917 1.1474319960533252 0 0 0 0.18 52 287 91 125 136 217 
2542 0.6829563735012321 0.3087124672231037 1.1158540873154257 0 0 0 0.1 52 288 91 126 136 218 165 174 
2543 0.5598530128800191 0.3301420529999897 1.151785346107817 0 0 0 0.2 52 289 93 293 136 219 
2544 0.7544095156003545 0.3063146101827223 1.1000655335045344 0 0 0 0.34 52 290 105 50 136 220 
2545 0.3709894444487951 0.358165558538017 1.2220090294697796 0 0 0 0.09 52 291 93 294 200 470 
2546 0.3059642123632037 0.36985193553194307 1.251799195467628 0 0 0 0.16 52 292 93 295 200 471 
2547 0.3064266766421684 0.3716823491493511 1.2485343099399882 0 0 0 0.23 52 293 93 296 107 136 200 472 
2548 0.7175371842325265 0.31475272140319893 1.10675747640206 0 0 0 0.21 28 924 52 294 91 127 93 297 124 429 136 221 175 245 200 473 
2549 0.29217053540944093 0.3781684265799283 1.2603687654267473 0 0 0 0.15 52 295 107 137 200 474 
2550 0.47193859011402 0.3478343971954245 1.175528664421862 0 0 0 0.19 52 296 93 298 200 475 
2551 0.772253667346156 0.3133030208393903 1.0886953713980632 0 0 0 0.27 52 297 91 128 165 175 
2552 0.6534584648791777 0.33655688364385367 1.1204098996172827 0 0 0 0.14 52 298 136 222 165 176 
2553 0.7160792226582807 0.33105550400858036 1.101019758652033 0 0 0 0.29 52 299 91 129 165 177 
2554 0.27483471186347586 0.40208762757003647 1.2561230570674735 0 0 0 0.71 93 299 107 138 162 256 200 476 219 270 
2555 0.7389342896581782 0.3282371805627327 1.095403178968114 0 0 0 0.17 52 300 91 130 136 223 165 178 
2556 0.7351193052512107 0.33279949554055616 1.0976203860452869 0 0 0 0.2 28 925 52 301 124 430 136 224 175 246 184 77 200 477 
2557 0.7278304115667787 0.3337575945924535 1.0963890642090515 0 0 0 0.29 52 302 62 28 91 131 105 51 136 225 165 179 184 78 235 174 
2558 0.7309002028044549 0.33465401568910763 1.098664201620147 0 0 0 0.29 52 303 93 300 136 226 
2559 0.3703892917308965 0.3905954193940776 1.2116745588735067 0 0 0 0.34 52 304 61 341 93 301 124 431 227 193 232 479 
2560 0.7358100104770232 0.33355726095879595 1.0950890720142779 0 0 0 0.35 52 305 136 227 165 180 
2561 0.6968137375164148 0.34244687226189185 1.1071958760119236 0 0 0 0.11 52 306 91 132 93 302 
2562 0.5883345773002429 0.35812446334097664 1.1326981576015545 0 0 0 0.49 52 307 93 303 136 228 234 590 
2563 0.6857358597080735 0.344629763013721 1.106522778507364 0 0 0 0.22 52 308 91 133 235 175 
2564 0.6854338862502948 0.3442412749863408 1.1055043892096603 0 0 0 0.23 28 926 52 309 91 134 93 304 124 432 175 247 200 478 235 176 
2565 0.7483245164510546 0.335353393611094 1.0885860236163232 0 0 0 0.09 52 310 136 229 184 79 
2566 0.7386877191158205 0.3378048757404134 1.0932113902785572 0 0 0 0.19 52 311 61 342 62 29 91 135 105 52 124 433 136 230 165 181 175 248 184 80 200 479 235 177 
2567 0.7360739906783219 0.3384205756764816 1.0937836720218796 0 0 0 0.1 52 312 124 434 136 231 175 249 
2568 0.6870211660429211 0.3450148294674423 1.1046701708195683 0 0 0 0.19 52 313 93 305 175 250 235 178 
2569 0.7462450062776692 0.3365924883109198 1.0875815527902435 0 0 0 0.37 52 314 136 232 184 81 235 179 
2570 0.7363740848449205 0.3399650111494119 1.0933018753194736 0 0 0 0.22 52 315 105 53 136 233 184 82 200 480 
2571 0.5999082851623468 0.3602308941847734 1.1283607760892993 0 0 0 0.27 52 316 136 234 200 481 
2572 0.6966177097729711 0.346677452470648 1.104812093217521 0 0 0 0.31 52 317 91 136 165 182 235 180 
2573 0.7453738477506656 0.33717838793396426 1.0835436285559314 0 0 0 0.11 52 318 105 54 136 235 
2574 0.6269005801104773 0.35727985542531604 1.1187990419997242 0 0 0 0.17 52 319 91 137 93 306 
2575 0.6334646033640591 0.35675745581933227 1.1174983903474704 0 0 0 0.49 52 320 91 138 107 139 111 296 136 236 
2576 0.7459072862393635 0.3396868555903297 1.0849991917841533 0 0 0 0.28 52 321 91 139 105 55 136 237 
2577 0.3380915734011878 0.41361981332072056 1.2173187067611342 0 0 0 0.36 52 322 93 307 107 140 124 435 200 482 
2578 0.7478632481487459 0.3467540541278462 1.0836079723578242 0 0 0 0.21 52 323 105 56 136 238 175 251 
2579 0.33374397427298497 0.4244330240911024 1.217570664524539 0 0 0 0.82 107 141 124 436 200 483 
2580 0.4716300437790298 0.39989739912314354 1.1582623043194438 0 0 0 0.6 28 927 52 324 93 308 
2581 0.5602439034810194 0.38560887891277096 1.1320975151028418 0 0 0 0.28 52 325 93 309 124 437 200 484 
2582 0.5951339469144804 0.3829724909677843 1.1195593190312836 0 0 0 0.32 52 326 93 310 124 438 200 485 
2583 0.7547635153082881 0.12162258218314267 1.1739529655422425 0 0 0 0.38 52 327 136 239 184 83 
2584 0.6662943327229863 0.13414391320185107 1.1960224803878052 0 0 0 0.26 28 928 52 328 124 439 136 240 165 183 200 486 234 591 235 181 
2585 0.6629970818405685 0.13681767370684 1.1966816787049295 0 0 0 0.27 52 329 61 343 136 241 165 184 
2586 0.8302772522060662 0.13522722114488694 1.1448605430612664 0 0 0 0.24 52 330 62 30 136 242 152 180 197 125 235 182 
2587 0.6603936077919962 0.13759585717709813 1.198713604917649 0 0 0 0.3 52 331 61 344 93 311 103 224 124 440 136 243 165 185 182 75 200 487 
2588 0.6673376352269572 0.14886539593648596 1.194670609056072 0 0 0 0.04 52 332 165 186 235 183 
2589 0.8290225778073651 0.1470164587881599 1.1380930773021984 0 0 0 0.41 52 333 62 31 71 592 103 225 105 57 111 297 136 244 162 257 163 84 165 187 235 184 
2590 0.7402994523290815 0.14896252867896428 1.1678925301258924 0 0 0 0.2 52 334 105 58 136 245 165 188 184 84 235 185 
2591 0.8259165552644647 0.147696310670414 1.1404859910314178 0 0 0 0.08 52 335 62 32 165 189 
2592 0.7586245061208202 0.1489582543275154 1.1632993389389994 0 0 0 0.49 52 336 105 59 235 186 
2593 0.759532734560733 0.14897168491274418 1.1670027876792317 0 0 0 0.73 52 337 105 60 136 246 222 250 235 187 
2594 0.5576246004940065 0.1582508497472908 1.2230097011648717 0 0 0 0.29 52 338 103 226 136 247 
2595 0.7610168270406097 0.1567887114425302 1.1593386522560445 0 0 0 0.54 52 339 103 227 184 85 
2596 0.8327533802528859 0.15539850842030722 1.1358226612640168 0 0 0 0.12 52 340 91 140 235 188 
2597 0.674298399078998 0.16024013059996142 1.185709180616009 0 0 0 0.09 28 929 52 341 136 248 165 190 235 189 
2598 0.649892908446731 0.16387394817470022 1.1927410016808118 0 0 0 0.23 52 342 136 249 165 191 200 488 219 271 222 251 232 480 
2599 0.8235233549636741 0.1690026575880317 1.1334556258579274 0 0 0 0.28 35 101 52 343 91 141 105 61 136 250 165 192 184 86 235 190 
2600 0.8308976853794879 0.16883076463637797 1.1325949471270291 0 0 0 0.31 52 344 91 142 105 62 136 251 165 193 235 191 
2601 0.8176000076447391 0.16966340947223374 1.13466553598599 0 0 0 0.22 52 345 62 33 91 143 136 252 184 87 235 192 
2602 0.8252919902715685 0.17094453540421475 1.133118692842415 0 0 0 0.23 52 346 136 253 184 88 
2603 0.785232167976371 0.173769974891449 1.1422517751675423 0 0 0 0.22 52 347 62 34 165 194 
2604 0.7369346397497406 0.18197391645740843 1.1561046745846157 0 0 0 0.24 52 348 105 63 184 89 235 193 
2605 0.8238096914489472 0.17854055355898957 1.129970774817563 0 0 0 0.21 52 349 105 64 136 254 165 195 
2606 0.6276905091268533 0.1863801022280295 1.1851691364901955 0 0 0 0.22 52 350 136 255 165 196 
2607 0.45267867177836174 0.20047717747706706 1.2431192843189025 0 0 0 0.2 52 351 93 312 200 489 
2608 0.6962012475181131 0.19125521569790954 1.164590238627106 0 0 0 0.24 52 352 61 345 162 258 
2609 0.6921551445848971 0.19186521344463872 1.166128028098307 0 0 0 0.25 52 353 91 144 93 313 124 441 136 256 165 197 
2610 0.6922485476666307 0.19185559449683198 1.1664066609944 0 0 0 0.23 28 930 52 354 61 346 91 145 93 314 105 65 124 442 136 257 165 198 234 592 
2611 0.6694412815335224 0.19549734346341097 1.1723410234010463 0 0 0 0.45 28 931 52 355 61 347 91 146 136 258 162 259 165 199 175 252 182 76 197 126 235 194 
2612 0.6661451223356475 0.19623049589767325 1.1745973855275316 0 0 0 0.27 52 356 165 200 197 127 235 195 
2613 0.7400783767975857 0.19250406502049294 1.1500546196069836 0 0 0 0.26 52 357 93 315 105 66 
2614 0.4910625724749219 0.20836295653124662 1.2282682562341856 0 0 0 0.27 52 358 107 142 152 181 
2615 0.6067306500076759 0.20303859481661365 1.1907908349348357 0 0 0 0.42 52 359 54 144 91 147 197 128 200 490 
2616 0.6204219071507524 0.20283071833275426 1.1841115539746176 0 0 0 0.16 52 360 91 148 136 259 
2617 0.8016115274574263 0.19396320902250896 1.1296897337795528 0 0 0 0.11 52 361 62 35 91 149 136 260 
2618 0.8016785359977957 0.19397796800465014 1.1299793860845464 0 0 0 0.09 52 362 62 36 91 150 184 90 
2619 0.5987946219679566 0.20442018094034556 1.1921747422324347 0 0 0 0.55 52 363 136 261 162 260 
2620 0.5987946219679566 0.20442018094034556 1.1921747422324347 0 0 0 0.55 52 364 136 262 162 261 
2621 0.7978609380089651 0.1945091271258275 1.1303551670387466 0 0 0 0.23 52 365 91 151 136 263 200 491 
2622 0.5678311668936001 0.20744988993764465 1.202580098156936 0 0 0 0.29 52 366 61 348 93 316 124 443 136 264 200 492 219 272 234 593 
2623 0.8001044607929524 0.19580358546252835 1.1297434038937793 0 0 0 0.33 52 367 91 152 165 201 184 91 235 196 
2624 0.6007247895121385 0.2060919307174491 1.1906411611446988 0 0 0 0.29 28 932 52 368 93 317 124 444 162 262 175 253 197 129 200 493 234 594 
2625 0.695107354026401 0.20637156881854762 1.1669812756690374 0 0 0 0.12 52 369 105 67 136 265 
2626 0.5104261645862765 0.21763187514428398 1.2203282449297543 0 0 0 0.25 52 370 136 266 162 263 219 273 227 194 
2627 0.5275461811977938 0.21690746969719185 1.2117628856757146 0 0 0 0.36 52 371 71 593 136 267 162 264 219 274 227 195 
2628 0.5114072180311954 0.21962362681045963 1.2164226803408642 0 0 0 0.25 52 372 103 228 162 265 227 196 
2629 0.695076400094178 0.20989924973723217 1.1643684473538338 0 0 0 0.19 52 373 105 68 136 268 
2630 0.7132872404686322 0.20862045081034294 1.153483677408082 0 0 0 0.22 52 374 136 269 165 202 235 197 
2631 0.5050834945602395 0.22052891897532814 1.2192118038174677 0 0 0 0.29 52 375 124 445 200 494 
2632 0.695262040016986 0.21507396572504478 1.1620761352633897 0 0 0 0.26 52 376 105 69 136 270 162 266 165 203 
2633 0.3647133999061817 0.2373187728373179 1.2720558529141786 0 0 0 0.33 52 377 93 318 111 298 200 495 227 197 
2634 0.6213894129392493 0.22283867394697446 1.1785985356469204 0 0 0 0.15 52 378 93 319 136 271 
