# 3D point list with one line of data per point:
#   POINT3D_ID, X, Y, Z, R, G, B, ERROR, TRACK[] as (IMAGE_ID, POINT2D_IDX)
# Number of points: 415, mean track length: 6.31
1047 -0.3002747303067264 -0.10672235816014802 1.117008477842134 0 0 0 0.8 126 429 164 295 220 199 
1048 -0.29481910487701274 -0.1072479648839844 1.1335700509370878 0 0 0 0.19 126 430 196 145 224 72 
1049 0.1946897509143314 -0.12716234617766434 1.120088889554499 0 0 0 0.63 126 431 159 345 162 244 223 112 
1050 0.30166911208436314 -0.12898965590320804 1.091552903752908 0 0 0 0.51 63 859 126 432 136 77 148 337 159 346 162 245 164 296 185 314 196 146 
1051 -0.16973573183866736 -0.11205562199999522 1.255819141166067 0 0 0 0.26 126 433 148 338 162 246 196 147 224 73 
1052 0.21947656305742475 -0.11603211248000213 1.1147114412958623 0 0 0 0.56 63 860 126 434 158 55 220 200 
1053 0.22221284142518113 -0.1153132374138806 1.1123825180415388 0 0 0 0.27 126 435 148 339 159 347 165 142 185 315 235 146 
1054 0.29161598367933167 -0.11499250690422055 1.0941239048659785 0 0 0 0.2 63 861 126 436 152 79 157 61 172 121 182 29 213 215 217 136 
1055 0.20551241724407457 -0.11257959812210985 1.121318185089095 0 0 0 0.28 126 437 127 43 159 348 164 297 
1056 0.23022298330605084 -0.11207277537170239 1.112281385501044 0 0 0 0.29 63 862 126 438 163 126 222 244 
1057 0.10636740968689577 -0.10531108370330679 1.1452364684737644 0 0 0 0.25 126 439 136 78 146 27 158 56 159 349 176 159 185 316 227 95 
1058 0.08960273555748606 -0.1032333858795273 1.1464863115521076 0 0 0 0.78 126 440 146 28 159 350 185 317 196 148 204 154 
1059 0.009256833670272331 -0.09814764413585411 1.1740747741754558 0 0 0 0.46 126 441 176 160 200 56 222 245 224 74 
1060 -0.049718464712483035 -0.09556257269992188 1.2006737396764902 0 0 0 0.35 63 863 126 442 148 340 164 298 185 318 
1061 -0.22446972322423595 -0.09271070602570614 1.2809567788834204 0 0 0 0.18 126 443 148 341 159 351 
1062 -0.07784031956594785 -0.09325379928051364 1.2044327020644772 0 0 0 0.15 126 444 220 201 224 75 
1063 0.09343960984313221 -0.09695204333393488 1.1486665196151606 0 0 0 0.3 126 445 146 29 147 55 148 342 158 57 
1064 0.17815769483729182 -0.0992293942303924 1.1228899210106376 0 0 0 0.29 63 864 126 446 148 343 159 352 164 299 185 319 190 142 196 149 232 260 
1065 -0.15787769309632096 -0.09214127118327214 1.2507281604165457 0 0 0 0.45 126 447 159 353 185 320 
1066 -0.03445829983646219 -0.09270053324442946 1.1825607606464243 0 0 0 0.26 63 865 126 448 127 44 148 344 159 354 185 321 220 202 
1067 0.20934314656799693 -0.09969618597505994 1.1144966557038876 0 0 0 0.41 126 449 164 300 185 322 232 261 
1068 0.3782060836946752 -0.1045784441782031 1.0675608170437219 0 0 0 0.36 63 866 126 450 128 32 136 79 148 345 162 247 163 127 164 301 165 143 172 122 213 216 227 96 232 262 235 147 
1069 -0.08131232551202514 -0.0917282200205963 1.2154361715890003 0 0 0 0.06 126 451 224 76 227 97 
1070 0.017254267542103484 -0.09331154057987413 1.1703679619185379 0 0 0 0.16 126 452 128 33 159 355 
1071 0.10017383428080102 -0.09494668697112561 1.1437156736123624 0 0 0 0.33 126 453 159 356 222 246 
1072 0.028955028432484712 -0.09156799320272914 1.1623286205013335 0 0 0 1.66 126 454 220 203 222 247 223 113 
1073 0.029236723217471783 -0.09193305973844947 1.1637771844681524 0 0 0 0.8 126 455 221 181 224 77 227 98 232 263 
1074 0.05017325563103628 -0.09315118738441439 1.1570253559185266 0 0 0 0.96 126 456 159 357 172 123 204 155 222 248 223 114 227 99 
1075 0.1433758715370767 -0.09573986623310657 1.1312577868286684 0 0 0 0.15 126 457 128 34 136 80 148 346 
1076 0.17198793791123027 -0.09569343382724538 1.11630662683215 0 0 0 0.15 63 867 126 458 148 347 159 358 185 323 220 204 232 264 
1077 0.25114979922082337 -0.09685725030348677 1.0956707355877235 0 0 0 0.11 126 459 148 348 159 359 
1078 0.026101542241164195 -0.08825199554122175 1.1678851884796655 0 0 0 0.18 126 460 159 360 164 302 
1079 0.15655014445104415 -0.08652679126105098 1.1263557777667816 0 0 0 0.49 126 461 136 81 162 248 185 324 196 150 
1080 0.07451015908486427 -0.08341153560340521 1.1516886179707468 0 0 0 0.36 126 462 148 349 159 361 162 249 172 124 176 161 219 134 
1081 0.18598752370483282 -0.08727837475002893 1.1191415386039183 0 0 0 0.31 126 463 148 350 159 362 185 325 
1082 -0.2160625947185047 -0.07666106792583638 1.2719097362014387 0 0 0 0.14 126 464 148 351 224 78 227 100 
1083 0.03501964129311416 -0.08047005640686125 1.1615924722093134 0 0 0 0.4 126 465 127 45 136 82 172 125 213 217 219 135 222 249 
1084 0.1344850514241809 -0.08328624245769503 1.1311139059106021 0 0 0 0.21 126 466 148 352 222 250 
1085 0.07204946731449019 -0.08095317503304524 1.1514138511612662 0 0 0 0.08 126 467 136 83 148 353 172 126 
1086 0.07774015975540402 -0.08096434456559908 1.1488282071075855 0 0 0 0.38 126 468 136 84 172 127 222 251 
1087 0.08143373716661059 -0.0811760346655362 1.1479538730206376 0 0 0 0.12 126 469 136 85 172 128 
1088 0.08634500942585742 -0.08102623616675354 1.146968183837251 0 0 0 0.25 126 470 136 86 162 250 172 129 227 101 
1089 -0.03582412989566616 -0.07653243929682493 1.1842159302933233 0 0 0 0.12 126 471 136 87 220 205 
1090 -0.08123994762095117 -0.07481246049114093 1.2090025449712942 0 0 0 0.24 126 472 159 363 219 136 
1091 -0.26968369972570966 -0.07131034485014916 1.2934712797483048 0 0 0 0.34 126 473 164 303 220 206 224 79 
1092 0.07111775525062076 -0.07782918680745461 1.1483537855412127 0 0 0 0.28 126 474 136 88 204 156 
1093 0.13502757564664644 -0.07957473195892956 1.13101573353243 0 0 0 0.26 126 475 128 35 136 89 159 364 204 157 
1094 -0.0509285467029062 -0.07365549299616359 1.1945315918506278 0 0 0 0.18 126 476 136 90 164 304 172 130 
1095 0.09357586589006506 -0.07837596702753732 1.1431486988148982 0 0 0 0.23 126 477 136 91 204 158 
1096 0.14988766683676352 -0.07978552728227369 1.1265698700296165 0 0 0 0.31 126 478 158 58 204 159 
1097 0.16704763676998383 -0.08027060036018718 1.1196359780747316 0 0 0 0.67 63 868 126 479 159 365 185 326 222 252 223 115 227 102 
1098 0.16736406654195432 -0.08010523479201036 1.1213169525626625 0 0 0 0.36 126 480 136 92 148 354 162 251 163 128 164 305 220 207 222 253 
1099 -0.19670346657653542 -0.07029103541566703 1.2591350146484317 0 0 0 0.22 126 481 159 366 204 160 219 137 
1100 0.19404613262083853 -0.08056277393629213 1.1140951558440222 0 0 0 0.75 63 869 126 482 136 93 162 252 163 129 172 131 182 30 185 327 214 101 220 208 222 254 223 116 
1101 0.030369524870519977 -0.07493073619199954 1.1624793078704747 0 0 0 0.39 126 483 136 94 159 367 204 161 222 255 
1102 0.03840705114759549 -0.07534059962499547 1.159829397993055 0 0 0 0.1 126 484 172 132 219 138 
1103 0.20372159841895396 -0.0810514267355993 1.1174451197195623 0 0 0 0.54 126 485 148 355 159 368 162 253 163 130 
1104 0.4214749228560285 -0.08997854381013588 1.086787010231472 0 0 0 0.21 126 486 136 95 165 144 235 148 
1105 0.23845001721105794 -0.08132431787483509 1.1035807605388661 0 0 0 0.1 126 487 172 133 220 209 
1106 0.2426643187001948 -0.08109127095840843 1.1014252511295148 0 0 0 0.32 126 488 136 96 148 356 163 131 164 306 172 134 184 117 196 151 213 218 220 210 
1107 -0.14512662288895742 -0.06990718454609325 1.2379571513745244 0 0 0 0.22 126 489 148 357 159 369 162 254 172 135 224 80 232 265 
1108 0.13383600369921192 -0.07712880512968333 1.131140833589421 0 0 0 0.26 126 490 136 97 148 358 159 370 164 307 213 219 222 256 
1109 -0.020157377579467943 -0.07216076970111014 1.1777951838011649 0 0 0 0.31 126 491 148 359 159 371 172 136 176 162 185 328 204 162 219 139 232 266 
1110 0.2918801113935888 -0.08223213230143794 1.0894706403499532 0 0 0 0.22 126 492 136 98 222 257 
1111 0.03449512081815981 -0.07249506648044109 1.1596853978989698 0 0 0 0.16 126 493 136 99 214 102 
1112 0.21461692843446967 -0.07811196650829315 1.1082449261876655 0 0 0 0.33 126 494 136 100 164 308 165 145 196 152 214 103 
1113 0.2440426373021222 -0.07869744905499212 1.1019047753786975 0 0 0 0.61 126 495 127 46 158 59 172 137 184 118 204 163 
1114 0.2711089197438719 -0.07904325857754574 1.090886528242956 0 0 0 0.3 126 496 136 101 159 372 176 163 204 164 
1115 0.2710879306185543 -0.07906887061704154 1.0908632782256729 0 0 0 0.28 126 497 136 102 148 360 159 373 176 164 204 165 
1116 0.28808431789858613 -0.0797968069482373 1.0896716131469908 0 0 0 0.18 126 498 162 255 184 119 196 153 
1117 0.16634288563097405 -0.07492800676111272 1.1214929461744367 0 0 0 0.27 126 499 148 361 162 256 164 309 172 138 190 143 222 258 
1118 0.27647172078713 -0.07903455599426581 1.0896656106876497 0 0 0 0.2 63 870 126 500 164 310 204 166 
1119 0.2768317221416674 -0.0791137251572353 1.0899105193413525 0 0 0 0.3 63 871 126 501 136 103 148 362 163 132 164 311 182 31 204 167 
1120 0.3342739842257196 -0.08005743114526767 1.0741300394062852 0 0 0 0.11 126 502 159 374 184 120 
1121 0.35002873758204595 -0.08075930185233887 1.0734685410987044 0 0 0 0.36 63 872 126 503 136 104 162 257 164 312 172 139 184 121 196 154 220 211 222 259 
1122 -0.08849995995406135 -0.06587010851353908 1.2111939074827607 0 0 0 0.07 126 504 159 375 185 329 
1123 0.03124547491938071 -0.06865368674906847 1.1614563428639861 0 0 0 0.44 126 505 159 376 185 330 214 104 219 140 
1124 0.042713030044656465 -0.06881824727885232 1.1538037785470743 0 0 0 0.26 126 506 159 377 220 212 
1125 0.3787435185084718 -0.08186669190703035 1.0680801033423741 0 0 0 0.42 126 507 136 105 148 363 235 149 
1126 0.06728736184856814 -0.07018890358766877 1.1498277521616151 0 0 0 0.3 126 508 157 62 158 60 
1127 0.06729472774578195 -0.06996747224758426 1.1496318678866801 0 0 0 0.1 126 509 158 61 176 165 219 141 
1128 0.36948805908231497 -0.08054978339784205 1.0703056998062532 0 0 0 0.31 126 510 136 106 222 260 235 150 
1129 0.36927705291717283 -0.08052500670773369 1.069763603295391 0 0 0 0.24 126 511 136 107 162 258 184 122 213 220 222 261 235 151 
1130 0.21294961120130243 -0.07318102920208676 1.1006032630436193 0 0 0 0.61 63 873 126 512 185 331 
1131 -0.30841563282735207 -0.05908183481876829 1.3175919648101952 0 0 0 0.12 126 513 159 378 196 155 
1132 0.23419273041301425 -0.07404554164762531 1.1019166943915382 0 0 0 0.13 126 514 159 379 163 133 196 156 
1133 0.24227167030382873 -0.07436718504236871 1.100660001767007 0 0 0 0.28 126 515 148 364 159 380 176 166 196 157 
1134 0.2708173327075691 -0.07492649641572968 1.0916879213552793 0 0 0 0.28 126 516 148 365 159 381 164 313 
1135 -0.25164951841869637 -0.05869788650358721 1.2889033919767487 0 0 0 0.45 126 517 127 47 162 259 196 158 
1136 -0.29308253470618045 -0.05622188476808591 1.2922422905969797 0 0 0 0.29 126 518 164 314 220 213 
1137 0.14922919770650098 -0.067149511764406 1.13163124553119 0 0 0 0.23 126 519 159 382 196 159 
1138 -0.2973894566204687 -0.04335948835827105 1.1249662392038042 0 0 0 0.26 126 520 159 383 196 160 
1139 -0.26050754223480777 -0.05369889165478355 1.284807179470641 0 0 0 0.44 126 521 148 366 164 315 224 81 
1140 0.3714872479816079 -0.07242514898693232 1.0688633872221185 0 0 0 0.25 126 522 136 108 165 146 220 214 
1141 0.2755520012920092 -0.06891582734077466 1.0995067587185317 0 0 0 0.49 126 523 127 48 159 384 163 134 
1142 -0.3065556470250798 -0.05021534708728469 1.3154445205254148 0 0 0 0.32 126 524 148 367 159 385 196 161 224 82 
1143 -0.25780492241601427 -0.051712814754450595 1.2930342689123242 0 0 0 0.32 126 525 159 386 224 83 
1144 -0.2934286621512963 -0.03947730447817496 1.1199986449734527 0 0 0 0.32 126 526 148 368 164 316 
1145 0.35063036948994786 -0.06731694298648985 1.07089440564027 0 0 0 0.36 126 527 136 109 220 215 
1146 0.20353213861299063 -0.059281773508839584 1.1059724952612142 0 0 0 0.23 126 528 148 369 220 216 
1147 0.31126140092076143 -0.06348913114407498 1.0811853208114917 0 0 0 0.32 126 529 159 387 196 162 
1148 0.28854128713713484 -0.05823756892213857 1.082688419640222 0 0 0 0.89 126 530 136 110 148 370 159 388 185 332 223 117 
1149 -0.3105331735848275 -0.02728268894605443 1.080106346948509 0 0 0 0.41 126 531 159 389 196 163 
1150 0.40407898290597755 -0.05558525423074338 1.0632642268083226 0 0 0 0.36 126 532 136 111 148 371 220 217 
1151 -0.2963532156182353 -0.021625540682756506 1.1259547329297548 0 0 0 0.4 126 533 148 372 159 390 164 317 
1152 -0.2510450968768194 -0.02842657512814037 1.2840962420898205 0 0 0 0.59 126 534 148 373 164 318 
1153 -0.23485281921815254 -0.02467280803462043 1.2746871608970518 0 0 0 0.18 126 535 148 374 196 164 
1154 -0.31089072349948454 -0.015357551808468015 1.0907217734932886 0 0 0 0.67 126 536 148 375 159 391 196 165 
1155 -0.2913139284105876 -0.015674588015591236 1.1437277847679048 0 0 0 0.4 126 537 148 376 159 392 164 319 196 166 224 84 
1156 -0.07021021804423372 -0.02705232372310693 1.1960980291738825 0 0 0 0.34 126 538 148 377 214 105 
1157 -0.014131700704069303 -0.027701201198271408 1.1730161951623241 0 0 0 0.18 126 539 148 378 159 393 204 168 
1158 -0.0877749434515141 -0.024988692335779626 1.2078581877890717 0 0 0 0.2 63 874 126 540 196 167 204 169 232 267 
1159 -0.081663016871061 -0.02341524067504718 1.2035641021633103 0 0 0 0.15 126 541 217 137 220 218 
1160 0.07445749000541867 -0.029497032581473754 1.147995780809971 0 0 0 0.09 126 542 159 394 162 260 214 106 
1161 0.10580839830118133 -0.03020581062887804 1.1378711815401208 0 0 0 0.3 126 543 127 49 136 112 159 395 
1162 -0.28161070340509575 -0.01146153997504672 1.1727433764207156 0 0 0 0.26 126 544 148 379 220 219 
1163 0.4042007679939252 -0.04184707442866368 1.0699854701315819 0 0 0 0.39 63 875 126 545 148 380 162 261 163 135 164 320 
1164 -0.1386505323973296 -0.01668559812777582 1.227913156350549 0 0 0 0.4 63 876 126 546 148 381 159 396 164 321 220 220 224 85 
1165 -0.29181133163812667 -0.007165575423955943 1.1429158864205236 0 0 0 0.46 126 547 148 382 164 322 196 168 220 221 224 86 
1166 -0.0005141356785723336 -0.021019261020240647 1.1658614541882586 0 0 0 0.46 63 877 126 548 136 113 148 383 159 397 162 262 164 323 185 333 220 222 223 118 224 87 
1167 -0.029484556298129957 -0.018972986596569447 1.1751374610017886 0 0 0 0.43 126 549 146 30 219 142 232 268 
1168 0.4158019610393285 -0.03834723337212394 1.0742475810651007 0 0 0 1.42 126 550 184 123 220 223 235 152 
1169 0.2037255760317852 -0.028625717188323293 1.1061309809762554 0 0 0 0.2 126 551 148 384 159 398 172 140 185 334 194 42 213 221 220 224 222 262 
1170 -0.16658655562801294 -0.011538696380254192 1.238321433760677 0 0 0 0.14 126 552 148 385 159 399 176 167 204 170 224 88 
1171 -0.052266510864121665 -0.017026025624065466 1.1898705011562378 0 0 0 0.33 126 553 136 114 164 324 196 169 220 225 
1172 0.03938932262424131 -0.020616317730310994 1.1516902936550089 0 0 0 0.52 63 878 126 554 128 36 159 400 176 168 219 143 223 119 
1173 -0.2955425723414638 -0.0027514848952609632 1.1186783746530888 0 0 0 0.28 126 555 148 386 164 325 224 89 
1174 -0.2848235326504045 -0.004053790478764108 1.1631921402552827 0 0 0 0.41 126 556 148 387 164 326 196 170 220 226 
1175 0.2720111264510182 -0.029864513524740052 1.0908294626035018 0 0 0 0.12 126 557 159 401 220 227 
1176 -0.15269670948341693 -0.010041759203705451 1.2345671869042645 0 0 0 0.2 126 558 159 402 204 171 227 103 
1177 0.14386047059409907 -0.023316252641536004 1.1200669072453804 0 0 0 0.38 63 879 126 559 127 50 128 37 148 388 159 403 164 327 172 141 185 335 194 43 200 57 214 107 217 138 219 144 220 228 222 263 223 120 231 20 232 269 
1178 0.1438696736315974 -0.023166424121842156 1.1202604574000803 0 0 0 0.3 63 880 126 560 136 115 146 31 148 389 152 80 159 404 162 263 163 136 164 328 172 142 185 336 194 44 200 58 214 108 219 145 221 182 232 270 
1179 0.37890792349843844 -0.03424737548646107 1.0605370675564 0 0 0 0.22 126 561 136 116 148 390 220 229 
1180 -0.17062441953611185 -0.008969566399487134 1.2443464061236384 0 0 0 0.2 126 562 196 171 224 90 
1181 0.20540884771529322 -0.02537900147942573 1.1056407633078924 0 0 0 0.18 126 563 128 38 185 337 219 146 222 264 
1182 -0.030648526627168094 -0.010440538233942935 1.1755642209356487 0 0 0 0.31 126 564 164 329 196 172 214 109 224 91 
1183 0.23869964832827864 -0.02398590521946134 1.094605852481206 0 0 0 0.32 126 565 148 391 164 330 165 147 213 222 
1184 0.2385787644484019 -0.024064290999403094 1.0944695762072918 0 0 0 0.28 126 566 148 392 157 63 165 148 196 173 214 110 235 153 
1185 0.37790345924322366 -0.02967792380487604 1.0636556223563363 0 0 0 0.87 126 567 136 117 148 393 164 331 165 149 
1186 -0.02683940391274624 -0.011062289314976836 1.1711024885102974 0 0 0 0.3 63 881 126 568 128 39 136 118 148 394 159 405 162 264 185 338 214 111 
1187 -0.014805660188607496 -0.011047266492932029 1.1692656057128223 0 0 0 0.89 126 569 147 56 159 406 223 121 
1188 0.014770051358257517 -0.011718815869527045 1.1627013804122917 0 0 0 0.36 126 570 136 119 148 395 196 174 213 223 
1189 0.06260631684389267 -0.013578862694014907 1.1439379346492986 0 0 0 0.13 126 571 128 40 172 143 
1190 0.12876262424378676 -0.016856835266740023 1.124772134256176 0 0 0 0.11 126 572 204 172 219 147 222 265 227 104 
1191 0.3600954933119406 -0.02774117490388158 1.065990569513817 0 0 0 0.39 126 573 127 51 148 396 
1192 0.07439599935399033 -0.012964973736308453 1.1425977260977953 0 0 0 0.11 126 574 159 407 196 175 222 266 
1193 -0.22815509652034283 0.001080725728103941 1.2650137702585278 0 0 0 0.38 126 575 159 408 162 265 176 169 
1194 0.08843836904595316 -0.013235877946895765 1.1297864457018494 0 0 0 0.71 126 576 159 409 162 266 223 122 
1195 0.2124141871752242 -0.01767858543788822 1.1022592526639146 0 0 0 0.36 126 577 158 62 159 410 176 170 204 173 
1196 0.3910836204968901 -0.02663190187823487 1.0646174711859806 0 0 0 0.35 126 578 164 332 213 224 235 154 
1197 -0.2523495013122791 0.004915185487388718 1.2838632899695424 0 0 0 0.49 126 579 159 411 162 267 221 183 
1198 -0.052736754018917094 -0.0042614078110687825 1.1865840757773727 0 0 0 0.19 126 580 159 412 185 339 213 225 
1199 -0.23143575192993682 0.004896512733632161 1.2663866245621505 0 0 0 0.35 126 581 148 397 159 413 164 333 196 176 224 92 
1200 -0.02740114314867437 -0.004915368060726004 1.1690599222119828 0 0 0 0.23 63 882 126 582 136 120 159 414 185 340 214 112 
1201 0.35131537734319185 -0.022594104266270638 1.0628217855253026 0 0 0 0.09 126 583 222 267 232 271 
1202 -0.08619276472945622 -0.00047888038079380707 1.2040423882942919 0 0 0 0.09 126 584 128 41 159 415 
1203 -0.2514187472876374 0.008736558200644687 1.2831942474312257 0 0 0 0.4 126 585 159 416 232 272 
1204 -0.06316943325013888 -0.00026828746217428807 1.1918009481319733 0 0 0 0.33 126 586 136 121 214 113 221 184 
1205 0.33350693465852316 -0.01956926973069692 1.0696771672081486 0 0 0 0.17 126 587 148 398 159 417 
1206 0.262632876163724 -0.01579043564408349 1.0890331644004252 0 0 0 0.18 126 588 159 418 164 334 165 150 185 341 235 155 
1207 0.306666507694978 -0.016544843771644842 1.0759803936804149 0 0 0 0.21 126 589 172 144 184 124 
1208 0.3770984567484276 -0.018795277697561598 1.0600937188164337 0 0 0 1.15 126 590 164 335 165 151 220 230 223 123 
1209 -0.24106675782879355 0.011504615480202447 1.2579077583220724 0 0 0 0.21 126 591 148 399 220 231 
1210 0.3365791458229629 -0.01692914990042707 1.0676165999605 0 0 0 0.22 126 592 148 400 159 419 164 336 165 152 184 125 196 177 235 156 
1211 -0.2923438293000271 0.01675590396402282 1.139912622674323 0 0 0 0.27 126 593 164 337 220 232 
1212 -0.26069413301841127 0.01728511453762255 1.2759328611703062 0 0 0 0.19 126 594 159 420 196 178 
1213 -0.22878242254233846 0.01588055034766866 1.265256091117552 0 0 0 0.36 126 595 148 401 221 185 224 93 
1214 0.13593875268682926 -0.0023958956094615 1.1232946612425436 0 0 0 0.09 126 596 159 421 185 342 
1215 -0.2829646013618453 0.021873492846487867 1.2858824709270682 0 0 0 0.27 126 597 148 402 159 422 196 179 220 233 224 94 
1216 0.38832078383022717 -0.008275625584881591 1.0575402171622157 0 0 0 0.52 126 598 136 122 148 403 220 234 
1217 0.2117477171822798 0.0015048109420015385 1.1023166181466677 0 0 0 0.14 126 599 148 404 159 423 163 137 
1218 0.39347226806038477 -0.005071666600806603 1.0617232453277292 0 0 0 0.3 126 600 148 405 164 338 
1219 0.40208032562977747 -0.003834630831596982 1.0640092972003923 0 0 0 1.04 126 601 148 406 162 268 165 153 223 124 235 157 
1220 -0.2624844523507367 0.031976747508792036 1.2675389176573724 0 0 0 0.42 126 602 148 407 220 235 
1221 -0.306147341505449 0.03644619146363527 1.2935522389960679 0 0 0 0.09 126 603 148 408 224 95 
1222 0.40302822786983905 -0.0012479559121443753 1.0648778347657508 0 0 0 0.82 63 883 126 604 162 269 164 339 165 154 223 125 235 158 
1223 0.3904894525177646 0.0034444228462404544 1.0584648929903737 0 0 0 0.4 63 884 126 605 136 123 165 155 213 226 235 159 
1224 -0.29362873795513816 0.043523085017176846 1.1299639338533667 0 0 0 0.31 126 606 148 409 159 424 164 340 196 180 220 236 
1225 -0.17081338310176392 0.04144328379143322 1.2325877255015745 0 0 0 0.42 126 607 148 410 164 341 
1226 0.015724588756459268 0.03081693802479337 1.153463790066889 0 0 0 0.27 126 608 159 425 223 126 
1227 -0.08708018763750659 0.03905068471851636 1.2008412372120756 0 0 0 0.1 126 609 159 426 185 343 
1228 -0.004237722864490064 0.03394759627887887 1.1656262063959197 0 0 0 0.3 126 610 220 237 223 127 
1229 0.0024470055327208574 0.03350652387027905 1.1527054189563803 0 0 0 0.28 126 611 128 42 148 411 157 64 164 342 176 171 204 174 213 227 222 268 232 273 
1230 -0.08511605922774453 0.04235429577735334 1.2034350217009855 0 0 0 1.3 126 612 185 344 196 181 223 128 
1231 -0.13438656917036784 0.04682098814773104 1.2125942334626187 0 0 0 0.28 126 613 148 412 196 182 224 96 
1232 0.18169315167156697 0.027678135278487063 1.0818690740904273 0 0 0 1.25 126 614 159 427 223 129 
1233 -0.2920165264882636 0.053911496036022084 1.1288852648027774 0 0 0 0.25 126 615 148 413 220 238 
1234 0.05892092811715589 0.03663012216718539 1.1348973024158866 0 0 0 0.16 126 616 148 414 214 114 220 239 
1235 -0.0953101228623855 0.047037928605853915 1.2017134931807247 0 0 0 1.29 126 617 148 415 159 428 196 183 223 130 
1236 0.03342298966557433 0.0384173685162884 1.1410389965995211 0 0 0 0.27 126 618 147 57 164 343 220 240 222 269 
1237 0.03344182014248299 0.038411045676774974 1.1412039771203448 0 0 0 0.33 126 619 147 58 164 344 190 144 
1238 -0.0883272195640889 0.04746130924371823 1.1964277155969256 0 0 0 0.22 126 620 159 429 164 345 
1239 -0.2870391387275958 0.05759866371561247 1.1555951878088495 0 0 0 0.28 126 621 159 430 164 346 196 184 
1240 0.08932821021824738 0.03895753532673139 1.1239916090234034 0 0 0 0.12 63 885 126 622 148 416 159 431 
1241 0.05483754201157074 0.041779796460567835 1.1273459805771828 0 0 0 0.14 126 623 220 241 223 131 
1242 -0.1598069288478179 0.056945721600513304 1.2202432551653377 0 0 0 0.43 126 624 148 417 164 347 213 228 
1243 0.2203998138608661 0.03278015112565035 1.086110714440352 0 0 0 0.17 126 625 164 348 220 242 
1244 0.09729839862223517 0.041123375354462754 1.1181436266335743 0 0 0 0.74 126 626 127 52 148 418 185 345 196 185 223 132 
1245 0.20655718388229768 0.034620601810308634 1.0981811537388262 0 0 0 0.4 63 886 126 627 136 124 148 419 159 432 165 156 185 346 194 45 196 186 
1246 0.104229383404795 0.04170761873152889 1.1234906460508092 0 0 0 0.28 126 628 127 53 148 420 185 347 194 46 196 187 200 59 214 115 220 243 
1247 0.05762791717201799 0.04413771650465845 1.120565106885028 0 0 0 0.31 126 629 148 421 159 433 223 133 
1248 0.1599994516459797 0.04077324794309467 1.1007048785012943 0 0 0 0.2 126 630 148 422 185 348 196 188 
1249 0.05744973574021454 0.04862810775326958 1.1265657806194758 0 0 0 0.28 126 631 148 423 159 434 220 244 
1250 0.0999083487003297 0.047290760566908896 1.120463122549114 0 0 0 0.26 63 887 126 632 148 424 196 189 222 270 
1251 -0.0531170370825274 0.058071567750328894 1.175806050890385 0 0 0 0.19 126 633 148 425 164 349 196 190 200 60 
1252 0.06204033211283325 0.04968335880745063 1.1266448261165856 0 0 0 0.1 126 634 159 435 185 349 
1253 -0.28729303636440107 0.0695278322262375 1.1540664204667903 0 0 0 0.44 126 635 148 426 159 436 164 350 220 245 
1254 0.1316655379574948 0.04734668935944361 1.1131547310510967 0 0 0 0.23 126 636 148 427 159 437 
1255 -0.12980695006663914 0.06624094124627423 1.2062178123558094 0 0 0 0.19 126 637 164 351 176 172 
1256 0.11636781019325836 0.051588598045114085 1.1181837155876917 0 0 0 0.26 126 638 136 125 159 438 185 350 
1257 0.4027222626665823 0.03402667365094646 1.058532740095766 0 0 0 0.36 126 639 136 126 164 352 165 157 
1258 0.09374054409382303 0.053733771699769985 1.1203002612543118 0 0 0 0.54 126 640 146 32 148 428 196 191 213 229 214 116 223 134 
1259 0.19904382612697277 0.04817031231602008 1.0925969133772926 0 0 0 0.27 126 641 136 127 159 439 165 158 185 351 194 47 
1260 0.2109420327405336 0.048161471244146783 1.0907266219705762 0 0 0 0.1 126 642 159 440 185 352 
1261 0.09651975596907027 0.05626554438473529 1.1189675960540417 0 0 0 0.07 126 643 194 48 222 271 
1262 -0.022494630409596927 0.06745491515972067 1.15515071734896 0 0 0 0.46 126 644 164 353 176 173 204 175 213 230 214 117 
1263 0.03933752651490958 0.06347169909599118 1.1402837924345142 0 0 0 0.29 126 645 148 429 194 49 
1264 0.19620815210741133 0.05310416193128702 1.0925764310636459 0 0 0 0.41 126 646 148 430 159 441 
1265 0.1591089837745618 0.05547249652568711 1.0993437867177778 0 0 0 0.15 126 647 190 145 222 272 
1266 0.21343936526125742 0.05247390393712706 1.085725387666001 0 0 0 0.31 63 888 126 648 148 431 185 353 196 192 232 274 
1267 0.035244869229199866 0.06498974542692404 1.138172765603295 0 0 0 0.26 126 649 148 432 172 145 194 50 222 273 
1268 -0.13686573777626315 0.0796191572512689 1.2105902723679955 0 0 0 0.45 126 650 162 270 164 354 224 97 
1269 0.21673593856509776 0.05450014440413099 1.0838030458396448 0 0 0 0.17 126 651 148 433 159 442 194 51 
1270 -0.1490300976204057 0.08800204654142846 1.2147608945477022 0 0 0 0.42 126 652 176 174 190 146 204 176 232 275 
1271 0.011542094061341716 0.07902164236620882 1.1465229313721597 0 0 0 0.35 126 653 147 59 213 231 221 186 222 274 232 276 
1272 -0.12324882298844533 0.09331622703344551 1.2142504903798421 0 0 0 1.05 126 654 148 434 164 355 196 193 224 98 
1273 0.041748463668584715 0.0794430946862158 1.1375428778146872 0 0 0 0.5 126 655 148 435 194 52 221 187 223 135 
1274 -0.07004782934709539 0.09242195593321197 1.1872169644080752 0 0 0 0.94 126 656 136 128 148 436 164 356 223 136 
1275 -0.11884575320005217 0.09901279845692605 1.2421580529203473 0 0 0 0.75 126 657 220 246 223 137 
1276 -0.107991125289078 0.09415844285752277 1.1932114251340036 0 0 0 0.49 126 658 159 443 162 271 
1277 -0.13429618253241501 0.1005239577947572 1.2084828305252329 0 0 0 0.05 126 659 148 437 164 357 
1278 0.0412517822868225 0.08764885216186362 1.136724987670182 0 0 0 0.37 126 660 148 438 162 272 194 53 222 275 223 138 
1279 0.1193151413801882 0.08139216151805312 1.108788258405731 0 0 0 0.25 126 661 172 146 196 194 213 232 232 277 
1280 -0.1080885297535324 0.10343604674213386 1.1994829757293661 0 0 0 1.87 126 662 148 439 217 139 220 247 223 139 
1281 0.04362202467124905 0.09063029074299676 1.1356397013429282 0 0 0 0.28 126 663 148 440 194 54 214 118 222 276 
1282 0.11037528430364227 0.08703602225576122 1.1170180993355667 0 0 0 0.07 126 664 172 147 204 177 
1283 0.08313868328504541 0.09014021272747065 1.1194052016666773 0 0 0 0.33 126 665 148 441 164 358 194 55 
1284 0.08534021246567232 0.09199151788012912 1.1180912149258713 0 0 0 0.76 126 666 213 233 221 188 223 140 232 278 
1285 0.13077942198695272 0.08968129959503358 1.1043140705094825 0 0 0 0.32 126 667 146 33 194 56 200 61 222 277 
1286 0.11894447854992571 0.09375125957276001 1.1063983049885433 0 0 0 0.16 126 668 222 278 232 279 
1287 0.21117531148329283 0.08986067348757619 1.079827936050755 0 0 0 0.39 126 669 148 442 194 57 
1288 0.008946945560265923 0.10606616404045385 1.1427690235463606 0 0 0 0.2 126 670 148 443 222 279 
1289 0.041841570849382094 0.10248351231476362 1.1148813692127344 0 0 0 0.29 126 671 148 444 220 248 
1290 0.05562801739026971 0.10265458367668401 1.1235772614258437 0 0 0 0.55 126 672 172 148 222 280 223 141 232 280 
1291 0.06826687997676699 0.10303584747516556 1.1204437578450066 0 0 0 0.66 126 673 148 445 196 195 214 119 223 142 
1292 0.033803477097379894 0.10702427472179489 1.1323571841524587 0 0 0 0.65 126 674 194 58 200 62 220 249 223 143 
1293 0.05562536928842994 0.10647379877414002 1.1243136343629427 0 0 0 0.19 126 675 194 59 196 196 
1294 0.08993688369610887 0.10544678722861495 1.112372948734793 0 0 0 0.48 126 676 221 189 222 281 
1295 0.09355574226824474 0.11545122317341365 1.1121841496841547 0 0 0 0.29 126 677 148 446 213 234 222 282 232 281 
1296 0.1606486790832097 -0.16408439476832756 1.2081363654537722 0 0 0 0.37 126 678 217 140 232 282 
1297 0.16726568825507368 -0.16455843467585216 1.2171932587182677 0 0 0 0.69 126 679 217 141 220 250 
1298 0.2179144028208043 -0.14173477103254867 1.119549842860904 0 0 0 0.33 126 680 128 43 152 81 164 359 220 251 
1299 0.3007912735494604 -0.1403846818229998 1.0963111245837953 0 0 0 0.47 63 889 126 681 136 129 158 63 163 138 197 116 221 190 227 105 
1300 0.10896124767931724 -0.1321863971398439 1.1463447851779283 0 0 0 0.37 63 890 126 682 136 130 148 447 162 273 196 197 220 252 
1301 0.15315760685651567 -0.1327040052300273 1.1361839850838429 0 0 0 0.92 63 891 126 683 148 448 159 444 162 274 190 147 232 283 
1302 0.10439810171779051 -0.13047882751764917 1.1467369656544966 0 0 0 0.19 126 684 136 131 164 360 
1303 -0.18434088138785315 -0.12356531609086145 1.2657547705652434 0 0 0 0.2 126 685 159 445 196 198 
1304 0.07827564396249177 -0.12283482618415163 1.1530082851063128 0 0 0 0.41 126 686 162 275 172 149 204 178 208 128 220 253 
1305 0.12257176908163671 -0.12342718093677978 1.1367716563461214 0 0 0 0.28 126 687 148 449 159 446 196 199 
1306 0.12649537437929662 -0.12114133495628207 1.130555269575326 0 0 0 0.25 126 688 136 132 148 450 
1307 0.20993454922712027 -0.12104845163198122 1.1169604497725105 0 0 0 0.27 126 689 148 451 159 447 162 276 196 200 
1308 -0.027351477474945398 -0.11445057141985555 1.1890262270678822 0 0 0 0.49 63 892 126 690 136 133 148 452 159 448 162 277 220 254 224 99 232 284 
1309 -0.07149192960015395 -0.11367515780622192 1.209459151816443 0 0 0 0.05 126 691 148 453 224 100 
1310 -0.25529802962988307 -0.10980377837944175 1.305916044834937 0 0 0 0.32 126 692 148 454 224 101 
1311 -0.007520132258654175 -0.10943171728489164 1.1735685809791472 0 0 0 0.44 126 693 127 54 159 449 
1312 0.30795352588163266 -0.11187850033058655 1.083687070630595 0 0 0 0.18 126 694 136 134 148 455 
1313 -0.092966717583422 -0.10343653127126352 1.220985680721739 0 0 0 0.41 63 893 126 695 127 55 190 148 220 255 221 191 
1314 0.08291069915968612 -0.1054495108024229 1.1521427123712373 0 0 0 0.2 126 696 159 450 176 175 214 120 
1315 0.10982782018208898 -0.10508841296178122 1.1444724966298707 0 0 0 0.33 63 894 126 697 136 135 159 451 172 150 
1316 0.21060537926470108 -0.10325893991063992 1.1170786618633561 0 0 0 0.31 126 698 148 456 159 452 
1317 -0.02325605344615799 -0.0956756143672028 1.176849852521445 0 0 0 0.29 63 895 126 699 127 56 148 457 159 453 162 278 164 361 185 354 220 256 224 102 
1318 -0.03721430361932124 -0.0901431275298389 1.184621038740942 0 0 0 0.38 126 700 136 136 176 176 204 179 220 257 
1319 0.37360072703004465 -0.09904901051664258 1.0654518573990412 0 0 0 0.47 63 896 126 701 147 60 148 458 162 279 165 159 196 201 197 117 217 142 220 258 221 192 235 160 
1320 0.0633212469379912 -0.08794762135749683 1.1825601311598526 0 0 0 0.3 126 702 148 459 220 259 
1321 -0.2615225462797735 -0.07824470283586017 1.2925448033476934 0 0 0 0.65 126 703 148 460 164 362 196 202 
1322 -0.2847571197249654 -0.06621185709412886 1.160876436464904 0 0 0 0.36 126 704 148 461 220 260 
1323 -0.2817469371187934 -0.07538181146822852 1.3053229184756738 0 0 0 0.73 126 705 159 454 164 363 181 108 
1324 0.0948080239810373 -0.08165796438368976 1.1439432851198115 0 0 0 0.21 126 706 136 137 148 462 159 455 172 151 204 180 219 148 227 106 
1325 0.17942352244681814 -0.08400689065646004 1.1231856545120757 0 0 0 0.09 126 707 148 463 185 355 
1326 0.18496106721602193 -0.08368726780776038 1.1182689664003682 0 0 0 0.52 63 897 126 708 136 138 148 464 159 456 162 280 172 152 176 177 185 356 196 203 204 181 219 149 220 261 222 283 
1327 0.22867588325709262 -0.08470516486206907 1.1074217408526745 0 0 0 0.58 63 898 126 709 148 465 159 457 164 364 185 357 196 204 197 118 200 63 213 235 219 150 220 262 221 193 223 144 227 107 234 16 235 161 
1328 0.24052521092524604 -0.08462093693508019 1.103171919892918 0 0 0 0.45 63 899 126 710 146 34 148 466 159 458 162 281 163 139 165 160 172 153 185 358 190 149 196 205 213 236 220 263 221 194 222 284 232 285 235 162 
1329 -0.22531956257447014 -0.07282512496606407 1.2774901042167213 0 0 0 0.08 126 711 148 467 224 103 
1330 0.254657606199424 -0.08472969974882479 1.097806064887833 0 0 0 0.42 126 712 148 468 159 459 165 161 235 163 
1331 -0.2805745190769912 -0.07068890879510245 1.3048340545437234 0 0 0 0.28 126 713 181 109 196 206 224 104 
1332 0.1806822787793518 -0.08056800772453003 1.1181682658077257 0 0 0 0.5 126 714 136 139 159 460 162 282 172 154 204 182 222 285 
1333 0.1898787240617042 -0.0808403718431146 1.1165998590977035 0 0 0 0.49 63 900 126 715 136 140 148 469 159 461 163 140 165 162 172 155 176 178 185 359 197 119 222 286 235 164 
1334 0.2324175433295143 -0.0821970678819532 1.109833022047482 0 0 0 0.37 126 716 136 141 147 61 
1335 0.22381024450234394 -0.08141141244144016 1.1095606625771839 0 0 0 0.28 126 717 159 462 222 287 
1336 0.27424581243420454 -0.08168144366848348 1.0913891952534296 0 0 0 0.07 126 718 148 470 176 179 
1337 0.274136696815664 -0.08168839117877834 1.0915829831531974 0 0 0 0.31 126 719 148 471 176 180 184 126 
1338 0.34533018539062027 -0.08363346264506477 1.0746973154537873 0 0 0 0.15 126 720 136 142 172 156 
1339 -0.2569095430852736 -0.06400147533582157 1.2932071033097348 0 0 0 0.49 126 721 159 463 224 105 
1340 0.32715429208402635 -0.0802873130454038 1.0777960392906663 0 0 0 0.49 126 722 148 472 159 464 232 286 235 165 
1341 -0.017143324144782476 -0.06787401489896132 1.1763150564137477 0 0 0 0.34 63 901 126 723 148 473 159 465 162 283 164 365 172 157 185 360 
1342 0.027631498654821816 -0.06822599305193106 1.1613955063940276 0 0 0 0.21 63 902 126 724 148 474 162 284 185 361 224 106 
1343 -0.24922006144656605 -0.055327752583585056 1.2873676532863934 0 0 0 0.38 126 725 159 466 164 366 224 107 
1344 -0.26114400264479515 -0.04859422600532713 1.288158298952577 0 0 0 0.48 126 726 164 367 176 181 220 264 224 108 
1345 -0.13599008406560895 -0.04906578473970659 1.2413304803053538 0 0 0 0.21 126 727 148 475 224 109 
1346 -0.2738361051795684 -0.04350876919667893 1.278565955950332 0 0 0 0.39 126 728 148 476 164 368 220 265 
1347 -0.25882425941704995 -0.043816434531237104 1.2787778282962783 0 0 0 0.35 126 729 148 477 224 110 
1348 0.09821672852275581 -0.055369502051981975 1.1399417337600448 0 0 0 0.41 63 903 126 730 136 143 148 478 162 285 172 158 200 64 
1349 0.2020005258791647 -0.05689755066701054 1.1138864982745822 0 0 0 0.3 126 731 162 286 196 207 220 266 
1350 0.094185921451216 -0.05274975704725044 1.1409947507448774 0 0 0 0.18 63 904 126 732 148 479 159 467 162 287 185 362 222 288 
1351 -0.2961351473990363 -0.032636822991694785 1.1674818969425382 0 0 0 0.88 126 733 148 480 159 468 
1352 -0.13422835070780642 -0.040592337812139466 1.228645290012945 0 0 0 0.41 126 734 148 481 227 108 
1353 -0.3220806471327498 -0.019446535423945695 1.035038383638686 0 0 0 0.42 126 735 181 110 221 195 
1354 -0.2926144993902913 -0.021778566434467662 1.1379371858253025 0 0 0 0.21 126 736 159 469 164 369 196 208 
1355 -0.2926144993902914 -0.021778566434467676 1.1379371858253025 0 0 0 0.21 126 737 159 470 164 370 196 209 
1356 -0.3143886808753388 -0.01513475132271007 1.0598880660796197 0 0 0 0.24 126 738 159 471 196 210 221 196 
1357 0.2480881756999966 -0.04394736866782483 1.0976426608897922 0 0 0 0.23 126 739 163 141 196 211 
1358 -0.12160484924433863 -0.028697418370703748 1.2233989687757292 0 0 0 0.11 126 740 204 183 232 287 
1359 -0.2965770688463303 -0.015886159306777954 1.1392286175228958 0 0 0 0.48 126 741 148 482 164 371 181 111 
1360 0.3926775147627789 -0.04892367590739738 1.1047101587875832 0 0 0 0.43 126 742 148 483 220 267 
1361 -0.28782848855760457 -0.014396420386666118 1.152126701614668 0 0 0 0.46 126 743 159 472 164 372 
1362 -0.2843808757975447 -0.0127426421220944 1.164166750016407 0 0 0 0.55 126 744 148 484 159 473 164 373 
1363 -0.2868524915212481 -0.011559178670647176 1.1606587811717732 0 0 0 0.27 126 745 164 374 181 112 
1364 -0.16687898886969393 -0.017114671316542714 1.2382753172255476 0 0 0 0.29 126 746 148 485 159 474 196 212 204 184 224 111 
1365 -0.18147646023047231 -0.016536222460176067 1.2456309657119065 0 0 0 0.16 126 747 148 486 159 475 220 268 224 112 
1366 -0.0955614264948849 -0.013814904564400678 1.2032477819527831 0 0 0 0.42 63 905 126 748 159 476 162 288 
1367 -0.2177273284196472 -0.008024543397012576 1.2658605364359505 0 0 0 0.48 126 749 127 57 190 150 
1368 0.002967036767631806 -0.015257204809722133 1.161435118596015 0 0 0 0.51 63 906 126 750 127 58 148 487 159 477 164 375 185 363 196 213 213 237 214 121 217 143 219 151 224 113 
1369 0.2766674516526662 -0.026399101063096116 1.0834842855761504 0 0 0 0.49 63 907 126 751 127 59 148 488 159 478 163 142 196 214 223 145 
1370 -0.1675866128284251 -0.005596553791097322 1.239846249615841 0 0 0 0.28 126 752 148 489 164 376 176 182 196 215 213 238 217 144 220 269 224 114 232 288 
1371 -0.23658306951766525 -0.0004612953566717762 1.271228462487849 0 0 0 0.41 126 753 162 289 164 377 220 270 221 197 
1372 -0.18670042120588223 -0.0021686843313165768 1.2503458880225908 0 0 0 0.33 126 754 157 65 220 271 232 289 
1373 -0.02277649572056941 -0.01032367882301406 1.1697114309031493 0 0 0 0.31 126 755 147 62 190 151 219 152 
1374 0.022163550728877858 -0.01155482385603127 1.1544230139485925 0 0 0 0.94 126 756 136 144 223 146 
1375 0.02859494637636149 -0.012037663488899335 1.1525575917139868 0 0 0 0.92 126 757 148 490 223 147 
1376 0.05776503766709011 -0.012978579085370432 1.146384021777121 0 0 0 0.12 126 758 136 145 159 479 
1377 0.3850962923610364 -0.02755463867700094 1.0637879217636648 0 0 0 0.59 63 908 126 759 136 146 148 491 164 378 165 163 184 127 197 120 220 272 235 166 
1378 0.12377681900968499 -0.011388626449784228 1.1251855097288306 0 0 0 0.2 126 760 127 60 148 492 196 216 220 273 
1379 -0.287628586092874 0.010314806009892973 1.1526939574117983 0 0 0 0.27 126 761 148 493 159 480 164 379 196 217 220 274 
1380 -0.27844024891558616 0.008876883416382325 1.2699380793660562 0 0 0 0.5 126 762 148 494 164 380 220 275 
1381 0.21860834073512914 -0.013709019330703308 1.0990384241836302 0 0 0 0.29 126 763 136 147 148 495 165 164 
1382 -0.27153267162331923 0.012854575264995895 1.275548563991243 0 0 0 0.16 126 764 148 496 220 276 224 115 
1383 0.3399718438487249 -0.016313319744338778 1.0693185091966757 0 0 0 0.19 126 765 148 497 213 239 
1384 0.12547408003746738 -0.004957784622272263 1.1263470403671307 0 0 0 0.14 126 766 136 148 148 498 162 290 
1385 -0.29793645726942164 0.016520123741918805 1.1230105628640419 0 0 0 0.18 126 767 159 481 164 381 
1386 -0.28569427624360816 0.0198982649612346 1.1610580520286775 0 0 0 0.29 126 768 164 382 220 277 
1387 0.21459969340007753 0.0012025911191927319 1.0964676173176473 0 0 0 0.23 126 769 136 149 185 364 194 60 
1388 0.20797795946917613 0.0019123330833436827 1.1031530383721169 0 0 0 0.29 63 909 126 770 136 150 148 499 159 482 162 291 185 365 194 61 196 218 208 129 214 122 220 278 
1389 0.21741533671165447 0.002630082956751228 1.093429877195624 0 0 0 0.34 126 771 148 500 162 292 
1390 0.38440047289427803 0.0035273510691056884 1.0575693724266193 0 0 0 0.13 126 772 136 151 222 289 
1391 -0.16774110167340622 0.03609283916414302 1.2340179846386186 0 0 0 0.36 126 773 162 293 164 383 224 116 
1392 -0.07909927938429169 0.038299771855522434 1.2111468065830084 0 0 0 0.97 126 774 159 483 185 366 223 148 
1393 -0.034788163172160116 0.035277834233435314 1.1632160076832327 0 0 0 0.72 63 910 126 775 127 61 159 484 185 367 214 123 224 117 
1394 -0.2962146133582263 0.049214993622261574 1.1345588214396534 0 0 0 0.15 126 776 164 384 220 279 
1395 -0.10161462613469058 0.041486944762186076 1.1957052072167151 0 0 0 0.37 126 777 217 145 220 280 
1396 -0.0312041070616768 0.03855230399364389 1.1594211737087865 0 0 0 0.14 126 778 214 124 224 118 
1397 0.02586194380610285 0.03639950411053901 1.1464288551697797 0 0 0 0.41 126 779 127 62 223 149 
1398 0.12786419705795316 0.030708877806502798 1.103922646577141 0 0 0 0.81 126 780 127 63 148 501 223 150 
1399 -0.054872016001094606 0.045356325286550696 1.1765415543830267 0 0 0 0.31 63 911 126 781 127 64 196 219 
1400 0.09522119119982889 0.035266053240409705 1.1251533870697832 0 0 0 0.31 126 782 127 65 148 502 164 385 220 281 
1401 -0.2906946497342525 0.05607419204650374 1.144116037483929 0 0 0 0.08 126 783 159 485 220 282 
1402 -0.020336839027907946 0.046013107341509374 1.1581543640308976 0 0 0 0.33 63 912 126 784 136 152 148 503 159 486 164 386 176 183 185 368 190 152 213 240 214 125 220 283 221 198 222 290 
1403 -0.069948941654817 0.0497363184064586 1.2100849281803012 0 0 0 0.83 126 785 159 487 223 151 
1404 0.18198517602569456 0.033670098816502486 1.079820012270816 0 0 0 0.85 126 786 136 153 159 488 223 152 
1405 0.19416339396473817 0.03425592786501815 1.0961409466691783 0 0 0 0.32 63 913 126 787 136 154 148 504 159 489 165 165 185 369 214 126 220 284 222 291 235 167 
1406 -0.08512889765996369 0.05654281955392717 1.1892123222174051 0 0 0 0.24 126 788 159 490 204 185 
1407 0.10892870874091581 0.04346536608953037 1.113169747945393 0 0 0 0.76 126 789 127 66 136 155 148 505 220 285 223 153 
1408 0.06880877026734397 0.04723173710941809 1.1301073998572904 0 0 0 0.46 126 790 136 156 196 220 214 127 222 292 
1409 0.18064481761605694 0.040493738522123596 1.0973896198017525 0 0 0 0.89 63 914 126 791 136 157 148 506 213 241 223 154 
1410 -0.30524228211200194 0.07304266963525984 1.2850192701588818 0 0 0 0.34 126 792 148 507 224 119 
1411 -0.17125325414838063 0.0670855645240595 1.2241268678643218 0 0 0 0.58 126 793 162 294 176 184 217 146 224 120 
1412 0.21185214408461747 0.057118659313742264 1.0863034710484043 0 0 0 0.17 126 794 165 166 235 168 
1413 -0.17977583763250124 0.08593112310812577 1.2290290999466178 0 0 0 0.36 126 795 220 286 224 121 
1414 -0.2988172225718907 0.09527367811933962 1.1335051610833244 0 0 0 0.26 126 796 164 387 220 287 
1415 -0.06552445731980143 0.08924781194748249 1.1826079718676743 0 0 0 1.32 126 797 214 128 221 199 223 155 
1416 -0.1237676974519721 0.09526672472888793 1.1978941840122692 0 0 0 0.38 126 798 164 388 219 153 
1417 0.06321980399596566 0.0835695378065451 1.1248386192114934 0 0 0 0.53 126 799 221 200 222 293 
1418 -0.1123190642365663 0.09958419353225569 1.1969534551621648 0 0 0 0.25 126 800 148 508 164 389 220 288 
1419 0.06748845240152046 0.08494373441647543 1.1237402221528943 0 0 0 0.27 126 801 147 63 222 294 
1420 -0.19527318595201554 0.10935506193920012 1.2302825216185354 0 0 0 0.51 126 802 176 185 196 221 219 154 227 109 
1421 -0.28970015594678317 0.10823972583985346 1.1488678676526167 0 0 0 0.38 126 803 148 509 159 491 
1422 0.05754365621102135 0.09152741200153962 1.1275449372346702 0 0 0 0.47 126 804 147 64 148 510 194 62 214 129 221 201 
1423 0.05415132394386359 0.09269545365867307 1.1268566261537933 0 0 0 0.38 126 805 148 511 194 63 
1424 0.1162756626284272 0.09249758673679909 1.110415365841818 0 0 0 0.21 126 806 196 222 199 94 
1425 0.045536670119028115 0.09813909815289949 1.1337346037229274 0 0 0 0.51 126 807 148 512 214 130 223 156 
1426 0.04529890165195807 0.0983638267466169 1.1346029136145048 0 0 0 0.35 126 808 148 513 194 64 
1427 0.04867968262583358 0.10820554838479847 1.0843058179464455 0 0 0 0.34 126 809 148 514 220 289 
1428 -0.019496892664905143 -0.16251025687744258 1.1974504970463578 0 0 0 0.18 126 810 148 515 157 66 158 64 199 95 224 122 
1429 0.11549447007773107 -0.15106157922137955 1.196602091528146 0 0 0 0.46 63 915 126 811 148 516 220 290 
1430 0.20359726153805055 -0.1288196549959504 1.1212565720295058 0 0 0 0.47 63 916 126 812 159 492 162 295 163 143 164 390 190 153 198 146 219 155 220 291 221 202 
1431 0.21754976544604612 -0.12914549473669992 1.114915879879548 0 0 0 0.18 126 813 136 158 220 292 
1432 0.30910665676191723 -0.13167949097486756 1.093209329911071 0 0 0 0.3 126 814 136 159 232 290 
1433 -0.30343907744513526 -0.10335453523449345 1.1167299616907944 0 0 0 0.55 126 815 159 493 181 113 220 293 
1434 0.19162505586639653 -0.12793731884752457 1.1267742126444085 0 0 0 0.31 126 816 136 160 162 296 
1435 -0.0716194183874325 -0.12210680970422179 1.2123571060901812 0 0 0 0.41 63 917 126 817 136 161 148 517 159 494 162 297 164 391 172 159 176 186 181 114 196 223 199 96 219 156 220 294 221 203 224 123 227 110 
1436 -0.07150188648093632 -0.12195142237679707 1.2118583588759972 0 0 0 0.37 126 818 128 44 146 35 148 518 157 67 181 115 200 65 213 242 220 295 221 204 232 291 
1437 0.2063509552387043 -0.124685267735113 1.1175311431855917 0 0 0 0.3 63 918 126 819 148 519 159 495 163 144 164 392 185 370 208 130 
1438 -0.3044974908948048 -0.09851955072571263 1.1108459781407996 0 0 0 0.21 126 820 181 116 196 224 199 97 224 124 
1439 -0.30439541726776603 -0.09865406532037778 1.1105953629650969 0 0 0 0.06 126 821 181 117 199 98 224 125 
1440 0.2132456857218983 -0.1245220080175707 1.1146517679400498 0 0 0 0.17 126 822 148 520 159 496 196 225 
1441 0.07454223328570127 -0.11793143977147044 1.1548579687871259 0 0 0 0.73 63 919 126 823 136 162 148 521 159 497 164 393 196 226 200 66 214 131 
1442 0.05649670838035279 -0.11741982610442156 1.1614212381139666 0 0 0 0.4 63 920 126 824 148 522 158 65 159 498 162 298 164 394 176 187 185 371 196 227 204 186 217 147 222 295 224 126 231 21 232 292 
1443 0.3188702274366443 -0.12458121745792218 1.0894532459618542 0 0 0 0.29 126 825 152 82 208 131 
1444 0.17189312523967398 -0.11868266523385892 1.1351341659140923 0 0 0 0.18 126 826 148 523 162 299 164 395 
1445 -0.22262143955551628 -0.10525762568524669 1.2841834307001252 0 0 0 0.11 126 827 148 524 159 499 224 127 
1446 -0.22218923359286286 -0.10498869172564097 1.282330579333434 0 0 0 0.23 126 828 148 525 196 228 224 128 
1447 -0.013488500705225493 -0.10602861764497819 1.1807681935757548 0 0 0 0.78 63 921 126 829 136 163 148 526 159 500 
1448 -0.07337888610508338 -0.10460457712882164 1.2162074980872672 0 0 0 0.33 126 830 185 372 190 154 221 205 
1449 0.29450874988659115 -0.11163319612941258 1.0917462113792866 0 0 0 0.79 63 922 126 831 136 164 148 527 152 83 159 501 196 229 
1450 -0.02268576911070863 -0.10355039428851949 1.1846894851440848 0 0 0 0.8 126 832 127 67 146 36 196 230 
1451 -0.26141897236950373 -0.06756040345498905 1.293137876549411 0 0 0 0.63 126 833 159 502 164 396 181 118 220 296 221 206 232 293 
1452 -0.2770194768537588 -0.06595592683485602 1.30106909011906 0 0 0 0.45 126 834 148 528 159 503 196 231 
1453 -0.2941253866198483 -0.05144793795258393 1.1369669287023716 0 0 0 0.47 126 835 148 529 164 397 196 232 220 297 
1454 0.07612578170210557 -0.06867142766748069 1.1506599610932475 0 0 0 0.47 63 923 126 836 127 68 136 165 148 530 159 504 162 300 164 398 185 373 220 298 
1455 0.1842709308485864 -0.07008933325406812 1.1160675612775197 0 0 0 0.11 126 837 148 531 185 374 220 299 
1456 0.09777986860498225 -0.06647909511457156 1.1411879710900965 0 0 0 0.29 126 838 148 532 164 399 
1457 0.2606812929322165 -0.0721543011764011 1.094640374727151 0 0 0 0.11 126 839 148 533 164 400 
1458 0.32046371751001906 -0.07333826536592826 1.0775107914066007 0 0 0 0.44 63 924 126 840 136 166 148 534 159 505 163 145 184 128 196 233 208 132 
1459 0.3498227448949596 -0.07377011065499646 1.068603617393742 0 0 0 0.2 126 841 127 69 136 167 
1460 0.3526980213412385 -0.07197908553740805 1.062053836183206 0 0 0 0.16 126 842 148 535 220 300 
1461 0.24577830385973337 -0.06435850394876258 1.1048664853858694 0 0 0 0.47 126 843 164 401 165 167 
