# 3D point list with one line of data per point:
#   POINT3D_ID, X, Y, Z, R, G, B, ERROR, TRACK[] as (IMAGE_ID, POINT2D_IDX)
# Number of points: 320, mean track length: 9.28
5517 -0.03406368483888537 0.10413702567732504 1.0013486586071847 0 0 0 0.18 16 1412 213 3016 214 1254 28 945 146 1991 187 687 
5518 0.14940471829529295 0.10472728060822786 0.9920318593450582 0 0 0 0.17 16 1413 213 3017 214 1255 28 946 
5519 0.0002348431009029406 0.10621590638407892 0.9998718770736947 0 0 0 0.27 16 1414 188 146 214 1256 28 947 38 550 109 675 146 1992 
5520 -0.11260028291244466 0.1080291709550272 1.0124655776984455 0 0 0 0.41 16 1415 176 1669 213 3018 28 948 146 1993 
5521 -0.03418050825777318 0.10727061523054736 1.000644803405879 0 0 0 0.37 16 1416 176 1670 213 3019 214 1257 28 949 146 1994 187 688 
5522 -0.10769590263217273 0.10989458616232632 1.0111248386229037 0 0 0 0.23 16 1417 176 1671 213 3020 
5523 -0.08182212046391496 0.10949768048733032 1.01016375983755 0 0 0 0.56 16 1418 176 1672 213 3021 
5524 0.21778549924278193 0.10908783887535949 0.9908255700791897 0 0 0 0.25 175 561 200 948 213 3022 93 743 146 1995 13 673 28 950 124 805 98 672 187 689 
5525 -0.03246678790633104 0.1096945341181847 1.0006478020943463 0 0 0 0.26 11 3048 16 1419 176 1673 213 3023 33 783 38 551 44 875 52 715 93 744 146 1996 200 949 28 951 60 542 124 806 98 673 187 690 
5526 0.036005256407901066 0.10923799005285507 0.9967157595318302 0 0 0 0.14 16 1420 194 809 213 3024 214 1258 
5527 0.2537008863256792 0.11292157420526225 0.9936893550409811 0 0 0 0.33 164 1982 213 3025 214 1259 
5528 0.2905891959675121 0.1129351020213227 0.9896375055140261 0 0 0 0.22 11 3049 146 1997 175 562 184 452 194 810 213 3026 
5529 -0.2773019028753979 0.11689336058633275 1.0386305054807883 0 0 0 0.12 4 3034 157 1352 213 3027 11 3050 
5530 0.04844456855195607 0.11361205237324051 0.9926536322379492 0 0 0 0.23 16 1421 213 3028 214 1260 223 190 28 952 
5531 -0.10796840388992618 0.11576501219341177 1.0079654476250701 0 0 0 0.21 16 1422 176 1674 213 3029 214 1261 
5532 -0.038219300311602415 0.1168382351212626 0.9996652935184895 0 0 0 0.35 11 3051 16 1423 146 1998 148 1450 176 1675 213 3030 214 1262 38 552 50 989 52 716 77 777 92 712 93 745 110 483 13 674 28 953 41 108 60 543 113 442 229 276 
5533 -0.032379378849883254 0.11818497119695927 0.9991727818518035 0 0 0 0.31 16 1424 19 952 200 950 213 3031 224 593 231 404 33 784 44 876 50 990 93 746 146 1999 13 675 214 1263 41 109 124 807 98 674 187 691 
5534 0.29133744419444507 0.11960492830487769 0.9886638087644656 0 0 0 0.51 11 3052 148 1451 196 859 33 785 44 877 50 991 107 384 
5535 -0.034426524066611584 0.11992145939606069 0.9987950049050841 0 0 0 0.35 16 1425 194 811 213 3032 214 1264 13 676 33 786 146 2000 92 713 93 747 124 808 98 675 200 951 187 692 
5536 0.3230322653948434 0.12064195593160205 0.9869646067915351 0 0 0 0.4 148 1452 164 1983 165 495 184 453 194 812 235 590 
5537 0.3604765557289928 0.1233611289030424 0.9866656691089487 0 0 0 0.16 164 1984 194 813 213 3033 
5538 0.3621681512960505 0.12436958559144007 0.9850997783072558 0 0 0 0.17 148 1453 165 496 235 591 
5539 0.003926401547852354 0.1263066525424671 0.9963819900718819 0 0 0 0.48 4 3035 11 3053 16 1426 146 2001 164 1985 175 563 213 3034 214 1265 98 676 
5540 -0.1150325494967683 0.12788574296207253 1.0107742107408662 0 0 0 0.41 16 1427 17 1401 213 3035 13 677 146 2002 
5541 -0.03661732532734094 0.12724663425924304 0.9975369860139017 0 0 0 0.45 11 3054 16 1428 176 1676 213 3036 214 1266 33 787 93 748 124 809 13 678 187 693 146 2003 
5542 0.21795968086449882 0.12814588326961238 0.9915205516881668 0 0 0 0.21 4 3036 213 3037 214 1267 
5543 -0.10886264569658097 0.13512900147790216 1.006059835389739 0 0 0 0.26 11 3055 16 1429 146 2004 176 1677 213 3038 41 110 92 714 98 677 
5544 0.1184182251126042 0.14611028486687366 0.9904079878163886 0 0 0 0.22 2 2027 194 814 200 952 214 1268 
5545 0.1401685759153482 -0.15337613696942232 1.039582226175078 0 0 0 0.53 2 2028 11 3056 159 729 185 529 213 3039 
5546 -0.2583304760838431 -0.14573957916528985 1.0834808124251367 0 0 0 0.33 4 3037 11 3057 17 1402 118 1240 127 682 128 843 164 1986 172 768 204 931 213 3040 
5547 -0.13611667681720796 -0.1434343261102606 1.060346549009759 0 0 0 0.37 9 892 32 755 136 683 176 1678 214 1269 124 810 146 2005 39 282 44 878 110 484 
5548 -0.06188431903122524 -0.1421918339936736 1.0476984113957069 0 0 0 0.33 11 3058 16 1430 146 2006 148 1454 213 3041 
5549 -0.034252175206712226 -0.12497157947290577 1.0394685398748773 0 0 0 0.59 4 3038 11 3059 16 1431 136 684 146 2007 159 730 164 1987 176 1679 185 530 213 3042 214 1270 2 2029 33 788 92 715 109 676 113 443 13 679 
5550 0.013683753758294767 -0.12665439042368404 1.0401654058442424 0 0 0 0.46 11 3060 16 1432 157 1353 158 831 200 953 224 594 93 749 146 2008 159 731 
5551 -0.07154785571858972 -0.12587852009673972 1.0537650181375635 0 0 0 0.17 16 1433 176 1680 213 3043 
5552 -0.050627532023911785 -0.11746157160673638 1.0382400863070924 0 0 0 0.15 16 1434 157 1354 176 1681 19 953 
5553 0.14017893597765096 -0.12099583489861152 1.0328080645548459 0 0 0 0.41 9 893 135 451 147 604 152 406 232 1218 
5554 -0.05415204944765906 -0.11455078163363426 1.037404122998799 0 0 0 0.47 16 1435 148 1455 164 1988 214 1271 224 595 19 954 32 756 146 2009 176 1682 194 815 200 954 28 954 36 247 44 879 85 725 92 716 113 444 229 277 40 316 
5555 0.046732557789713594 -0.11724185511456676 1.0375969111019046 0 0 0 0.45 9 894 16 1436 148 1456 164 1989 196 860 200 955 214 1272 
5556 0.28801616319887663 -0.12135308087860401 1.0336297807293742 0 0 0 0.45 4 3039 159 732 213 3044 44 880 50 992 61 695 93 750 124 811 201 280 
5557 -0.017768671185139293 -0.10782869787962594 1.0386681932011521 0 0 0 0.48 16 1437 164 1990 194 816 200 956 213 3045 224 596 93 751 135 452 136 685 13 680 28 955 124 812 
5558 0.05052023504934571 -0.10866089275495917 1.0359939564353349 0 0 0 0.12 2 2030 16 1438 148 1457 164 1991 213 3046 
5559 -0.0059199874784157044 -0.10427322165965129 1.0385016395024436 0 0 0 0.46 16 1439 213 3047 224 597 4 3040 11 3061 32 757 146 2010 157 1355 176 1683 194 817 28 956 33 789 38 553 187 694 
5560 -0.09197678765057898 -0.10183932532301125 1.0404932529092457 0 0 0 1.0 2 2031 16 1440 27 528 157 1356 164 1992 224 598 
5561 -0.20226457091623787 -0.10083823789018301 1.059272827188677 0 0 0 0.56 11 3062 157 1357 176 1684 213 3048 
5562 0.310009997338093 -0.11081090867586083 1.0328958438701823 0 0 0 0.58 2 2032 11 3063 19 955 32 758 126 474 127 683 128 844 136 686 146 2011 148 1458 162 783 163 235 176 1685 184 454 204 932 213 3049 221 810 227 579 52 717 60 544 105 205 111 407 35 14 77 778 107 385 
5563 0.06345678863787343 -0.10258028826229966 1.0349381464183995 0 0 0 0.12 16 1441 19 956 157 1358 
5564 0.3209959063219467 -0.1072340169721583 1.0288243251280265 0 0 0 0.41 4 3041 11 3064 127 684 148 1459 159 733 176 1686 213 3050 
5565 0.1346356783698508 -0.09958919137244909 1.0303403930854305 0 0 0 0.33 16 1442 194 818 213 3051 109 677 
5566 -0.02631719830640881 -0.09615020965465744 1.036452137142198 0 0 0 0.28 2 2033 16 1443 29 732 146 2012 148 1460 157 1359 222 655 44 881 109 678 28 957 98 678 187 695 
5567 0.11298090972909884 -0.098152954972565 1.031536408922529 0 0 0 0.45 9 895 11 3065 15 737 16 1444 19 957 29 733 118 1241 135 453 146 2013 157 1360 159 734 164 1993 176 1687 185 531 194 819 213 3052 219 724 33 790 50 993 85 726 93 752 109 679 175 564 40 317 42 470 61 696 77 779 110 485 124 813 36 248 39 283 
5568 0.23151578032947912 -0.0993324286727455 1.0257370562703958 0 0 0 0.79 148 1461 197 421 213 3053 28 958 146 2014 234 406 
5569 -0.02581519015651322 -0.0938991384377595 1.036127490853342 0 0 0 0.38 11 3066 16 1445 127 685 146 2015 194 820 213 3054 224 599 200 957 33 791 44 882 92 717 93 753 98 679 
5570 -0.006105047729619086 -0.0911851549285607 1.0341840404932554 0 0 0 0.57 4 3042 11 3067 16 1446 27 529 135 454 146 2016 157 1361 158 832 164 1994 176 1688 194 821 213 3055 224 600 9 896 32 759 159 735 185 532 196 861 214 1273 33 792 85 727 92 718 93 754 109 680 110 486 112 278 113 445 50 994 28 959 13 681 98 680 200 958 187 696 
5571 0.11634467833260431 -0.09257123467074509 1.030492908720198 0 0 0 0.57 11 3068 16 1447 146 2017 148 1462 176 1689 213 3056 13 682 92 719 110 487 98 681 
5572 -0.061913583749870174 -0.08753939506197611 1.037904115437266 0 0 0 0.42 2 2034 9 897 16 1448 185 533 213 3057 214 1274 33 793 44 883 109 681 146 2018 13 683 98 682 
5573 -0.139920417810671 -0.0863101151936087 1.0514360999192913 0 0 0 0.36 2 2035 16 1449 17 1403 19 958 128 845 157 1362 158 833 176 1690 196 862 200 959 214 1275 220 505 227 580 33 794 38 554 44 884 50 995 61 697 85 728 92 720 93 755 109 682 110 488 136 687 146 2019 13 684 40 318 124 814 127 686 39 284 135 455 
5574 -0.009517060446287536 -0.08662032489889333 1.033880184705526 0 0 0 0.58 11 3069 16 1450 19 959 157 1363 162 784 176 1691 200 960 213 3058 214 1276 224 601 13 685 61 698 231 405 28 960 113 446 146 2020 98 683 187 697 
5575 -0.07303827046564479 -0.08416003385542828 1.0366961856347483 0 0 0 0.39 4 3043 11 3070 16 1451 17 1404 29 734 118 1242 128 846 136 688 146 2021 147 605 152 407 157 1364 158 834 159 736 172 769 176 1692 179 256 194 822 204 933 213 3059 219 725 222 656 9 898 32 760 185 534 200 961 214 1277 231 406 52 718 109 683 28 961 50 996 98 684 142 313 148 1463 
5576 0.02727969701703809 -0.08573789346696058 1.0307973872766611 0 0 0 0.35 16 1452 159 737 214 1278 40 319 44 885 52 719 85 729 110 489 113 447 
5577 0.13652958549446703 -0.08788523247094497 1.0283183775829736 0 0 0 0.65 16 1453 148 1464 159 738 185 535 194 823 197 422 213 3060 214 1279 29 735 128 847 135 456 146 2022 158 835 163 236 164 1995 179 257 200 962 204 934 38 555 77 780 85 730 92 721 109 684 112 279 50 997 52 720 54 115 91 265 113 448 187 698 39 285 201 281 
5578 0.4007223330780813 -0.09169381366833872 1.0234952863568532 0 0 0 0.39 17 1405 164 1996 165 497 172 770 227 581 235 592 
5579 0.028434073515612987 -0.08322564257240904 1.032033739967644 0 0 0 0.3 2 2036 11 3071 16 1454 148 1465 159 739 175 565 196 863 214 1280 33 795 113 449 124 815 
5580 0.2065387784637404 -0.08681212012717139 1.0272398523908104 0 0 0 0.47 2 2037 3 1035 17 1406 29 736 32 761 146 2023 157 1365 172 771 175 566 176 1693 194 824 197 423 204 935 213 3061 214 1281 219 726 222 657 234 407 38 556 52 721 85 731 92 722 13 686 42 471 43 261 54 116 77 781 91 266 96 398 50 998 124 816 107 386 
5581 0.13576897737392515 -0.08507997137998405 1.0276654496347641 0 0 0 0.3 16 1455 176 1694 196 864 197 424 2 2038 194 825 77 782 92 723 110 490 201 282 
5582 0.3931515849575392 -0.08638491080345521 1.0269224092563145 0 0 0 0.39 32 762 196 865 213 3062 
5583 0.010179313987518585 -0.07850259814255735 1.0333192510188673 0 0 0 0.1 16 1456 17 1407 213 3063 
5584 0.3091812660153096 -0.08331269871253834 1.0247351738399635 0 0 0 0.31 2 2039 19 960 136 689 146 2024 148 1466 163 237 164 1997 185 536 194 826 196 866 197 425 204 936 213 3064 227 582 235 593 214 1282 33 796 42 472 85 732 91 267 92 724 111 408 165 498 112 280 201 283 
5585 -0.07698015300290016 -0.07539179346996118 1.0418144214666953 0 0 0 0.08 16 1457 176 1695 213 3065 
5586 -0.00696815770557793 -0.07569626477838791 1.0405426412452612 0 0 0 0.2 11 3072 16 1458 213 3066 
5587 0.18247064380197728 -0.07823572325060645 1.0263396665931137 0 0 0 0.32 2 2040 11 3073 159 740 164 1998 213 3067 
5588 -0.0013814626840605658 -0.07368929272353575 1.034105805247812 0 0 0 0.3 11 3074 16 1459 213 3068 214 1283 
5589 -0.0026336311467383693 -0.07104686114568683 1.0312526076644999 0 0 0 0.16 11 3075 16 1460 176 1696 204 937 213 3069 
5590 0.0029548180287665344 -0.07061127061899143 1.031293811643683 0 0 0 0.31 2 2041 9 899 11 3076 16 1461 19 961 27 530 127 687 128 848 159 741 164 1999 196 867 213 3070 224 602 60 545 93 756 77 783 98 685 112 281 
5591 -0.02667248071151217 -0.06823871274790629 1.0317452338539013 0 0 0 0.21 16 1462 176 1697 213 3071 
5592 0.395298661961271 -0.07624518956619027 1.024797316714619 0 0 0 0.49 32 763 164 2000 184 455 196 868 213 3072 235 594 52 722 85 733 110 491 
5593 0.06555927622211237 -0.06717095856658292 1.0344073119534347 0 0 0 0.17 16 1463 164 2001 213 3073 
5594 -0.18952619386370032 -0.06291619012149449 1.0565885381741196 0 0 0 0.41 2 2042 16 1464 157 1366 213 3074 28 962 146 2025 200 963 50 999 209 228 60 546 113 450 124 817 159 742 98 686 39 286 110 492 
5595 0.11105002220284213 -0.06688122919891373 1.0265325997119257 0 0 0 0.24 4 3044 16 1465 146 2026 159 743 176 1698 185 537 194 827 213 3075 214 1284 
5596 -0.10980874348300287 -0.06059514478541057 1.0439006285985108 0 0 0 0.46 16 1466 157 1367 213 3076 28 963 92 725 109 685 231 407 
5597 0.10933376838737403 -0.06139351888244033 1.0256653672091063 0 0 0 0.3 16 1467 164 2002 176 1699 214 1285 234 408 38 557 92 726 109 686 113 451 146 2027 187 699 
5598 0.1068948208846078 -0.06053007622030026 1.026129201830727 0 0 0 0.34 9 900 16 1468 158 836 164 2003 200 964 213 3077 214 1286 234 409 28 964 50 1000 112 282 146 2028 98 687 187 700 
5599 0.33208749411464455 -0.059034486824168154 1.0195700462300168 0 0 0 0.5 4 3045 29 737 164 2004 165 499 176 1700 197 426 235 595 
5600 0.06960096451857124 -0.054379731438099536 1.0262333268901522 0 0 0 0.3 2 2043 4 3046 16 1469 158 837 175 567 214 1287 28 965 44 886 50 1001 98 688 112 283 187 701 
5601 0.03315509147668737 -0.052793933927134204 1.029061994128909 0 0 0 0.35 11 3077 16 1470 146 2029 190 650 213 3078 
5602 0.011333346808060276 -0.04811994875064811 1.0324558294763344 0 0 0 0.06 16 1471 17 1408 213 3079 221 811 
5603 0.022356328343978462 -0.04526623019564026 1.0316737865574634 0 0 0 0.09 16 1472 172 772 213 3080 
5604 0.1382509181445458 -0.04645521056066286 1.025674464481818 0 0 0 0.22 4 3047 11 3078 16 1473 213 3081 
5605 0.06926845987982604 -0.041839056636487355 1.0241487532955516 0 0 0 0.34 16 1474 157 1368 200 965 231 408 50 1002 112 284 187 702 146 2030 175 568 
5606 0.035513749431660226 -0.039526948392999 1.0252782721645701 0 0 0 0.34 4 3048 16 1475 148 1467 176 1701 213 3082 214 1288 
5607 -0.2299580626514283 -0.0350940320656717 1.0577082463088758 0 0 0 0.38 4 3049 29 738 176 1702 204 938 213 3083 
5608 0.06929259829963982 -0.03780704943754957 1.0233626630479689 0 0 0 0.27 2 2044 4 3050 11 3079 16 1476 157 1369 164 2005 175 569 176 1703 200 966 204 939 213 3084 231 409 28 966 234 410 50 1003 187 703 146 2031 124 818 
5609 -0.18707163140348845 -0.03387031694760763 1.054409200962141 0 0 0 0.09 16 1477 157 1370 159 744 213 3085 
5610 0.02239017508300438 -0.036144757814298524 1.0315863660318103 0 0 0 0.07 16 1478 176 1704 213 3086 
5611 -0.17306914501195494 -0.034051963083492856 1.056224480207431 0 0 0 0.17 16 1479 17 1409 213 3087 
5612 0.010774224457083143 -0.033766545655592395 1.0301119519014366 0 0 0 0.14 16 1480 185 538 213 3088 
5613 -0.21621082945241124 -0.030970252786003537 1.0453555536375447 0 0 0 0.21 17 1410 157 1371 213 3089 
5614 0.032427508871354344 -0.03361312728399702 1.023587695600491 0 0 0 0.33 16 1481 175 570 213 3090 28 967 61 699 112 285 157 1372 98 689 
5615 -0.26080788526124987 -0.0304963080239225 1.0649278653103207 0 0 0 0.15 11 3080 157 1373 158 838 213 3091 50 1004 61 700 113 452 146 2032 209 229 
5616 0.14017806398460164 -0.03365950714035164 1.0218272362934528 0 0 0 0.26 16 1482 157 1374 176 1705 200 967 219 727 
5617 -0.011060655465426424 -0.03173478695932319 1.0296284849588684 0 0 0 0.09 16 1483 176 1706 213 3092 
5618 -0.18368114811294445 -0.02717816042080218 1.0511735103658881 0 0 0 0.29 11 3081 16 1484 17 1411 19 962 27 531 146 2033 158 839 176 1707 179 258 213 3093 28 968 98 690 128 849 
5619 -0.0629975644712723 -0.024484837171487518 1.0272754526760421 0 0 0 0.42 16 1485 159 745 164 2006 213 3094 
5620 0.13624120743975227 -0.024599279731000432 1.018862777483129 0 0 0 0.69 9 901 16 1486 176 1708 214 1289 3 1036 15 738 17 1412 127 688 128 850 159 746 162 785 175 571 179 259 185 539 213 3095 219 728 234 411 33 797 52 723 93 757 136 690 200 968 40 320 63 233 103 195 142 314 196 869 
5621 0.3708921001013436 -0.02713780346346663 1.0143484906863696 0 0 0 0.45 165 500 213 3096 235 596 4 3051 11 3082 52 724 105 206 227 583 
5622 0.09386679396957405 -0.02224609022906563 1.0225007635122916 0 0 0 0.18 16 1487 175 572 176 1709 214 1290 
5623 0.27456313584566383 -0.02412431337894869 1.0185833278377876 0 0 0 0.32 4 3052 165 501 176 1710 235 597 38 558 109 687 142 315 
5624 0.04560365825247522 -0.018895522486283966 1.0231713353166323 0 0 0 0.25 16 1488 19 963 162 786 52 725 77 784 103 196 
5625 -0.03279428856251074 -0.01805252261930132 1.024999531820014 0 0 0 0.17 4 3053 9 902 11 3083 16 1489 136 691 146 2034 148 1468 157 1375 159 747 175 573 213 3097 214 1291 33 798 44 887 50 1005 60 547 85 734 92 727 93 758 109 688 112 286 194 828 13 687 176 1711 28 969 61 701 187 704 
5626 -0.1922626512357193 -0.014991123858266956 1.0463755146812566 0 0 0 0.2 4 3054 16 1490 164 2007 176 1712 
5627 -0.14696747207789682 -0.015073648903282727 1.0430162570212351 0 0 0 0.35 9 903 11 3084 16 1491 27 532 128 851 146 2035 158 840 159 748 176 1713 179 260 213 3098 214 1292 224 603 231 410 232 1219 63 234 85 735 93 759 109 689 110 493 113 453 33 799 52 726 136 692 12 300 13 688 89 178 92 728 28 970 
5628 -0.04687491934354439 -0.013654795142748973 1.029346539160495 0 0 0 0.1 16 1492 164 2008 176 1714 213 3099 
5629 -0.0634147012797266 -0.011561148373167077 1.024301599716507 0 0 0 0.55 11 3085 16 1493 128 852 157 1376 172 773 204 940 213 3100 222 658 231 411 27 533 33 800 38 559 52 727 85 736 136 693 146 2036 28 971 147 606 187 705 
5630 0.047627324196188765 -0.01329645300745154 1.024001482682949 0 0 0 0.3 16 1494 32 764 175 574 176 1715 39 287 124 819 201 284 
5631 0.026184294075735862 -0.012747499509231595 1.025962062248481 0 0 0 0.19 11 3086 16 1495 146 2037 157 1377 176 1716 213 3101 
5632 0.28189384960205144 -0.015282829214567879 1.0174777498434266 0 0 0 0.12 2 2045 157 1378 213 3102 
5633 0.07496674277105662 -0.012217293101640866 1.0191664560854319 0 0 0 0.23 16 1496 148 1469 214 1293 
5634 0.30050354308215377 -0.01488435054259862 1.014075494241331 0 0 0 0.38 16 1497 176 1717 213 3103 
5635 0.3041829196895984 -0.015089655184761469 1.0167159181677512 0 0 0 0.13 2 2046 11 3087 213 3104 
5636 -0.07205612719341288 -0.009180006221994625 1.0229536036703664 0 0 0 0.2 4 3055 16 1498 146 2038 157 1379 213 3105 
5637 -0.06569706514651957 -0.009131216849668075 1.0223947074376498 0 0 0 0.35 16 1499 157 1380 164 2009 213 3106 
5638 -0.17122204598223204 -0.006103318543389201 1.0537222791411087 0 0 0 0.14 11 3088 16 1500 213 3107 
5639 0.31183186988216577 -0.009957972753349224 1.0186852224164022 0 0 0 0.17 165 502 213 3108 235 598 
5640 -0.22120277096165633 -0.0015385141804800685 1.0579180051959072 0 0 0 0.48 2 2047 16 1501 159 749 213 3109 224 604 109 690 
5641 -0.022531893738408828 -0.00017996420610782106 1.0275727523331633 0 0 0 0.08 16 1502 213 3110 214 1294 
5642 -0.17297922240703495 0.003216882807018999 1.0443201064379473 0 0 0 0.13 16 1503 17 1413 213 3111 
5643 0.022390561135348038 0.0064972492913015455 1.0300424704148399 0 0 0 0.13 16 1504 188 147 213 3112 
5644 0.1365731632547498 0.011653008170417322 1.0216880371740498 0 0 0 0.06 16 1505 197 427 213 3113 
5645 0.08513958595613301 0.013061389906720778 1.0169988809979997 0 0 0 0.15 16 1506 197 428 213 3114 
5646 -0.02280790653313304 0.018028602864561653 1.0250734697831212 0 0 0 0.05 16 1507 176 1718 213 3115 
5647 0.08547533323141975 0.017584176017796514 1.0181729520566685 0 0 0 0.17 16 1508 197 429 213 3116 
5648 0.11875857334905808 0.02286365527692934 1.0127558020739402 0 0 0 0.24 11 3089 16 1509 17 1414 213 3117 
5649 -0.039722649358210335 0.031500484104693784 1.012563669274327 0 0 0 0.23 11 3090 16 1510 146 2039 175 575 176 1719 204 941 213 3118 28 972 50 1006 61 702 128 853 158 841 98 691 157 1381 187 706 
5650 -0.22465653774686783 0.03906106038360208 1.0463307839733378 0 0 0 0.4 11 3091 27 534 213 3119 
5651 -0.17482997630578562 0.040683892174287486 1.0367760154026435 0 0 0 0.09 4 3056 11 3092 16 1511 146 2040 176 1720 213 3120 
5652 -0.07962306467072353 0.039203229810057236 1.013205883358459 0 0 0 0.44 16 1512 157 1382 213 3121 148 1470 
5653 -0.21964041719215913 0.04152431566575316 1.044026045771329 0 0 0 0.12 2 2048 11 3093 27 535 146 2041 213 3122 
5654 -0.1368556465728573 0.04015732388558906 1.0247008063505123 0 0 0 0.22 16 1513 157 1383 213 3123 
5655 0.1918472390565984 0.03763543814629788 1.0052693385321447 0 0 0 0.25 11 3094 16 1514 176 1721 213 3124 
5656 0.10626133131551493 0.039530169502415356 1.0056588749332427 0 0 0 0.21 16 1515 175 576 234 412 
5657 0.12389789305191112 0.043439664211690106 1.0097409848835321 0 0 0 0.05 16 1516 197 430 200 969 213 3125 
5658 -0.12412459548838357 0.04572377427005117 1.026867053150156 0 0 0 0.21 16 1517 157 1384 176 1722 213 3126 
5659 0.027109352947189195 0.04457919444958404 1.0120678452804361 0 0 0 0.28 4 3057 11 3095 16 1518 128 854 146 2042 157 1385 176 1723 213 3127 50 1007 61 703 124 820 
5660 0.1702088001729142 0.04451693296136717 1.007200785158642 0 0 0 0.2 16 1519 163 238 164 2010 176 1724 213 3128 4 3058 9 904 52 728 91 268 109 691 19 964 194 829 
5661 0.17412633014535572 0.044632257711049284 1.0095846379623012 0 0 0 0.09 11 3096 158 842 197 431 
5662 0.004654757578859275 0.04573583148003511 1.0110028145332306 0 0 0 0.06 16 1520 175 577 213 3129 
5663 0.17840219220342293 0.04637766585199475 1.0006814215996156 0 0 0 0.32 175 578 176 1725 213 3130 214 1295 231 412 13 689 44 888 135 457 146 2043 28 973 98 692 112 287 187 707 201 285 
5664 -0.005239423882864923 0.04989778300283116 1.0085967347952025 0 0 0 0.27 2 2049 9 905 16 1521 175 579 188 148 200 970 213 3131 214 1296 113 454 124 821 39 288 
5665 -0.12986359394070066 0.05171616729940205 1.0275803926968254 0 0 0 0.12 16 1522 176 1726 200 971 213 3132 
5666 0.026939213245426877 0.050748738468622843 1.0115806604640418 0 0 0 0.16 4 3059 16 1523 128 855 146 2044 176 1727 188 149 231 413 
5667 -0.11671183047102629 0.052534042951220425 1.0165264244868741 0 0 0 0.13 16 1524 176 1728 213 3133 
5668 0.012792926702391004 0.05815174898484516 1.0095543692785356 0 0 0 0.41 2 2050 9 906 16 1525 32 765 185 540 188 150 213 3134 19 965 135 458 162 787 200 972 109 692 176 1729 223 191 38 560 77 785 229 278 
5669 -0.18219544846377664 0.06030577033013178 1.0329116450963387 0 0 0 0.34 11 3097 16 1526 164 2011 176 1730 213 3135 214 1297 28 974 146 2045 
5670 -0.03914744123433243 0.059558917835070856 1.0077439690380678 0 0 0 0.29 16 1527 157 1386 176 1731 213 3136 28 975 61 704 175 580 36 249 50 1008 92 729 93 760 124 822 146 2046 187 708 98 693 158 843 
5671 -0.015709235435072782 0.060019195540233515 1.0112085832103517 0 0 0 0.39 2 2051 11 3098 16 1528 17 1415 27 536 148 1471 157 1387 164 2012 175 581 176 1732 188 151 194 830 213 3137 214 1298 38 561 52 729 113 455 109 693 223 192 187 709 98 694 200 973 
5672 0.014737671151151375 0.060373895091818786 1.0084463738198688 0 0 0 0.56 2 2052 16 1529 19 966 159 750 175 582 194 831 214 1299 
5673 0.1265858481500233 0.06110569671626182 1.0034989029008838 0 0 0 0.32 16 1530 148 1472 194 832 213 3138 214 1300 42 473 146 2047 32 766 44 889 61 705 92 730 107 387 164 2013 187 710 
5674 0.21320848317973176 0.06196754249385443 1.000154238715244 0 0 0 0.29 164 2014 213 3139 234 413 
5675 0.016297415437207852 0.06333408482682673 1.010902974833978 0 0 0 0.14 16 1531 157 1388 196 870 
5676 0.07558264056489139 0.06293551865867696 1.0023053311585453 0 0 0 0.36 16 1532 157 1389 175 583 188 152 13 690 36 250 187 711 
5677 -0.059343475246416255 0.06475655505833333 1.010991078186521 0 0 0 0.57 11 3099 16 1533 213 3140 9 907 92 731 124 823 98 695 187 712 
5678 0.3269809420720291 0.06255842886131076 0.994067023419401 0 0 0 0.58 148 1473 184 456 194 833 213 3141 235 599 32 767 
5679 -0.16206312933180764 0.06683075573868044 1.0252664258355293 0 0 0 0.33 16 1534 157 1390 231 414 
5680 0.3764114939301375 0.06440409632918061 0.9985603810090422 0 0 0 0.45 2 2053 19 967 148 1474 164 2015 165 503 213 3142 220 506 235 600 42 474 77 786 32 768 33 801 107 388 
5681 0.27319351868142583 0.0657537112577153 1.002826209474434 0 0 0 0.29 4 3060 11 3100 146 2048 148 1475 157 1391 164 2016 213 3143 214 1301 38 562 92 732 93 761 
5682 0.028394571863311707 0.06732109885517497 1.004611587169119 0 0 0 0.32 16 1535 27 537 213 3144 
5683 -0.16209353647704614 0.07008320022715124 1.025539527254858 0 0 0 0.26 11 3101 16 1536 27 538 157 1392 159 751 164 2017 176 1733 204 942 213 3145 219 729 231 415 232 1220 52 730 77 787 92 733 
5684 0.1478592354525103 0.07120821512645446 0.9983284488697912 0 0 0 0.27 11 3102 16 1537 175 584 213 3146 231 416 
5685 0.29189088362386745 0.07222485335356435 0.9965454191466708 0 0 0 0.4 2 2054 148 1476 164 2018 124 824 146 2049 214 1302 
5686 0.10738409641690802 0.08082329609107644 0.9993955106799152 0 0 0 0.45 16 1538 214 1303 223 193 234 414 28 976 176 1734 
5687 -0.07792570368665046 0.08204848836770835 1.0145087427413977 0 0 0 0.14 11 3103 16 1539 146 2050 176 1735 213 3147 231 417 
5688 -0.0405788068996125 0.08154949741123926 1.0050608342790956 0 0 0 0.3 4 3061 16 1540 213 3148 214 1304 41 111 52 731 93 762 194 834 
5689 -0.15028247554703897 0.08820791058033724 1.0281268454069763 0 0 0 0.43 11 3104 16 1541 157 1393 213 3149 50 1009 98 696 
5690 -0.08891688185932922 0.08949033165649262 1.0137336011602378 0 0 0 0.41 16 1542 213 3150 214 1305 11 3105 17 1416 118 1243 148 1477 176 1736 28 977 38 563 146 2051 
5691 0.3433131042033527 0.09355763010694845 0.9959400019794795 0 0 0 0.55 11 3106 19 968 146 2052 148 1478 164 2019 165 504 184 457 194 835 196 871 213 3151 235 601 44 890 50 1010 52 732 62 47 77 788 61 706 107 389 201 286 
5692 -0.03761808939639438 0.09411173567440942 1.0031239594278614 0 0 0 0.32 16 1543 176 1737 213 3152 214 1306 28 978 110 494 146 2053 77 789 187 713 
5693 -0.16600023480187998 0.09640281874345995 1.021866916645994 0 0 0 0.38 4 3062 11 3107 16 1544 17 1417 118 1244 128 856 146 2054 157 1394 158 844 176 1738 204 943 213 3153 219 730 231 418 28 979 103 197 50 1011 61 707 92 734 98 697 
5694 0.23800299797643587 0.099769284253086 0.9970559324925266 0 0 0 0.26 175 585 196 872 213 3154 214 1307 
5695 0.045728770515881666 0.10050273109677928 1.0017485928993968 0 0 0 0.23 9 908 16 1545 188 153 213 3155 214 1308 223 194 
5696 0.2719863663270012 0.10127945647967591 0.9929712384968412 0 0 0 0.17 4 3063 213 3156 235 602 
5697 0.10375660878994203 0.10135598592334825 0.9958110933537478 0 0 0 0.39 4 3064 11 3108 16 1546 27 539 136 694 146 2055 164 2020 194 836 213 3157 214 1309 38 564 52 733 110 495 148 1479 13 691 28 980 93 763 187 714 
5698 0.18102802217653877 0.10517506602425589 0.9926698739799236 0 0 0 0.19 164 2021 194 837 213 3158 214 1310 
5699 0.26748672445913574 0.10930533689499072 0.9885705814399327 0 0 0 0.33 11 3109 17 1418 118 1245 146 2056 158 845 213 3159 222 659 232 1221 
5700 -0.15116298984080184 0.11131573310330536 1.019505423076219 0 0 0 0.33 4 3065 146 2057 176 1739 213 3160 231 419 
5701 0.028311296436551715 0.10985135972330327 0.9977274078097657 0 0 0 0.36 4 3066 16 1547 17 1419 27 540 118 1246 146 2058 172 774 188 154 213 3161 222 660 42 475 52 734 85 737 148 1480 194 838 13 692 
5702 0.17083926251895507 0.11129293674623211 0.9982708382293444 0 0 0 0.14 4 3067 213 3162 214 1311 
5703 0.14457782576621522 0.11627573027390876 0.9904325843575575 0 0 0 0.29 11 3110 17 1420 118 1247 146 2059 148 1481 194 839 196 873 213 3163 234 415 52 735 85 738 109 694 13 693 28 981 33 802 223 195 187 715 
5704 0.2887770144092436 0.1178609439941296 0.9888729307332438 0 0 0 0.36 11 3111 32 769 148 1482 213 3164 
5705 0.1788807032741336 0.11879277204594368 0.9904670570362646 0 0 0 0.37 11 3112 148 1483 213 3165 52 736 77 790 
5706 0.0806665574598359 0.12403633794744957 0.9961878213988933 0 0 0 0.35 4 3068 11 3113 16 1548 27 541 147 607 213 3166 214 1312 
5707 0.181072896562954 0.1258018786046261 0.9908816181369143 0 0 0 0.21 164 2022 213 3167 214 1313 
5708 -0.1609600230962682 0.13121489089773536 1.0147979540221597 0 0 0 0.42 11 3114 176 1740 213 3168 13 694 33 803 61 708 77 791 146 2060 157 1395 98 698 200 974 
5709 -0.11516540151965664 0.1384150947180673 1.0059824808268454 0 0 0 0.15 176 1741 194 840 213 3169 
5710 0.1800682456502264 0.14067015991742718 0.9867151607730846 0 0 0 0.28 2 2055 9 909 175 586 194 841 50 1012 93 764 146 2061 13 695 
5711 0.15015907498330924 -0.16921550241598796 1.0458345423084954 0 0 0 0.62 162 788 185 541 197 432 
5712 -0.052660084736547506 -0.14960664727569892 1.0529469326577006 0 0 0 0.88 16 1549 25 529 147 608 148 1484 157 1396 232 1222 
5713 0.08371415511783215 -0.15134207167469368 1.0394369442644367 0 0 0 0.51 4 3069 11 3115 17 1421 25 530 29 739 32 770 118 1248 127 689 128 857 148 1485 152 408 157 1397 176 1742 196 874 204 944 213 3170 219 731 220 507 221 812 38 565 52 737 103 198 159 752 27 542 42 476 54 117 77 792 142 316 
5714 -0.05958206754740203 -0.13326503632759226 1.0463587862872648 0 0 0 0.64 4 3070 9 910 11 3116 16 1550 19 969 25 531 127 690 136 695 147 609 148 1486 162 789 164 2023 179 261 200 975 213 3171 220 508 224 605 28 982 33 804 111 409 40 321 71 354 142 317 187 716 
5715 -0.06977639515648329 -0.1305822664629132 1.0477273132173175 0 0 0 0.64 16 1551 32 771 179 262 190 651 29 740 44 891 124 825 
5716 0.04194108721589446 -0.13183076030588498 1.038363772844678 0 0 0 0.28 16 1552 29 741 147 610 
5717 -0.3122451596495205 -0.12670135030704385 1.088334023118398 0 0 0 0.35 11 3117 17 1422 118 1249 157 1398 213 3172 232 1223 0 499 172 775 
5718 0.19977881696943217 -0.13152215403741252 1.0361328310612243 0 0 0 0.47 9 911 12 301 32 772 185 542 197 433 36 251 43 262 60 548 63 235 92 735 93 765 109 695 128 858 163 239 172 776 235 603 13 696 15 739 28 983 69 196 3 1037 124 826 39 289 0 500 179 263 
5719 0.10363990209535853 -0.12748482378602974 1.0406531948397293 0 0 0 0.37 16 1553 29 742 159 753 204 945 
5720 0.15427541917036608 -0.12887356183626666 1.036640074210175 0 0 0 0.28 4 3071 11 3118 152 409 213 3173 
5721 -0.22710989335985296 -0.12242716239798981 1.0762275366948535 0 0 0 0.19 152 410 159 754 179 264 
5722 0.1465521087183515 -0.12415580685256704 1.0341250677164044 0 0 0 0.32 19 970 147 611 152 411 164 2024 185 543 196 875 
5723 0.1324049008274516 -0.11491990867375844 1.0290048526775908 0 0 0 0.61 2 2056 9 912 16 1554 32 773 146 2062 157 1399 213 3174 33 805 38 566 44 892 93 766 109 696 17 1423 77 793 113 456 234 416 28 984 36 252 124 827 96 399 98 699 187 717 201 287 
5724 0.3022710941432297 -0.11888489934691825 1.0328372426169443 0 0 0 0.61 32 774 197 434 200 976 
5725 -0.10187142140653821 -0.11134969280486386 1.0524451079556534 0 0 0 0.81 3 1038 9 913 12 302 16 1555 17 1424 25 532 27 543 29 743 32 775 126 475 127 691 148 1487 157 1400 164 2025 185 544 214 1314 142 318 
5726 0.05253219794354622 -0.11271012898069387 1.0365736131175072 0 0 0 0.35 3 1039 4 3072 16 1556 157 1401 172 777 200 977 222 661 232 1224 
5727 0.27158991008506556 -0.10712226628448378 1.0284434022166309 0 0 0 0.33 2 2057 4 3073 11 3119 118 1250 176 1743 213 3175 232 1225 
5728 -0.18344206034793947 -0.09620858219255707 1.0609619127373513 0 0 0 0.77 11 3120 16 1557 17 1425 19 971 127 692 146 2063 148 1488 152 412 157 1402 159 755 176 1744 204 946 213 3176 219 732 220 509 224 606 232 1226 44 893 109 697 42 477 77 794 85 739 28 985 40 322 96 400 97 191 113 457 142 319 229 279 209 230 227 584 38 567 124 828 0 501 71 355 190 652 217 425 
5729 0.20079080726869253 -0.09456499960226407 1.0298211915895523 0 0 0 0.59 11 3121 15 740 146 2064 148 1489 176 1745 213 3177 222 662 
5730 0.06915110330526415 -0.08824153638913415 1.030792451502088 0 0 0 0.43 9 914 16 1558 135 459 146 2065 148 1490 158 846 162 790 194 842 200 978 52 738 60 549 96 401 113 458 136 696 13 697 33 806 85 740 231 420 124 829 107 390 
5731 -0.34889207731798105 -0.08119295788722711 1.0858185055661402 0 0 0 0.83 3 1040 12 303 19 972 126 476 128 859 148 1491 157 1403 158 847 159 756 162 791 172 778 176 1746 179 265 219 733 224 607 29 744 40 323 43 263 44 894 52 739 53 411 71 356 85 741 92 736 93 767 109 698 196 876 21 220 60 550 127 693 50 1013 96 402 111 410 209 231 227 585 
5732 -0.20710802796835232 -0.08117041862419698 1.0621802364252555 0 0 0 0.53 4 3074 32 776 118 1251 146 2066 152 413 164 2026 200 979 213 3178 224 608 9 915 13 698 33 807 92 737 28 986 113 459 21 221 44 895 60 551 110 496 124 830 39 290 
5733 0.05849918458849769 -0.07352240678396754 1.0350323746165282 0 0 0 0.12 147 612 221 813 232 1227 
5734 0.12563054474690316 -0.07320754967098822 1.0295565030837495 0 0 0 0.27 11 3122 16 1559 17 1426 176 1747 197 435 213 3179 219 734 232 1228 
5735 0.06264246353303043 -0.06972634692222915 1.0313158315979056 0 0 0 0.19 16 1560 17 1427 32 777 
5736 0.07375122862165599 -0.0695874665412726 1.0271699300643045 0 0 0 0.3 4 3075 16 1561 27 544 175 587 200 980 213 3180 28 987 234 417 
5737 -0.16944130789022188 -0.06491240549385163 1.0595845526565495 0 0 0 0.09 16 1562 17 1428 213 3181 
5738 0.10243671624990033 -0.0565634544861565 1.0318082635960493 0 0 0 0.39 4 3076 16 1563 32 778 197 436 200 981 204 947 213 3182 222 663 232 1229 
5739 0.09159607195536923 -0.056044485192952034 1.0284252700661163 0 0 0 0.14 16 1564 17 1429 213 3183 11 3123 128 860 
5740 0.016492347771794248 -0.05094013350194189 1.0319323390130108 0 0 0 0.08 16 1565 17 1430 172 779 
5741 -0.22621404358511507 -0.04811230963102918 1.0636752598297503 0 0 0 0.26 3 1041 4 3077 11 3124 19 973 27 545 29 745 114 165 118 1252 146 2067 148 1492 157 1404 158 848 162 792 164 2027 179 266 190 653 213 3184 224 609 227 586 21 222 26 246 33 808 50 1014 77 795 128 861 209 232 98 700 
5742 -0.07578395297167298 -0.04828050907431581 1.0408784098615256 0 0 0 0.09 16 1566 172 780 213 3185 
5743 -0.04415018862732153 -0.0483603698078661 1.0348625561890106 0 0 0 0.12 16 1567 17 1431 213 3186 
5744 0.024803202963747197 -0.048008888532423896 1.0334617758849176 0 0 0 0.15 16 1568 17 1432 213 3187 
5745 0.019982644603262417 -0.04251801869406656 1.0337220781356933 0 0 0 0.12 16 1569 172 781 213 3188 
5746 0.008227447475401032 -0.03965958265391006 1.0318645505738013 0 0 0 0.31 16 1570 185 545 213 3189 
5747 0.019572919598277998 -0.03840388424858681 1.0311232300682878 0 0 0 0.39 16 1571 17 1433 213 3190 164 2028 
5748 -0.027390580805504494 -0.037475799281113255 1.028532223962701 0 0 0 0.27 16 1572 213 3191 222 664 
5749 -0.049403769243199634 -0.0349489223539527 1.0307545772835083 0 0 0 0.13 16 1573 17 1434 213 3192 
5750 0.019612923345870874 -0.034543642122179224 1.0310592081504235 0 0 0 0.14 16 1574 17 1435 213 3193 
5751 0.138871666714945 -0.028864964266692415 1.0241111449207607 0 0 0 0.28 16 1575 204 948 232 1230 
5752 0.2736310592475474 -0.028091303220287002 1.0197829983623596 0 0 0 0.29 11 3125 146 2068 197 437 221 814 232 1231 
5753 -0.010810894989154895 -0.016094580187194816 1.0265988009423743 0 0 0 0.38 2 2058 16 1576 158 849 172 782 176 1748 179 267 204 949 213 3194 219 735 221 815 222 665 
5754 0.09239608841890061 -0.014964428074993466 1.0245513645688613 0 0 0 0.39 4 3078 16 1577 17 1436 29 746 118 1253 128 862 136 697 176 1749 185 546 197 438 222 666 
5755 -0.18535094162795338 -0.010341326193094703 1.0494247705068138 0 0 0 0.15 4 3079 11 3126 16 1578 146 2069 176 1750 213 3195 
5756 0.0028605424147829816 -0.009641345823992419 1.0212214646855542 0 0 0 0.59 11 3127 15 741 16 1579 27 546 118 1254 147 613 148 1493 164 2029 172 783 213 3196 222 667 29 747 157 1405 214 1315 
5757 0.006312494970048844 -0.009001913917549688 1.0213154616547708 0 0 0 0.32 4 3080 9 916 16 1580 118 1255 128 863 146 2070 148 1494 157 1406 164 2030 176 1751 185 547 213 3197 221 816 232 1232 33 809 52 740 93 768 38 568 229 280 187 718 231 421 
5758 -0.039811035756655136 -0.007261922865449262 1.0341647028147676 0 0 0 0.23 16 1581 17 1437 222 668 232 1233 
5759 -0.015438927793558016 -0.0065705713526318845 1.0276938122031707 0 0 0 0.24 16 1582 164 2031 176 1752 214 1316 
5760 -0.19917246521115553 -0.0037345125688921462 1.0469616252747724 0 0 0 0.37 11 3128 16 1583 148 1495 213 3198 
5761 0.007079742270342814 -0.00515870763723684 1.0234869619368798 0 0 0 0.3 9 917 16 1584 17 1438 146 2071 213 3199 214 1317 221 817 
5762 0.10174921150840706 -0.006224776521097425 1.0216445988661018 0 0 0 0.34 3 1042 11 3129 16 1585 17 1439 146 2072 162 793 172 784 204 950 213 3200 
5763 -0.006044685947278016 -0.002569748043672082 1.0251396631573118 0 0 0 0.18 4 3081 16 1586 146 2073 172 785 213 3201 232 1234 
5764 0.12498377893775771 0.0008959480724527271 1.018097697920708 0 0 0 0.23 11 3130 16 1587 200 982 213 3202 
5765 -0.02070799062591492 0.002701923319905492 1.0261587138777357 0 0 0 0.05 16 1588 172 786 213 3203 214 1318 
5766 -0.010892790187773713 0.002818095668352109 1.0244416996401555 0 0 0 0.07 16 1589 172 787 213 3204 
5767 0.024607259942871374 0.00351987534912286 1.0278806047662674 0 0 0 0.08 16 1590 188 155 213 3205 
5768 -0.32820627787136164 0.012668092604969452 1.0673654066095561 0 0 0 0.36 2 2059 17 1440 148 1496 176 1753 219 736 
5769 -0.22414922147464464 0.02205415579956423 1.0516083114382957 0 0 0 0.16 148 1497 172 788 213 3206 
5770 0.010262710702603704 0.021200120483203397 1.0218173917096074 0 0 0 0.11 16 1591 17 1441 213 3207 
5771 0.1921063785219066 0.024458505956895957 1.0113561479078754 0 0 0 0.32 11 3131 146 2074 157 1407 232 1235 61 709 98 701 112 288 
5772 -0.16102396657898035 0.03193672193962367 1.032209889677755 0 0 0 0.21 4 3082 16 1592 17 1442 25 533 27 547 146 2075 158 850 176 1754 213 3208 219 737 221 818 
5773 -0.18945486712966894 0.03265856620203162 1.03452767628739 0 0 0 0.35 4 3083 11 3132 16 1593 17 1443 25 534 114 166 128 864 176 1755 204 951 213 3209 0 502 50 1015 
5774 0.06433464165439258 0.03189228432483466 1.01664436138605 0 0 0 0.06 16 1594 188 156 213 3210 
5775 0.10095623934282158 0.03178765152842934 1.0126706225734174 0 0 0 0.11 4 3084 16 1595 213 3211 
5776 0.13780432031974982 0.03269619133890445 1.0117070183381875 0 0 0 0.22 11 3133 16 1596 213 3212 
5777 0.06437507906109062 0.03694624959692495 1.0168689162039821 0 0 0 0.14 16 1597 188 157 213 3213 232 1236 
5778 0.10087835012427339 0.036826680100866524 1.0128142582944613 0 0 0 0.12 3 1043 4 3085 16 1598 17 1444 128 865 146 2076 204 952 213 3214 231 422 61 710 124 831 176 1756 201 288 
5779 0.10371483155230643 0.038167626534347104 1.0129961852153737 0 0 0 0.18 16 1599 17 1445 213 3215 
5780 0.365227532718212 0.03549368728551481 0.9985702938487157 0 0 0 0.33 2 2060 4 3086 17 1446 164 2032 165 505 184 458 217 426 221 819 235 604 
5781 0.026764250733232072 0.03959938529535705 1.0168319288945833 0 0 0 0.26 4 3087 11 3134 16 1600 17 1447 27 548 118 1256 128 866 146 2077 176 1757 188 158 213 3216 221 820 222 669 232 1237 219 738 28 988 172 789 187 719 
5782 0.10075171567202477 0.04049728085040363 1.0124156682980108 0 0 0 0.31 4 3088 16 1601 17 1448 32 779 146 2078 176 1758 213 3217 124 832 200 983 50 1016 61 711 201 289 175 588 231 423 187 720 234 418 
5783 -0.009857421284083021 0.042062712093020864 1.0136320517047972 0 0 0 0.49 11 3135 16 1602 146 2079 176 1759 213 3218 214 1319 219 739 221 821 28 989 50 1017 69 197 175 589 187 721 157 1408 124 833 200 984 39 291 110 497 
5784 -0.2836851828418537 0.04520791633203867 1.0528058176403825 0 0 0 0.27 4 3089 16 1603 17 1449 128 867 146 2080 221 822 232 1238 103 199 209 233 0 503 
5785 0.035372096384677955 0.044045027329174466 1.0083437795169734 0 0 0 0.65 16 1604 175 590 221 823 15 742 17 1450 19 974 27 549 118 1257 127 694 128 868 148 1498 159 757 164 2033 196 877 213 3219 220 510 232 1239 142 320 229 281 50 1018 61 712 187 722 
5786 0.16311932406309765 0.04413426237147842 1.0067545454630704 0 0 0 0.19 16 1605 176 1760 204 953 13 699 146 2081 28 990 201 290 234 419 
5787 0.2325635378088494 0.045051675131469564 1.006703926993012 0 0 0 0.24 15 743 17 1451 118 1258 135 460 146 2082 213 3220 221 824 222 670 232 1240 
5788 0.37494220709335035 0.04638321928938957 1.0021366884545078 0 0 0 0.18 11 3136 17 1452 213 3221 
5789 0.2838090705847308 0.04918906341635461 1.0018110619030467 0 0 0 0.42 2 2061 4 3090 17 1453 118 1259 146 2083 157 1409 213 3222 221 825 
5790 0.08446446422196618 0.05266906367579567 1.00714042220556 0 0 0 0.52 16 1606 164 2034 175 591 185 548 217 427 232 1241 19 975 43 264 60 552 92 738 93 769 96 403 109 699 111 411 136 698 223 196 148 1499 194 843 231 424 13 700 124 834 107 391 146 2084 197 439 
5791 -0.2991388688975756 0.05647896333924346 1.0559401964938182 0 0 0 0.39 4 3091 29 748 157 1410 159 758 164 2035 176 1761 213 3223 232 1242 21 223 33 810 44 896 50 1019 77 796 172 790 
5792 0.06595424354245007 0.05329235079888491 1.0070308076161503 0 0 0 0.42 15 744 17 1454 27 550 219 740 11 3137 16 1607 44 897 53 412 157 1411 201 291 213 3224 
5793 0.21330201524928344 0.054839639778786746 1.0012320400953927 0 0 0 0.45 11 3138 17 1455 118 1260 146 2085 176 1762 213 3225 77 797 92 739 93 770 96 404 182 153 200 985 201 292 
5794 -0.18724511968602847 0.06146512797467019 1.0333242300831131 0 0 0 0.38 25 535 159 759 176 1763 204 954 213 3226 214 1320 2 2062 16 1608 17 1456 32 780 157 1412 164 2036 194 844 44 898 52 741 77 798 93 771 224 610 27 551 28 991 42 478 85 742 109 700 148 1500 38 569 196 878 229 282 50 1020 61 713 124 835 92 740 
5795 -0.04220732726655638 0.06008228180551293 1.0101360162380213 0 0 0 0.31 4 3092 11 3139 15 745 16 1609 17 1457 27 552 146 2086 176 1764 213 3227 2 2063 19 976 32 781 44 899 60 553 92 741 113 460 124 836 148 1501 157 1413 162 794 185 549 231 425 187 723 
5796 -0.0009596760728456609 0.059841901005022353 1.0061494303282708 0 0 0 0.25 4 3093 16 1610 25 536 27 553 29 749 118 1261 146 2087 148 1502 164 2037 176 1765 185 550 188 159 194 845 204 955 213 3228 214 1321 219 741 222 671 
5797 0.044275493782990574 0.060681719166303716 1.007356752689867 0 0 0 0.41 4 3094 9 918 16 1611 135 461 158 851 175 592 188 160 213 3229 232 1243 50 1021 124 837 146 2088 157 1414 231 426 98 702 
5798 0.09993075993396507 0.06130920917999402 1.0044902360891224 0 0 0 0.23 11 3140 16 1612 17 1458 146 2089 176 1766 204 956 213 3230 222 672 15 746 28 992 118 1262 175 593 234 420 187 724 
5799 0.15043392980528061 0.060925692863608334 0.9982163049357311 0 0 0 0.34 11 3141 196 879 213 3231 223 197 
5800 0.1198879646686255 0.06208984532995413 1.0126302788551693 0 0 0 0.37 16 1613 219 742 221 826 
5801 -0.07871623202899433 0.06542079136944098 1.0114294871104712 0 0 0 0.57 11 3142 16 1614 17 1459 118 1263 164 2038 213 3232 187 725 
5802 0.04880501171311313 0.06576151152507488 1.0099311604023977 0 0 0 0.27 16 1615 172 791 188 161 
5803 0.1386798898589814 0.07019011928838967 0.9985889009270423 0 0 0 0.39 16 1616 196 880 204 957 13 701 118 1264 146 2090 175 594 61 714 124 838 152 414 158 852 231 427 234 421 98 703 201 293 223 198 1 208 56 364 65 156 69 198 
5804 -0.14641674758371534 0.07853528410995832 1.026599081297204 0 0 0 0.17 16 1617 176 1767 213 3233 
5805 -0.14360367810260974 0.08069281687517318 1.028424830375378 0 0 0 0.25 16 1618 17 1460 204 958 213 3234 
5806 -0.05971621904850476 0.0816178768978611 1.0095889301579564 0 0 0 0.23 16 1619 25 537 164 2039 185 551 214 1322 
5807 -0.016976504181702105 0.09296487290407439 1.0071824586255813 0 0 0 0.38 2 2064 16 1620 17 1461 19 977 135 462 175 595 176 1768 179 268 196 881 200 986 213 3235 214 1323 224 611 11 3143 118 1265 148 1503 164 2040 188 162 33 811 38 570 44 900 50 1022 61 715 92 742 93 772 109 701 110 498 52 742 77 799 28 993 98 704 187 726 
5808 -0.09892634830337106 0.09554757420802865 1.0148633766125068 0 0 0 0.5 4 3095 11 3144 16 1621 17 1462 118 1266 146 2091 147 614 164 2041 176 1769 185 552 194 846 213 3236 214 1324 219 743 38 571 52 743 9 919 13 702 92 743 28 994 110 499 113 461 187 727 
5809 -0.0599734182598882 0.09611973450604033 1.0038354716277471 0 0 0 0.58 11 3145 16 1622 19 978 176 1770 196 882 213 3237 224 612 85 743 187 728 146 2092 
5810 0.062262066956839196 0.09799566905895624 1.00364773485659 0 0 0 0.29 16 1623 188 163 213 3238 
5811 0.29887518236533134 0.09993297646290028 0.9922335674334772 0 0 0 0.42 2 2065 11 3146 17 1463 118 1267 146 2093 213 3239 227 587 
5812 0.17122528742934187 0.10730462797812725 1.0013196001465623 0 0 0 0.25 4 3096 118 1268 146 2094 213 3240 214 1325 
5813 0.13885662534012405 0.11031777256820967 0.9959177472523444 0 0 0 0.25 16 1624 197 440 213 3241 
5814 0.3229509276504893 0.11749538553456972 0.9895983068756965 0 0 0 0.34 11 3147 184 459 194 847 213 3242 222 673 235 605 
5815 0.14205140910981623 0.11903558801256864 0.9901831169107251 0 0 0 0.38 11 3148 17 1464 118 1269 146 2095 148 1504 194 848 196 883 234 422 52 744 61 716 85 744 109 702 13 703 28 995 
5816 -0.16703734395342157 0.12060421279626655 1.017586394940061 0 0 0 0.18 4 3097 148 1505 164 2042 
5817 0.1860935161335625 -0.14381122577348548 1.0396313922086993 0 0 0 0.28 2 2066 197 441 221 827 17 1465 148 1506 152 415 164 2043 220 511 25 538 26 247 88 106 142 321 126 477 127 695 232 1244 0 504 1 209 11 3149 
5818 -0.0794510437781973 -0.13293545676576796 1.064107227366226 0 0 0 0.65 11 3150 16 1625 25 539 118 1270 147 615 157 1415 158 853 213 3243 232 1245 
5819 0.046534934932399366 -0.132507912500436 1.0403108081649863 0 0 0 0.7 4 3098 11 3151 15 747 16 1626 17 1466 19 979 29 750 32 782 118 1271 126 478 127 696 128 869 135 463 136 699 146 2096 147 616 148 1507 152 416 157 1416 158 854 159 760 164 2044 176 1771 185 553 190 654 196 884 200 987 204 959 213 3244 214 1326 217 428 219 744 220 512 221 828 222 674 227 588 232 1246 52 745 93 773 60 554 96 405 28 996 50 1023 69 199 111 412 112 289 53 413 61 717 98 705 40 324 42 479 85 745 26 248 33 812 44 901 88 107 142 322 92 744 124 839 38 572 71 357 73 246 77 800 113 462 
5820 0.30590567444877115 -0.13059570166263965 1.032556505570988 0 0 0 0.29 32 783 176 1772 204 960 92 745 93 774 146 2097 182 154 
5821 0.14367945775987792 -0.12572440360174975 1.0368154754185164 0 0 0 0.8 4 3099 15 748 152 417 157 1417 185 554 213 3245 219 745 0 505 16 1627 146 2098 158 855 
5822 0.21522735164884582 -0.12572583746058752 1.0355117063335588 0 0 0 0.48 3 1044 15 749 136 700 152 418 158 856 172 792 181 237 220 513 227 589 
5823 0.05924402866820758 -0.09978579947988933 1.0324577786742397 0 0 0 0.18 16 1628 164 2045 213 3246 
5824 -0.09658302060645903 -0.09662765507996053 1.0467763783105233 0 0 0 0.92 16 1629 17 1467 32 784 158 857 213 3247 214 1327 217 429 224 613 232 1247 38 573 40 325 77 801 109 703 112 290 28 997 187 729 0 506 118 1272 
5825 -0.10385217350259579 -0.07921725309335599 1.0439166068935026 0 0 0 0.32 4 3100 16 1630 17 1468 27 554 118 1273 146 2099 176 1773 204 961 213 3248 219 746 221 829 232 1248 39 292 98 706 157 1418 0 507 61 718 
5826 -0.13063265838517166 -0.06152677447196712 1.051448422930885 0 0 0 0.09 16 1631 172 793 213 3249 
5827 -0.29993356698091866 -0.060105385115031516 1.0776872677880602 0 0 0 0.4 2 2067 158 858 164 2046 
5828 0.21281042775181558 -0.0595298711290722 1.0290991940182295 0 0 0 0.39 3 1045 179 269 213 3250 219 747 
5829 -0.18775825158079565 -0.044638165458094285 1.055769789077331 0 0 0 0.16 16 1632 17 1469 172 794 213 3251 
5830 -0.061613286456633325 -0.038981276880131525 1.031059616891253 0 0 0 0.3 16 1633 17 1470 213 3252 
5831 0.09266980412135833 -0.04100868770595963 1.0322004657750303 0 0 0 0.12 16 1634 17 1471 190 655 213 3253 
5832 -0.32360632154051444 -0.03157069210252989 1.0743947202031008 0 0 0 0.28 4 3101 19 980 29 751 148 1508 164 2047 21 224 44 902 85 746 110 500 77 802 
5833 0.0784418260076188 -0.028029547187962956 1.023448947095343 0 0 0 0.4 11 3152 16 1635 17 1472 29 752 128 870 146 2100 147 617 190 656 200 988 204 962 213 3254 223 199 85 747 109 704 194 849 
5834 0.36640827886853333 -0.032276115430088875 1.01601664273361 0 0 0 0.39 2 2068 3 1046 4 3102 146 2101 164 2048 172 795 176 1774 184 460 190 657 213 3255 232 1249 
5835 0.18879011731453138 -0.025386014424062773 1.017769902092054 0 0 0 0.57 3 1047 219 748 222 675 232 1250 
5836 0.26621714039738037 -0.018624122123454035 1.0166425013933929 0 0 0 0.27 15 750 17 1473 147 618 157 1419 158 859 172 796 176 1775 190 658 222 676 227 590 
