# 3D point list with one line of data per point:
#   POINT3D_ID, X, Y, Z, R, G, B, ERROR, TRACK[] as (IMAGE_ID, POINT2D_IDX)
# Number of points: 348, mean track length: 10.78
10448 -0.10457025128297288 0.21501232509612286 0.9708175143437806 0 0 0 0.42 2 3010 44 2318 50 3180 60 1561 158 1600 93 1238 13 1001 124 1275 200 1646 98 993 224 1144 
10449 0.11282647203221703 0.2242925983223401 1.0173583644762079 0 0 0 0.57 2 3011 4 3200 77 2374 194 1477 196 1907 
10450 0.12004469154206758 0.2235980401689516 1.009092048889473 0 0 0 0.37 2 3012 4 3201 77 2375 
10451 -0.048695831221364214 0.2126851236613102 0.9507994717746632 0 0 0 0.38 2 3013 27 1113 92 2497 
10452 0.11802613946901044 0.22588457888492278 1.0123038941782245 0 0 0 0.33 2 3014 4 3202 77 2376 
10453 -0.046122219223216854 0.21843861352114696 0.966026786986487 0 0 0 0.47 2 3015 25 1034 44 2319 77 2377 
10454 -0.015067055128773715 0.22587395441476746 0.9754125224614417 0 0 0 0.31 2 3016 27 1114 38 1698 92 2498 
10455 -0.3177047135247872 -0.05866832136034668 0.8480210190933096 0 0 0 0.36 2 3017 25 1035 73 824 142 690 
10456 -0.32053144408369344 -0.050717970992991745 0.8256370380970894 0 0 0 0.34 2 3018 40 987 73 825 126 1301 
10457 -0.023895796260608046 -0.042925188794399584 1.0559690900557301 0 0 0 0.49 2 3019 38 1699 148 3013 
10458 0.009930500722780537 -0.0009876990663345527 1.0533856129865138 0 0 0 0.28 2 3020 4 3203 11 3335 16 1973 33 2471 36 940 38 1700 61 2041 71 1115 196 1908 
10459 0.1600653117533666 0.005932373460571248 1.086980131280233 0 0 0 0.28 2 3021 3 1333 4 3204 11 3336 15 926 29 1368 33 2472 35 347 40 988 54 571 60 1562 61 2042 63 1034 73 826 105 609 118 2234 152 772 159 1921 107 675 
10460 -0.0285774980561494 -0.0015460602921408856 1.0377628675709663 0 0 0 0.52 2 3022 25 1036 33 2473 96 1720 110 1819 
10461 -0.27835694458135896 -0.012704744123081667 1.0133176743420234 0 0 0 0.36 2 3023 50 3181 61 2043 152 773 107 676 
10462 -0.27390846080369724 -0.011949777335916609 1.0145980168494246 0 0 0 0.34 2 3024 4 3205 25 1037 27 1115 50 3182 77 2378 118 2235 152 774 11 3337 164 3255 190 1356 204 1809 213 4006 232 2317 0 903 
10463 -0.29985004860702374 -0.014373711380115728 1.0156248070929796 0 0 0 1.07 2 3025 29 1369 113 1293 127 1454 
10464 -0.28789281111584486 -0.011383336357837393 1.0131684597741235 0 0 0 0.19 2 3026 29 1370 33 2474 
10465 -0.36759936882107364 -0.012529463774010673 1.0104223991988985 0 0 0 0.57 2 3027 40 989 60 1563 77 2379 85 2265 103 833 111 1252 128 1629 157 2289 162 1531 196 1909 229 517 209 413 
10466 -0.2363140482831244 -0.003082555861665256 1.029242098073721 0 0 0 0.24 2 3028 26 794 33 2475 
10467 -0.24298993982657693 0.007152316472754685 1.0111723948135962 0 0 0 0.46 2 3029 4 3206 19 1689 61 2044 152 775 
10468 0.16495801693689355 0.030886068649848903 1.0796061861988036 0 0 0 0.97 2 3030 3 1334 14 354 19 1690 33 2476 40 990 60 1564 61 2045 73 827 105 610 111 1253 127 1455 114 251 162 1532 163 660 164 3256 136 1395 158 1601 67 499 89 592 152 776 
10469 0.058364495608045346 0.03598108303972528 1.050061610832686 0 0 0 0.39 2 3031 32 1263 44 2320 53 2348 61 2046 
10470 0.06912397719370662 0.03640847947081196 1.0519306176251682 0 0 0 0.48 2 3032 15 927 17 2274 19 1691 32 1264 33 2477 40 991 50 3183 54 572 60 1565 61 2047 157 2290 227 1240 
10471 0.09090984689909384 0.04142074693037984 1.058525769895342 0 0 0 0.07 2 3033 33 2478 61 2048 
10472 0.13517284038430463 0.0475373883518309 1.0720303494422538 0 0 0 0.81 2 3034 15 928 29 1371 40 992 60 1566 77 2380 52 1287 163 661 42 787 
10473 -0.24721004317734832 0.03221477113114074 1.0056957489421205 0 0 0 0.8 2 3035 11 3338 27 1116 40 993 44 2321 50 3184 53 2349 
10474 -0.331608539266897 0.04236075894892145 0.8881793553052305 0 0 0 0.53 2 3036 29 1372 71 1116 110 1820 164 3257 
10475 -0.1588516569385561 0.05116844924024907 1.0121837676986516 0 0 0 0.38 2 3037 3 1335 111 1254 27 1117 217 785 
10476 0.12043342862907387 0.06725957978360367 1.0624556509188607 0 0 0 0.38 2 3038 41 560 97 656 152 777 
10477 0.1821416321888077 0.07488102265159415 1.0786949911869375 0 0 0 0.22 2 3039 44 2322 77 2381 
10478 0.019022262709989576 0.06854100305311528 1.0415065860506532 0 0 0 0.12 2 3040 4 3207 11 3339 17 2275 38 1701 54 573 71 1117 
10479 -0.3673875070387165 0.06067216855804628 0.9881596064436405 0 0 0 0.33 2 3041 148 3014 159 1922 
10480 0.20557055120207532 0.09067399640015446 1.0780619958555544 0 0 0 0.17 2 3042 17 2276 118 2236 
10481 0.1735070241739897 0.09775091651614717 1.0690024605494712 0 0 0 0.28 2 3043 11 3340 17 2277 36 941 53 2350 61 2049 92 2499 103 834 118 2237 
10482 -0.3605776497300028 0.08024303356813708 0.9819181749209577 0 0 0 0.31 2 3044 77 2382 103 835 
10483 -0.015341970080343156 0.1024721869679382 1.0232873883158498 0 0 0 0.73 2 3045 9 1189 40 994 69 638 42 788 142 691 
10484 -0.22418161358502842 0.09843925104208752 0.9937542063920636 0 0 0 0.69 2 3046 9 1190 44 2323 50 3185 
10485 -0.05268240548981831 0.10991163245237065 1.0080919961304262 0 0 0 0.15 2 3047 11 3341 17 2278 152 778 157 2291 
10486 -0.3254134902855439 0.09182352959102268 0.8524525626051648 0 0 0 0.3 2 3048 71 1118 96 1721 128 1630 
10487 -0.30188795356209613 0.10347100344829711 0.9810204965024382 0 0 0 0.29 2 3049 32 1265 33 2479 118 2238 17 2279 164 3258 0 904 
10488 -0.08407975203936909 0.1123768176079299 1.0031695984517623 0 0 0 0.33 2 3050 29 1373 33 2480 77 2383 
10489 -0.08871453613406814 0.11345009622712997 1.0070522080530624 0 0 0 0.22 2 3051 9 1191 44 2324 77 2384 136 1396 200 1647 
10490 -0.3272214256150796 0.11629002856206717 0.8492824545600015 0 0 0 0.35 2 3052 29 1374 71 1119 
10491 -0.3368863348570398 0.1323986138648631 0.9700024267991914 0 0 0 0.47 2 3053 17 2280 25 1038 111 1255 114 252 164 3259 
10492 -0.181681874397947 0.1388528776604436 0.9833883030747569 0 0 0 0.41 2 3054 11 3342 44 2325 127 1456 9 1192 26 795 27 1118 60 1567 81 570 217 786 224 1145 
10493 -0.3266039819465353 0.1228408800443312 0.8538026254776346 0 0 0 0.49 2 3055 29 1375 71 1120 96 1722 
10494 0.1588493713154311 0.1533789957370845 1.0520356584744694 0 0 0 0.44 2 3056 3 1336 40 995 73 828 4 3208 213 4007 
10495 -0.32624750269487945 0.12371159846270155 0.845751024872905 0 0 0 0.53 2 3057 29 1376 73 829 77 2385 103 836 159 1923 148 3015 164 3260 181 556 142 692 220 991 229 518 126 1302 
10496 -0.34137888830433 0.1391622127707699 0.9708921384503362 0 0 0 0.51 2 3058 4 3209 17 2281 50 3186 213 4008 
10497 -0.32101532464191856 0.13973314583676333 0.9704738443856047 0 0 0 0.43 2 3059 17 2282 50 3187 61 2050 146 3493 
10498 -0.23303754018744513 0.14426614027350276 0.9704620813381103 0 0 0 0.32 2 3060 17 2283 33 2481 71 1121 
10499 0.1455260080592553 0.16040018872175976 1.0454182015561009 0 0 0 0.37 2 3061 17 2284 92 2500 221 1647 232 2318 
10500 0.17232028137595254 0.16139147121760927 1.0490891262745818 0 0 0 0.41 2 3062 3 1337 4 3210 11 3343 15 929 17 2285 92 2501 213 4009 
10501 -0.33629563342987445 0.15095302210047823 0.9590027607166861 0 0 0 0.35 2 3063 60 1568 113 1294 
10502 -0.18778733111971516 0.17380982368175593 0.9747731237503432 0 0 0 0.04 2 3064 61 2051 157 2292 
10503 0.02864909890792073 0.18872758657131358 1.0050940905021208 0 0 0 0.55 2 3065 9 1193 19 1692 32 1266 33 2482 40 996 44 2326 60 1569 61 2052 69 639 111 1256 127 1457 135 799 152 779 175 977 217 787 162 1533 200 1648 124 1276 107 677 98 994 50 3188 163 662 
10504 -0.04086309297268306 0.18933549596152546 0.9938555465894784 0 0 0 0.15 2 3066 3 1338 44 2327 111 1257 
10505 0.1597105780400924 0.1977126035268781 1.0367652985809335 0 0 0 0.55 2 3067 19 1693 44 2328 73 830 111 1258 105 611 107 678 
10506 -0.1650306989327823 0.190601360132664 0.9690715591898382 0 0 0 0.32 2 3068 33 2483 44 2329 179 544 196 1910 19 1694 224 1146 124 1277 
10507 0.06836431775367113 0.2024549205772542 1.0111537610322028 0 0 0 0.64 2 3069 17 2286 43 1366 50 3189 146 3494 232 2319 182 676 234 800 
10508 0.12379638612044284 0.205049767897251 0.9862507181895536 0 0 0 0.41 2 3070 11 3344 77 2386 3 1339 190 1357 213 4010 
10509 0.07316153868204915 0.21727838986002732 1.0230505523197284 0 0 0 0.29 2 3071 32 1267 92 2502 
10510 -0.2678193266917594 0.2095873735347725 0.9527810050949022 0 0 0 0.39 2 3072 25 1039 27 1119 43 1367 
10511 -0.2600963591564855 0.2094658390378799 0.9505201056001875 0 0 0 0.13 2 3073 25 1040 146 3495 
10512 -0.23903330814852752 0.20880237483790948 0.9437633330480005 0 0 0 0.29 2 3074 25 1041 27 1120 
10513 -0.20316240678276243 0.21223478965919035 0.9594370631095266 0 0 0 0.61 2 3075 33 2484 36 942 44 2330 92 2503 162 1534 221 1648 32 1268 124 1278 
10514 0.09143117730817064 0.22316870636342953 1.0071010636462903 0 0 0 0.15 2 3076 4 3211 11 3345 77 2387 
10515 -0.1802368780322261 0.22242300427697487 0.9413927571783477 0 0 0 0.51 2 3077 27 1121 77 2388 92 2504 
10516 -0.3211109671968851 -0.05228514832041112 0.846259675539489 0 0 0 0.7 2 3078 25 1042 73 831 96 1723 111 1259 19 1695 224 1147 142 693 229 519 126 1303 181 557 221 1649 43 1368 232 2320 
10517 -0.3205353794392118 -0.04481181468340381 0.8440079670589389 0 0 0 0.31 2 3079 25 1043 73 832 
10518 -0.31487105598369053 -0.032210521419228415 0.810324990128585 0 0 0 0.14 2 3080 73 833 96 1724 
10519 0.027420662443956786 -0.016229480722931636 1.0616845124313325 0 0 0 0.1 2 3081 16 1974 38 1702 
10520 0.06504105343490901 -0.007636798093641981 1.0652846922716428 0 0 0 0.58 2 3082 16 1975 69 640 157 2293 0 905 14 355 
10521 0.08028547257798584 -0.006731036511373635 1.069976427219448 0 0 0 0.54 2 3083 16 1976 50 3190 
10522 -0.054961383932838545 -0.005989300232769355 1.0319820571080587 0 0 0 0.68 2 3084 16 1977 27 1122 53 2351 61 2053 77 2389 112 473 32 1269 232 2321 
10523 -0.16443662380818708 -0.009950280407116204 1.0343095149970172 0 0 0 0.4 2 3085 16 1978 113 1295 
10524 0.07527462354427607 0.012974126458775258 1.0640469120831655 0 0 0 0.3 1 749 2 3086 3 1340 4 3212 11 3346 25 1044 26 796 29 1377 54 574 71 1122 73 834 81 571 88 508 89 593 97 657 103 837 127 1458 128 1631 163 663 190 1358 217 788 219 1419 227 1241 232 2322 52 1288 85 2266 109 1202 126 1304 136 1397 196 1911 235 1320 
10525 -0.29669770785804617 0.0010685436159145007 1.0078449405947338 0 0 0 0.24 2 3087 11 3347 27 1123 50 3191 61 2054 
10526 0.1294912783989923 0.050555897067019524 1.0679264298755538 0 0 0 0.47 2 3088 4 3213 11 3348 15 930 33 2485 38 1703 61 2055 110 1821 146 3496 148 3016 157 2294 158 1602 220 992 227 1242 42 789 98 995 201 413 
10527 0.078167992725812 0.059854449251868766 1.0535030790062478 0 0 0 0.29 2 3089 19 1696 81 572 91 868 111 1260 147 1299 148 3017 
10528 -0.37760613690953226 0.042271512410153596 0.9917670466330597 0 0 0 0.51 2 3090 19 1697 25 1045 26 797 29 1378 40 997 60 1570 71 1123 73 835 77 2390 85 2267 111 1261 148 3018 159 1924 44 2331 52 1289 109 1203 142 694 224 1148 229 520 21 449 27 1124 196 1912 107 679 
10529 -0.0743615836198799 0.063667607994464 1.020395665425301 0 0 0 0.24 2 3091 152 780 157 2295 
10530 -0.04142059412401009 0.06564242095327966 1.0300046710711068 0 0 0 0.18 17 2287 25 1046 103 838 118 2239 16 1979 38 1704 50 3192 147 1300 219 1420 152 781 157 2296 
10531 -0.002677229516315897 0.0794951107945975 1.0331035904262325 0 0 0 0.22 2 3092 38 1705 77 2391 
10532 -0.08446549627287869 0.07763554531874196 1.0129643362198866 0 0 0 0.36 2 3093 38 1706 71 1124 77 2392 103 839 93 1239 109 1204 
10533 0.06167762891577895 0.10749136602080013 1.0387730712727743 0 0 0 0.54 2 3094 3 1341 14 356 16 1980 25 1047 29 1379 44 2332 54 575 60 1571 63 1035 71 1125 77 2393 85 2268 89 594 118 2240 199 533 159 1925 179 545 182 677 213 4011 217 789 222 1372 232 2323 109 1205 194 1478 0 906 9 1194 172 1570 190 1359 208 314 
10534 0.034286738200158595 0.10931347041624422 1.0314673920474662 0 0 0 0.6 2 3095 3 1342 41 561 53 2352 103 840 158 1603 172 1571 109 1206 185 1184 
10535 -0.210158628257387 0.10159208928705488 0.9920758085948266 0 0 0 0.67 2 3096 9 1195 32 1270 33 2486 44 2333 
10536 0.13514570409400237 0.14153021015667017 1.0483293715427033 0 0 0 0.12 2 3097 11 3349 146 3497 
10537 0.09773944176603025 0.15025914861982587 1.0389345170050177 0 0 0 0.34 2 3098 9 1196 25 1048 33 2487 44 2334 73 836 96 1725 111 1262 
10538 -0.3512593834344395 0.14469844697506473 0.9676871548925065 0 0 0 0.64 2 3099 3 1343 12 564 25 1049 32 1271 43 1369 53 2353 60 1572 71 1126 118 2241 232 2324 50 3193 
10539 -0.16886358254221806 0.15839485994690294 0.9764220020602643 0 0 0 0.31 1 750 2 3100 17 2288 25 1050 27 1125 32 1272 135 800 157 2297 118 2242 176 2866 213 4012 231 810 187 957 
10540 0.13253644995523198 0.172501262957693 1.0384089692829104 0 0 0 0.26 2 3101 71 1127 73 837 81 573 88 509 111 1263 
10541 -0.01198256767297962 0.17632118940848138 0.9994982508134318 0 0 0 0.45 2 3102 77 2394 110 1822 
10542 0.23553892291535927 0.19590726066160716 1.0679168123539005 0 0 0 0.75 2 3103 3 1344 50 3194 105 612 
10543 0.05148398273720909 0.20475753383143844 1.0102467396939947 0 0 0 0.29 2 3104 19 1698 81 574 
10544 0.14777540371911668 0.207432847414713 1.0288380967318063 0 0 0 0.12 2 3105 44 2335 118 2243 
10545 0.10216160175463529 0.2146954797770367 1.0123251640458355 0 0 0 0.86 2 3106 36 943 54 576 111 1264 
10546 0.07739722960230917 0.2326355298632256 1.0108169355340404 0 0 0 0.43 2 3107 4 3214 43 1370 77 2395 92 2505 93 1240 
10547 0.24137920247994668 0.24209871546924192 1.0599057996914165 0 0 0 0.31 2 3108 3 1345 11 3350 36 944 43 1371 61 2056 73 838 29 1380 77 2396 
10548 -0.1315087850195879 -0.023997506420691272 1.0321820390990133 0 0 0 0.33 2 3109 16 1981 61 2057 152 782 
10549 -0.1901036548734235 -0.02631927068386769 1.025095364227594 0 0 0 0.09 2 3110 128 1632 157 2298 
10550 0.0684666208503929 -0.013365628202613555 1.0742864051521288 0 0 0 1.06 2 3111 38 1707 128 1633 3 1346 17 2289 118 2244 152 783 0 907 61 2058 103 841 
10551 0.08782335999146017 -0.009723687882282565 1.1164070840878229 0 0 0 0.38 2 3112 4 3215 81 575 
10552 -0.31585572184470606 -0.0038199397352612105 0.819396519591112 0 0 0 0.29 2 3113 26 798 71 1128 73 839 103 842 199 534 
10553 0.04283256638595458 0.006724718208282735 1.077586613034162 0 0 0 0.65 2 3114 4 3216 9 1197 11 3351 16 1982 38 1708 44 2336 73 840 77 2397 96 1726 152 784 213 4013 221 1650 
10554 -0.33298511896537325 0.012753843435298222 0.8927788721504062 0 0 0 0.17 2 3115 73 841 199 535 181 558 209 414 208 315 
10555 -0.32821297734007415 0.02616073117161912 0.8771573600851014 0 0 0 0.25 2 3116 73 842 96 1727 
10556 -0.2879681648786646 0.05831945849634765 0.9978732797321693 0 0 0 0.32 2 3117 3 1347 60 1573 61 2059 73 843 164 3261 224 1149 
10557 -0.10087273748175424 0.07362866013932706 1.0135025478172492 0 0 0 0.3 2 3118 44 2337 50 3195 60 1574 
10558 -0.1147804597679221 0.0822317801071846 1.005682817710908 0 0 0 0.4 2 3119 4 3217 67 500 77 2398 28 1316 93 1241 118 2245 190 1360 200 1649 0 908 88 510 
10559 0.0543847896847301 0.10300178794715036 1.0378283295968425 0 0 0 0.38 2 3120 17 2290 19 1699 26 799 27 1126 33 2488 38 1709 40 998 64 157 71 1129 73 844 77 2399 85 2269 88 511 118 2246 126 1305 148 3019 199 536 136 1398 138 222 147 1301 162 1535 164 3262 182 678 185 1185 190 1361 200 1650 213 4014 214 1922 217 790 220 993 221 1651 222 1373 223 350 235 1321 52 1290 91 869 93 1242 163 664 16 1983 42 790 142 695 0 909 
10560 -0.19462338311692023 0.10285612373624717 0.9951462668096388 0 0 0 0.35 2 3121 41 562 127 1459 19 1700 224 1150 
10561 -0.2267426934754995 0.11145606707122495 0.9898548923318569 0 0 0 0.43 2 3122 41 563 81 576 157 2299 
10562 -0.02930854672239293 0.11892497858160009 1.013929423633425 0 0 0 0.55 2 3123 9 1198 29 1381 33 2489 148 3020 
10563 -0.2301383916393735 0.11496255728841283 0.9874266262055474 0 0 0 0.21 2 3124 17 2291 50 3196 
10564 -0.3421580756314109 0.13160087603050938 0.9719767668938284 0 0 0 0.25 2 3125 60 1575 73 845 
10565 0.13565779080530815 0.1525906900412198 1.0412676705430193 0 0 0 0.14 2 3126 3 1348 44 2338 
10566 -0.2798907672406724 0.14578820701200274 0.9725449798628163 0 0 0 0.06 2 3127 9 1199 44 2339 81 577 
10567 0.23300121708341331 0.16868932870901984 1.0563315352451048 0 0 0 0.73 2 3128 3 1349 65 559 
10568 0.006756553551524199 0.17866176930147945 1.0041594780470993 0 0 0 0.3 2 3129 15 931 16 1984 17 2292 50 3197 175 978 199 537 13 1002 
10569 0.07491062113333581 0.20346231802893514 1.0171440608196998 0 0 0 0.24 2 3130 43 1372 81 578 199 538 164 3263 198 762 
10570 0.06996383081391394 0.2233714327396287 1.0071113685371829 0 0 0 0.51 2 3131 4 3218 25 1051 43 1373 92 2506 111 1265 
10571 0.06661822152553985 0.2268443387386958 1.0037020516110837 0 0 0 0.51 2 3132 4 3219 9 1200 43 1374 50 3198 60 1576 92 2507 13 1003 
10572 -0.28661712114903803 -0.027397315998716344 1.0182959593647047 0 0 0 0.1 2 3133 33 2490 73 846 
10573 -0.32165318446534336 0.04116472281942812 0.8323552100970106 0 0 0 0.15 2 3134 26 800 71 1130 73 847 199 539 198 763 
10574 -0.2439868937720918 0.04682249636075837 0.9985381119286862 0 0 0 0.26 2 3135 77 2400 148 3021 
10575 -0.32791609701953495 0.07789607145404118 0.8659756884405181 0 0 0 0.59 2 3136 25 1052 29 1382 71 1131 73 848 103 843 181 559 198 764 
10576 -0.17838887036637757 0.1037965544440099 0.9954474384872358 0 0 0 0.56 2 3137 26 801 33 2491 19 1701 224 1151 
10577 -0.3201512198539164 0.08904588994140832 0.8184939481711164 0 0 0 0.34 2 3138 25 1053 26 802 71 1132 73 849 103 844 199 540 198 765 221 1652 
10578 -0.2423467892004661 0.1233523245994728 0.9810724731059667 0 0 0 0.49 2 3139 53 2354 81 579 
10579 -0.32994218045718127 0.134995272185403 0.8689073259426667 0 0 0 0.4 2 3140 26 803 29 1383 71 1133 
10580 -0.33068310328430955 0.14541451545057685 0.8673728676744543 0 0 0 0.26 2 3141 26 804 71 1134 73 850 199 541 
10581 -0.06307112618893744 0.17224614186828965 0.9932477023994373 0 0 0 0.49 2 3142 12 565 16 1985 19 1702 25 1054 26 805 27 1127 61 2060 77 2401 103 845 113 1296 118 2247 98 996 172 1572 56 585 217 791 222 1374 232 2325 
10582 0.2408715677663629 0.19200340959341342 1.071710228817307 0 0 0 0.24 2 3143 50 3199 118 2248 
10583 -0.25929335859489655 0.1828832267279164 0.9613446919244566 0 0 0 0.7 2 3144 25 1055 26 806 33 2492 65 560 77 2402 81 580 88 512 126 1306 199 542 162 1536 164 3264 181 560 224 1152 52 1291 142 696 196 1913 229 521 
10584 -0.08344164475940702 0.20563211135059167 0.9785265182008688 0 0 0 0.51 2 3145 44 2340 61 2061 81 581 158 1604 124 1279 
10585 -0.18698594944498 0.21799064957760544 0.9460513413534277 0 0 0 0.4 2 3146 11 3352 27 1128 81 582 
10586 -0.31838803791436165 0.01837275156611332 0.8248615747185625 0 0 0 0.28 2 3147 25 1056 96 1728 103 846 181 561 
10587 -0.31857799355874505 0.0280871611042776 0.831462667889226 0 0 0 0.97 2 3148 26 807 71 1135 73 851 199 543 17 2293 25 1057 43 1375 65 561 81 583 96 1729 181 562 198 766 221 1653 76 79 208 316 118 2249 128 1634 157 2300 232 2326 
10588 -0.32496598639338176 0.03537568760784597 0.8540366763700826 0 0 0 0.58 2 3149 25 1058 26 808 67 501 73 852 76 80 103 847 199 544 126 1307 148 3022 181 563 21 450 96 1730 208 317 142 697 229 522 
10589 -0.25729498703956705 0.061067366362344555 1.0019126376611753 0 0 0 0.42 2 3150 11 3353 67 502 17 2294 213 4015 219 1421 
10590 -0.3165417833292803 0.09449337987836116 0.9852366858737159 0 0 0 0.49 2 3151 3 1350 4 3220 11 3354 17 2295 25 1059 27 1129 29 1384 44 2341 50 3200 73 853 81 584 88 513 92 2508 96 1731 103 848 128 1635 158 1605 199 545 
10591 0.07667751356079212 0.12073795159513444 1.0416663337676353 0 0 0 0.68 2 3152 36 945 38 1710 77 2403 103 849 198 767 217 792 52 1292 
10592 -0.3261427613240318 0.12953420301796187 0.8503759729650374 0 0 0 0.67 2 3153 26 809 29 1385 73 854 76 81 88 514 199 546 25 1060 181 564 198 768 
10593 -0.012045304595341987 0.15860320585190585 1.005354454993327 0 0 0 0.34 2 3154 16 1986 50 3201 118 2250 
10594 0.01672748445498338 0.16019331908478876 1.0093821655562774 0 0 0 0.64 2 3155 33 2493 136 1399 
10595 -0.3234839917360136 0.14815705692056141 0.8244187058066614 0 0 0 0.35 2 3156 26 810 73 855 199 547 198 769 208 318 
10596 -0.17688502226748687 0.18817799264962481 0.9671393563340254 0 0 0 0.52 2 3157 33 2494 50 3202 162 1537 227 1243 0 910 44 2342 157 2301 220 994 
10597 -0.016084469393516748 0.19463064078264625 0.9948265223831588 0 0 0 0.05 2 3158 81 585 152 785 
10598 0.08457389914509122 0.22535106111875475 1.0112844030229082 0 0 0 0.53 2 3159 4 3221 65 562 77 2404 92 2509 
10599 -0.1772933116406434 0.21303077221449324 0.9604909326038582 0 0 0 0.41 2 3160 33 2495 50 3203 
10600 -0.36769160451784894 0.09153639471725351 0.9772338488212936 0 0 0 0.57 2 3161 29 1386 71 1136 73 856 81 586 25 1061 221 1654 
10601 0.03032340133047588 0.10833465255189804 1.0294268950106462 0 0 0 0.26 2 3162 17 2296 33 2496 
10602 -0.05363398494857506 0.12107598713310531 1.0074670542911548 0 0 0 0.52 2 3163 33 2497 44 2343 50 3204 
10603 -0.08006535783977642 0.13140665554766645 0.9966572231211501 0 0 0 0.34 2 3164 50 3205 97 658 
10604 0.1669000001102953 0.180242024872818 1.0429787743462133 0 0 0 0.42 2 3165 3 1351 4 3222 11 3355 17 2297 19 1703 29 1387 32 1273 33 2498 35 348 40 999 43 1376 44 2344 50 3206 53 2355 54 577 60 1577 61 2062 62 285 63 1036 65 563 69 641 71 1137 73 857 77 2405 81 587 89 595 91 870 105 613 110 1823 111 1266 118 2251 127 1460 128 1636 146 3498 148 3023 158 1606 159 1926 129 321 147 1302 162 1538 163 665 164 3265 172 1573 184 1002 190 1362 197 1098 198 770 213 4016 221 1655 222 1375 227 1244 232 2327 235 1322 52 1293 93 1243 200 1651 201 414 165 1231 208 319 56 586 141 337 
10605 -0.19770428592601266 0.21058899861592195 0.9523073946489893 0 0 0 0.71 2 3166 27 1130 81 588 92 2510 
10606 0.1683804614191593 0.05851733758951596 1.0717863299624582 0 0 0 0.76 2 3167 17 2298 33 2499 40 1000 44 2345 69 642 105 614 
10607 -0.2188271604020088 0.05115284727113335 1.0026841318586934 0 0 0 0.12 2 3168 19 1704 118 2252 
10608 0.1264777724477693 0.1194952277134689 1.0516198956321812 0 0 0 0.76 2 3169 4 3223 11 3356 15 932 17 2299 33 2500 38 1711 40 1001 53 2356 54 578 65 564 71 1138 73 858 118 2253 3 1352 32 1274 81 589 111 1267 148 3024 152 786 147 1303 172 1574 190 1363 196 1914 213 4017 217 793 222 1376 227 1245 198 771 199 548 0 911 204 1810 221 1656 
10609 0.15288181274093912 0.12067396203019051 1.058287345828646 0 0 0 0.61 2 3170 3 1353 4 3224 53 2357 67 503 81 590 89 596 15 933 17 2300 29 1388 61 2063 71 1139 118 2254 11 3357 54 579 65 565 190 1364 213 4018 222 1377 129 322 152 787 217 794 221 1657 
10610 0.07215523035949346 0.12280129625995546 1.038183946368943 0 0 0 0.8 2 3171 4 3225 9 1201 14 357 17 2301 19 1705 29 1389 33 2501 38 1712 40 1002 41 564 44 2346 53 2358 65 566 69 643 77 2406 81 591 91 871 97 659 111 1268 118 2255 136 1400 128 1637 52 1294 28 1317 
10611 -0.3247720657234126 0.11564515292209201 0.9774290153965626 0 0 0 0.79 2 3172 43 1377 60 1578 3 1354 12 566 32 1275 44 2347 81 592 9 1202 162 1539 209 415 
10612 0.18116507543851898 0.012249338832475047 1.102433344304792 0 0 0 1.35 2 3173 3 1355 4 3226 15 934 17 2302 43 1378 50 3207 54 580 65 567 67 504 81 593 
10613 -0.1850429301374271 0.19552359705043265 0.9687959165256397 0 0 0 0.44 2 3174 50 3208 81 594 
10614 -0.31823604467374966 -0.048916739804761765 0.8398423002961476 0 0 0 0.26 3 1356 67 505 96 1732 103 850 
10615 -0.08102209930309014 -0.040139648822155864 1.0398152411872816 0 0 0 0.45 3 1357 4 3227 11 3358 38 1713 111 1269 41 565 50 3209 157 2302 179 546 213 4019 
10616 -0.07728596926073418 -0.03226885118414744 1.0410806969874473 0 0 0 0.08 3 1358 53 2359 112 474 
10617 -0.32160988502738275 -0.0319695290144841 0.8510000863818968 0 0 0 0.21 3 1359 17 2303 53 2360 103 851 
10618 -0.3190698679915649 -0.028556398082414825 0.8438647810672911 0 0 0 0.18 3 1360 17 2304 53 2361 
10619 -0.08250603598259226 -0.01854181600454281 1.1063445380972867 0 0 0 0.48 3 1361 4 3228 29 1390 
10620 -0.316528212385844 -0.02013407491695917 0.8253333507428071 0 0 0 0.14 3 1362 17 2305 53 2362 
10621 0.18695829249399223 0.001020131736024532 1.1647331470046403 0 0 0 0.33 3 1363 15 935 17 2306 103 852 
10622 -0.32345583665258537 -0.015403607477405558 0.8516346867776857 0 0 0 0.23 3 1364 17 2307 53 2363 118 2256 232 2328 
10623 0.0651167211352268 0.0017538528090440555 1.068263622720548 0 0 0 0.33 3 1365 11 3359 71 1140 97 660 
10624 -0.12979949212401018 0.0009465212051937073 1.0229217780640998 0 0 0 0.45 3 1366 27 1131 33 2502 44 2348 50 3210 
10625 -0.2068232680880142 0.002774905934272197 1.0169473894302397 0 0 0 0.57 3 1367 16 1987 25 1062 27 1132 50 3211 204 1811 219 1422 
10626 -0.26868176099985736 0.0019008266930532738 1.0110769067646415 0 0 0 0.42 3 1368 17 2308 96 1733 158 1607 0 912 50 3212 176 2867 11 3360 219 1423 
10627 -0.29678724931184913 0.002266890221907228 1.0068897849166223 0 0 0 0.14 3 1369 29 1391 96 1734 
10628 -0.06078670478741486 0.009492997400178184 1.0349802459913195 0 0 0 0.26 3 1370 11 3361 15 936 17 2309 50 3213 69 644 147 1304 217 795 
10629 -0.05181084786062752 0.011299617279535183 1.0365260776115712 0 0 0 0.8 3 1371 9 1203 53 2364 135 801 214 1923 61 2064 85 2270 92 2511 96 1735 109 1207 110 1824 12 567 13 1004 98 997 112 475 187 958 11 3362 16 1988 29 1392 38 1714 127 1461 147 1305 
10630 -0.3123759517911495 0.005554268082645507 0.8029967842999821 0 0 0 0.31 3 1372 12 568 17 2310 67 506 118 2257 232 2329 
10631 -0.04348635492022848 0.026014876443844877 1.0336656795537382 0 0 0 0.35 3 1373 4 3229 16 1989 27 1133 63 1037 69 645 77 2407 157 2303 172 1575 200 1652 222 1378 232 2330 
10632 -0.015683005959005614 0.02682166856073545 1.0401518274921644 0 0 0 0.43 3 1374 16 1990 17 2311 25 1063 29 1393 33 2503 61 2065 63 1038 85 2271 118 2258 146 3499 15 937 135 802 148 3025 152 788 157 2304 159 1927 164 3266 176 2868 196 1915 213 4020 232 2331 52 1295 53 2365 92 2512 93 1244 109 1208 110 1825 113 1297 194 1479 214 1924 28 1318 112 476 98 998 187 959 39 401 124 1280 
10633 -0.3206350919006196 0.020837362786571438 1.0011936418087655 0 0 0 0.35 3 1375 4 3230 11 3363 17 2312 118 2259 128 1638 127 1462 213 4021 
10634 -0.31693688778082363 0.020643381467020175 1.000083416787238 0 0 0 0.24 3 1376 4 3231 11 3364 33 2504 61 2066 128 1639 176 2869 204 1812 213 4022 
10635 -0.21593986255498315 0.024923558888890904 1.0038242072543844 0 0 0 0.73 2 3175 3 1377 4 3232 33 2505 50 3214 110 1826 113 1298 118 2260 164 3267 152 789 176 2870 
10636 -0.30520549847063644 0.023285030477675165 0.9986536237686757 0 0 0 0.46 3 1378 11 3365 25 1064 118 2261 190 1365 
10637 -0.27543779750057484 0.023596571644704665 0.9997732560015118 0 0 0 0.42 3 1379 12 569 17 2313 27 1134 29 1394 53 2366 113 1299 118 2262 127 1463 176 2871 204 1813 219 1424 221 1658 227 1246 232 2332 0 913 
10638 -0.26923113522493175 0.02404875570758211 1.002934606108338 0 0 0 0.74 2 3176 3 1380 4 3233 11 3366 17 2314 29 1395 61 2067 71 1141 77 2408 113 1300 128 1640 148 3026 213 4023 232 2333 
10639 -0.33313141932813656 0.02725930159375855 0.9935049904494793 0 0 0 0.34 3 1381 4 3234 17 2315 50 3215 118 2263 232 2334 
10640 -0.2309472603411692 0.035781376045155786 1.0050251990925843 0 0 0 0.75 3 1382 4 3235 25 1065 40 1003 53 2367 61 2068 71 1142 85 2272 96 1736 9 1204 16 1991 27 1135 127 1464 157 2305 158 1608 162 1540 164 3268 176 2872 196 1916 200 1653 204 1814 220 995 227 1247 152 790 219 1425 13 1005 28 1319 42 791 
10641 0.07049019403107852 0.05265798011676903 1.0533492094026347 0 0 0 0.42 3 1383 11 3367 25 1066 29 1396 38 1715 54 581 61 2069 77 2409 85 2273 103 853 110 1827 118 2264 128 1641 136 1401 148 3027 162 1541 196 1917 214 1925 219 1426 52 1296 93 1245 235 1323 42 792 142 698 
10642 -0.27040376879107036 0.04559665580523822 0.9981347251785253 0 0 0 0.21 3 1384 11 3368 25 1067 61 2070 
10643 -0.04142422647575464 0.05812136409758196 1.0305865048638616 0 0 0 0.22 3 1385 9 1205 50 3216 146 3500 231 811 39 402 
10644 0.06450632344241201 0.06607470237793577 1.0484039471923707 0 0 0 0.29 3 1386 53 2368 61 2071 69 646 71 1143 
10645 -0.005937524050232341 0.0669405905751367 1.0353692951304774 0 0 0 0.41 3 1387 4 3236 11 3369 16 1992 27 1136 29 1397 38 1716 60 1579 77 2410 103 854 
10646 0.26119428312408244 0.08471954771357235 1.1194238953685784 0 0 0 0.54 3 1388 4 3237 11 3370 15 938 17 2316 29 1398 35 349 63 1039 71 1144 73 859 77 2411 91 872 147 1306 162 1542 163 666 164 3269 165 1232 194 1480 232 2335 105 615 220 996 
10647 0.06225121487855136 0.09141167671026174 1.0439364589504112 0 0 0 0.33 3 1389 41 566 61 2072 146 3501 
10648 0.07179117529326517 0.09808240170686851 1.0439260235881427 0 0 0 0.13 3 1390 103 855 111 1270 172 1576 219 1427 
10649 0.021772423295163126 0.09630257793768204 1.030614127271254 0 0 0 0.69 3 1391 15 939 16 1993 17 2317 40 1004 41 567 63 1040 103 856 127 1465 128 1642 9 1206 176 2873 214 1926 159 1928 162 1543 175 979 179 547 185 1186 213 4024 219 1428 234 801 33 2506 52 1297 93 1246 136 1402 200 1654 142 699 196 1918 38 1717 91 873 
10650 -0.32261011591884486 0.0768600272890468 0.8394066715881044 0 0 0 0.35 3 1392 17 2318 53 2369 67 507 118 2265 219 1429 232 2336 
10651 -0.04772103223033546 0.10079011054830912 1.0163823687696392 0 0 0 0.34 2 3177 3 1393 9 1207 12 570 16 1994 17 2319 27 1137 29 1399 33 2507 36 946 38 1718 50 3217 60 1580 69 647 103 857 113 1301 118 2266 136 1403 146 3502 148 3028 157 2306 11 3371 147 1307 158 1609 159 1929 164 3270 172 1577 176 2874 185 1187 190 1366 200 1655 204 1815 214 1927 217 796 231 812 13 1006 40 1005 44 2349 126 1308 
10652 -0.28204916382843764 0.09427401402319821 0.9900834150060885 0 0 0 0.44 3 1394 41 568 61 2073 158 1610 209 416 
10653 -0.3071345094916867 0.09342862878922459 0.9834326519501746 0 0 0 0.17 3 1395 44 2350 97 661 
10654 0.07332667625045598 0.10783408852532664 1.046789735902592 0 0 0 0.19 3 1396 61 2074 71 1145 
10655 -0.3245331735885129 0.08115419035960965 0.8573915269247341 0 0 0 0.5 3 1397 17 2320 50 3218 53 2370 
10656 -0.13295232992029685 0.09918506937275506 0.9959126044800313 0 0 0 0.31 3 1398 4 3238 16 1995 33 2508 50 3219 128 1643 135 803 114 253 162 1544 109 1209 
10657 -0.08778331174149384 0.10604628447235875 1.0086928294625546 0 0 0 0.27 3 1399 4 3239 11 3372 15 940 29 1400 36 947 38 1719 54 582 77 2412 213 4025 
10658 -0.13130402759996881 0.10648628940689993 0.9903143441071357 0 0 0 0.2 3 1400 61 2075 77 2413 
10659 -0.3227264104366159 0.08701338004280965 0.8371527620255438 0 0 0 0.53 3 1401 17 2321 67 508 128 1644 221 1659 
10660 -0.10167059311818148 0.11277642701749563 1.004687866432559 0 0 0 0.15 3 1402 9 1208 44 2351 146 3503 200 1656 
10661 -0.24919315585703783 0.10880180760538692 0.9867640418808681 0 0 0 0.95 4 3240 41 569 50 3220 111 1271 113 1302 17 2322 204 1816 213 4026 232 2337 146 3504 158 1611 209 417 0 914 
10662 -0.3279201630659417 0.10112291918567487 0.8601515474780337 0 0 0 0.14 3 1403 12 571 17 2323 118 2267 232 2338 
10663 0.28083828468048744 0.1490947576991974 1.1163405727900488 0 0 0 0.51 3 1404 4 3241 44 2352 77 2414 11 3373 162 1545 
10664 0.20890076715508465 0.1420912257001187 1.0705402382482527 0 0 0 0.38 3 1405 17 2324 50 3221 61 2076 77 2415 118 2268 147 1308 221 1660 0 915 182 679 
10665 -0.19647170966311103 0.1313298211274455 0.9773584518396375 0 0 0 0.34 3 1406 53 2371 61 2077 
10666 -0.3319571523078498 0.12221043525526402 0.8745944397541682 0 0 0 0.29 3 1407 17 2325 53 2372 
10667 0.18301638337464507 0.15748868627142057 1.0549625981130597 0 0 0 0.18 3 1408 15 941 53 2373 
10668 -0.14388776151644284 0.14996832759159934 0.9845931226768534 0 0 0 0.33 3 1409 50 3222 61 2078 157 2307 219 1430 231 813 98 999 158 1612 
10669 -0.060855919795387 0.15852472031980902 0.9956347114831627 0 0 0 0.26 3 1410 61 2079 96 1737 111 1272 9 1209 19 1706 44 2353 162 1546 217 797 2 3178 4 3242 11 3374 16 1996 17 2326 27 1138 38 1720 50 3223 92 2513 110 1828 113 1303 118 2269 146 3505 28 1320 219 1431 234 802 187 960 159 1930 188 213 214 1928 213 4027 
10670 0.28181625151075157 0.18426453987260108 1.1067421577427374 0 0 0 0.59 3 1411 15 942 61 2080 92 2514 
10671 -0.03609220919921764 0.16339101231928524 0.9987477362949433 0 0 0 0.28 3 1412 4 3243 19 1707 
10672 0.14546095092048425 0.187981722971391 1.0344428640001957 0 0 0 0.49 3 1413 14 358 15 943 17 2327 50 3224 61 2081 63 1041 97 662 234 803 93 1247 13 1007 175 980 98 1000 187 961 
10673 0.2745021208239637 0.20791285818497018 1.0986733377429214 0 0 0 0.21 3 1414 4 3244 11 3375 17 2328 53 2374 77 2416 97 663 
10674 0.12500121442760434 0.2019540764478356 1.022847015751421 0 0 0 0.33 3 1415 60 1581 96 1738 
10675 0.21962096716125912 0.20882158494139058 1.047491364164741 0 0 0 0.13 3 1416 53 2375 71 1146 
10676 0.1332025244722603 0.2049344132066286 1.0259416181170766 0 0 0 0.66 2 3179 3 1417 4 3245 11 3376 17 2329 19 1708 33 2509 50 3225 53 2376 54 583 60 1582 63 1042 77 2417 96 1739 110 1829 111 1273 127 1466 136 1404 148 3029 162 1547 163 667 184 1003 194 1481 200 1657 220 997 222 1379 52 1298 93 1248 109 1210 165 1233 235 1324 42 793 142 700 14 359 107 680 182 680 13 1008 214 1929 56 587 69 648 15 944 146 3506 147 1309 
10677 0.24375446131863945 0.24022324126670316 1.0613729187101548 0 0 0 0.43 2 3180 3 1418 11 3377 36 948 61 2082 73 860 77 2418 
10678 0.2629001754480595 0.24419270007576424 1.0774578049644938 0 0 0 0.16 3 1419 4 3246 11 3378 184 1004 
10679 0.2384174573969483 0.2402000504286361 1.057865897515537 0 0 0 0.23 3 1420 36 949 43 1379 77 2419 
10680 0.07167309514501763 -0.02016171117320959 1.0741766180055043 0 0 0 0.34 3 1421 4 3247 89 597 103 858 65 568 67 509 111 1274 41 570 60 1583 64 158 1 751 56 588 97 664 134 77 181 565 
10681 -0.323607116294568 -0.029667088245258686 0.8611005843308959 0 0 0 0.3 3 1422 17 2330 67 510 81 595 
10682 -0.03794065321766044 -0.0112551323122921 1.090420519117766 0 0 0 0.71 3 1423 4 3248 17 2331 65 569 
10683 -0.07598937745556951 -0.007015633906639591 1.0332577075236808 0 0 0 0.81 3 1424 19 1709 89 598 126 1309 162 1548 
10684 -0.2857995108540228 0.0032659645243297494 1.0083858755237065 0 0 0 0.36 3 1425 12 572 17 2332 29 1401 40 1006 41 571 77 2420 97 665 103 859 110 1830 113 1304 158 1613 159 1931 114 254 127 1467 157 2308 172 1578 176 2875 179 548 194 1482 196 1919 204 1817 213 4028 0 916 53 2377 227 1248 52 1299 109 1211 229 523 
10685 -0.37343891139869867 0.0056720696020500306 0.9980235264599405 0 0 0 0.27 3 1426 17 2333 50 3226 65 570 118 2270 232 2339 
10686 -0.3194406165170528 0.008903474489016166 0.8357332707172462 0 0 0 0.34 3 1427 12 573 17 2334 43 1380 118 2271 219 1432 232 2340 
10687 0.15463645004159707 0.051811856500958035 1.072787547316749 0 0 0 0.49 3 1428 15 945 33 2510 40 1007 50 3227 73 861 127 1468 152 791 42 794 
10688 0.09135225812734044 0.05098289684783984 1.0600113903909993 0 0 0 0.43 3 1429 14 360 29 1402 60 1584 71 1147 96 1740 97 666 142 701 126 1310 136 1405 147 1310 172 1579 
10689 -0.28664581103029785 0.050224682029049915 1.0055243650157433 0 0 0 0.07 3 1430 17 2335 73 862 
10690 0.04662771547103642 0.07317716332666198 1.0464859751810354 0 0 0 0.33 3 1431 38 1721 118 2272 11 3379 26 811 54 584 111 1275 
10691 -0.10127883203530019 0.07368947198236672 1.012911169645006 0 0 0 0.16 3 1432 44 2354 71 1148 
10692 -0.1276847949312243 0.08270338082414923 1.0043931436013689 0 0 0 0.21 3 1433 27 1139 40 1008 85 2274 
10693 0.10941548149700672 0.09378711003459189 1.0573353020121867 0 0 0 0.2 3 1434 17 2336 71 1149 
10694 0.06174049057497497 0.0974446081952411 1.0404931248090281 0 0 0 0.43 3 1435 16 1997 71 1150 96 1741 219 1433 222 1380 232 2341 
10695 -0.3248952160051165 0.07601539381178538 0.8600227993085353 0 0 0 0.23 3 1436 17 2337 53 2378 67 511 118 2273 232 2342 
10696 -0.3141853265918694 0.07772186209364287 0.7948682206319521 0 0 0 0.46 3 1437 12 574 65 571 118 2274 
10697 -0.1641723222589135 0.10210527078821559 0.9971102561900934 0 0 0 0.13 3 1438 41 572 111 1276 
10698 -0.3269502677749004 0.0972066864900167 0.8591738563837017 0 0 0 0.27 3 1439 12 575 17 2338 53 2379 118 2275 219 1434 232 2343 
10699 0.27475393769556783 0.160921963724541 1.1090725234904049 0 0 0 0.39 3 1440 4 3249 11 3380 15 946 17 2339 36 950 44 2355 53 2380 65 572 67 512 77 2421 89 599 103 860 111 1277 162 1549 165 1234 190 1367 227 1249 235 1325 184 1005 232 2344 
10700 -0.23501480650550793 0.1378308978915179 0.9772694593597496 0 0 0 0.37 3 1441 11 3381 25 1068 33 2511 53 2381 204 1818 227 1250 
10701 -0.3264996465909088 0.1187207212760549 0.8450755977155939 0 0 0 0.16 3 1442 17 2340 43 1381 
10702 0.13201333918743444 0.15718210215508094 1.039480216282874 0 0 0 0.36 3 1443 11 3382 15 947 17 2341 61 2083 67 513 97 667 118 2276 13 1009 128 1645 158 1614 
10703 -0.18328231138107756 0.1513531620972392 0.9800572781526552 0 0 0 0.31 3 1444 44 2356 61 2084 16 1998 17 2342 26 812 27 1140 38 1722 71 1151 77 2422 185 1188 214 1930 227 1251 124 1281 92 2515 110 1831 231 814 0 917 
10704 0.28283673868558046 0.22669338419463428 1.098052801674154 0 0 0 0.39 3 1445 17 2343 50 3228 147 1311 
10705 0.19678567790842397 0.013026488686006463 1.130340599769878 0 0 0 0.55 3 1446 4 3250 65 573 81 596 
10706 -0.3225878485868709 0.014343723534445697 0.8394455239160198 0 0 0 0.23 3 1447 17 2344 65 574 118 2277 232 2345 
10707 -0.19848563494805505 0.06081462101869747 1.0033371658496566 0 0 0 0.17 3 1448 44 2357 61 2085 0 918 157 2309 
10708 0.23453421559092438 0.08065251263083013 1.1054718013081106 0 0 0 0.23 3 1449 43 1382 53 2382 
10709 0.2876322812104235 0.08952941542665589 1.1349971196022077 0 0 0 0.28 3 1450 67 514 89 600 91 874 103 861 111 1278 56 589 129 323 
10710 0.2684666710209348 0.08950564340324528 1.120549133351914 0 0 0 0.65 3 1451 17 2345 61 2086 65 575 103 862 19 1710 162 1550 163 668 220 998 0 919 69 649 
10711 -0.3037914049967443 0.06922464431822614 0.991554697803868 0 0 0 0.37 3 1452 11 3383 17 2346 50 3229 60 1585 61 2087 0 920 
10712 0.24834495202386841 0.1737488805656257 1.0879088743254322 0 0 0 0.14 3 1453 19 1711 103 863 
10713 0.006416641269608993 0.18432932092861998 1.0011412985342987 0 0 0 0.42 3 1454 33 2512 43 1383 44 2358 111 1279 127 1469 164 3271 200 1658 217 798 
10714 0.18502050053106342 0.21740774824291123 1.0396702097649813 0 0 0 0.32 3 1455 36 951 54 585 97 668 107 681 
10715 0.010043454060798354 0.21089817016524878 0.9993079191614923 0 0 0 0.52 3 1456 12 576 17 2347 43 1384 96 1742 
10716 0.014106278319568906 -0.012317058285532735 1.0989234847006657 0 0 0 0.46 3 1457 29 1403 43 1385 81 597 
10717 0.1589748165250813 -0.008591661553713091 1.088358431993993 0 0 0 0.92 3 1458 11 3384 65 576 67 515 204 1819 213 4029 1 752 56 590 
10718 -0.0940238025622119 -0.007614405574448479 1.0469569265388838 0 0 0 0.43 3 1459 17 2348 65 577 
10719 -0.32049392165877594 0.0008772090477273117 0.8427339425933005 0 0 0 0.26 3 1460 17 2349 53 2383 118 2278 219 1435 232 2346 
10720 0.12591289661571003 0.029264258117737516 1.0754840075339427 0 0 0 0.46 3 1461 4 3251 19 1712 60 1586 63 1043 85 2275 92 2516 96 1743 111 1280 126 1311 208 320 222 1381 
10721 -0.36931728413300347 0.017043022529735732 0.9968073914600356 0 0 0 0.22 3 1462 17 2350 50 3230 65 578 118 2279 232 2347 
10722 0.08385499337334532 0.035916983339103654 1.0599466391833439 0 0 0 0.1 3 1463 60 1587 111 1281 
10723 -0.31950719787399295 0.01786531525688164 0.8266038238329915 0 0 0 0.48 3 1464 17 2351 53 2384 65 579 67 516 
10724 -0.32718760267722846 0.02619422392813639 0.8739754969992561 0 0 0 0.42 3 1465 17 2352 65 580 118 2280 232 2348 29 1404 221 1661 
10725 -0.22779511327831606 0.047157139741964775 1.0098356137534914 0 0 0 0.24 3 1466 11 3385 16 1999 
10726 0.037373644657049725 0.06946315636588055 1.0446703166973708 0 0 0 0.16 3 1467 15 948 25 1069 
10727 -0.2418265220616264 0.07042104749446446 0.9942301526983905 0 0 0 0.2 3 1468 97 669 111 1282 157 2310 158 1615 
10728 -0.33028811408561476 0.06588058303176102 0.8863611160180171 0 0 0 0.35 3 1469 12 577 17 2353 65 581 67 517 81 598 118 2281 128 1646 219 1436 232 2349 
10729 -0.009022747525749681 0.11220997016236263 1.0232745153813962 0 0 0 0.29 3 1470 9 1210 81 599 92 2517 
10730 -0.24189026069135136 0.10966842052004737 0.9853899917520343 0 0 0 0.27 3 1471 9 1211 44 2359 
10731 0.1084971905804645 0.16536170953076856 1.0307831659662323 0 0 0 0.37 3 1472 25 1070 111 1283 
10732 -0.05173942392238314 0.20716526340922342 0.9830871967795364 0 0 0 0.98 3 1473 27 1141 44 2360 77 2423 148 3030 196 1920 52 1300 92 2518 42 795 
10733 -0.19299540854061145 -0.03141786403081107 1.0267997810283238 0 0 0 0.94 3 1474 4 3252 60 1588 65 582 81 600 89 601 97 670 111 1284 11 3386 
10734 -0.32090863363454164 -0.012229884028914718 0.85649623143175 0 0 0 0.43 3 1475 17 2354 65 583 81 601 118 2282 128 1647 219 1437 232 2350 
10735 -0.3672164446474658 -0.006340905615531845 1.0006097505307665 0 0 0 0.51 3 1476 17 2355 65 584 12 578 118 2283 128 1648 232 2351 
10736 -0.29561459599598555 0.02075932167142583 1.0039561554996348 0 0 0 0.76 3 1477 44 2361 81 602 111 1285 179 549 209 418 19 1713 41 573 
10737 0.2806865696629524 0.1664322795905777 1.1120261673181224 0 0 0 0.17 3 1478 11 3387 36 952 
10738 0.19455986003736955 0.16447141495099094 1.0453144125947313 0 0 0 0.56 3 1479 4 3253 61 2088 11 3388 17 2356 32 1276 71 1152 77 2424 91 875 118 2284 
10739 0.28032646754074353 0.17647335526235225 1.1085507516550652 0 0 0 0.09 3 1480 11 3389 36 953 
10740 -0.1947880877696366 -0.02337079573563282 1.0213824358751484 0 0 0 0.84 3 1481 12 579 41 574 110 1832 219 1438 227 1252 
10741 0.16299957528196446 0.0028101278455872217 1.1003436309484482 0 0 0 0.96 3 1482 4 3254 54 586 73 863 213 4030 1 753 56 591 63 1044 71 1153 
10742 -0.3638124178461086 0.09501521433985805 0.9764340298056801 0 0 0 0.58 3 1483 12 580 65 585 
10743 -0.17780041079808248 0.10901036458879616 0.9933257826454477 0 0 0 0.73 3 1484 4 3255 17 2357 67 518 25 1071 114 255 146 3507 219 1439 
10744 -0.15718160701655556 0.14576094317746008 0.9841482401377867 0 0 0 0.48 3 1485 60 1589 111 1286 
10745 0.2510985967255676 0.23591491295287123 1.0720374924259204 0 0 0 0.52 3 1486 11 3390 29 1405 44 2362 62 286 164 3272 184 1006 
10746 -0.2999068437617716 -0.015709598054844925 1.026705637339657 0 0 0 0.88 3 1487 25 1072 33 2513 60 1590 
10747 -0.04074932384650636 0.07803497534752402 1.0251471173068318 0 0 0 0.82 3 1488 32 1277 60 1591 
10748 0.27093481660204216 0.19868432301114425 1.0941458429163124 0 0 0 0.29 3 1489 4 3256 71 1154 
10749 0.16862759611696243 0.05410310333402209 1.071882732678895 0 0 0 0.61 3 1490 19 1714 111 1287 
10750 -0.09821228963439427 -0.03429058261838393 1.0209190931016099 0 0 0 0.68 3 1491 11 3391 97 671 
10751 -0.08300307142283388 -0.042201639247476906 1.043483227697112 0 0 0 0.34 4 3257 9 1212 92 2519 164 3273 224 1153 
10752 -0.13150933105749948 -0.039049351346953885 1.0367058309123727 0 0 0 0.35 4 3258 33 2514 38 1723 77 2425 118 2285 185 1189 
10753 0.0691315174192029 -0.02186841205664848 1.0752345596470603 0 0 0 0.46 4 3259 41 575 146 3508 158 1616 19 1715 179 550 
10754 -0.0814508815679239 -0.028030530968004577 1.0408076887988105 0 0 0 0.42 4 3260 27 1142 33 2515 128 1649 164 3274 229 524 
10755 -0.1884529671931136 -0.02902328082599222 1.0261064687334067 0 0 0 0.43 4 3261 41 576 60 1592 
10756 0.07512262266932639 -0.013231715649376908 1.076370670872992 0 0 0 1.19 4 3262 11 3392 33 2516 190 1368 213 4031 
10757 -0.09007092289092346 -0.019861016494048752 1.0547972827385523 0 0 0 1.33 4 3263 27 1143 41 577 
10758 0.07836204338246 -0.007859168266729777 1.0675480951990588 0 0 0 0.37 4 3264 11 3393 33 2517 136 1406 110 1833 213 4032 52 1301 85 2276 93 1249 109 1212 200 1659 124 1282 
10759 0.07471806454987687 -0.007831117360478038 1.0680925667099521 0 0 0 0.3 4 3265 11 3394 33 2518 36 954 148 3031 157 2311 127 1470 200 1660 213 4033 109 1213 124 1283 
10760 -0.10247188426460273 -0.015428034358695799 1.0571653793958502 0 0 0 0.95 4 3266 11 3395 38 1724 
10761 0.18725069054834362 0.0014960544297288065 1.169306088976975 0 0 0 0.58 4 3267 11 3396 35 350 60 1593 213 4034 
10762 0.08350498888354563 -0.004454749206753835 1.0703196608656849 0 0 0 0.29 4 3268 11 3397 17 2358 38 1725 71 1155 213 4035 
10763 0.06102404956960515 -0.005486169946789136 1.064899052652714 0 0 0 0.64 4 3269 11 3398 29 1406 85 2277 148 3032 172 1580 213 4036 52 1302 109 1214 
10764 0.14192875168729102 -0.0007135735780614128 1.083873441469891 0 0 0 0.13 2 3181 4 3270 11 3399 38 1726 105 616 213 4037 
10765 0.07524823683190508 -0.0035994693149802434 1.066881958890954 0 0 0 0.22 4 3271 32 1278 60 1594 146 3509 157 2312 52 1303 39 403 124 1284 
10766 0.06731314918711437 -0.0038543161192986348 1.064873948903762 0 0 0 0.37 2 3182 4 3272 11 3400 17 2359 19 1716 33 2519 36 955 38 1727 44 2363 77 2426 112 477 146 3510 157 2313 9 1213 128 1650 164 3275 175 981 213 4038 234 804 93 1250 28 1321 187 962 39 404 
10767 0.08106053268070709 -0.0031860544885078555 1.068760420292574 0 0 0 0.56 4 3273 9 1214 11 3401 33 2520 44 2364 136 1407 213 4039 
10768 -0.11867329104880496 -0.012539273111063901 1.0286368870993603 0 0 0 0.09 4 3274 11 3402 50 3231 
10769 -0.11523143224040157 -0.012379114347128203 1.0291585377328736 0 0 0 0.12 2 3183 4 3275 38 1728 50 3232 
10770 -0.038917544238541726 -0.005809731410562493 1.0399131555902403 0 0 0 0.28 4 3276 38 1729 60 1595 
10771 -0.019323177422283223 -0.004812116242750536 1.0473920732005362 0 0 0 0.26 4 3277 38 1730 50 3233 127 1471 
10772 0.02128017452007785 -0.0025453522075466212 1.05515842013754 0 0 0 0.19 4 3278 9 1215 38 1731 50 3234 60 1596 196 1921 213 4040 
10773 -0.10474574517279531 -0.008863589584818603 1.0296839561554285 0 0 0 0.29 4 3279 11 3403 33 2521 
10774 0.10280647438294672 0.0026933629769009828 1.0953888094185522 0 0 0 0.07 4 3280 38 1732 128 1651 
10775 -0.02374345421245207 -0.004368282365153225 1.0418799388681115 0 0 0 0.13 4 3281 11 3404 38 1733 
10776 -0.03062728747950824 -0.0038830920968194647 1.0418211578413432 0 0 0 0.33 4 3282 33 2522 127 1472 213 4041 
10777 0.06590605276326691 0.005118016815994832 1.0662377951805915 0 0 0 0.36 4 3283 11 3405 17 2360 33 2523 38 1734 61 2089 77 2427 148 3033 126 1312 222 1382 232 2352 142 702 159 1932 
10778 -0.16780555499206798 -0.005749372655247866 1.0241250745040638 0 0 0 0.08 4 3284 33 2524 127 1473 
10779 -0.20260382158293153 -0.006540473990146122 1.0222116567786792 0 0 0 0.47 4 3285 9 1216 11 3406 16 2000 33 2525 38 1735 44 2365 113 1305 19 1717 32 1279 92 2520 
10780 0.14974853956572287 0.013475315952343143 1.0823758690528773 0 0 0 0.51 2 3184 4 3286 11 3407 60 1597 112 478 146 3511 213 4042 
10781 -0.19076323337897416 -0.004585442631199153 1.0209861938686222 0 0 0 0.35 4 3287 11 3408 33 2526 50 3235 136 1408 157 2314 
10782 -0.16166245357552425 -0.0015088873022100463 1.0422147031725644 0 0 0 0.33 4 3288 16 2001 38 1736 50 3236 
10783 -0.19408024444738917 -0.003561347032987257 1.0192136625730177 0 0 0 0.04 4 3289 50 3237 61 2090 
10784 -0.3721884575426409 -0.011247930304315671 1.008992138203935 0 0 0 0.29 4 3290 50 3238 60 1598 
10785 -0.3685647954394101 -0.009532304742413724 1.0117132692074338 0 0 0 0.4 4 3291 50 3239 60 1599 
10786 -0.014248770120432352 0.008208359031954646 1.0429571464299274 0 0 0 0.26 4 3292 32 1280 60 1600 213 4043 
10787 0.07973712507932486 0.013072774748202667 1.0651974439890428 0 0 0 0.61 4 3293 33 2527 157 2315 9 1217 213 4044 214 1931 
10788 -0.36639411350253115 -0.005293177450643815 1.0056891919082032 0 0 0 0.36 4 3294 41 578 61 2091 
10789 -0.27628980793957636 -0.0015387083731418822 1.0134690062321803 0 0 0 0.45 4 3295 11 3409 16 2002 
10790 0.14231040279282337 0.02136681689181223 1.0778165013899268 0 0 0 0.28 4 3296 32 1281 85 2278 
10791 -0.1665965679863918 0.005733941261021421 1.023921185654204 0 0 0 0.29 4 3297 11 3410 33 2528 
10792 -0.021095225620786442 0.015307049202452006 1.0414102826602516 0 0 0 0.29 4 3298 44 2366 85 2279 
10793 0.004728975500946999 0.01701780153184895 1.042815631804796 0 0 0 0.38 4 3299 16 2003 38 1737 50 3240 32 1282 164 3276 176 2876 
10794 0.08299960539482579 0.02150944860489672 1.0646819020332068 0 0 0 0.3 4 3300 9 1218 11 3411 38 1738 92 2521 126 1313 128 1652 136 1409 146 3512 148 3034 157 2316 176 2877 213 4045 214 1932 33 2529 52 1304 93 1251 28 1322 112 479 124 1285 98 1001 39 405 
10795 0.0892532946912683 0.024624209673152993 1.0661291266753523 0 0 0 0.21 4 3301 9 1219 11 3412 19 1718 
