# 3D point list with one line of data per point:
#   POINT3D_ID, X, Y, Z, R, G, B, ERROR, TRACK[] as (IMAGE_ID, POINT2D_IDX)
# Number of points: 366, mean track length: 7.35
103 0.030026536574531096 -0.03234157977825978 1.0163367829072079 0 0 0 0.43 124 103 176 49 214 54 200 57 33 31 112 29 187 37 13 26 39 45 93 22 109 20 136 13 201 19 
104 0.2809294084354829 -0.04732575201668659 1.058442737667621 0 0 0 0.32 124 104 146 74 164 39 93 23 201 20 
105 0.002980265501226541 -0.028085228546944216 1.012434739593298 0 0 0 0.4 124 105 200 58 231 13 39 46 201 21 
106 -0.0413596171026838 -0.02585930250113329 1.0059503987404015 0 0 0 0.31 124 106 157 62 176 50 213 63 13 27 33 32 60 10 98 54 112 30 200 59 187 38 
107 -0.0012883083745271029 -0.026587362600247636 1.0108119698203257 0 0 0 0.45 124 107 146 75 157 63 176 51 200 60 16 28 28 48 98 55 135 29 50 36 187 39 39 47 13 28 201 22 
108 0.09117877430663533 -0.029341457442858935 1.0183225433024021 0 0 0 0.21 124 108 200 61 213 64 
109 -0.08600631458151259 -0.02199379087808605 1.0000454956286746 0 0 0 0.21 124 109 146 76 157 64 213 65 214 55 
110 -0.0393738075415897 -0.023243963206975485 1.005185250585167 0 0 0 0.17 124 110 148 29 157 65 176 52 213 66 
111 0.014229926941699136 -0.025646711380119088 1.012648898155854 0 0 0 0.33 124 111 176 53 194 12 200 62 231 14 28 49 98 56 109 21 213 67 33 33 187 40 
112 0.12611367519288158 -0.02917617147131125 1.0225806543280147 0 0 0 0.13 124 112 175 21 200 63 
113 -0.02095542272915079 -0.023198219604053674 1.0073676655729054 0 0 0 0.15 124 113 176 54 200 64 231 15 
114 0.027884548465594183 -0.025838527381968016 1.014513656536557 0 0 0 0.29 124 114 146 77 214 56 
115 -0.018363458536613687 -0.023179825519492415 1.0081453735173762 0 0 0 0.22 124 115 176 55 231 16 
116 -0.06979249519708054 -0.020546787824082053 1.0011778266709268 0 0 0 0.26 124 116 146 78 231 17 213 68 214 57 16 29 28 50 33 34 38 27 98 57 112 31 157 66 176 56 200 65 13 29 187 41 39 48 109 22 
117 -0.07594987096265099 -0.019529878744584877 1.00058745380006 0 0 0 0.2 124 117 157 67 231 18 
118 -0.007398333339590072 -0.021840212950417916 1.008946511570259 0 0 0 0.31 124 118 146 79 157 68 98 58 214 58 
119 -0.0846153199687601 -0.018360350105381795 1.000139592561108 0 0 0 0.29 124 119 146 80 231 19 
120 -0.12413942957093795 -0.018528745215140308 1.0009997937815445 0 0 0 0.21 124 120 146 81 200 66 213 69 
121 -0.07944494638198034 -0.018052090919948093 0.9993332645840162 0 0 0 0.23 124 121 157 69 176 57 213 70 214 59 16 30 98 59 187 42 231 20 
122 -0.043287241915232574 -0.019793572631435222 1.005365391306206 0 0 0 0.19 124 122 200 67 214 60 
123 0.04213398943608513 -0.023352363469239436 1.0156524062686019 0 0 0 0.26 124 123 157 70 231 21 
124 -0.1529456919133393 -0.018169988228400966 1.0010489030876135 0 0 0 0.34 124 124 148 30 157 71 28 51 98 60 39 49 
125 0.08976894244772395 -0.024015703951738316 1.0196978550292946 0 0 0 0.28 124 125 146 82 175 22 16 31 33 35 93 24 98 61 109 23 112 32 187 43 
126 0.23857582748613446 -0.029618768538935716 1.0390623463449993 0 0 0 0.3 124 126 146 83 214 61 
127 0.05459637133730496 -0.019657471525181613 1.0164682230213073 0 0 0 0.21 124 127 157 72 194 13 146 84 175 23 200 68 
128 0.06075019699866131 -0.019485458942863278 1.0163581272509676 0 0 0 0.16 124 128 175 24 200 69 214 62 
129 0.06498349969648895 -0.019454362585398746 1.0173730452315806 0 0 0 0.31 124 129 146 85 175 25 200 70 13 30 201 23 
130 0.06995811527567707 -0.019447718975438864 1.0181155074315809 0 0 0 0.2 124 130 146 86 157 73 213 71 39 50 112 33 175 26 
131 0.07240345174019147 -0.019316272840977894 1.018028893826286 0 0 0 0.15 124 131 157 74 175 27 200 71 
132 0.07640859193074606 -0.01898253470033138 1.0180667430864838 0 0 0 0.32 124 132 146 87 175 28 176 58 194 14 200 72 214 63 9 27 13 31 16 32 33 36 85 22 93 25 98 62 164 40 201 24 
133 0.15228137710166081 -0.018823015535091123 1.0315738937352572 0 0 0 0.37 124 133 146 88 200 73 9 28 39 51 93 26 98 63 112 34 213 72 
134 0.18129511637938384 -0.01953667729640827 1.0355148038814046 0 0 0 0.26 124 134 146 89 176 59 185 23 194 15 213 73 
135 0.09119737034829188 -0.0134326533320016 1.01943024634188 0 0 0 0.11 124 135 175 29 200 74 146 90 187 44 
136 0.27497631462302174 -0.020704602614184695 1.051163236003334 0 0 0 0.28 124 136 146 91 148 31 213 74 
137 -0.025646456490547424 0.00215954160632242 1.0020286657414457 0 0 0 0.23 124 137 146 92 231 22 98 64 187 45 200 75 
138 -0.1537503769313637 0.003570773798091654 0.9967188468730431 0 0 0 0.42 124 138 146 93 157 75 39 52 98 65 
139 -0.12047177594491991 0.004305705479304181 0.9972941374168888 0 0 0 0.2 124 139 146 94 213 75 214 64 
140 0.05366270940925012 0.0032088190111982037 1.0136708782985626 0 0 0 0.37 124 140 157 76 200 76 231 23 98 66 146 95 112 35 187 46 39 53 
141 -0.11975907432341792 0.024699651593410647 0.993022970481359 0 0 0 0.41 124 141 176 60 231 24 28 52 98 67 157 77 200 77 
142 -0.14787313989831233 0.027874013298449324 0.9939312011261817 0 0 0 0.34 124 142 136 14 146 96 4 30 13 32 33 37 60 11 98 68 118 73 164 41 
143 -0.1463448230625028 0.031122052960467973 0.9924636584207625 0 0 0 0.43 124 143 136 15 146 97 200 78 13 33 39 54 
144 0.03886563934429793 0.03012019215509095 1.0068275593635179 0 0 0 0.16 124 144 157 78 200 79 231 25 
145 0.042178515063330424 0.030045851168093593 1.007879743821529 0 0 0 0.2 124 145 157 79 231 26 
146 0.051598406892731784 0.030153435562901135 1.0081212464210612 0 0 0 0.16 124 146 200 80 231 27 
147 -0.00859137383699554 0.032225741924442344 0.9992274570213536 0 0 0 0.16 124 147 136 16 175 30 200 81 
148 -0.0050018350914358975 0.03213229411982417 1.0003047982357638 0 0 0 0.32 124 148 157 80 175 31 93 27 112 36 187 47 
149 0.0770149372135722 0.03120812742252502 1.0087780254988086 0 0 0 0.34 124 149 175 32 214 65 
150 -0.07082627262082934 0.03416956716375038 0.9912862075930924 0 0 0 0.28 124 150 176 61 200 82 28 53 98 69 157 81 213 76 187 48 
151 -0.0038269965094784096 0.03361377498321325 0.998274670062671 0 0 0 0.29 124 151 175 33 176 62 231 28 
152 -0.008602119293977747 0.03365429880911782 0.9991478146255246 0 0 0 0.28 124 152 200 83 231 29 175 34 187 49 
153 -0.0053262837401252565 0.03435120658881204 0.9996362427524524 0 0 0 0.21 124 153 200 84 214 66 
154 -0.04647649733908755 0.038037437458647065 0.9946705606927481 0 0 0 0.12 124 154 136 17 231 30 
155 0.10226604384042023 0.035023619898156694 1.0128892213088212 0 0 0 0.15 124 155 157 82 214 67 39 55 
156 -0.12503095189697302 0.038813720371965676 0.9920945066542763 0 0 0 0.42 124 156 146 98 157 83 213 77 231 31 39 56 
157 0.07464587191757123 0.038729840072054086 1.0094841534167036 0 0 0 0.15 124 157 146 99 175 35 
158 0.1691252266123385 0.03912138117716582 1.0217765259316336 0 0 0 0.19 124 158 146 100 175 36 200 85 
159 -0.11615744144779268 0.08653446084797714 0.974776938632248 0 0 0 0.22 124 159 200 86 231 32 
160 0.047859038355970294 0.08989344628055072 0.9941526349840314 0 0 0 0.43 124 160 175 37 200 87 231 33 13 34 28 54 93 28 187 50 201 25 
161 0.05211219519775252 0.09128490299838987 0.9936946288156983 0 0 0 0.31 124 161 136 18 175 38 200 88 16 33 112 37 187 51 28 55 39 57 93 29 201 26 
162 0.13073304597938956 0.09158875712889855 1.0050097459391234 0 0 0 0.47 124 162 146 101 157 84 175 39 176 63 
163 0.04842470511200611 0.09129558640258606 0.9939666205399789 0 0 0 0.31 124 163 136 19 146 102 175 40 231 34 112 38 187 52 39 58 13 35 201 27 
164 0.13710540892653267 0.09186667035463696 1.0055201651011534 0 0 0 0.23 124 164 157 85 200 89 214 68 13 36 91 3 201 28 213 78 
165 0.031245674346189446 0.09235798125854858 0.9866468305884153 0 0 0 0.28 124 165 157 86 175 41 39 59 112 39 201 29 
166 0.00679929807711765 0.09295175902712276 0.9845605280584012 0 0 0 0.37 124 166 146 103 175 42 39 60 213 79 112 40 201 30 187 53 231 35 
167 -0.13684858195823865 0.09268741175010771 0.9788237474844694 0 0 0 0.29 124 167 146 104 157 87 13 37 28 56 98 70 
168 0.10762514939759558 0.09432688118987266 1.001882333966987 0 0 0 0.15 124 168 175 43 200 90 13 38 201 31 187 54 
169 0.23215950498947008 0.09530024629786304 1.0181289594174243 0 0 0 0.35 124 169 175 44 200 91 
170 0.03775931384017396 0.09549961650319717 0.988853211272645 0 0 0 0.14 124 170 175 45 213 80 
171 0.13656583608818407 0.09651738470391175 1.0050568160586828 0 0 0 0.27 124 171 157 88 200 92 4 31 9 29 28 57 44 32 91 4 112 41 146 105 164 42 175 46 187 55 201 32 213 81 214 69 
172 0.05989839897987337 0.097040085668532 0.9908353070261523 0 0 0 0.16 124 172 157 89 231 36 
173 0.08288049987843657 0.09764861772190887 0.9972127723807461 0 0 0 0.12 124 173 146 106 213 82 13 39 201 33 
174 0.20539110384242634 0.09829158883890014 1.0094480772819043 0 0 0 0.09 124 174 175 47 200 93 
175 0.20888332279014507 0.09816781891617744 1.0123718877504972 0 0 0 0.13 124 175 175 48 200 94 
176 -0.01451215029795104 0.09720666540030734 0.9874541370679112 0 0 0 0.15 124 176 175 49 231 37 
177 0.07019328677584415 0.09764244812284432 0.994971077394018 0 0 0 0.31 124 177 200 95 231 38 13 40 39 61 
178 0.17870048418607498 0.0984035583775975 1.0064053058095541 0 0 0 0.26 124 178 146 107 175 50 28 58 38 28 157 90 187 56 194 16 201 34 214 70 
179 0.0504957101035616 0.09847058876768879 0.9909259568245179 0 0 0 0.11 124 179 146 108 175 51 
180 0.1408316472897822 0.09870525737130105 1.005416694924331 0 0 0 0.29 124 180 157 91 175 52 201 35 
181 0.1759817344041127 0.09964213970584802 1.0105085262739115 0 0 0 0.12 124 181 175 53 231 39 
182 -0.01974896637815146 0.09890892126865795 0.9800644894295162 0 0 0 0.15 124 182 175 54 200 96 
183 0.02398189827847142 0.09917827671775574 0.9853074747675584 0 0 0 0.2 124 183 157 92 175 55 28 59 187 57 201 36 
184 0.03622700276706977 0.09965752883205735 0.9872383362627745 0 0 0 0.12 124 184 175 56 200 97 
185 0.00749534168174982 0.10003191608018487 0.9821559032004314 0 0 0 0.1 124 185 146 109 157 93 
186 0.14908798477567156 0.10485971902333156 1.0027705860824545 0 0 0 0.27 124 186 157 94 175 57 200 98 93 30 187 58 
187 -0.018290089322443095 0.10373573531732644 0.9820038781361379 0 0 0 0.2 124 187 157 95 175 58 
188 -0.08619798927713483 0.1038850550772499 0.9712138030324969 0 0 0 0.22 124 188 146 110 200 99 187 59 
189 0.11763119249154136 0.10575438643509878 0.9964697002251091 0 0 0 0.24 124 189 175 59 200 100 13 41 98 71 187 60 201 37 
190 0.18049599024555527 0.10643847014962811 1.0071926296297253 0 0 0 0.21 124 190 146 111 175 60 200 101 13 42 187 61 28 60 93 31 201 38 
191 0.06662952500552076 0.10577711573982128 0.9895007199747233 0 0 0 0.34 124 191 175 61 200 102 
192 0.004899914851655313 0.10579910105416017 0.9827215574114379 0 0 0 0.12 124 192 146 112 175 62 28 61 
193 0.20511717047071626 0.10753260189689674 1.010548617010784 0 0 0 0.24 124 193 175 63 200 103 13 43 33 38 187 62 
194 0.11951385759166515 0.10703541206706932 0.996950832048829 0 0 0 0.25 124 194 175 64 200 104 13 44 98 72 146 113 187 63 
195 0.123517577467997 0.10707071861281327 0.9978865716063661 0 0 0 0.45 124 195 175 65 200 105 13 45 98 73 187 64 214 71 
196 0.18154686200039474 0.10784169310020597 1.0073556391365928 0 0 0 0.32 124 196 136 20 175 66 194 17 200 106 13 46 28 62 91 5 187 65 201 39 
197 0.05833884913765296 0.10716405685358978 0.9884068841470488 0 0 0 0.08 124 197 175 67 200 107 98 74 
198 0.20408016453339184 0.10877855514816787 1.0107604781445498 0 0 0 0.15 124 198 146 114 175 68 200 108 
199 -0.023836581694607086 0.10707787020932438 0.9784187368564337 0 0 0 0.55 124 199 175 69 200 109 93 32 98 75 
200 0.06338190557586398 0.10833417769495106 0.989941477886567 0 0 0 0.03 124 200 175 70 200 110 
201 0.22589405656816164 0.1234008392825231 1.0164433208800976 0 0 0 0.13 124 201 175 71 200 111 
202 0.19737416844053296 0.12617219041274924 1.0089771169303796 0 0 0 0.13 124 202 175 72 200 112 13 47 93 33 201 40 
203 0.049585054431002216 0.12432105919465322 0.9867680169175977 0 0 0 0.09 124 203 175 73 200 113 
204 0.19839376834173084 0.1268409299856465 1.0079627059866942 0 0 0 0.18 124 204 146 115 200 114 93 34 201 41 
205 0.02279455919583085 0.1250867802653655 0.9852599447530511 0 0 0 0.27 124 205 175 74 200 115 98 76 
206 0.16628444446738488 0.1292309733990081 1.004644759656612 0 0 0 0.18 124 206 175 75 200 116 187 66 
207 0.1902398818876707 0.12946105533749458 1.0062457611184419 0 0 0 0.43 124 207 146 116 175 76 213 83 
208 0.042871856710753685 0.12706662363657897 0.9872789824480932 0 0 0 0.14 124 208 175 77 200 117 
209 0.19901424952292726 0.1317751648627253 1.0084499913083398 0 0 0 0.16 124 209 175 78 200 118 93 35 201 42 
210 0.15083326531946772 0.13094626353506925 0.9980833026206151 0 0 0 0.2 124 210 175 79 200 119 13 48 98 77 135 30 11 28 93 36 187 67 28 63 146 117 201 43 213 84 
211 0.15236066616387353 0.13193341643982037 0.9982959103809763 0 0 0 0.19 124 211 175 80 214 72 13 49 93 37 187 68 201 44 
212 0.1538214134727487 0.13213157592812091 0.9981691323062046 0 0 0 0.23 124 212 175 81 200 120 214 73 13 50 187 69 28 64 93 38 201 45 
213 0.19744899177768419 0.13302071996615814 1.007161230999962 0 0 0 0.36 124 213 136 21 146 118 164 43 200 121 213 85 9 30 13 51 33 39 98 78 175 82 
214 0.014686052059446357 0.1304469018820059 0.9830942220667359 0 0 0 0.1 124 214 175 83 200 122 
215 0.04578326341889852 0.13180119669712617 0.9860341625082761 0 0 0 0.13 124 215 175 84 200 123 
216 0.05218390849724851 0.13216598955878317 0.9872799682966213 0 0 0 0.25 124 216 175 85 200 124 98 79 213 86 93 39 187 70 
217 0.02303854362121866 0.13218200873035985 0.9839388724449762 0 0 0 0.25 124 217 175 86 200 125 
218 0.024944989413897767 0.13301721638382197 0.9832582642902847 0 0 0 0.15 124 218 175 87 200 126 13 52 98 80 
219 0.1765013648470472 0.13659631435401037 0.9973055140401517 0 0 0 0.15 124 219 175 88 200 127 
220 0.14964991014636708 0.13692622207355257 0.9964019986443254 0 0 0 0.39 124 220 146 119 175 89 200 128 231 40 13 53 98 81 187 71 
221 0.033846896809616264 0.13552364268129233 0.980648367446132 0 0 0 0.5 124 221 136 22 175 90 200 129 98 82 146 120 187 72 194 18 234 19 
222 0.16447445839859934 0.13873067912217915 0.994992864240544 0 0 0 0.27 124 222 146 121 175 91 
223 0.18264225280331411 0.14211534889400074 1.0000559561390863 0 0 0 0.16 124 223 175 92 200 130 
224 0.1498879677246085 0.14153358431426485 0.9956164928895692 0 0 0 0.27 124 224 175 93 200 131 93 40 187 73 
225 0.18072135339257014 0.1426212613938164 1.0007824123345852 0 0 0 0.13 124 225 146 122 175 94 
226 0.03480558069879484 0.14189759357449894 0.9790460447732598 0 0 0 0.18 124 226 175 95 200 132 
227 0.1823799485928064 0.14653943302546127 1.0001952129383263 0 0 0 0.19 124 227 175 96 200 133 
228 0.09342365702274372 0.15590246847902717 0.9839120527989283 0 0 0 0.13 124 228 175 97 200 134 98 83 
229 0.05778979116164334 0.15999862186574074 0.9768602520570793 0 0 0 0.15 124 229 146 123 175 98 
230 0.152606236152736 0.16705413030330682 0.9917482778373776 0 0 0 0.3 124 230 175 99 200 135 
231 -0.034104428836553694 -0.05684659695131667 1.0098175442827517 0 0 0 0.31 124 231 176 64 214 74 9 31 16 34 92 29 93 41 98 84 109 24 135 31 157 96 200 136 2 30 4 32 85 23 187 74 13 54 39 62 113 14 146 124 224 21 
232 -0.12363251155168617 -0.05183860298338347 1.007864703692493 0 0 0 0.48 124 232 146 125 176 65 200 137 
233 -0.1552913391383153 -0.04998204623960923 1.00610236367937 0 0 0 0.33 124 233 146 126 200 138 28 65 98 85 213 87 
234 -0.18774647738696582 -0.050521435625011796 1.0089337257128728 0 0 0 0.19 124 234 146 127 200 139 
235 -0.19247187635946708 -0.04778489539508899 1.009860295140085 0 0 0 0.42 124 235 200 140 214 75 
236 -0.22320530165811397 -0.04565233312289315 1.0069706719371598 0 0 0 0.34 124 236 146 128 157 97 176 66 11 29 98 86 
237 -0.12424407663859163 -0.04610292088198989 1.0081314699756634 0 0 0 0.13 124 237 146 129 213 88 
238 -0.003912262128047779 -0.046175580640178224 1.014143959498842 0 0 0 0.24 124 238 157 98 176 67 214 76 146 130 200 141 13 55 16 35 28 66 38 29 98 87 112 42 39 63 109 25 164 44 187 75 
239 -0.031194929526435107 -0.04293828366401101 1.0101011929286217 0 0 0 0.27 124 239 157 99 176 68 214 77 
240 -0.020207224871324675 -0.04148768785977846 1.0113865900374848 0 0 0 0.4 124 240 146 131 194 19 214 78 16 36 38 30 187 76 213 89 
241 0.14459437036030123 -0.049757410866458976 1.035057877444877 0 0 0 0.29 124 241 148 32 157 100 213 90 39 64 
242 0.17531860881174713 -0.04885900013548905 1.0395493375692701 0 0 0 0.29 124 242 146 132 200 142 
243 -0.034495019157601295 -0.03680200226052737 1.0087833687708223 0 0 0 0.24 124 243 157 101 194 20 2 31 4 33 16 37 17 25 28 67 33 40 38 31 61 32 92 30 98 88 112 43 113 15 135 32 146 133 164 45 176 69 213 91 214 79 9 32 187 77 11 30 77 30 109 26 200 143 224 22 
244 0.026012690417040657 -0.03820931486448978 1.0165529890302125 0 0 0 0.5 124 244 135 33 157 102 214 80 19 20 28 68 44 33 98 89 146 134 176 70 187 78 9 33 13 56 36 13 39 65 92 31 110 20 61 33 85 24 
245 -0.03280667174357844 -0.03341978305710666 1.0084522980356327 0 0 0 0.25 124 245 136 23 146 135 157 103 176 71 194 21 200 144 213 92 214 81 4 34 16 38 28 69 60 12 92 32 98 90 112 44 113 16 135 34 224 23 187 79 39 66 109 27 110 21 
246 -0.04774612371165289 -0.0317402977231922 1.0061339736868327 0 0 0 0.19 124 246 157 104 176 72 185 24 194 22 214 82 2 32 4 35 9 34 13 57 16 39 19 21 28 70 32 24 33 41 38 32 44 34 50 37 60 13 61 34 85 25 92 33 93 42 98 91 109 28 112 45 135 35 136 24 146 136 158 42 164 46 200 145 213 93 15 5 77 31 118 74 187 80 232 28 36 14 39 67 113 17 
247 0.21541340486733923 -0.04829697765323437 1.0504959320179943 0 0 0 0.35 124 247 146 137 200 146 
248 -0.006207731326329967 -0.03225514889203674 1.0114149672805528 0 0 0 0.32 124 248 146 138 176 73 213 94 214 83 28 71 98 92 
249 -0.011074577162312828 -0.03175124314744928 1.010493266741323 0 0 0 0.39 124 249 146 139 157 105 194 23 213 95 224 24 4 36 9 35 32 25 36 15 38 33 92 34 187 81 28 72 39 68 128 18 
250 0.013131679123596912 -0.031890794127024995 1.013213986033384 0 0 0 0.31 124 250 146 140 176 74 194 24 9 36 39 69 
251 0.023167775973665754 -0.032961209074464974 1.0155557155415438 0 0 0 0.18 124 251 159 29 176 75 28 73 98 93 187 82 
252 -0.003734297493405595 -0.030728042816592367 1.011550292265232 0 0 0 0.58 124 252 146 141 157 106 176 76 231 41 
253 -0.027905749975096213 -0.02894027732231036 1.0080114919968286 0 0 0 0.35 124 253 164 47 231 42 13 58 44 35 98 94 176 77 200 147 224 25 
254 -0.03587915385663529 -0.02770312650261869 1.007102686556323 0 0 0 0.2 124 254 135 36 146 142 157 107 176 78 213 96 4 37 9 37 16 40 44 36 50 38 98 95 128 19 33 42 112 46 187 83 200 148 
255 0.054212941235462865 -0.03173325175694426 1.0188707060142124 0 0 0 0.32 124 255 146 143 157 108 194 25 213 97 176 79 231 43 13 59 36 16 98 96 110 22 2 33 4 38 16 41 44 37 50 39 85 26 112 47 187 84 175 100 200 149 
256 -0.14999920344576725 -0.024545076760949077 1.0005738138185738 0 0 0 0.12 124 256 157 109 200 150 
257 -0.039126553357891655 -0.02640911911176128 1.00600272480983 0 0 0 0.57 124 257 157 110 194 26 231 44 
258 0.08290197845195622 -0.030857835178396287 1.019288898051537 0 0 0 0.13 124 258 175 101 200 151 
259 -0.0363719623598539 -0.025674289233010805 1.0064240284045978 0 0 0 0.31 124 259 135 37 136 25 146 144 157 111 159 30 200 152 4 39 11 31 33 43 187 85 224 26 
260 0.012297210650596857 -0.02797224183112456 1.012370308703806 0 0 0 0.63 124 260 146 145 176 80 194 27 98 97 
261 -0.027757642873090176 -0.023374051148619363 1.0058763095978926 0 0 0 0.37 124 261 176 81 231 45 
262 -0.07471005915065698 -0.020682941728488207 1.0008633050427087 0 0 0 0.32 124 262 146 146 148 33 157 112 176 82 194 28 213 98 4 40 16 42 28 74 33 44 38 34 98 98 109 29 112 48 113 18 13 60 187 86 
263 -0.0721469126220116 -0.020623577344097987 1.0009024654833594 0 0 0 0.18 124 263 146 147 157 113 176 83 194 29 213 99 214 84 4 41 16 43 28 75 33 45 38 35 98 99 112 49 113 19 187 87 39 70 110 23 
264 -0.06399992786601064 -0.020843416543189712 1.0024460609128367 0 0 0 0.18 124 264 157 114 176 84 214 85 13 61 39 71 
265 -0.06115046073703475 -0.02065242070830244 1.0015079632725128 0 0 0 0.42 124 265 176 85 231 46 
266 -0.039177726054174626 -0.021550412820656756 1.004993248018982 0 0 0 0.37 124 266 146 148 200 153 135 38 28 76 44 38 93 43 98 100 32 26 33 46 187 88 
267 0.06551391976316985 -0.02666193476209551 1.0186173548565274 0 0 0 0.47 124 267 135 39 146 149 176 86 13 62 39 72 
268 -0.033803663462248563 -0.021075373475928985 1.0036236566206962 0 0 0 0.3 124 268 135 40 231 47 
269 -0.028123064322685333 -0.021845375087170903 1.0062075919096463 0 0 0 0.33 124 269 157 115 200 154 213 100 224 27 
270 -0.043882124091021595 -0.020906681254195213 1.0041656148772378 0 0 0 0.18 124 270 176 87 231 48 
271 -0.019292893344478337 -0.021468454092811284 1.0065809471006895 0 0 0 0.29 124 271 157 116 176 88 194 30 200 155 224 28 2 34 9 38 13 63 28 77 44 39 92 35 93 44 98 101 16 44 36 17 109 30 112 50 187 89 39 73 146 150 214 86 213 101 
272 -0.004679243655364906 -0.021653617283607724 1.0085820986272644 0 0 0 0.27 124 272 157 117 200 156 213 102 36 18 61 35 98 102 112 51 176 89 85 27 92 36 187 90 39 74 231 49 214 87 
273 0.038206680073291505 -0.02380660800156277 1.0154575942241675 0 0 0 0.46 124 273 146 151 157 118 159 31 219 17 50 40 61 36 77 32 98 103 2 35 16 45 38 36 112 52 187 91 36 19 92 37 201 46 175 102 213 103 
274 0.09087219234868647 -0.025492231267033965 1.019797113675924 0 0 0 0.28 124 274 135 41 146 152 157 119 200 157 213 104 214 88 2 36 9 39 16 46 33 47 36 20 50 41 85 28 98 104 175 103 194 31 93 45 187 92 
275 -0.10225614248145928 -0.01912966220638451 1.0014756967703269 0 0 0 0.33 124 275 157 120 200 158 13 64 16 47 28 78 93 46 98 105 112 53 39 75 
276 -0.04981622448949948 -0.019573799485466208 1.0034876950374707 0 0 0 0.28 124 276 127 6 146 153 148 34 185 25 194 32 200 159 214 89 231 50 13 65 16 48 28 79 44 40 93 47 98 106 109 31 112 54 187 93 
277 -0.030239700634083978 -0.02019712427415072 1.0054037629050476 0 0 0 0.22 124 277 146 154 224 29 
278 -0.0009737134582124043 -0.02160375270809523 1.0092769552944054 0 0 0 0.35 124 278 135 42 157 121 164 48 200 160 214 90 28 80 44 41 98 107 112 55 187 94 39 76 
279 -0.08144070168603024 -0.01792957282717581 0.9990478090057201 0 0 0 0.33 124 279 135 43 146 155 157 122 200 161 214 91 98 108 
280 -0.04065082401498242 -0.019316243818602447 1.003583886546713 0 0 0 0.46 124 280 176 90 200 162 
281 -0.08880413264131858 -0.017362467582885847 0.998570634410124 0 0 0 0.38 124 281 128 20 157 123 158 43 159 32 176 91 194 33 200 163 213 105 39 77 113 20 146 156 185 26 214 92 204 25 219 18 
282 -0.017994365269565674 -0.019677769906206326 1.0064928299520246 0 0 0 0.25 124 282 157 124 164 49 176 92 194 34 213 106 214 93 224 30 
283 0.017613882177525693 -0.02144274817029625 1.0111146504717738 0 0 0 0.41 124 283 146 157 157 125 213 107 13 66 28 81 44 42 98 109 175 104 187 95 
284 0.02060969266777491 -0.021549145185790475 1.0109328368376975 0 0 0 0.41 124 284 146 158 200 164 
285 0.05672323753763058 -0.023161022678126385 1.0164706869303013 0 0 0 0.28 124 285 135 44 146 159 164 50 176 93 200 165 
286 0.10249574841543517 -0.024875168351535613 1.0226364269373531 0 0 0 0.2 124 286 175 105 200 166 98 110 135 45 
287 -0.09669986383589622 -0.017210845500998162 1.0005580900601638 0 0 0 0.25 124 287 200 167 213 108 9 40 98 111 
288 -0.05099256436228974 -0.017902271024173258 1.0026012313411308 0 0 0 0.26 124 288 146 160 200 168 213 109 16 49 28 82 98 112 112 56 187 96 39 78 231 51 
289 -0.12551996097944734 -0.016995362556650084 1.0006571537245192 0 0 0 0.32 124 289 200 169 213 110 214 94 
290 0.009442723180340385 -0.019889556547197363 1.0107851575879758 0 0 0 0.33 124 290 146 161 157 126 164 51 194 35 214 95 9 41 98 113 39 79 2 37 13 67 16 50 36 21 44 43 77 33 85 29 92 38 93 48 109 32 118 75 201 47 213 111 
291 -0.0875850109256676 -0.015550207304227112 0.9975682480369814 0 0 0 0.41 124 291 146 162 157 127 176 94 200 170 28 83 39 80 
292 -0.041231757531445465 -0.017286558578982807 1.003069944634452 0 0 0 0.31 124 292 146 163 164 52 200 171 4 42 13 68 33 48 44 44 85 30 92 39 187 97 
293 0.04443202180589641 -0.021201161460249758 1.0150202158005937 0 0 0 0.41 124 293 135 46 157 128 164 53 175 106 200 172 214 96 9 42 13 69 16 51 61 37 77 34 93 49 98 114 110 24 112 57 
294 -0.03543062051529414 -0.017372098236213072 1.0039717185897203 0 0 0 0.34 124 294 146 164 157 129 200 173 214 97 224 31 4 43 11 32 16 52 28 84 33 49 44 45 93 50 98 115 112 58 196 25 213 112 38 37 187 98 148 35 185 27 
295 0.04865325020809842 -0.02120313042453625 1.015470934165307 0 0 0 0.21 124 295 146 165 200 174 16 53 28 85 98 116 93 51 213 113 
296 0.05062416682485522 -0.021169014020976467 1.015703352674109 0 0 0 0.38 124 296 135 47 194 36 
297 0.05419330997126224 -0.02126300480580788 1.0163146868746924 0 0 0 0.27 124 297 175 107 214 98 9 43 36 22 39 81 93 52 112 59 157 130 13 70 
298 0.0565106051000564 -0.021313927554258854 1.016608396810439 0 0 0 0.3 124 298 157 131 194 37 214 99 9 44 13 71 16 54 39 82 44 46 93 53 112 60 146 166 
299 0.08420833456473277 -0.02290468239806785 1.020435244770262 0 0 0 0.44 124 299 157 132 194 38 200 175 214 100 2 38 4 44 9 45 16 55 28 86 32 27 44 47 50 42 61 38 71 11 77 35 92 40 93 54 98 117 109 33 146 167 172 17 175 108 196 26 204 26 187 99 152 15 185 28 
300 -0.02345303680027491 -0.01730506736030109 1.0050908398487608 0 0 0 0.27 124 300 146 168 157 133 200 176 213 114 214 101 4 45 11 33 32 28 33 50 36 23 44 48 50 43 98 118 39 83 77 36 113 21 
301 0.03566747515571337 -0.01977933144934776 1.0143604400423962 0 0 0 0.23 124 301 127 7 135 48 146 169 148 36 157 134 159 33 164 54 176 95 196 27 200 177 213 115 214 102 194 39 13 72 28 87 50 44 61 39 98 119 175 109 4 46 11 34 16 56 33 51 44 49 77 37 92 41 187 100 2 39 9 46 36 24 38 38 85 31 93 55 201 48 128 21 234 20 
302 -0.2031679317055661 -0.015175109784208265 1.0002816316628842 0 0 0 0.46 124 302 157 135 200 178 33 52 98 120 39 84 
303 0.0403503223415601 -0.01974743755312299 1.0150394158119165 0 0 0 0.29 124 303 146 170 214 103 112 61 187 101 28 88 92 42 201 49 234 21 
304 0.042857616220952605 -0.01964774493306498 1.0150626323192458 0 0 0 0.26 124 304 157 136 200 179 213 116 214 104 219 19 146 171 164 55 175 110 176 96 194 40 196 28 2 40 9 47 13 73 16 57 33 53 61 40 98 121 158 44 4 47 28 89 36 25 44 50 50 45 112 62 85 32 92 43 93 56 109 34 113 22 187 102 201 50 234 22 
305 0.04810667383138233 -0.01968052915842369 1.015797580662672 0 0 0 0.28 124 305 148 37 176 97 194 41 200 180 214 105 135 49 16 58 33 54 50 46 77 38 98 122 109 35 112 63 157 137 175 111 
306 -0.041202333184698785 -0.015315584643632004 1.0029191363711083 0 0 0 0.2 124 306 146 172 157 138 194 42 200 181 214 106 231 52 164 56 2 41 33 55 98 123 16 59 112 64 187 103 28 90 39 85 
307 -0.018113530403997633 -0.01524951939532177 1.0054607839709127 0 0 0 0.23 124 307 146 173 176 98 200 182 224 32 231 53 9 48 11 35 16 60 33 56 98 124 113 23 135 50 213 117 110 25 187 104 
308 -0.012234029724332936 -0.015141426761168027 1.0061125921530745 0 0 0 0.21 124 308 135 51 136 26 148 38 157 139 176 99 196 29 200 183 213 118 214 107 224 33 2 42 28 91 33 57 38 39 44 51 98 125 146 174 112 65 187 105 39 86 
309 0.060949007031590785 -0.017456907239918083 1.0163304669562079 0 0 0 0.2 124 309 127 8 135 52 146 175 148 39 157 140 164 57 175 112 176 100 185 29 194 43 196 30 200 184 213 119 214 108 220 16 2 43 4 48 9 49 11 36 13 74 16 61 28 92 32 29 33 58 38 40 44 52 50 47 61 41 77 39 92 44 98 126 112 66 93 57 110 26 187 106 85 33 109 36 201 51 234 23 
310 0.0644894727376916 -0.017447161858088575 1.0166914086106185 0 0 0 0.21 124 310 135 53 146 176 148 40 157 141 159 34 164 58 175 113 176 101 185 30 194 44 196 31 197 14 200 185 213 120 214 109 2 44 4 49 9 50 11 37 13 75 16 62 28 93 33 59 38 41 44 53 50 48 77 40 92 45 98 127 112 67 109 37 110 27 187 107 19 22 39 87 85 34 93 58 201 52 234 24 
311 0.03001870589375141 -0.015285477345286454 1.0116880733818756 0 0 0 0.37 124 311 135 54 146 177 157 142 164 59 200 186 13 76 28 94 98 128 175 114 4 50 16 63 50 49 110 28 112 68 187 108 39 88 
312 0.07307450820094138 -0.01748253154254256 1.017549867304102 0 0 0 0.26 124 312 135 55 157 143 164 60 175 115 200 187 9 51 13 77 16 64 33 60 44 54 92 46 93 59 98 129 109 38 112 69 148 41 176 102 194 45 213 121 214 110 39 89 38 42 201 53 
313 0.18281575379888174 -0.023170137011652863 1.0353777471986434 0 0 0 0.5 124 313 164 61 200 188 9 52 11 38 44 55 96 8 98 130 110 29 146 178 157 144 176 103 196 32 213 122 187 109 158 45 234 25 
314 0.027565558776290463 -0.015152532322432561 1.011014984765068 0 0 0 0.06 124 314 157 145 200 189 98 131 
315 0.0758275231867637 -0.017185565338282128 1.0175831401794786 0 0 0 0.31 124 315 135 56 148 42 175 116 200 190 36 26 92 47 187 110 2 45 4 51 39 90 85 35 93 60 
316 0.032856394964929175 -0.015387867277688283 1.0124407041130064 0 0 0 0.32 124 316 146 179 200 191 213 123 214 111 33 61 98 132 16 65 38 43 187 111 201 54 
317 0.08822202751191209 -0.01757078614049005 1.0199604790690668 0 0 0 0.47 124 317 146 180 214 112 33 62 187 112 13 78 39 91 
318 0.11512408950482524 -0.016809880491241352 1.0243252661720466 0 0 0 0.31 124 318 162 17 182 8 92 48 112 70 187 113 13 79 38 44 39 92 44 56 93 61 146 181 164 62 175 117 176 104 213 124 214 113 234 26 221 18 
319 0.09296894749446993 -0.01502359418452973 1.019816216687932 0 0 0 0.25 124 319 135 57 175 118 200 192 214 114 9 53 13 80 16 66 44 57 92 49 93 62 98 133 112 71 146 182 157 146 2 46 4 52 50 50 187 114 28 95 39 93 234 27 
320 0.1354117214119132 -0.016725872208739716 1.0279754581687348 0 0 0 0.42 124 320 157 147 213 125 214 115 
321 0.13956609928096375 -0.016786707982170093 1.0285972506768506 0 0 0 0.29 124 321 157 148 162 18 200 193 214 116 39 94 44 58 93 63 
322 0.15206365781781958 -0.01641804934104105 1.030023662843941 0 0 0 0.19 124 322 146 183 157 149 200 194 214 117 220 17 39 95 
323 0.16077933422614832 -0.016513902748143662 1.031184001427867 0 0 0 0.32 124 323 157 150 182 9 200 195 214 118 13 81 17 26 28 96 32 30 33 63 44 59 61 42 92 50 98 134 112 72 128 22 175 119 9 54 11 39 39 96 85 36 135 58 148 43 201 55 194 46 
324 0.16833970128323192 -0.016479566344990235 1.0321462229788856 0 0 0 0.35 124 324 146 184 157 151 164 63 175 120 200 196 13 82 33 64 39 97 93 64 135 59 
325 0.1730437517846038 -0.016399362663377895 1.0328703371117234 0 0 0 0.29 124 325 146 185 157 152 200 197 213 126 214 119 234 28 2 47 98 135 112 73 175 121 187 115 13 83 33 65 39 98 93 65 148 44 201 56 
326 0.15040395514957597 -0.014311554388476514 1.0290895269790292 0 0 0 0.18 124 326 136 27 157 153 197 15 214 120 4 53 39 99 77 41 92 51 
327 0.15292020149769672 -0.014404497427531837 1.0299624405141021 0 0 0 0.1 124 327 157 154 182 10 214 121 
328 0.22850876345499516 -0.01651075818381742 1.0411157367298425 0 0 0 0.22 124 328 182 11 196 33 200 198 
329 0.2319878515921548 -0.01642402066318603 1.0419515301589823 0 0 0 0.24 124 329 146 186 182 12 200 199 213 127 50 51 98 136 175 122 
330 0.2783666544040677 -0.017958579010126752 1.0513368090636233 0 0 0 0.52 124 330 164 64 214 122 220 18 
331 0.25460867934146786 -0.013869686971090096 1.043115004672771 0 0 0 0.28 124 331 146 187 214 123 91 6 92 52 201 57 
332 -0.12254478566118752 -5.3404869759336004e-05 0.9978194655265648 0 0 0 0.26 124 332 157 155 194 47 200 200 214 124 38 45 39 100 50 52 
333 -0.1166783460051602 8.541881577464834e-05 0.9976820471336363 0 0 0 0.29 124 333 176 105 200 201 28 97 39 101 
334 -0.08635427659735623 0.0022892877317153763 0.9945302987433122 0 0 0 0.2 124 334 146 188 176 106 200 202 231 54 
335 -0.081272163808315 0.003282169691665102 0.9953560403962445 0 0 0 0.2 124 335 214 125 231 55 
336 -0.05543714718374051 0.0035457530152477996 0.9984480643016475 0 0 0 0.26 124 336 146 189 214 126 
337 0.0008805850516904152 0.00240565660500804 1.00545092448073 0 0 0 0.26 124 337 214 127 231 56 
338 0.024970028265620794 0.0014099307520018972 1.0089523716816702 0 0 0 0.1 124 338 176 107 200 203 
339 -0.18872734297194196 0.005803814334517169 0.9960838078607521 0 0 0 0.11 124 339 146 190 157 156 214 128 
340 0.14770183344963828 -0.0021264784747055195 1.027155463023603 0 0 0 0.15 124 340 194 48 214 129 
341 0.1713649113957031 -0.0037424254286478648 1.0329345353919415 0 0 0 0.21 124 341 146 191 200 204 234 29 98 137 112 74 
342 -0.11631170430418966 0.015173752305624528 0.9944904085529448 0 0 0 0.08 124 342 157 157 231 57 
343 -0.006462137488819971 0.019949719356157438 1.0045407611523558 0 0 0 0.06 124 343 157 158 175 123 
344 -0.11876954462104124 0.021904391003094874 0.9936071815952368 0 0 0 0.42 124 344 157 159 231 58 213 128 4 54 9 55 16 67 28 98 50 53 98 138 136 28 
345 -0.04968020242051503 0.02615972624165807 0.9964983925976557 0 0 0 0.14 124 345 214 130 231 59 
346 -0.04827599568490818 0.02689759848667506 0.9962609432686615 0 0 0 0.41 124 346 157 160 176 108 98 139 112 75 
347 -0.03368052082816366 0.026547144299283728 0.999341587424412 0 0 0 0.37 124 347 157 161 158 46 200 205 50 54 98 140 
348 -0.11825104962358578 0.02851888479562442 0.9923129595117939 0 0 0 0.32 124 348 146 192 213 129 214 131 
349 -0.006281793250557213 0.02683179274467449 1.002916232045717 0 0 0 0.14 124 349 157 162 175 124 200 206 
350 -0.21320935519136563 0.02902200011954575 0.9950642324299972 0 0 0 0.23 124 350 146 193 214 132 44 60 98 141 
351 -0.04831844644419258 0.029874777952441412 0.9961784178232482 0 0 0 0.37 124 351 146 194 157 163 176 109 213 130 13 84 98 142 112 76 39 102 
352 -0.03335466204953145 0.029923953458322373 0.9979862697717474 0 0 0 0.27 124 352 146 195 213 131 214 133 231 60 39 103 176 110 187 116 
353 0.013860143845402488 0.029200704259363466 1.002084296482623 0 0 0 0.22 124 353 175 125 176 111 231 61 
354 0.017807248901101715 0.029165946183878386 1.002335833646005 0 0 0 0.05 124 354 176 112 231 62 
355 -0.0054916329676503554 0.029735203127309397 1.000414730767169 0 0 0 0.36 124 355 146 196 175 126 176 113 213 132 
356 -0.10881116626333767 0.03192821454977762 0.992411825638359 0 0 0 0.23 124 356 146 197 157 164 200 207 4 55 16 68 28 99 98 143 112 77 39 104 
357 -0.0038382056387119244 0.03045232218718689 1.0005127655419372 0 0 0 0.55 124 357 176 114 231 63 
358 0.08514847775669203 0.02895548958605051 1.0113341840154597 0 0 0 0.23 124 358 146 198 231 64 
359 -0.06208222228467902 0.0329379506433842 0.9922290069743267 0 0 0 0.26 124 359 176 115 200 208 214 134 231 65 
360 -0.03340575162405846 0.03256045869066586 0.9979258716536248 0 0 0 0.3 124 360 157 165 213 133 214 135 16 69 28 100 98 144 112 78 39 105 92 53 176 116 
361 0.053271859364825536 0.030751451241598143 1.0084289140263518 0 0 0 0.29 124 361 146 199 175 127 213 134 28 101 98 145 
362 -0.1935568744535721 0.03362304274904241 0.991050069400073 0 0 0 0.39 124 362 146 200 176 117 2 48 50 55 61 43 98 146 
363 -0.00692200575994801 0.03294610861763448 0.9992047248051861 0 0 0 0.23 124 363 146 201 157 166 176 118 200 209 213 135 214 136 231 66 16 70 28 102 50 56 98 147 112 79 187 117 175 128 
364 0.07292293164757471 0.03104310470651185 1.0093970569980522 0 0 0 0.17 124 364 146 202 157 167 175 129 176 119 200 210 
365 0.12751410721573797 0.029538549392712717 1.0195527725998967 0 0 0 0.27 124 365 157 168 231 67 
366 -0.04060591161047394 0.033659017560416275 0.996970934500491 0 0 0 0.1 124 366 157 169 231 68 
367 -0.010237428570573717 0.0335600339637703 0.9987231276197778 0 0 0 0.26 124 367 127 9 136 29 146 203 164 65 175 130 176 120 200 211 224 34 231 69 2 49 4 56 44 61 92 54 93 66 187 118 157 170 213 136 
368 0.0219806086696654 0.03319806333536699 1.0029516929059925 0 0 0 0.16 124 368 136 30 200 212 
369 -0.12656233648658752 0.035093372200423835 0.9926750427880687 0 0 0 0.1 124 369 146 204 213 137 16 71 28 103 39 106 
370 -0.06659041127628086 0.03566456995979896 0.9905851081863591 0 0 0 0.33 124 370 157 171 214 137 
371 0.04064089656314681 0.03313615463012918 1.0068719172078737 0 0 0 0.26 124 371 146 205 157 172 175 131 2 50 39 107 213 138 
372 -0.08015776167412661 0.03633009791890407 0.9883953834306208 0 0 0 0.31 124 372 194 49 214 138 
373 -0.14482591667996123 0.035649876119424224 0.9925408708922927 0 0 0 0.12 124 373 157 173 200 213 
374 -0.0480140502060952 0.0352662634224216 0.996313711843704 0 0 0 0.27 124 374 146 206 231 70 
375 0.07222184901239484 0.03407901763705096 1.0082670028499403 0 0 0 0.23 124 375 146 207 176 121 231 71 175 132 200 214 214 139 9 56 13 85 16 72 28 104 33 66 38 46 93 67 98 148 112 80 148 45 157 174 164 66 213 139 91 7 187 119 39 108 201 58 159 35 234 30 
376 -0.16186481799501762 0.03685660110020674 0.9913980128591483 0 0 0 0.28 124 376 128 23 176 122 213 140 98 149 157 175 
377 -0.10805196309580695 0.03735367025693209 0.9914969995641036 0 0 0 0.16 124 377 176 123 200 215 
378 0.05320917431159701 0.03565310838132715 1.006784155727956 0 0 0 0.13 124 378 159 36 214 140 2 51 9 57 39 109 
379 -0.1460850516431169 0.03808995220544108 0.9918513025364201 0 0 0 0.18 124 379 136 31 214 141 39 110 
380 -0.033227633792469596 0.03741753971734944 0.9965608595150991 0 0 0 0.46 124 380 157 176 176 124 213 141 16 73 93 68 98 150 146 208 187 120 
381 -0.03458729205735358 0.038185617554623866 0.9960487426072007 0 0 0 0.09 124 381 176 125 200 216 231 72 
382 -0.0967971011784921 0.03974949635058015 0.9908050337715644 0 0 0 0.22 124 382 136 32 157 177 159 37 164 67 176 126 200 217 213 142 231 73 16 74 33 67 38 47 44 62 98 151 112 81 113 24 9 58 39 111 109 39 146 209 214 142 187 121 
383 -0.0035032408445409215 0.038738121865928496 0.9993432787216018 0 0 0 0.24 124 383 146 210 157 178 200 218 231 74 39 112 175 133 187 122 213 143 
384 0.020114033512831 0.03832308762666075 1.001506746251995 0 0 0 0.38 124 384 146 211 200 219 214 143 4 57 9 59 112 82 187 123 157 179 159 38 175 134 213 144 
385 0.03754150874333457 0.03792872726488169 1.0051411028314772 0 0 0 0.24 124 385 157 180 175 135 38 48 44 63 187 124 176 127 200 220 234 31 
386 -0.017205454906319907 0.03957963508329183 0.9976311883871829 0 0 0 0.21 124 386 157 181 176 128 200 221 9 60 13 86 33 68 98 152 
387 -0.008766479333952238 0.03942456338186268 0.9990673780574033 0 0 0 0.3 124 387 200 222 214 144 16 75 112 83 187 125 175 136 213 145 231 75 
388 0.05185571053630934 0.03832159102712107 1.0067761899959264 0 0 0 0.28 124 388 136 33 157 182 200 223 231 76 36 27 109 40 112 84 175 137 201 59 
389 0.06083723196667999 0.038878735854068855 1.0056937404010458 0 0 0 0.15 124 389 136 34 146 212 175 138 176 129 213 146 231 77 4 58 16 76 38 49 44 64 60 14 92 55 98 153 41 5 93 69 112 85 196 34 187 126 11 40 33 69 50 57 52 0 85 37 91 8 109 41 13 87 201 60 223 3 234 32 194 50 200 224 148 46 157 183 159 39 164 68 185 31 214 145 
390 -0.07638114975811787 0.04156912679196486 0.989083377035771 0 0 0 0.37 124 390 157 184 213 147 231 78 33 70 38 50 39 113 109 42 214 146 
391 0.018538726926528373 0.03978994718573782 1.0020131323152337 0 0 0 0.3 124 391 157 185 200 225 98 154 109 43 112 86 175 139 39 114 187 127 
392 0.025977158850199085 0.03947391290620523 1.0042625946466006 0 0 0 0.18 124 392 157 186 231 79 39 115 
393 0.06877004848787548 0.03983867088988188 1.0076790975468766 0 0 0 0.26 124 393 146 213 157 187 231 80 187 128 201 61 
394 0.08523015591072639 0.039857727993615505 1.0088824757944397 0 0 0 0.3 124 394 146 214 231 81 39 116 201 62 
395 0.16005149596311793 0.03794962525096026 1.0217257418675407 0 0 0 0.28 124 395 157 188 164 69 196 35 214 147 9 61 32 31 39 117 44 65 92 56 13 88 
396 0.0003581754019598478 0.04707302478988091 0.9968257459045925 0 0 0 0.34 124 396 175 140 176 130 214 148 231 82 28 105 109 44 112 87 187 129 201 63 
397 -0.21262101003254605 0.049158169956529954 0.9904707642683508 0 0 0 0.06 124 397 146 215 214 149 
398 -0.21093557344925098 0.07110136333398717 0.9865894782018108 0 0 0 0.38 124 398 146 216 200 226 98 155 
399 -0.030031569869679954 0.07948267737594233 0.9832964864749669 0 0 0 0.03 124 399 146 217 176 131 
400 0.22974437070306963 0.08405736315753345 1.0193651522920242 0 0 0 0.13 124 400 175 141 200 227 
401 0.23748377227017273 0.08905850077649903 1.0184134253364558 0 0 0 0.18 124 401 146 218 175 142 
402 0.012370189016858955 0.08921546513027746 0.9912904198471186 0 0 0 0.29 124 402 157 189 175 143 187 130 201 64 
403 -0.04122817873321959 0.09091488325876729 0.9821128520468971 0 0 0 0.2 124 403 157 190 176 132 175 144 187 131 
404 0.045016371067576604 0.09110973389331173 0.9939419928674218 0 0 0 0.16 124 404 146 219 175 145 200 228 214 150 13 89 112 88 187 132 
405 -0.13595224398335343 0.09081679356938495 0.9796835480793349 0 0 0 0.2 124 405 146 220 200 229 28 106 98 156 
406 0.207584930409678 0.09199231315402372 1.0114375401118714 0 0 0 0.05 124 406 175 146 200 230 
407 0.0720338862485951 0.09243773226400531 0.999144687512847 0 0 0 0.16 124 407 157 191 175 147 
408 -0.09574253318678971 0.09251853576927167 0.9793499540502898 0 0 0 0.26 124 408 157 192 176 133 39 118 136 35 
409 -0.10784514367558476 0.09291190660792363 0.9799277302311491 0 0 0 0.18 124 409 176 134 213 148 214 151 146 221 
410 -0.13390227391017118 0.09357949666028255 0.9782716975453284 0 0 0 0.21 124 410 136 36 158 47 200 231 231 83 28 107 98 157 16 77 39 119 213 149 
411 -0.08412344077962704 0.09406858797955664 0.9724163369113593 0 0 0 0.37 124 411 146 222 231 84 16 78 39 120 213 150 
412 0.04861565263631507 0.09469849668999152 0.9929649455235176 0 0 0 0.3 124 412 175 148 200 232 13 90 28 108 98 158 112 89 187 133 201 65 
413 0.08414670678575951 0.09488850597413087 0.9982705935198746 0 0 0 0.14 124 413 146 223 175 149 176 135 13 91 201 66 
414 -0.16178331310178237 0.09353067825170486 0.9808010490213834 0 0 0 0.09 124 414 136 37 200 233 
415 -0.1739931129230469 0.09468060310613445 0.9792243073597605 0 0 0 0.11 124 415 146 224 200 234 
416 0.08437533605334904 0.09657885606654452 0.9989121365986579 0 0 0 0.16 124 416 146 225 175 150 176 136 13 92 201 67 
417 0.13387578855788249 0.0965659354778211 1.0046755464363204 0 0 0 0.29 124 417 185 32 194 51 38 51 201 68 
418 -0.13290369805684 0.09548460379756075 0.9783454999906007 0 0 0 0.21 124 418 157 193 176 137 200 235 213 151 28 109 38 52 98 159 
419 0.0630110485566876 0.09672817986799265 0.9910624101666177 0 0 0 0.29 124 419 146 226 157 194 175 151 
420 0.030163544621949326 0.09664941395276537 0.9878433643921086 0 0 0 0.2 124 420 146 227 176 138 200 236 231 85 
421 0.1186192167386713 0.09721022248920637 0.9963853452346769 0 0 0 0.2 124 421 157 195 231 86 
422 -0.09872830392657216 0.09602077173969784 0.9786632240824776 0 0 0 0.23 124 422 157 196 231 87 213 152 98 160 39 121 
423 0.07189067430333618 0.096860805995235 0.9969488148379549 0 0 0 0.25 124 423 146 228 200 237 231 88 
424 -0.10774346957298765 0.09618409220309146 0.9787242574216408 0 0 0 0.07 124 424 146 229 176 139 231 89 
425 -0.1754735897111663 0.0959479720215459 0.9791014768744529 0 0 0 0.29 124 425 146 230 213 153 
426 0.03383094671204613 0.09748638813974458 0.9853575896967552 0 0 0 0.37 124 426 146 231 157 197 176 140 214 152 98 161 112 90 187 134 11 41 13 93 16 79 38 53 92 57 201 69 
427 0.12063661334746843 0.0978798307605762 0.9967595682618404 0 0 0 0.24 124 427 157 198 175 152 231 90 28 110 33 71 98 162 146 232 201 70 214 153 109 45 
428 -0.01987167537176845 0.09737746524507929 0.982253967050485 0 0 0 0.35 124 428 135 60 146 233 175 153 213 154 13 94 39 122 
429 0.02060579407040644 0.09746784139710377 0.9904887191824961 0 0 0 0.12 124 429 175 154 213 155 16 80 146 234 201 71 
430 0.02379306665975467 0.09748816134242852 0.9910676807586281 0 0 0 0.15 124 430 146 235 157 199 175 155 213 156 231 91 11 42 201 72 16 81 187 135 234 33 
431 0.017351293078137316 0.09747618003855167 0.9904588762898525 0 0 0 0.11 124 431 200 238 231 92 
432 0.14514132242056238 0.0995220146213822 1.0040110049941025 0 0 0 0.22 124 432 146 236 231 93 
433 0.029554970259168485 0.09991362842123608 0.9842282959483172 0 0 0 0.22 124 433 135 61 200 239 
434 0.14756327092499338 0.10058642077027646 1.0017358835436023 0 0 0 0.21 124 434 135 62 157 200 175 156 200 240 
435 0.212263729978246 0.10088191800089176 1.0105473690847369 0 0 0 0.26 124 435 175 157 200 241 
436 -0.049742578686402035 0.09987910549245309 0.9746604903935934 0 0 0 0.2 124 436 157 201 213 157 214 154 231 94 
437 0.07410218788082254 0.10075737654634902 0.9943814973154784 0 0 0 0.37 124 437 146 237 176 141 213 158 
438 0.17321430478961983 0.10150625736385067 1.0098012057496224 0 0 0 0.37 124 438 157 202 231 95 112 91 146 238 176 142 201 73 
439 0.0461962593706703 0.10213205803683222 0.9912213650554874 0 0 0 0.18 124 439 146 239 175 158 188 0 
440 0.05120653362505088 0.10229255057246303 0.9906648425231892 0 0 0 0.2 124 440 135 63 175 159 
441 0.20489542064359234 0.10480737146217729 1.0113143885610787 0 0 0 0.69 124 441 146 240 164 70 175 160 176 143 196 36 200 242 214 155 2 52 13 95 44 66 92 58 187 136 28 111 38 54 91 9 110 30 201 74 
442 0.15257863604198713 0.10463323284995912 1.0039566139423097 0 0 0 0.3 124 442 175 161 200 243 98 163 
443 0.11935884339737415 0.10454768519287795 0.9974624612240643 0 0 0 0.22 124 443 146 241 157 203 175 162 28 112 85 38 91 10 109 46 176 144 194 52 201 75 213 159 187 137 214 156 
444 0.18147483168043407 0.10511232988333867 1.007461506366834 0 0 0 0.35 124 444 136 38 175 163 200 244 214 157 13 96 187 138 28 113 38 55 85 39 93 70 201 76 176 145 
445 0.13243151140183496 0.10514436234937799 1.0030497133520913 0 0 0 0.1 124 445 157 204 175 164 231 96 
446 -0.04752314750509523 0.10428973404299303 0.9775056433349728 0 0 0 0.25 124 446 146 242 157 205 176 146 214 158 
447 0.10041091157948072 0.1052879610113997 0.9957781199672184 0 0 0 0.21 124 447 146 243 231 97 
448 0.20375302110653346 0.1062664540472539 1.0108751596941459 0 0 0 0.17 124 448 146 244 175 165 200 245 98 164 187 139 
449 -0.1231596591767326 0.10408904209675983 0.9732828146439548 0 0 0 0.25 124 449 146 245 200 246 214 159 231 98 28 114 39 123 
450 -0.11032007423234858 0.10465493725428583 0.9739064215570441 0 0 0 0.31 124 450 146 246 214 160 
451 0.03155984163035592 0.10575972498923085 0.9856941988123256 0 0 0 0.22 124 451 175 166 200 247 9 62 33 72 44 67 98 165 
452 0.0890446522236641 0.10620232892819115 0.9921664849794307 0 0 0 0.33 124 452 175 167 200 248 13 97 33 73 44 68 50 58 93 71 98 166 91 11 187 140 28 115 201 77 
453 -0.12211533720288432 0.10491669121150178 0.9745457369236386 0 0 0 0.46 124 453 200 249 214 161 224 35 
454 -0.0005652044220889151 0.1058238399568529 0.9818147475271954 0 0 0 0.12 124 454 175 168 200 250 231 99 28 116 98 167 
455 0.126352128276928 0.10746558805057564 0.9978940658784623 0 0 0 0.11 124 455 157 206 175 169 
456 0.17856364343759265 0.10783543598644924 1.0070505130925043 0 0 0 0.19 124 456 146 247 157 207 175 170 194 53 200 251 213 160 214 162 13 98 28 117 93 72 98 168 109 47 187 141 201 78 
457 -0.1117395805538609 0.10589228542299328 0.9722144992311945 0 0 0 0.23 124 457 146 248 214 163 157 208 200 252 33 74 98 169 
458 0.033888190693337414 0.10701763716764255 0.9858664279094207 0 0 0 0.13 124 458 175 171 231 100 28 118 98 170 13 99 93 73 187 142 
459 0.09340140770135963 0.10757647706168526 0.992453152809587 0 0 0 0.18 124 459 175 172 200 253 98 171 
460 0.22872979398143903 0.1087895262680246 1.0181633935676517 0 0 0 0.36 124 460 175 173 200 254 28 119 98 172 
461 0.0011384481941209134 0.10702333757994806 0.9820666046088831 0 0 0 0.25 124 461 157 209 231 101 28 120 98 173 
462 0.17653891706571206 0.10897127852738328 1.006522919704834 0 0 0 0.23 124 462 146 249 175 174 213 161 214 164 13 100 28 121 93 74 98 174 187 143 4 59 11 43 38 56 148 47 157 210 201 79 
463 -0.15090399952554634 0.10672543460829707 0.9727228028864047 0 0 0 0.14 124 463 157 211 200 255 98 175 
464 -0.1129658446505095 0.10714875206144381 0.9720657142951432 0 0 0 0.22 124 464 157 212 200 256 231 102 98 176 
465 -0.00035456054105740756 0.10817552958539658 0.9818382463836052 0 0 0 0.21 124 465 157 213 175 175 146 250 187 144 
466 0.00455448398953211 0.10846949038981099 0.9828465075947768 0 0 0 0.17 124 466 175 176 214 165 16 82 28 122 98 177 146 251 157 214 213 162 11 44 231 103 187 145 
467 -0.04877288899336149 0.1081062833682114 0.9750547432269254 0 0 0 0.2 124 467 146 252 157 215 
468 -0.1499966506998614 0.10797971695223527 0.9733097630947196 0 0 0 0.38 124 468 200 257 231 104 13 101 98 178 
