# 3D point list with one line of data per point:
#   POINT3D_ID, X, Y, Z, R, G, B, ERROR, TRACK[] as (IMAGE_ID, POINT2D_IDX)
# Number of points: 442, mean track length: 9.89
3814 -0.4723225026655634 0.04127496526346392 1.0328708441509074 0 0 0 0.24 59 642 140 1352 168 325 173 1145 177 1330 
3815 -0.41541567307254657 0.09555935251315859 1.2378761535166423 0 0 0 0.44 59 643 168 326 202 585 
3816 -0.5600528218724862 -0.1227797866460032 0.7268229780775385 0 0 0 0.19 59 644 94 557 168 327 178 439 218 939 
3817 -0.5868230433775525 -0.12442431372660427 0.5899280638782785 0 0 0 0.4 59 645 72 1026 86 327 94 558 116 843 125 608 151 832 166 608 168 328 178 440 180 839 191 524 193 982 202 586 218 940 226 705 
3818 -0.5583444277478213 -0.09534839139811384 0.7796193467940412 0 0 0 0.61 59 646 94 559 102 595 131 534 153 44 168 329 173 1146 
3819 -0.6048647638623348 -0.11860907752056803 0.5756945917098124 0 0 0 0.53 59 647 72 1027 102 596 116 844 131 535 143 579 153 45 168 330 180 840 218 941 226 706 
3820 -0.10400503144569263 -0.13260543633056476 1.34158309001603 0 0 0 0.52 68 847 78 216 79 24 
3821 -0.12278525645794443 0.0024418728529345566 1.328377009393011 0 0 0 0.1 68 848 78 217 191 525 
3822 -0.25425495602249065 -0.03636195906994408 1.3463971669873696 0 0 0 0.23 68 849 78 218 150 833 
3823 -0.10232342253382219 0.025359278266672294 1.3125644645790915 0 0 0 0.72 68 850 140 1353 168 331 177 1331 
3824 -0.23462957510938612 -0.12485056019783787 1.3489516188443404 0 0 0 0.14 72 1028 78 219 233 755 
3825 -0.3299546816619073 -0.12698969222911102 1.3859144344270804 0 0 0 0.39 72 1029 78 220 99 744 233 756 
3826 -0.224276680842198 -0.10095145851906379 1.3432084526725458 0 0 0 0.31 72 1030 78 221 99 745 216 1016 233 757 
3827 -0.18052194039092595 -0.09328240701729715 1.3377477570706826 0 0 0 0.39 72 1031 78 222 79 25 80 80 99 746 140 1354 216 1017 233 758 
3828 -0.0821648760690313 -0.07841095314635885 1.3310976388265139 0 0 0 0.17 72 1032 78 223 79 26 80 81 99 747 140 1355 150 834 
3829 -0.3590195040052335 -0.022979965202026876 1.3790510582044826 0 0 0 0.43 72 1033 99 748 140 1356 
3830 -0.359574143072308 -0.016974171902901396 1.377833251717342 0 0 0 0.17 72 1034 78 224 99 749 
3831 -0.05591855680046022 -0.0039805597795889176 1.3236245454976432 0 0 0 0.35 72 1035 80 82 99 750 106 2501 177 1332 
3832 -0.2031611723494291 0.015452399155555506 1.3296179345700634 0 0 0 0.11 72 1036 78 225 140 1357 233 759 
3833 -0.34139158358200805 0.08137299478787328 1.366446652626618 0 0 0 0.19 72 1037 78 226 143 580 
3834 -0.023563328416179478 0.08886304182048176 1.3102440550889605 0 0 0 0.24 72 1038 78 227 99 751 
3835 -0.07397717067204153 0.09226804448301676 1.310700274701933 0 0 0 0.37 72 1039 78 228 80 83 99 752 140 1358 
3836 -0.2087750376018984 -0.04899032984631313 1.3407279222323698 0 0 0 0.24 72 1040 78 229 216 1018 233 760 
3837 -0.3457667141188094 -0.024896428218986483 1.385862122636893 0 0 0 0.07 72 1041 150 835 191 526 
3838 -0.4114084419628448 0.01551543356746446 1.3928433029601373 0 0 0 0.26 72 1042 99 753 150 836 
3839 -0.06389885447139078 0.035779207468041106 1.3170793022257774 0 0 0 0.44 72 1043 78 230 80 84 99 754 140 1359 177 1333 
3840 -0.37784836682688805 0.0350417368929344 1.3881892645377978 0 0 0 0.02 72 1044 143 581 191 527 
3841 -0.3600016928023986 0.039105834395008435 1.372921081212044 0 0 0 0.19 72 1045 99 755 140 1360 150 837 177 1334 189 551 191 528 
3842 -0.3828195874332173 0.04577872977924243 1.3744761502244038 0 0 0 0.18 72 1046 99 756 140 1361 144 760 150 838 191 529 
3843 -0.3819974876975078 0.05748047737511283 1.3753830329009278 0 0 0 0.2 72 1047 99 757 140 1362 150 839 177 1335 117 277 228 869 
3844 -0.5909941849691904 -0.1206018112064625 0.657567412056408 0 0 0 0.29 72 1048 102 597 151 833 153 46 168 332 
3845 -0.07768771112876799 -0.02900547927836201 1.3386746243688425 0 0 0 0.29 72 1049 168 333 191 530 
3846 -0.4230924331323776 0.036167728912587245 1.397301034390544 0 0 0 0.15 72 1050 143 582 191 531 
3847 -0.6053239700464846 -0.18568639606387588 0.4875390593141612 0 0 0 0.51 72 1051 143 583 168 334 183 434 191 532 193 983 218 942 228 870 
3848 -0.5941786576738175 -0.1822416926619405 0.5181131532530696 0 0 0 0.42 72 1052 102 598 131 536 143 584 153 47 168 335 173 1147 191 533 193 984 218 943 
3849 -0.549656585362289 -0.28696226130502006 1.2233464675580807 0 0 0 0.17 72 1053 168 336 226 707 
3850 -0.6018535061979099 -0.1787866456150044 0.5330083332759973 0 0 0 0.18 72 1054 153 48 168 337 173 1148 
3851 -0.5409325602175457 -0.28156844953226073 1.2699557589806607 0 0 0 0.1 72 1055 168 338 226 708 
3852 -0.5162824151150748 -0.2618535547113554 1.2920961158127664 0 0 0 0.32 72 1056 143 585 168 339 
3853 -0.599036621817402 -0.17288960011784293 0.6221460652441564 0 0 0 0.84 72 1057 115 250 168 340 173 1149 
3854 -0.5182245950352293 -0.25597846597318313 1.271412835337673 0 0 0 0.17 72 1058 143 586 168 341 
3855 -0.5249910114311416 -0.1796551523891432 0.8731339860235071 0 0 0 0.27 72 1059 168 342 191 534 210 336 226 709 
3856 -0.43446930417736246 -0.1764974824573265 1.2772086170755033 0 0 0 0.12 72 1060 143 587 168 343 226 710 
3857 0.12953824665179317 -0.11486030230903463 1.3288307511498842 0 0 0 0.38 24 528 72 1061 78 231 150 840 168 344 
3858 -0.606565737031844 -0.10071573229335001 0.5284955101558036 0 0 0 0.58 72 1062 102 599 131 537 168 345 173 1150 178 441 180 841 202 587 218 944 
3859 -0.37179064642963255 -0.10727033912216571 1.3954181136952986 0 0 0 0.38 72 1063 78 232 150 841 189 552 191 535 233 761 
3860 0.06886300561973972 -0.07561221759599993 1.3275422499398541 0 0 0 0.22 72 1064 168 346 191 536 
3861 -0.23541206149326216 -0.03740815540557027 1.3429226762284996 0 0 0 0.3 72 1065 78 233 140 1363 228 871 
3862 -0.03688602740666729 0.019285154249906056 1.3343909631324655 0 0 0 0.11 72 1066 168 347 177 1336 
3863 -0.5981230179187722 -0.18325999477128618 0.5288529790683033 0 0 0 0.41 72 1067 168 348 173 1151 178 442 
3864 -0.4404225152226419 -0.27718664526288067 1.2634652592581115 0 0 0 0.2 72 1068 168 349 226 711 
3865 -0.5625690731812384 -0.16943127444632988 0.7350133594015287 0 0 0 0.2 72 1069 168 350 226 712 
3866 -0.6105520590654119 -0.14650713359938505 0.5497797263889761 0 0 0 0.14 72 1070 153 49 168 351 173 1152 
3867 -0.5943624061856941 -0.12332194714592544 0.5085577957060765 0 0 0 0.4 72 1071 131 538 153 50 168 352 173 1153 
3868 -0.5956757692784559 -0.1270112188241661 0.6169649773575556 0 0 0 0.24 72 1072 102 600 131 539 168 353 178 443 218 945 
3869 0.1244518566442496 -0.14093043546230744 1.3344454927471692 0 0 0 0.06 72 1073 168 354 191 537 
3870 -0.020531414951499412 -0.14855275854784156 1.3299262206224123 0 0 0 0.12 72 1074 140 1364 168 355 
3871 0.10129109605559207 -0.13258811458202246 1.3580702992043499 0 0 0 0.49 72 1075 140 1365 168 356 
3872 -0.4380946982750686 -0.1537061407213327 1.2599457824035791 0 0 0 0.34 72 1076 168 357 226 713 
3873 -0.4254024113907094 -0.1199237182315324 1.280962064380226 0 0 0 0.28 72 1077 143 588 168 358 226 714 
3874 -0.10523856732848536 -0.10520792160344535 1.3370030567113618 0 0 0 0.27 72 1078 140 1366 150 842 168 359 
3875 -0.4200152858794896 -0.12456235351235583 1.4024217773094647 0 0 0 0.19 72 1079 168 360 226 715 
3876 0.03560700064912894 -0.06874933293275451 1.3159160519760682 0 0 0 0.08 72 1080 168 361 191 538 
3877 -0.2768366497445801 -0.08225464822244527 1.3489310605877987 0 0 0 0.27 72 1081 143 589 168 362 
3878 -0.601060354027511 -0.05560375925223364 0.5591013834297572 0 0 0 0.24 72 1082 153 51 168 363 173 1154 226 716 
3879 -0.5884785965168857 -0.04929906290185014 0.6378534343723868 0 0 0 0.21 72 1083 153 52 168 364 226 717 
3880 -0.6086915824854333 -0.038751026275010994 0.5386573472340656 0 0 0 0.15 72 1084 153 53 168 365 173 1155 
3881 0.029289780159167896 0.04634476401328604 1.3100741890643657 0 0 0 0.13 72 1085 168 366 191 539 
3882 -0.5717366146510348 0.013109538472566325 0.5545098101005449 0 0 0 0.22 72 1086 168 367 226 718 
3883 -0.43983042925122456 0.0654583803081397 1.4070425641006234 0 0 0 0.2 57 940 72 1087 150 843 168 368 189 553 191 540 233 762 
3884 -0.2795087983424351 0.09690601919577452 1.3556750829742834 0 0 0 0.13 72 1088 143 590 168 369 
3885 -0.5587194179624728 -0.25878216355633016 0.8855673409222562 0 0 0 0.2 72 1089 168 370 226 719 
3886 -0.5852036619464571 -0.1927230264495705 0.5113033292864299 0 0 0 0.14 72 1090 131 540 153 54 168 371 178 444 
3887 -0.59046402465298 -0.1874851416296531 0.4817740443469385 0 0 0 0.38 72 1091 143 591 168 372 
3888 -0.5815458814426935 -0.1560745990537664 0.6884487253306999 0 0 0 0.07 72 1092 168 373 226 720 
3889 -0.45935705353326356 -0.21404896315396998 1.282384510974509 0 0 0 0.22 72 1093 168 374 226 721 
3890 -0.6080692888237663 -0.14217432511519745 0.5556934726249272 0 0 0 0.37 72 1094 125 609 143 592 153 55 168 375 173 1156 178 445 180 842 193 985 218 946 226 722 
3891 0.10844812936233318 -0.14170060040016805 1.3356021782959635 0 0 0 0.19 72 1095 168 376 191 541 
3892 -0.5495160736066195 -0.12119771292349667 0.8190662908587001 0 0 0 0.37 72 1096 99 758 102 601 131 541 154 654 166 609 168 377 173 1157 180 843 
3893 -0.2921145165469456 -0.10056419749098383 1.3818434837446762 0 0 0 0.16 72 1097 168 378 171 295 
3894 -0.5745999224982178 -0.08072743639170313 0.6560620241064293 0 0 0 0.36 72 1098 102 602 133 191 168 379 191 542 216 1019 119 553 144 761 151 834 154 655 161 514 174 176 193 986 215 609 218 947 228 872 
3895 0.08568812140361326 -0.06834916520276843 1.324833944368947 0 0 0 0.23 72 1099 168 380 177 1337 191 543 
3896 -0.30294101890310665 -0.0592934243309095 1.3623736571219802 0 0 0 0.07 72 1100 168 381 191 544 
3897 -0.5674443229145683 -0.03182782367345413 0.7482194116397295 0 0 0 0.13 72 1101 153 56 168 382 173 1158 178 446 
3898 -0.06973750966756109 0.014327517577701973 1.334913410284394 0 0 0 0.6 72 1102 140 1367 168 383 202 588 
3899 -0.29098146361582894 0.07704245474648447 1.3395321125717357 0 0 0 0.15 72 1103 143 593 168 384 
3900 -0.5840446100264798 0.019550720390815245 0.4883866617549853 0 0 0 0.26 72 1104 137 548 143 594 151 835 168 385 180 844 218 948 
3901 -0.050956737797526144 0.09605763151025189 1.3146818221352146 0 0 0 0.09 72 1105 168 386 191 545 
3902 -0.4846111312338171 -0.20320737269466965 0.9672027688283604 0 0 0 1.21 72 1106 131 542 168 387 173 1159 177 1338 202 589 
3903 -0.5833873476442152 -0.1431725622204972 0.4878746589803548 0 0 0 0.26 72 1107 131 543 143 595 168 388 218 949 
3904 -0.589983192248885 -0.14708036577711667 0.645819898730278 0 0 0 0.53 72 1108 102 603 116 845 131 544 133 192 153 57 154 656 168 389 173 1160 178 447 180 845 193 987 215 610 226 723 
3905 -0.5406897563585253 -0.12867014149513709 0.8316781549885082 0 0 0 0.39 72 1109 143 596 168 390 173 1161 226 724 
3906 -0.5760865968026265 -0.10118587010835998 0.6929785889042251 0 0 0 0.12 72 1110 168 391 226 725 
3907 -0.5590120316990208 -0.028505061489700702 0.7755323159617322 0 0 0 0.5 72 1111 102 604 115 251 153 58 168 392 173 1162 
3908 -0.2939146693460091 0.02196118004931026 1.366415924511495 0 0 0 0.26 72 1112 143 597 168 393 
3909 0.018547055318559876 0.03955592622365899 1.3012365547899862 0 0 0 0.6 72 1113 168 394 191 546 
3910 -0.20567571010941732 0.09116719365219739 1.3212777971119678 0 0 0 0.62 24 529 72 1114 78 234 99 759 140 1368 143 598 150 844 168 395 177 1339 189 554 216 1020 
3911 -0.5946096543995988 -0.1689861922297991 0.502324766844529 0 0 0 0.14 72 1115 131 545 133 193 168 396 
3912 -0.5377761970586606 -0.28646134014655816 1.3053391279768565 0 0 0 0.22 72 1116 168 397 226 726 
3913 -0.6128897355017764 -0.14417678115259921 0.5482401467481438 0 0 0 0.25 72 1117 102 605 168 398 218 950 
3914 -0.5262483055406251 -0.11741414606253218 0.8642590997625846 0 0 0 0.32 72 1118 143 599 168 399 
3915 -0.27619029239499354 -0.011640180379134604 1.3474913891866303 0 0 0 0.42 72 1119 143 600 168 400 
3916 -0.030300748697948923 0.08032542058876735 1.3079184944706266 0 0 0 0.3 72 1120 99 760 191 547 
3917 -0.5860653545486405 -0.11429938755823371 0.49327654095167056 0 0 0 0.81 72 1121 131 546 168 401 
3918 -0.6002409024059924 -0.04023815639422396 0.5448926491316419 0 0 0 0.54 72 1122 143 601 168 402 218 951 
3919 -0.6013459310264182 -0.018155345546729214 0.5638101588917069 0 0 0 0.63 72 1123 102 606 168 403 218 952 226 727 
3920 -0.44456863887034115 -0.19850457040344785 1.2925896668754067 0 0 0 0.26 72 1124 168 404 226 728 
3921 -0.3085262322215636 -0.17009109844892212 1.3796952345766482 0 0 0 0.21 78 235 99 761 216 1021 228 873 233 763 
3922 -0.3329921625172053 -0.16841788949686679 1.3885693505905168 0 0 0 0.4 78 236 79 27 233 764 
3923 -0.3389513967269947 -0.15969807196791128 1.3903239127066591 0 0 0 0.33 78 237 79 28 140 1369 
3924 -0.3217706421619363 -0.15477148353936163 1.3847436730390617 0 0 0 0.2 78 238 99 762 216 1022 233 765 
3925 -0.34086320646732565 -0.14300698593811814 1.3888951006004386 0 0 0 0.16 78 239 99 763 233 766 
3926 -0.3368626411105731 -0.1255961803329108 1.3873119612650553 0 0 0 0.34 78 240 216 1023 228 874 
3927 -0.29085884276295326 -0.11993576857324698 1.369849714715588 0 0 0 0.87 78 241 79 29 233 767 
3928 -0.3521698541903002 -0.11481739470690878 1.390236666554793 0 0 0 0.44 78 242 79 30 140 1370 
3929 -0.09498630541361919 -0.08652395047305142 1.333550886504547 0 0 0 0.29 78 243 80 85 99 764 140 1371 
3930 -0.20627340310613318 -0.08745654079524606 1.3395847849524105 0 0 0 0.18 78 244 79 31 99 765 233 768 
3931 -0.14520950932504526 -0.08616958558719566 1.335380453878295 0 0 0 0.48 78 245 140 1372 233 769 
3932 -0.14014049874806256 -0.08320441931018387 1.3350948501508877 0 0 0 0.14 78 246 99 766 233 770 79 32 
3933 -0.36581793269521207 -0.08095809908447545 1.38884729440258 0 0 0 0.28 78 247 228 875 233 771 
3934 -0.4000175270963154 -0.08222780497585257 1.4013884992865857 0 0 0 0.28 78 248 150 845 233 772 
3935 -0.20591910274579536 -0.04869814383676783 1.3406312519552854 0 0 0 0.13 78 249 216 1024 233 773 
3936 -0.14488294328737283 -0.04718559819096266 1.331508391983998 0 0 0 0.27 78 250 80 86 99 767 
3937 -0.16424659787956997 -0.039489882841069766 1.3322465019419745 0 0 0 0.16 78 251 80 87 233 774 
3938 -0.3548999048248602 -0.028814597244469838 1.378898713477181 0 0 0 0.2 78 252 79 33 99 768 
3939 -0.060034776370835735 -0.00931861934225078 1.3239996301460906 0 0 0 0.24 78 253 80 88 99 769 
3940 -0.16392505198659632 -0.0008756782518730281 1.330461216905553 0 0 0 0.12 78 254 80 89 233 775 
3941 -0.35464296611808177 0.00022736552574294385 1.3760205312031577 0 0 0 0.18 78 255 79 34 99 770 140 1373 150 846 
3942 -0.0672019207718517 0.001123043364536171 1.320250176033716 0 0 0 0.33 78 256 80 90 99 771 140 1374 
3943 -0.054789317547039786 0.0038929566934939428 1.322292911989646 0 0 0 0.12 78 257 79 35 80 91 
3944 -0.40102399401337957 0.007861265595120374 1.3893284102815138 0 0 0 0.18 78 258 228 876 233 776 
3945 -0.40796424948159926 0.008949965620151294 1.3912076510640323 0 0 0 0.35 78 259 99 772 233 777 
3946 -0.1719027729241893 0.012522189992067891 1.3264967779642942 0 0 0 0.09 78 260 79 36 80 92 233 778 
3947 -0.3546488074008429 0.01751311520443999 1.3727838199683624 0 0 0 0.26 78 261 79 37 140 1375 228 877 
3948 -0.1687618216046729 0.02738518625378005 1.3284761190266619 0 0 0 0.22 78 262 80 93 233 779 
3949 -0.234043628981828 0.030190636749323915 1.3355233603009502 0 0 0 0.18 78 263 80 94 99 773 233 780 
3950 -0.23238721985658709 0.03222773554623907 1.337125492652973 0 0 0 0.16 78 264 80 95 233 781 
3951 -0.4308957664863498 0.04146322643198745 1.390499834231619 0 0 0 0.11 78 265 99 774 233 782 
3952 -0.16018098421777557 0.0514809822718003 1.3237736899502635 0 0 0 0.27 78 266 80 96 99 775 140 1376 233 783 
3953 -0.1409077895263399 0.05121293492724375 1.3210387384522442 0 0 0 0.27 78 267 79 38 80 97 
3954 -0.13422594918316041 0.05117250368151757 1.3214863671769665 0 0 0 0.15 78 268 79 39 80 98 
3955 -0.12864319184284773 0.05106212120125935 1.3203020685253835 0 0 0 0.13 78 269 79 40 80 99 233 784 
3956 -0.12006916098034043 0.05086190582880109 1.3203602342394158 0 0 0 0.22 78 270 80 100 140 1377 
3957 -0.12349808203530574 0.05107252715933305 1.3199262744941802 0 0 0 0.22 78 271 79 41 80 101 233 785 
3958 -0.11369041116572595 0.050901573892167346 1.3190679347449246 0 0 0 0.14 78 272 79 42 80 102 
3959 -0.08770175518197175 0.05098639840338549 1.3186904037820808 0 0 0 0.28 78 273 79 43 80 103 
3960 -0.08929535926793403 0.052882907689008156 1.3182514458674641 0 0 0 0.3 78 274 79 44 80 104 
3961 -0.3515860607444573 0.060934884257104464 1.3699939369612906 0 0 0 0.27 78 275 79 45 228 878 
3962 -0.06279643400024523 0.0661277599461367 1.3147177104784127 0 0 0 0.16 78 276 79 46 80 105 
3963 -0.38385464616615617 0.07677377597921421 1.3653586818049441 0 0 0 0.14 78 277 99 776 140 1378 233 786 
3964 -0.31069444446333977 0.0742262249256134 1.3523468176623428 0 0 0 0.17 78 278 140 1379 216 1025 
3965 -0.32084548829799153 0.07777389660342703 1.3585548938356042 0 0 0 0.29 78 279 99 777 140 1380 
3966 -0.17851512467558803 0.08631988000515416 1.3231170382020108 0 0 0 0.4 78 280 79 47 80 106 
3967 -0.17190894017694386 0.09687892634110197 1.3203762695221972 0 0 0 0.17 78 281 79 48 80 107 
3968 -0.11526801249325543 0.10104390795307157 1.314708507617296 0 0 0 0.21 78 282 79 49 80 108 
3969 -0.11155606486167327 0.10125802828068867 1.31560706759516 0 0 0 0.6 78 283 79 50 80 109 140 1381 
3970 -0.12573472949411932 0.10386313925672876 1.3150537286177975 0 0 0 0.18 78 284 79 51 80 110 
3971 -0.10523564113470507 0.10363623067090186 1.3129025528860672 0 0 0 0.28 78 285 79 52 80 111 99 778 
3972 -0.07135435443244291 0.10318693005826529 1.309797092248387 0 0 0 0.29 78 286 79 53 80 112 99 779 
3973 -0.3329513627822389 -0.17815771332393537 1.388804420910902 0 0 0 0.28 78 287 99 780 233 787 
3974 -0.22030572620804487 -0.1574411164209941 1.356596401726135 0 0 0 0.54 78 288 79 54 233 788 
3975 -0.3205483744342309 -0.16692908669544865 1.384085778801243 0 0 0 0.32 78 289 99 781 150 847 228 879 
3976 -0.3371782210924352 -0.16260077946789964 1.389910959589563 0 0 0 0.32 78 290 79 55 99 782 140 1382 233 789 
3977 -0.016459509674348 -0.13321452737882775 1.3323275563867356 0 0 0 0.25 78 291 79 56 99 783 
3978 -0.22314695136671775 -0.14231900167996572 1.3547714135913433 0 0 0 0.24 78 292 99 784 150 848 233 790 
3979 -0.3156483451838182 -0.14085344820698692 1.3812546932458925 0 0 0 0.23 78 293 79 57 99 785 228 880 
3980 -0.28772363444248666 -0.1315386568756089 1.3719114969747068 0 0 0 0.07 78 294 216 1026 228 881 
3981 -0.2836747835377878 -0.13089809093111765 1.3717383965290437 0 0 0 0.29 78 295 216 1027 228 882 
3982 -0.30661803000163596 -0.13166619420615489 1.3781737390435385 0 0 0 0.29 78 296 99 786 228 883 233 791 
3983 -0.310999954544078 -0.12788911278256282 1.376887839252613 0 0 0 0.21 78 297 140 1383 150 849 177 1340 
3984 -0.19903620420216142 -0.11824404289530513 1.3487284021008714 0 0 0 0.37 78 298 79 58 233 792 
3985 -0.19622284781345767 -0.11276439642127976 1.3481598560419095 0 0 0 0.41 78 299 79 59 233 793 
3986 -0.014573527379894629 -0.10734188572969787 1.3320903447480166 0 0 0 0.31 78 300 79 60 99 787 140 1384 
3987 -0.21991072805662165 -0.10850388169093379 1.3424633883487354 0 0 0 0.25 78 301 140 1385 216 1028 233 794 
3988 -0.22803943484701997 -0.10852990469382853 1.3440744534540159 0 0 0 0.24 78 302 99 788 140 1386 216 1029 228 884 
3989 -0.17241536951264375 -0.10664894860053538 1.342021907422354 0 0 0 0.13 78 303 216 1030 233 795 
3990 -0.21277353964941953 -0.10089277993424865 1.346398630409822 0 0 0 0.23 78 304 150 850 233 796 
3991 -0.39933805351856033 -0.11372481849752217 1.403159263866543 0 0 0 0.18 78 305 150 851 233 797 
3992 -0.3796865869742512 -0.10066202385853458 1.3951537153592581 0 0 0 0.4 78 306 216 1031 228 885 233 798 
3993 -0.21257824795536978 -0.08738854455842014 1.3399456067527629 0 0 0 0.21 78 307 99 789 150 852 233 799 
3994 -0.11766593887023467 -0.08622706306872215 1.3337802433326795 0 0 0 0.34 78 308 79 61 80 113 99 790 140 1387 
3995 -0.14208508013628104 -0.08559144672714097 1.335747064712303 0 0 0 0.07 78 309 79 62 80 114 99 791 140 1388 233 800 
3996 -0.1484377250339978 -0.08292071655194963 1.3369681887620046 0 0 0 0.3 78 310 79 63 150 853 177 1341 216 1032 233 801 
3997 -0.09340713827631829 -0.08063564558143123 1.3317135765759818 0 0 0 0.2 78 311 80 115 99 792 140 1389 
3998 -0.11653286387412655 -0.08042991327747263 1.3342310296631061 0 0 0 0.15 78 312 79 64 99 793 80 116 140 1390 
3999 -0.13957116962330599 -0.07985069803705433 1.3360330356906196 0 0 0 0.25 78 313 80 117 99 794 140 1391 216 1033 233 802 
4000 -0.11154341954873816 -0.07869232600075854 1.3370868759806107 0 0 0 0.51 78 314 106 2502 140 1392 
4001 -0.13412407819032876 -0.0785193984750832 1.3381159354394836 0 0 0 0.38 78 315 216 1034 233 803 
4002 -0.05372162234519991 -0.06879111009460526 1.3302501666619422 0 0 0 0.32 78 316 79 65 99 795 140 1393 
4003 -0.1428244013701808 -0.06602746647714577 1.3365453983976454 0 0 0 0.24 78 317 106 2503 216 1035 233 804 
4004 -0.08710326096338475 -0.06255191296229644 1.3312558514677022 0 0 0 0.16 78 318 79 66 99 796 
4005 -0.2612838482969602 -0.0621777572614344 1.3544019194648431 0 0 0 0.22 78 319 150 854 233 805 
4006 -0.1444607990077135 -0.058415494674307546 1.335657636937814 0 0 0 0.2 78 320 80 118 140 1394 216 1036 233 806 
4007 -0.13889817842150368 -0.05342158860933195 1.3340780068667841 0 0 0 0.07 78 321 80 119 99 797 233 807 
4008 0.012891123777227755 -0.05218442006021604 1.3234383410525543 0 0 0 0.19 78 322 79 67 99 798 140 1395 
4009 -0.16302542283797175 -0.05296028689380218 1.3363783186706675 0 0 0 0.17 78 323 80 120 99 799 233 808 
4010 -0.019512193597915208 -0.05173175485281427 1.3241310030527274 0 0 0 0.16 78 324 79 68 99 800 
4011 -0.12215774101527292 -0.051065117450958215 1.3320423907382235 0 0 0 0.35 78 325 140 1396 150 855 
4012 -0.060078181102364465 -0.0505830815024274 1.3281613479866097 0 0 0 0.26 78 326 79 69 80 121 99 801 140 1397 
4013 0.11534271505574371 -0.04235481198900293 1.3183435851369012 0 0 0 0.28 78 327 79 70 150 856 
4014 -0.16897100570632334 -0.02834858302152259 1.3343733298227685 0 0 0 0.06 78 328 79 71 233 809 
4015 -0.3581358523005943 -0.029314108043729675 1.378903052905494 0 0 0 0.23 78 329 99 802 140 1398 
4016 -0.12092049130571049 -0.012112421934793463 1.325920912962202 0 0 0 0.11 78 330 79 72 80 122 
4017 -0.23706164753213727 -0.01108051226121268 1.3380980480103881 0 0 0 0.23 78 331 99 803 140 1399 216 1037 233 810 
4018 -0.1442471994645463 -0.011562493714599737 1.3293952078924363 0 0 0 0.12 78 332 79 73 99 804 150 857 
4019 -0.06885988086606273 -0.010371046392741183 1.321763680879508 0 0 0 0.21 78 333 79 74 80 123 99 805 140 1400 
4020 0.027060071623073573 -0.009894531321252393 1.3158930398851996 0 0 0 0.54 78 334 79 75 140 1401 177 1342 
4021 -0.24002464319823244 -0.0065522720070302284 1.3360337854688342 0 0 0 0.17 78 335 99 806 228 886 
4022 -0.08156611027888234 -0.005175765836288426 1.323806079427937 0 0 0 0.18 78 336 79 76 80 124 140 1402 
4023 -0.15080004703116553 -0.0042621165927790566 1.3299016219888387 0 0 0 0.23 78 337 80 125 140 1403 233 811 
4024 -0.13977754975364357 -0.003736921638253805 1.3270651241857274 0 0 0 0.15 78 338 79 77 80 126 233 812 
4025 -0.3605146887582838 -0.00423823684186672 1.3759301927994263 0 0 0 0.27 78 339 99 807 140 1404 216 1038 228 887 
4026 -0.06407128493333737 -0.0009935931599581768 1.321003528673264 0 0 0 0.32 78 340 79 78 80 127 99 808 140 1405 
4027 -0.04174705550048955 -0.001334181009270891 1.3193366449469668 0 0 0 0.27 78 341 79 79 80 128 99 809 140 1406 
4028 -0.4068392645486578 0.005677763786256557 1.3896775093918292 0 0 0 0.14 78 342 228 888 233 813 
4029 -0.20615322437850386 0.01301877184837862 1.3309838512356842 0 0 0 0.14 78 343 79 80 99 810 140 1407 
4030 -0.22475528317441376 0.015705429227087096 1.3382809241530234 0 0 0 0.11 78 344 140 1408 150 858 
4031 -0.2481900272986606 0.0342911779667164 1.3405548595495853 0 0 0 0.15 78 345 79 81 99 811 140 1409 
4032 -0.22922827731337575 0.03415430954727572 1.3378318377600071 0 0 0 0.31 78 346 79 82 80 129 233 814 
4033 -0.030370532932469798 0.039389501126722425 1.3173808877936006 0 0 0 0.24 78 347 79 83 99 812 
4034 -0.0711117797843082 0.04534817320316476 1.3165200687966665 0 0 0 0.42 78 348 99 813 140 1410 
4035 -0.020111454176067002 0.04474799515531346 1.3127685953786368 0 0 0 0.25 78 349 79 84 140 1411 
4036 -0.4049519656452141 0.0536249245187649 1.384390280735416 0 0 0 0.35 78 350 140 1412 233 815 
4037 -0.016913335569803917 0.0449354702316488 1.3148655240994185 0 0 0 0.2 78 351 79 85 140 1413 
4038 -0.07357445677771704 0.04795093622797681 1.3157307671060816 0 0 0 0.4 78 352 80 130 99 814 140 1414 
4039 -0.1981288409864537 0.05425630107534628 1.3338617337222125 0 0 0 0.31 78 353 79 86 80 131 
4040 -0.3186019054835034 0.07492911621571882 1.3568671963886967 0 0 0 0.23 78 354 99 815 228 889 
4041 -0.3068219308247734 0.07639201021436853 1.351096600445943 0 0 0 0.16 78 355 79 87 140 1415 228 890 
4042 -0.31471159615765304 0.07707692740603189 1.3559846628493972 0 0 0 0.51 78 356 99 816 140 1416 216 1039 228 891 
4043 -0.2991060328517301 0.07685312679758813 1.3513731353143015 0 0 0 0.44 78 357 79 88 99 817 140 1417 
4044 -0.16530507929845584 0.0843617127650336 1.3225355870557332 0 0 0 0.39 78 358 80 132 99 818 140 1418 233 816 
4045 -0.20995257376203422 0.09090424189727511 1.3199283888456772 0 0 0 0.37 78 359 80 133 233 817 
4046 -0.06632405913369506 0.08560448234582493 1.3127398748513235 0 0 0 0.26 78 360 80 134 99 819 140 1419 
4047 -0.022071682093914458 0.08505655952000221 1.3101680583464943 0 0 0 0.18 78 361 79 89 99 820 
4048 -0.2646245452553307 0.09772832890149757 1.3338489565838973 0 0 0 0.31 78 362 79 90 99 821 140 1420 177 1343 216 1040 228 892 
4049 -0.21030253828492396 0.09588996550750783 1.3186514485567344 0 0 0 0.32 78 363 99 822 140 1421 150 859 216 1041 233 818 
4050 -0.15979136988670803 0.09637812055139905 1.3199314606140746 0 0 0 0.21 78 364 80 135 99 823 140 1422 
4051 -0.0905148008177217 0.09374999568938042 1.3135856285861072 0 0 0 0.18 78 365 99 824 140 1423 
4052 -0.06666751825623113 0.09463834588309539 1.3107884621640777 0 0 0 0.23 78 366 79 91 80 136 99 825 
4053 -0.062217584532203794 0.09481764441433906 1.310671364767165 0 0 0 0.08 78 367 79 92 99 826 
4054 -0.016924900182706253 0.09461246124287288 1.3072407882550514 0 0 0 0.11 78 368 79 93 140 1424 
4055 0.004713285695456975 0.09419326799054184 1.3060128719175645 0 0 0 0.18 78 369 79 94 99 827 
4056 -0.11965184010362515 0.10149192741998786 1.3146649079517985 0 0 0 0.25 78 370 80 137 99 828 140 1425 
4057 -0.08621968731715848 0.10364793770549012 1.3129385927875534 0 0 0 0.36 78 371 79 95 80 138 99 829 106 2504 
4058 -0.06730546783276384 0.10315775461884709 1.3095486834682477 0 0 0 0.29 78 372 80 139 99 830 79 96 
4059 -0.21936052103993828 0.12123090015377135 1.3297761242492234 0 0 0 0.38 78 373 99 831 140 1426 177 1344 
4060 -0.2030509535767525 0.13156096023686717 1.3219463585894984 0 0 0 0.33 78 374 140 1427 216 1042 
4061 -0.2915500855500733 -0.17063123905739114 1.3781057404141044 0 0 0 0.29 78 375 106 2505 150 860 228 893 233 819 
4062 -0.2979694624803935 -0.16606473955443862 1.376092629037846 0 0 0 0.42 78 376 150 861 228 894 
4063 -0.30561954907404965 -0.16708014987499234 1.381081171104398 0 0 0 0.42 78 377 150 862 216 1043 
4064 -0.002849125926745741 -0.12770458737840854 1.3361501518052623 0 0 0 0.27 78 378 99 832 140 1428 
4065 -0.3234770883430365 -0.14301328029243002 1.384347687840416 0 0 0 0.51 78 379 79 97 99 833 228 895 
4066 -0.03207830143867844 -0.1176426480528034 1.3318962132342023 0 0 0 0.35 78 380 106 2506 150 863 
4067 -0.20443153259314698 -0.12091021452388738 1.346636612188669 0 0 0 0.16 78 381 143 602 216 1044 
4068 0.01115105188006174 -0.11299241597730847 1.3302288775797912 0 0 0 0.19 78 382 140 1429 150 864 
4069 -0.0017875071434610653 -0.1023225309234282 1.3275996422407823 0 0 0 0.36 78 383 79 98 150 865 
4070 -0.016704699290563476 -0.10154045809413574 1.3292909072968826 0 0 0 0.31 78 384 99 834 150 866 
4071 0.002694125210886324 -0.09955921301232495 1.3283128485432785 0 0 0 0.43 78 385 79 99 99 835 140 1430 150 867 191 548 
4072 0.008901897637921452 -0.09924016839870453 1.3276641770775275 0 0 0 0.11 78 386 79 100 140 1431 177 1345 
4073 -0.40170780872844497 -0.11864888356182834 1.4051806977962367 0 0 0 0.25 78 387 191 549 228 896 
4074 -0.03422815849005607 -0.09401805326078136 1.3320160949496511 0 0 0 0.25 78 388 99 836 140 1432 
4075 -0.42224667561832896 -0.10602217366848836 1.4113049944265537 0 0 0 0.36 78 389 150 868 228 897 233 820 
4076 -0.433783492363504 -0.09815877397079176 1.4132751694981014 0 0 0 0.14 78 390 119 554 144 762 150 869 189 555 212 554 
4077 -0.21357275016505187 -0.08057909155532997 1.3436120140783767 0 0 0 0.26 78 391 79 101 140 1433 150 870 
4078 -0.23049562739517357 -0.08047145325372253 1.3464390033314666 0 0 0 0.42 78 392 79 102 150 871 
4079 -0.24601786648643204 -0.08012404035070785 1.3484271267598016 0 0 0 0.32 78 393 79 103 150 872 228 898 
4080 -0.45814531813371623 -0.08987685882334602 1.4209324505203018 0 0 0 0.37 78 394 150 873 228 899 119 555 140 1434 144 763 189 556 191 550 233 821 30 611 57 941 125 610 137 549 151 836 174 177 212 555 216 1045 
4081 -0.06611740456244825 -0.07230224904314295 1.3307140675082818 0 0 0 0.14 78 395 106 2507 191 551 
4082 0.014965467995620698 -0.07056193167359168 1.3250313879181725 0 0 0 0.22 78 396 79 104 99 837 140 1435 
4083 -0.057378432178387284 -0.06146598665225114 1.3298891441688767 0 0 0 0.23 78 397 79 105 99 838 106 2508 
4084 -0.27110390291962283 -0.05848064971219335 1.349970937116423 0 0 0 0.25 78 398 99 839 119 556 140 1436 143 603 150 874 228 900 233 822 
4085 0.10825612816121649 -0.05188781363458185 1.3122155494223096 0 0 0 0.26 78 399 106 2509 150 875 
4086 -0.14051724182134712 -0.049143272732137096 1.3338712058125377 0 0 0 0.12 78 400 150 876 233 823 
4087 0.01125534796551901 -0.045614823754122284 1.324037291245584 0 0 0 0.23 78 401 140 1437 150 877 
4088 0.12051311402695286 -0.0345035566495501 1.3162216401590634 0 0 0 0.24 78 402 79 106 150 878 
4089 0.1325982592183591 -0.02749191591498169 1.3155161129573385 0 0 0 0.44 78 403 79 107 150 879 
4090 -0.3451856542141564 -0.028774059393115836 1.3787579436011714 0 0 0 0.35 78 404 79 108 228 901 
4091 -0.1408702071212639 -0.009008036288163606 1.3284090175247003 0 0 0 0.42 78 405 79 109 140 1438 233 824 
4092 0.11103361746614418 -0.009423074527261831 1.303462365344051 0 0 0 0.39 78 406 150 880 177 1346 
4093 -0.16045117379004917 -0.00608452993083544 1.330251807744804 0 0 0 0.13 78 407 79 110 80 140 99 840 140 1439 233 825 
4094 0.12892825439319602 -0.0057839346647538155 1.3082825595686876 0 0 0 0.58 78 408 79 111 106 2510 
4095 -0.0503718108078684 -0.0036277595224320502 1.3202850178822434 0 0 0 0.26 78 409 79 112 99 841 
4096 -0.170725421621718 0.0238796325090722 1.3286015816808883 0 0 0 0.4 78 410 79 113 80 141 99 842 140 1440 233 826 
4097 -0.13490018671318157 0.040019022959995786 1.3234802293489825 0 0 0 0.37 78 411 79 114 99 843 233 827 
4098 0.024657121651465233 0.03840289456147816 1.3102094637123056 0 0 0 0.13 78 412 99 844 140 1441 
4099 -0.017694353370186395 0.0416989021728456 1.313933625672955 0 0 0 0.11 78 413 79 115 99 845 140 1442 
4100 -0.039124922019024955 0.04519813346357619 1.3158338563755687 0 0 0 0.31 78 414 79 116 80 142 99 846 140 1443 
4101 0.001406950433709201 0.044711603313971005 1.3095789590361844 0 0 0 0.42 78 415 79 117 99 847 
4102 0.028468771432726202 0.044880763386997764 1.3117967442378455 0 0 0 0.11 78 416 79 118 99 848 
4103 -0.27571967842407474 0.061663905892888796 1.3417863364504832 0 0 0 0.4 78 417 99 849 177 1347 
4104 -0.3616520110695094 0.0640031864319522 1.3686062840768483 0 0 0 0.65 78 418 99 850 140 1444 216 1046 
4105 0.028541072227228573 0.053901492938483606 1.3096849036154279 0 0 0 0.23 78 419 79 119 99 851 
4106 -0.0629635947098026 0.058923338496700846 1.3163181809546036 0 0 0 0.36 68 851 78 420 79 120 80 143 
4107 -0.3805996200008928 0.07877858215235638 1.365027851797262 0 0 0 0.22 78 421 140 1445 228 902 233 828 
4108 -0.3304970000159618 0.07779091078753517 1.3591693970441436 0 0 0 0.21 78 422 140 1446 177 1348 
4109 -0.1656476121732712 0.0771558260847301 1.3230502551942298 0 0 0 0.39 78 423 80 144 99 852 140 1447 177 1349 233 829 
4110 0.02635047991781836 0.07383570033576016 1.307961774546473 0 0 0 0.25 78 424 79 121 106 2511 
4111 -0.35876035365437536 0.08965203769259114 1.3676427123586228 0 0 0 0.47 78 425 99 853 119 557 140 1448 150 881 216 1047 228 903 
4112 -0.26037652265311373 0.09454481456593825 1.3314710651088115 0 0 0 0.35 78 426 150 882 177 1350 228 904 
4113 -0.2331188906090817 0.09599234116133312 1.3213565444103545 0 0 0 0.25 57 942 72 1125 78 427 99 854 140 1449 143 604 177 1351 228 905 
4114 -0.19303536956057696 0.09656315723888821 1.3243170309649042 0 0 0 0.28 78 428 80 145 99 855 233 830 216 1048 
4115 -0.17551193156643655 0.09578999004334827 1.32141948308277 0 0 0 0.41 78 429 79 122 99 856 140 1450 150 883 216 1049 233 831 
4116 -0.04938063930673857 0.09296560129542318 1.3130596319250805 0 0 0 0.15 78 430 79 123 140 1451 
4117 0.014398117709106572 0.09657951846548142 1.3091976500876037 0 0 0 0.24 78 431 99 857 140 1452 
4118 -0.23152092540609145 0.10710085288224076 1.3187276222799154 0 0 0 0.24 78 432 150 884 228 906 
4119 -0.11508481401512538 0.10647357507989269 1.3133703593414026 0 0 0 0.34 78 433 80 146 99 858 140 1453 
4120 -0.16707397646344854 0.11116165953165791 1.3202470819007588 0 0 0 0.22 78 434 80 147 99 859 233 832 
4121 -0.4031766783406155 -0.151620955247947 1.412878666930382 0 0 0 0.28 78 435 99 860 119 558 228 907 216 1050 
4122 -0.40051051330202775 -0.14775560731292303 1.4165652789340344 0 0 0 0.49 78 436 99 861 119 559 191 552 216 1051 228 908 8 468 57 943 137 550 154 657 166 610 174 178 
4123 -0.19203306197920747 -0.12415839869366567 1.3511393857790657 0 0 0 0.42 78 437 144 764 216 1052 
4124 -0.18854610092053473 -0.0954967041983195 1.3416786654818 0 0 0 0.28 78 438 99 862 191 553 216 1053 
4125 -0.2755783041215017 -0.08461023835998374 1.3495652662398443 0 0 0 0.29 78 439 140 1454 150 885 
4126 -0.28924174417884135 -0.06583211798519227 1.3556428487587366 0 0 0 0.37 78 440 144 765 150 886 233 833 
4127 0.1658938053135767 -0.05703142689666793 1.3165705132934833 0 0 0 0.55 78 441 79 124 150 887 
4128 -0.3734862792038979 -0.0536470291370057 1.3847074806344906 0 0 0 0.45 78 442 99 863 150 888 191 554 228 909 233 834 
4129 -0.13573592484707023 -0.037115847094631824 1.3335787670978252 0 0 0 0.27 78 443 150 889 191 555 
4130 -0.06388858430447351 -0.028916991123176142 1.326010535229811 0 0 0 0.24 78 444 79 125 191 556 
4131 -0.23086229511502543 6.213149790415336e-05 1.3352182329110063 0 0 0 0.25 78 445 150 890 233 835 
4132 -0.15847959933172728 0.012497825788705735 1.331031887503507 0 0 0 0.26 78 446 79 126 191 557 
4133 0.014415320097389848 0.04094362477523515 1.3145132106151445 0 0 0 0.33 78 447 99 864 189 557 191 558 
4134 -0.3508335845083927 0.05382097725999271 1.3723397118044391 0 0 0 0.41 78 448 79 127 140 1455 228 910 
4135 -0.0006913345975872476 0.04852010098273197 1.315179535889296 0 0 0 0.31 78 449 99 865 189 558 191 559 
4136 -0.09788372736277862 0.054861747159653064 1.3161010011876917 0 0 0 0.38 78 450 80 148 99 866 
4137 -0.13848599326397568 0.08857683765274525 1.3181836897957333 0 0 0 0.23 78 451 80 149 99 867 140 1456 150 891 189 559 
4138 0.04440052547631549 0.08173970276841462 1.3042996261766335 0 0 0 0.36 78 452 79 128 106 2512 
4139 -0.3319326225421714 0.11634568517386187 1.3564548460670518 0 0 0 0.38 78 453 119 560 228 911 
4140 -0.3739314349694524 0.1228464403071364 1.371047529945258 0 0 0 0.15 78 454 191 560 216 1054 
4141 -0.03487691114906914 0.10594544178870291 1.3103216252464398 0 0 0 0.13 78 455 99 868 191 561 
4142 -0.00784442843342908 0.10571951787008127 1.3090983473568225 0 0 0 0.12 78 456 99 869 191 562 
4143 0.12411784504342474 -0.14142841039084064 1.3367124402373736 0 0 0 0.7 78 457 150 892 189 560 117 278 177 1352 
4144 -0.30503226513005804 -0.1587049791515727 1.3795417861314183 0 0 0 0.3 78 458 144 766 228 912 233 836 
4145 -0.00566408783108332 -0.13233099645969187 1.3350466302854065 0 0 0 0.69 78 459 79 129 99 870 
4146 0.01127642145324639 -0.11880332688592803 1.32888986047462 0 0 0 0.22 78 460 140 1457 150 893 189 561 
4147 0.006994272779606768 -0.10332118310613253 1.3265083067691992 0 0 0 0.39 78 461 79 130 150 894 
4148 -0.2849769258731378 -0.11320533549446374 1.362240295289469 0 0 0 0.55 59 648 78 462 150 895 168 405 202 590 
4149 -0.23889881631568333 -0.10300335919465799 1.3478216878302018 0 0 0 0.7 78 463 115 252 144 767 233 837 
4150 -0.23166670315925245 -0.09597092664746172 1.3428987011798503 0 0 0 0.41 31 1024 78 464 80 150 99 871 119 561 144 768 189 562 233 838 
4151 -0.11214384423891989 -0.029919263523544338 1.3294382914666472 0 0 0 0.26 78 465 189 563 191 563 
4152 -0.11716306660533841 -0.02371056326077896 1.3312643532815658 0 0 0 0.21 78 466 150 896 189 564 
4153 -0.21150066514082563 -0.011405707649985176 1.3332342388460952 0 0 0 0.54 78 467 140 1458 189 565 
4154 -0.37049763920098383 0.009107077027995538 1.3756035104918372 0 0 0 0.09 78 468 99 872 150 897 
4155 -0.025156576750078187 0.05381110766424053 1.3130039642099243 0 0 0 0.31 78 469 99 873 191 564 
4156 0.004047954416214791 0.08772270541536377 1.3065005906091454 0 0 0 0.15 78 470 140 1459 189 566 
4157 0.14212705917111454 0.1045925399114405 1.297757643464155 0 0 0 0.36 78 471 79 131 106 2513 150 898 
4158 -0.14170258672420716 -0.09193507209725958 1.3385054049366631 0 0 0 0.26 78 472 79 132 150 899 
4159 0.04364108939111023 -0.026360771849650792 1.3129910334803319 0 0 0 0.38 78 473 177 1353 189 567 
4160 0.09287965874650106 -0.005168942536849279 1.3133101690228297 0 0 0 0.29 78 474 106 2514 140 1460 168 406 
4161 -0.23516147991196007 0.012971645884733067 1.335556347606359 0 0 0 0.36 78 475 79 133 228 913 
4162 -0.20349374918128652 0.012705627036654451 1.3311027654913257 0 0 0 0.37 78 476 79 134 150 900 
4163 0.061444598745595276 0.013257702440139978 1.3106972216368995 0 0 0 0.15 78 477 140 1461 177 1354 
4164 -0.07485832885898315 0.07199765079656519 1.3143728859513755 0 0 0 0.24 78 478 80 151 99 874 189 568 191 565 
4165 -0.07577287359350275 0.08421576495590742 1.316941350481518 0 0 0 0.36 78 479 140 1462 177 1355 189 569 
4166 0.010146851851074262 0.08663934917412477 1.308806990932553 0 0 0 0.26 78 480 79 135 140 1463 
4167 0.14474099063935697 -0.10436772569274563 1.333400480928934 0 0 0 0.51 78 481 150 901 189 570 30 612 31 1025 57 944 177 1356 
4168 -0.12888287956424005 -0.10474490849175137 1.339355182759014 0 0 0 0.06 78 482 79 136 140 1464 
4169 0.15254594409385597 -0.06103617397989954 1.3127641602647853 0 0 0 0.51 78 483 79 137 150 902 
4170 -0.2565244737894824 -0.007208804492324674 1.2908797809904882 0 0 0 0.53 144 769 212 556 228 914 
4171 0.11186363829886464 0.0763966794490407 1.2990187763279597 0 0 0 0.11 78 484 177 1357 189 571 
4172 -0.3142445347367222 -0.06193875462789667 1.3673733544312852 0 0 0 0.77 78 485 99 875 144 770 
4173 0.019984184737811262 0.055477410015698676 1.3007600862431477 0 0 0 0.14 78 486 189 572 191 566 
4174 -0.32168649763874624 0.07833779392357552 1.3583147392223902 0 0 0 0.35 78 487 99 876 140 1465 
4175 -0.3031419205665832 -0.1362574828968089 1.3805211208190813 0 0 0 0.81 78 488 189 573 228 915 
4176 -0.058191097779099164 -0.006408658241762785 1.321441954577161 0 0 0 0.47 79 138 80 152 99 877 140 1466 
4177 -0.06419054282884257 0.04837080221043095 1.3166675369962701 0 0 0 0.3 79 139 80 153 140 1467 
4178 -0.1243205857678197 -0.13437607935267837 1.3404418716281332 0 0 0 0.46 79 140 99 878 140 1468 150 903 233 839 
4179 -0.20459718632843854 -0.06145674779047454 1.3419395732826576 0 0 0 0.18 78 489 99 879 233 840 
4180 -0.20126394111015117 -0.05960754938149186 1.3416703550273583 0 0 0 0.16 80 154 140 1469 233 841 
4181 -0.1685435865469504 -0.041705413216703006 1.335544157848149 0 0 0 0.32 78 490 79 141 80 155 99 880 233 842 
4182 -0.07309799815525346 -0.007694492433297051 1.320288575643459 0 0 0 0.23 80 156 99 881 140 1470 
4183 -0.13771871732293364 -0.0011241147813891975 1.3257094432574459 0 0 0 0.12 80 157 140 1471 233 843 
4184 -0.2405844798137686 0.01635030605836406 1.3362608373931415 0 0 0 0.22 99 882 140 1472 233 844 
4185 -0.19175646832463203 0.02438350595099743 1.3304810747033002 0 0 0 0.12 80 158 99 883 233 845 
4186 -0.20922791178262723 0.02520154119984351 1.3336343263658783 0 0 0 0.09 80 159 99 884 233 846 
4187 -0.16794929309969928 0.0319813169129939 1.3289795849700947 0 0 0 0.35 78 491 79 142 80 160 99 885 140 1473 150 904 233 847 
4188 -0.27786501444344164 0.06901034479713447 1.341498559749792 0 0 0 0.21 78 492 99 886 140 1474 228 916 
4189 -0.17826554069812173 0.09307294815503914 1.3192102128442071 0 0 0 0.36 80 161 99 887 233 848 
4190 0.0012007266340706899 0.09417106536827798 1.305472879254847 0 0 0 0.14 78 493 99 888 140 1475 
4191 -0.11010787939506007 0.10406601416359595 1.3184592388865743 0 0 0 0.29 80 162 99 889 140 1476 
4192 -0.16240094707234684 0.11257704325277726 1.315639475225685 0 0 0 0.47 80 163 99 890 233 849 
4193 -0.16754171155555325 0.11647251841874101 1.318037264053697 0 0 0 0.19 80 164 99 891 233 850 
4194 -0.4035374598360942 -0.14206130670669345 1.4045289950510813 0 0 0 0.52 78 494 79 143 140 1477 233 851 
4195 -0.36474460931708386 -0.11676486535461042 1.3952689075023514 0 0 0 0.05 99 892 140 1478 233 852 
4196 -0.220314579715575 -0.09036144427493434 1.3454552815657133 0 0 0 0.27 99 893 140 1479 233 853 
4197 -0.06616201904037952 -0.004069178993836835 1.3201429559384454 0 0 0 0.1 80 165 99 894 140 1480 
4198 -0.2337312441905437 0.024934517823647633 1.3376593530095207 0 0 0 0.09 80 166 99 895 233 854 
4199 -0.21594370563932316 0.05179071833503015 1.3346239927012848 0 0 0 0.09 80 167 99 896 233 855 
4200 -0.22839277594387858 0.05751854034829108 1.3371417504672412 0 0 0 0.23 80 168 99 897 233 856 
4201 -0.22852757317466543 0.06637697222876172 1.3371920465085727 0 0 0 0.17 99 898 106 2515 233 857 
4202 -0.20115791640608152 0.08654248134725595 1.3157596900401192 0 0 0 0.22 80 169 99 899 233 858 
4203 -0.13448532626970167 0.08674258998625871 1.3204397940479968 0 0 0 0.42 80 170 99 900 177 1358 
4204 0.010607011865068792 0.09256144529615831 1.3070685043421277 0 0 0 0.5 79 144 106 2516 140 1481 
4205 -0.19612178322296314 0.09642955290196242 1.3225732276829612 0 0 0 0.28 80 171 99 901 140 1482 233 859 
4206 -0.2728831498004353 0.09770821394325163 1.3321171197881143 0 0 0 0.15 99 902 140 1483 143 605 177 1359 
4207 -0.23244761526082924 0.1119353088008363 1.3243281746498061 0 0 0 0.35 78 495 99 903 140 1484 150 905 228 917 
4208 -0.43824768187737045 -0.11879636702605659 1.40979401733073 0 0 0 0.5 99 904 140 1485 233 860 
4209 -0.36443236280159785 -0.11050632447916357 1.3931114713704453 0 0 0 0.12 99 905 140 1486 150 906 
4210 -0.2783760183530443 -0.10158641777546354 1.3578171862268194 0 0 0 0.24 99 906 150 907 233 861 
4211 -0.46030715720675197 -0.07906523184906872 1.4231361050970375 0 0 0 0.12 140 1487 150 908 233 862 
4212 -0.3511938393783684 -0.06457087723077679 1.3795107795781612 0 0 0 0.24 99 907 150 909 233 863 
4213 -0.3504203189601314 -0.06036065049063913 1.377301075709265 0 0 0 0.1 99 908 150 910 233 864 
4214 -0.0754420977677795 0.05449673551888265 1.3114892613611915 0 0 0 0.29 80 172 99 909 189 574 191 567 
4215 -0.4281527217051696 0.058786465969220596 1.391720798771781 0 0 0 0.11 99 910 150 911 233 865 
4216 -0.134261018250804 0.07130220231394464 1.3180514552865972 0 0 0 0.26 80 173 99 911 177 1360 
4217 -0.24465428764522085 0.09410898776351655 1.322885856152494 0 0 0 0.57 78 496 99 912 140 1488 150 912 228 918 
4218 -0.23612084293570335 0.10400439932774827 1.3217495785822253 0 0 0 0.25 99 913 140 1489 150 913 
4219 -0.2900420623944151 0.11616916969468358 1.3468410072044315 0 0 0 0.2 150 914 177 1361 191 568 
4220 -0.23817822411258938 -0.1295043142015066 1.3488371828276287 0 0 0 0.2 99 914 140 1490 191 569 
4221 -0.4208192159133148 -0.1163011932216582 1.4028576214778816 0 0 0 0.32 99 915 140 1491 150 915 189 575 
4222 -0.39509488137989573 -0.10667332089377883 1.4018760099572989 0 0 0 0.36 99 916 150 916 189 576 233 866 
4223 -0.33450287891016134 -0.06795866602369974 1.3797979579716366 0 0 0 0.56 78 497 99 917 115 253 140 1492 144 771 228 919 233 867 
4224 -0.4226900440862437 0.016125491621965055 1.3982134334209948 0 0 0 0.09 99 918 150 917 233 868 
4225 -0.139154277041902 0.0434513797054377 1.3232909301117717 0 0 0 0.2 80 174 143 606 189 577 
4226 -0.1153612743393696 0.08716557890781665 1.316107280260689 0 0 0 0.3 80 175 99 919 191 570 
4227 -0.4009708594621598 -0.12887840269446252 1.3997530587488893 0 0 0 0.21 150 918 191 571 233 869 
4228 -0.41402219293260384 0.003922149023350375 1.3938544355450981 0 0 0 0.25 99 920 143 607 191 572 
4229 -0.4166292221666423 0.06474664038853793 1.3988120091608778 0 0 0 0.37 31 1026 59 649 72 1126 140 1493 143 608 168 407 173 1163 177 1362 178 448 193 988 216 1055 218 953 233 870 
4230 -0.1708194577150336 0.11384003022920108 1.3182921471644717 0 0 0 0.3 140 1494 143 609 191 573 
4231 -0.2687860009172724 0.11575201752231627 1.337468730886819 0 0 0 0.3 99 921 150 919 191 574 
4232 -0.24849420684343748 -0.03683116306484953 1.3480649085160346 0 0 0 0.3 99 922 177 1363 233 871 
4233 -0.2683733471800905 -0.020054694369297917 1.3492055081975605 0 0 0 0.18 140 1495 150 920 189 578 
4234 -0.44030342455414784 0.04019458881759564 1.3942848481070915 0 0 0 0.16 143 610 191 575 233 872 
4235 -0.259851286000318 0.1076821809826772 1.3391714115977555 0 0 0 0.4 99 923 140 1496 150 921 
4236 -0.22315810525137358 0.1079422880397 1.3239381244105852 0 0 0 0.44 30 613 78 498 140 1497 150 922 177 1364 
4237 -0.3393685559700771 0.12950599195030055 1.364241563378858 0 0 0 0.34 24 530 99 924 121 49 137 551 168 408 
4238 -0.4421780671485657 -0.08654508694612864 1.252527039741838 0 0 0 0.3 94 560 139 523 143 611 168 409 171 296 177 1365 211 479 218 954 226 729 
4239 -0.5739152734822764 -0.12971791150828452 0.7149885512523624 0 0 0 0.5 94 561 131 547 137 552 151 837 154 658 168 410 202 591 218 955 102 607 153 59 173 1164 178 449 212 557 228 920 
4240 -0.5579939023039173 -0.12396559389341738 0.7830782330141817 0 0 0 0.36 99 925 131 548 154 659 168 411 177 1366 215 611 218 956 
4241 -0.2337000796893282 -0.13540331606136236 1.3496463808862622 0 0 0 0.13 102 608 168 412 191 576 
4242 -0.5909835837526827 -0.15631036646077462 0.5931713664883843 0 0 0 1.01 102 609 115 254 168 413 173 1165 
4243 -0.6125326287663305 -0.14154872124118476 0.5519993016056177 0 0 0 0.36 102 610 153 60 168 414 212 558 
4244 -0.5940765780315905 -0.1405323151835291 0.6162397117920744 0 0 0 0.24 102 611 153 61 168 415 173 1166 178 450 180 846 
4245 -0.6109377915899681 -0.13301662660637215 0.5491460640442474 0 0 0 0.25 102 612 153 62 168 416 218 957 
4246 -0.5974330971260774 -0.04092680696069545 0.6120226563960771 0 0 0 0.41 102 613 131 549 143 612 166 611 168 417 173 1167 178 451 
4247 -0.5981578040640567 -0.17311208102847195 0.5644934420996188 0 0 0 0.2 102 614 131 550 168 418 173 1168 
4248 -0.4586078624614423 0.035360100758215336 1.1404906095425908 0 0 0 0.28 115 255 143 613 168 419 226 730 
4249 -0.5909614459960747 -0.042385097693230116 0.6443601594073856 0 0 0 0.27 116 846 125 611 143 614 168 420 178 452 226 731 
4250 -0.4752488909358048 -0.04046562194457751 0.9616601356941603 0 0 0 0.14 119 562 168 421 226 732 
4251 -0.4877974531382982 -0.08547394417921478 0.9548343860103203 0 0 0 0.2 121 50 133 194 168 422 
4252 -0.557001152343542 -0.15732413864710101 0.8438042650803305 0 0 0 0.22 131 551 168 423 173 1169 
4253 -0.5886784297539739 -0.09652617968438365 0.5825843810696817 0 0 0 0.23 131 552 168 424 226 733 
4254 -0.6025018247607369 -0.03621838273889711 0.5713305627757872 0 0 0 0.41 131 553 166 612 168 425 178 453 191 577 193 989 218 958 
4255 -0.5467682122710946 -0.08403833722346284 0.7553664479745048 0 0 0 0.15 131 554 168 426 173 1170 
