# 3D point list with one line of data per point:
#   POINT3D_ID, X, Y, Z, R, G, B, ERROR, TRACK[] as (IMAGE_ID, POINT2D_IDX)
# Number of points: 407, mean track length: 6.56
37 0.27689768002471754 0.30654076840707356 1.2093018639721287 0 0 0 0.7 1 37 111 28 172 15 209 37 
38 0.27709563725168357 0.3066385547721295 1.2101654450541488 0 0 0 0.75 1 38 172 16 209 38 
39 0.27974164938230905 0.37738250377196786 1.1804671692426552 0 0 0 0.53 1 39 21 16 53 17 92 5 209 39 219 10 232 16 
40 0.2513779429318129 0.4126891646223267 1.1817852226573342 0 0 0 0.37 1 40 21 17 209 40 221 10 
41 0.23222086297711228 0.3105857511372457 1.2352293742870264 0 0 0 0.66 1 41 21 18 25 11 65 19 71 19 73 13 77 8 103 12 113 10 114 8 118 17 127 6 128 12 164 14 190 11 209 41 217 18 221 11 224 12 232 17 
42 0.2675274794323622 0.39307951932965224 1.179792086377264 0 0 0 0.47 1 42 21 19 25 12 50 14 81 18 111 29 157 12 176 14 199 3 209 42 232 18 
43 0.26822478880881717 0.3944868924095974 1.1848575757567053 0 0 0 0.3 1 43 50 15 118 18 209 43 232 19 
44 0.27073600863366704 0.18470777612845202 1.2646652451934715 0 0 0 0.4 21 20 77 9 164 15 209 44 224 13 
45 0.27944494366404554 0.2241744762498913 1.2428789043084243 0 0 0 0.32 21 21 50 16 53 18 103 13 111 30 127 7 128 13 157 13 158 0 172 17 204 4 209 45 227 16 
46 0.18278837810697854 0.23104010578644746 1.2924712788110586 0 0 0 0.26 21 22 77 10 103 14 111 31 118 19 128 14 148 8 164 16 176 15 196 5 209 46 224 14 
47 0.3346852930047846 0.23881032622014797 1.2065782834838972 0 0 0 0.25 21 23 44 11 61 8 92 6 127 8 148 9 157 14 158 1 164 17 176 16 209 47 213 13 219 11 
48 0.3218227694455522 0.23968836442294303 1.2123492674401937 0 0 0 0.29 21 24 103 15 126 3 148 10 162 5 172 18 179 7 209 48 
49 0.3223103553732138 0.2418970627797803 1.2118634151916072 0 0 0 0.21 21 25 44 12 50 17 61 9 77 11 96 18 103 16 111 32 118 20 148 11 157 15 158 2 162 6 164 18 172 19 179 8 190 12 204 5 209 49 213 14 227 17 
50 0.3065624538509148 0.24355055788802835 1.2197111161078191 0 0 0 0.24 21 26 148 12 158 3 172 20 209 50 
51 0.30074557319261996 0.24463516867100685 1.2221341947538127 0 0 0 0.17 21 27 176 17 179 9 209 51 
52 0.3049946804828158 0.24582981390278139 1.2195009511390411 0 0 0 0.16 21 28 44 13 50 18 61 10 92 7 118 21 128 15 157 16 158 4 176 18 209 52 213 15 
53 0.27561154255953857 0.250333215549145 1.2330426396369598 0 0 0 0.37 21 29 92 8 179 10 209 53 219 12 
54 0.28419046436761164 0.2504835644866269 1.2269355973175262 0 0 0 0.23 21 30 172 21 196 6 209 54 
55 0.2686515633027338 0.25199989253797733 1.2362251609378088 0 0 0 0.19 21 31 44 14 148 13 176 19 209 55 
56 0.27757193644667416 0.2522071536279027 1.2319305358675927 0 0 0 0.26 21 32 44 15 50 19 114 9 157 17 162 7 179 11 204 6 209 56 213 16 219 13 
57 0.27403929555183953 0.25281745528210736 1.2332420029426983 0 0 0 0.23 21 33 44 16 50 20 77 12 92 9 118 22 127 9 128 16 148 14 157 18 164 19 176 20 196 7 209 57 213 17 224 15 
58 0.26868000820671945 0.25448830438934167 1.237563615417088 0 0 0 0.3 21 34 118 23 179 12 209 58 224 16 
59 0.25346729376545085 0.25574716263310215 1.2429594049716381 0 0 0 0.2 21 35 44 17 50 21 53 19 111 33 118 24 148 15 157 19 164 20 172 22 176 21 204 7 209 59 213 18 219 14 224 17 227 18 
60 0.2535512849899804 0.25576729459089576 1.2427729396504845 0 0 0 0.1 21 36 113 11 118 25 164 21 209 60 224 18 
61 0.25522843703815407 0.25755385410989573 1.2429201525217481 0 0 0 0.32 44 18 50 22 118 26 127 10 157 20 158 5 164 22 176 22 213 19 224 19 
62 0.031814379279214836 0.1636582000736437 0.7526015705683297 0 0 0 0.25 21 37 209 61 224 20 
63 0.22696638809141303 0.2620065174729378 1.2537429656046406 0 0 0 0.38 21 38 113 12 176 23 179 13 209 62 
64 0.1879636125719573 0.2625192775250772 1.275536313809067 0 0 0 0.15 21 39 44 19 77 13 164 23 209 63 224 21 
65 0.22788529336816585 0.26415985116604357 1.2538105889431355 0 0 0 0.42 21 40 209 64 219 15 
66 0.20333411682742378 0.2690560455398591 1.2667341931517635 0 0 0 0.28 21 41 44 20 92 10 176 24 179 14 209 65 
67 0.2957777693590802 0.2705275468265127 1.2200572206969702 0 0 0 0.18 21 42 44 21 164 24 209 66 
68 0.1992052952210446 0.2700239391035089 1.2686103397651207 0 0 0 0.36 21 43 44 22 53 20 71 20 77 14 103 17 113 13 118 27 128 17 148 16 164 25 172 23 196 8 209 67 224 22 
69 0.17699620354216308 0.27532339681038376 1.277611798618385 0 0 0 0.07 21 44 148 17 209 68 
70 0.18334383315916555 0.27799144514332874 1.276480838383284 0 0 0 0.18 21 45 44 23 164 26 209 69 
71 0.1813878099919608 0.28517868591885687 1.2709271473614832 0 0 0 0.29 21 46 164 27 209 70 
72 0.1993303008555183 0.2856651454131231 1.2613869683372698 0 0 0 0.33 21 47 44 24 148 18 209 71 
73 0.1995186143122088 0.2855481993128981 1.2609481523115569 0 0 0 0.41 21 48 127 11 148 19 209 72 
74 0.2369319880475593 0.29740717785255405 1.2396531656813756 0 0 0 0.12 21 49 44 25 209 73 
75 0.27218987222274743 0.2969822256826299 1.2199168548671928 0 0 0 0.17 21 50 50 23 61 11 209 74 
76 0.30949899545285675 0.2990871233410049 1.19912503691947 0 0 0 0.21 21 51 50 24 61 12 157 21 209 75 213 20 
77 0.2976256758254834 0.3006562175341924 1.2053839881403279 0 0 0 0.07 21 52 50 25 61 13 209 76 224 23 
78 0.3028119470504668 0.3007467509382593 1.202513109932579 0 0 0 0.25 21 53 44 26 61 14 128 18 148 20 164 28 209 77 
79 0.20104728256294596 0.3071895225296565 1.252846568390708 0 0 0 0.22 21 54 209 78 221 12 
80 0.29686851620917615 0.3053023861992477 1.2044356889398822 0 0 0 0.22 21 55 50 26 53 21 61 15 77 15 96 19 126 4 128 19 148 21 162 8 164 29 172 24 190 13 196 9 209 79 213 21 227 19 232 20 
81 0.29751059420253506 0.3091323432388446 1.2019959620192016 0 0 0 0.34 21 56 44 27 148 22 164 30 209 80 
82 0.2676436257958274 0.3137877662378086 1.2172250350141571 0 0 0 0.28 21 57 164 31 209 81 224 24 
83 0.22881946458494792 0.3238806411991961 1.2295627855910913 0 0 0 0.27 21 58 61 16 77 16 118 28 128 20 164 32 209 82 213 22 
84 0.22731393298160346 0.33133240360488914 1.226941442464501 0 0 0 0.24 21 59 61 17 209 83 213 23 
85 0.22279062188695725 0.3312677278730116 1.2255911881243564 0 0 0 0.19 21 60 176 25 209 84 
86 0.19698611517065306 0.33690976553199237 1.2426047878557438 0 0 0 0.2 21 61 114 10 209 85 
87 0.29338946155912216 0.3495719491485599 1.1808952877089305 0 0 0 0.29 21 62 44 28 77 17 148 23 209 86 
88 0.27942288325727155 0.3576769427277458 1.1912421740402122 0 0 0 0.2 21 63 44 29 50 27 61 18 77 18 113 14 118 29 128 21 148 24 157 22 164 33 172 25 176 26 204 8 209 87 213 24 219 16 224 25 
89 0.2783225674391384 0.3601117738584643 1.191056887565827 0 0 0 0.23 21 64 50 28 61 19 128 22 148 25 157 23 164 34 176 27 209 88 213 25 219 17 
90 0.3183814377180241 0.3572643939590068 1.1645891870477851 0 0 0 0.14 21 65 209 89 219 18 
91 0.27275740893347467 0.36673832108231735 1.18858554150432 0 0 0 0.07 21 66 172 26 209 90 
92 0.23738390980375662 0.3761200591257755 1.2024004991272665 0 0 0 0.3 21 67 172 27 209 91 224 26 
93 0.22396010980794065 0.3804977048204446 1.2098778273893342 0 0 0 0.25 21 68 113 15 172 28 209 92 
94 0.22973829608797902 0.38012077309193243 1.2043756592577775 0 0 0 0.4 21 69 43 15 209 93 
95 0.30003997005311966 0.3978564308723587 1.1575824780169222 0 0 0 0.02 21 70 50 29 209 94 
96 0.2899268325091912 0.40136936780623395 1.1638316084170486 0 0 0 0.18 21 71 44 30 209 95 
97 0.26034447064207544 0.40884629071614725 1.1778786284762648 0 0 0 0.18 21 72 44 31 209 96 224 27 
98 0.02655325322844756 0.07370127962692276 0.7878269234602452 0 0 0 0.35 21 73 209 97 224 28 
99 0.028028940053322324 0.07487984920422883 0.790772560151545 0 0 0 0.2 21 74 209 98 224 29 
100 0.026908957564198952 0.0754270840954614 0.7892003086703704 0 0 0 0.37 21 75 209 99 224 30 
101 0.3415738785735406 0.23538241977643012 1.203966490701051 0 0 0 0.18 21 76 172 29 209 100 
102 0.32707418567436936 0.23589951415701035 1.2120884926700457 0 0 0 0.3 21 77 111 34 162 9 172 30 209 101 
103 0.05799604591466406 0.16432383673457554 0.827412779414106 0 0 0 0.09 21 78 209 102 224 31 
104 0.17627077305175753 0.24046047758599162 1.2931730429280683 0 0 0 0.18 21 79 148 26 164 35 209 103 
105 0.18809537423371087 0.23958823627754464 1.283959744037898 0 0 0 0.37 21 80 25 13 71 21 77 19 92 11 96 20 127 12 209 104 217 19 232 21 
106 0.1856405486103398 0.24298350025863877 1.2851161274622072 0 0 0 0.25 21 81 43 16 65 20 96 21 103 18 111 35 114 11 118 30 148 27 164 36 209 105 217 20 232 22 
107 0.2764472742047945 0.24788182688992946 1.2346438366004482 0 0 0 0.28 21 82 111 36 172 31 209 106 
108 0.25377361090191614 0.2494681897052482 1.2446973066865221 0 0 0 0.37 21 83 113 16 172 32 209 107 
109 0.26335347718624097 0.25094285455386683 1.2413399337432716 0 0 0 0.29 21 84 96 22 111 37 113 17 114 12 172 33 190 14 209 108 
110 0.24876121872399673 0.25405535195098167 1.246640371807424 0 0 0 0.29 21 85 111 38 114 13 148 28 157 24 172 34 209 109 
111 0.031885986535356285 0.1616172509844659 0.7531536532932418 0 0 0 0.3 21 86 209 110 224 32 
112 0.22659152314766606 0.25942046003812286 1.2561947144088739 0 0 0 0.24 21 87 111 39 172 35 209 111 
113 0.2356581998721693 0.26181152501665644 1.2491247734878248 0 0 0 0.41 21 88 53 22 77 20 96 23 103 19 111 40 113 18 114 14 126 5 157 25 164 37 179 15 209 112 213 26 217 21 227 20 
114 0.2355885286451253 0.2619031855476773 1.2497223134241568 0 0 0 0.39 21 89 103 20 111 41 113 19 164 38 179 16 209 113 217 22 219 19 
115 0.18004659903452558 0.26272372777528363 1.2798587435085245 0 0 0 0.3 21 90 44 32 92 12 164 39 209 114 
116 0.2297714030757979 0.26638251337912333 1.2516843218503197 0 0 0 0.66 21 91 25 14 44 33 77 21 126 6 148 29 164 40 176 28 209 115 213 27 224 33 
117 0.2333380122580973 0.26808900941056074 1.248420145000353 0 0 0 0.28 21 92 44 34 77 22 103 21 111 42 118 31 126 7 148 30 164 41 209 116 
118 0.1847816407307289 0.26875815811088927 1.2751102947589494 0 0 0 0.43 21 93 103 22 113 20 164 42 209 117 
119 0.17789740532302334 0.27059273165128955 1.2793337275468344 0 0 0 0.22 21 94 44 35 111 43 209 118 
120 0.19972669363242462 0.2726428436808907 1.2681885463538267 0 0 0 0.27 21 95 44 36 96 24 111 44 128 23 157 26 172 36 176 29 179 17 209 119 224 34 227 21 
121 0.19979011781547512 0.2725770312662443 1.2678884929560326 0 0 0 0.21 21 96 96 25 111 45 179 18 209 120 219 20 224 35 227 22 
122 0.19931076750026913 0.2773793867146032 1.267307410550018 0 0 0 0.28 21 97 111 46 209 121 
123 0.20537431504795917 0.2796049137845451 1.2642835372011765 0 0 0 0.26 21 98 103 23 111 47 127 13 128 24 157 27 176 30 209 122 232 23 
124 0.18416445133562137 0.281680778472915 1.2732314337217765 0 0 0 0.17 21 99 25 15 44 37 71 22 164 43 209 123 
125 0.18025383656085034 0.2895978526772293 1.2680512400854065 0 0 0 0.18 21 100 44 38 164 44 209 124 
126 0.23829453644272036 0.31428222412277157 1.2309134315279315 0 0 0 0.24 21 101 77 23 111 48 118 32 128 25 148 31 164 45 196 10 209 125 213 28 224 36 
127 0.2739352221478341 0.3541447154792143 1.1969954449577722 0 0 0 0.07 21 102 172 37 209 126 
128 0.27144396574584856 0.3560176406100585 1.1955774903959744 0 0 0 0.24 21 103 50 30 172 38 209 127 
129 0.26561797846955865 0.35789141942297337 1.1927418677043682 0 0 0 0.15 21 104 111 49 209 128 
130 0.2413826371025437 0.3769640388689233 1.2026230449269004 0 0 0 0.2 21 105 96 26 209 129 224 37 227 23 
131 0.23964561564603964 0.3822599791230601 1.1991154547244154 0 0 0 0.24 21 106 71 23 111 50 118 33 204 9 209 130 224 38 227 24 232 24 
132 0.22781331483719156 0.3914456328256944 1.2019941474355116 0 0 0 0.27 21 107 43 17 53 23 71 24 111 51 118 34 148 32 209 131 224 39 
133 0.2533647546312454 0.3936095034432573 1.18958735446835 0 0 0 0.36 21 108 61 20 113 21 157 28 209 132 
134 0.24542279447878948 0.3964678101425887 1.1943561360660047 0 0 0 0.36 21 109 25 16 61 21 111 52 118 35 148 33 157 29 172 39 209 133 227 25 
135 0.22527306868019314 0.4044483476426704 1.2000914168445735 0 0 0 0.29 21 110 111 53 113 22 114 15 148 34 209 134 224 40 
136 0.2251519462600888 0.4180646334310235 1.1947931604431272 0 0 0 0.17 21 111 111 54 209 135 217 23 
137 0.23033700554847164 0.4313890412080778 1.185216862919783 0 0 0 0.39 21 112 44 39 164 46 209 136 
138 0.021067274133999708 0.07611065775754385 0.768784269565193 0 0 0 0.23 21 113 209 137 224 41 
139 0.3222164116724787 0.2476032799193419 1.2080189945059805 0 0 0 0.26 21 114 111 55 209 138 
140 0.2032521636321963 0.25885402237598093 1.2736077943461863 0 0 0 0.29 21 115 53 24 96 27 111 56 114 16 176 31 209 139 219 21 227 26 
141 0.1838950912707294 0.2735698410589294 1.2764880543535275 0 0 0 0.14 21 116 25 17 44 40 71 25 111 57 126 8 148 35 209 140 
142 0.21996674628614432 0.2851756654568015 1.2479169059370017 0 0 0 0.3 21 117 111 58 209 141 232 25 
143 0.09643002541719191 0.24097626846146036 0.8977573455908849 0 0 0 0.3 21 118 209 142 224 42 
144 0.22194941569832347 0.3295957743085518 1.2314425451463662 0 0 0 0.36 21 119 73 14 113 23 114 17 126 9 162 10 172 40 176 32 209 143 219 22 
145 0.31809142567619136 0.34135492998932837 1.1733198977496384 0 0 0 0.19 21 120 61 22 209 144 
146 0.2791905454800883 0.3527579711932876 1.1934360309109515 0 0 0 0.23 21 121 50 31 61 23 111 59 172 41 204 10 209 145 217 24 
147 0.2952841442329015 0.35811431543514105 1.17776703982082 0 0 0 0.19 21 122 111 60 209 146 227 27 
148 0.26597404245528006 0.36564819129713766 1.192502915463244 0 0 0 0.07 21 123 111 61 209 147 
149 0.2952575448045195 0.3764000081055692 1.1718484460339829 0 0 0 0.26 21 124 50 32 53 25 77 24 111 62 164 47 172 42 209 148 213 29 
150 0.0841692764369875 0.2731806441155557 0.843743302854899 0 0 0 0.07 21 125 73 15 209 149 
151 0.27400589030540895 0.38962597313470776 1.1802464436491418 0 0 0 0.24 21 126 111 63 162 11 209 150 224 43 
152 0.25346726665061353 0.40386172808365656 1.1860045984872911 0 0 0 0.43 21 127 73 16 77 25 81 19 92 13 111 64 164 48 176 33 204 11 209 151 217 25 
153 0.22774681937206148 0.4199234784404887 1.1919490142023057 0 0 0 0.2 21 128 73 17 111 65 164 49 209 152 
154 0.2311301858138671 0.4333096568848606 1.1793879482749963 0 0 0 0.36 21 129 92 14 164 50 209 153 
155 0.053033638415626576 0.08431373430004113 0.86200326301863 0 0 0 0.45 21 130 25 18 73 18 81 20 209 154 221 13 
156 0.2798942728139578 0.2585755037686168 1.228109106615699 0 0 0 0.29 21 131 114 18 179 19 209 155 
157 0.1649611070841501 0.2503311289513978 1.1386122261274212 0 0 0 0.4 21 132 164 51 209 156 
158 0.22292097761477195 0.27854245253012444 1.2516276084499764 0 0 0 0.34 21 133 65 21 81 21 103 24 111 66 113 24 118 36 127 14 157 30 162 12 164 52 172 43 176 34 179 20 209 157 221 14 232 26 
159 0.2229776869444569 0.27903473918853194 1.2525332603189716 0 0 0 0.34 21 134 92 15 111 67 209 158 
160 0.24093536475975832 0.31745093539823355 1.229425067026542 0 0 0 0.18 21 135 25 19 77 26 128 26 179 21 209 159 213 30 217 26 224 44 
161 0.22608466840774546 0.34164695919301785 1.2257216014447418 0 0 0 0.31 21 136 43 18 73 19 77 27 96 28 111 68 113 25 172 44 190 15 209 160 227 28 
162 0.31373843352886727 0.38014637355861514 1.16224075828182 0 0 0 0.22 21 137 190 16 209 161 
163 0.2867897216399497 0.39869702040261085 1.1676258015382355 0 0 0 0.46 21 138 50 33 111 69 157 31 209 162 217 27 224 45 
164 0.0646389099008389 0.171155363206725 0.8469998446689723 0 0 0 0.35 21 139 71 26 73 20 209 163 221 15 224 46 
165 0.18648624624651852 0.2522820821999138 1.2823943469758075 0 0 0 0.26 21 140 43 19 44 41 71 27 73 21 77 28 81 22 92 16 198 4 199 4 209 164 
166 0.1865571100011318 0.2522631301388056 1.2817028101479968 0 0 0 0.26 21 141 44 42 71 28 73 22 81 23 92 17 111 70 126 10 148 36 164 53 209 165 224 47 
167 0.2715461191954282 0.2558835435109595 1.2333006876996797 0 0 0 0.49 21 142 73 23 81 24 96 29 114 19 148 37 158 6 162 13 204 12 209 166 219 23 
168 0.20205399642722305 0.3095045575934756 1.251277702722222 0 0 0 0.36 21 143 71 29 113 26 114 20 209 167 
169 0.23676560989175258 0.32038692323986545 1.2289200264026579 0 0 0 0.22 21 144 44 43 50 34 65 22 71 30 73 24 77 29 81 25 114 21 128 27 148 38 162 14 164 54 176 35 199 5 204 13 209 168 217 28 219 24 
170 0.27608971495891643 0.36818392690160695 1.187134245457442 0 0 0 0.29 21 145 111 71 209 169 227 29 
171 0.18695518977372522 0.22775291335496384 1.2941542942796835 0 0 0 0.35 21 146 25 20 43 20 71 31 73 25 77 30 81 26 92 18 96 30 103 25 111 72 114 22 126 11 127 15 148 39 164 55 196 11 198 5 199 6 209 170 224 48 
172 0.18695041581204458 0.22777074651513768 1.2942888772849996 0 0 0 0.35 21 147 44 44 71 32 73 26 77 31 81 27 96 31 103 26 111 73 114 23 126 12 127 16 148 40 164 56 196 12 198 6 199 7 209 171 224 49 
173 0.33028177873303194 0.2412661954576769 1.2077660320186663 0 0 0 0.17 21 148 44 45 53 26 77 32 128 28 162 15 209 172 213 31 
174 0.29722760604029463 0.2551527223520903 1.2226455785404768 0 0 0 0.26 21 149 71 33 81 28 114 24 162 16 209 173 227 30 
175 0.26788443086042923 0.2617572637146934 1.2342334532710637 0 0 0 0.38 21 150 81 29 114 25 158 7 179 22 209 174 213 32 219 25 227 31 
176 0.24767458937090048 0.26668480256965 1.2447277932869496 0 0 0 0.33 21 151 111 74 114 26 164 57 176 36 198 7 209 175 217 29 224 50 
177 0.23824866941954267 0.2685137110312813 1.2469977443584288 0 0 0 0.41 21 152 73 27 103 27 111 75 114 27 118 37 128 29 164 58 204 14 209 176 213 33 219 26 
178 0.18704514197741484 0.27124269933936 1.276069860284233 0 0 0 0.56 21 153 71 34 81 30 111 76 164 59 209 177 
179 0.16445921996528903 0.29604471128015913 1.1096905896988962 0 0 0 0.08 21 154 111 77 209 178 
180 0.2030320761131439 0.33235323225479557 1.2416835718853199 0 0 0 0.41 21 155 96 32 103 28 114 28 176 37 198 8 199 8 209 179 
181 0.20291967165110958 0.33280637234098354 1.2424194335748284 0 0 0 0.27 21 156 96 33 103 29 126 13 198 9 209 180 
182 0.2755382899449769 0.4024152750403581 1.171789452081298 0 0 0 0.39 21 157 111 78 176 38 209 181 
183 0.3192920327399753 0.23366482107551104 1.2161691105734456 0 0 0 0.4 21 158 162 17 209 182 
184 0.13382846367629814 0.28694793537122426 1.016801077382249 0 0 0 0.48 21 159 199 9 209 183 
185 0.08199080584130496 0.272532684122725 0.8392411136052215 0 0 0 0.16 21 160 73 28 209 184 
186 0.3027949358371431 0.3861935992941014 1.1667500478443165 0 0 0 0.52 21 161 44 46 77 33 111 79 162 18 209 185 217 30 232 27 
187 0.28538191283356146 0.2233781097265065 1.2432405492966594 0 0 0 0.47 21 162 81 31 111 80 179 23 209 186 
188 0.25935123848815 0.22720741556993032 1.2516284847165309 0 0 0 0.28 21 163 162 19 172 45 209 187 
189 0.11306126596067594 0.23111455841428183 0.9817954252378343 0 0 0 0.27 21 164 71 35 73 29 103 30 198 10 199 10 209 188 
190 0.24817360614264036 0.398000959798412 1.1852819582702852 0 0 0 0.33 21 165 111 81 209 189 217 31 
191 0.2720900871235679 0.22573748632148638 1.247767540159643 0 0 0 0.23 21 166 103 31 111 82 172 46 179 24 209 190 
192 0.2319557739529467 0.2905489001573924 1.24257436613701 0 0 0 0.57 21 167 77 34 103 32 176 39 209 191 
193 0.21168911394454268 0.2392117054599072 1.2712939494710185 0 0 0 0.15 21 168 103 33 209 192 
194 0.23844650080015684 0.40095527511214696 1.1934696236808608 0 0 0 0.46 21 169 65 23 81 32 111 83 118 38 209 193 232 28 
195 0.2000808641904603 0.23885296001758455 1.2845252396803897 0 0 0 0.24 25 21 53 27 71 36 81 33 114 29 118 39 157 32 179 25 209 194 217 32 219 27 227 32 
196 0.27024336523752873 0.24924293871061712 1.2367388698948585 0 0 0 0.28 25 22 44 47 111 84 157 33 158 8 172 47 179 26 190 17 209 195 
197 0.25513445980480826 0.30581944828691593 1.2223554901699787 0 0 0 0.35 25 23 50 35 71 37 92 19 113 27 114 30 118 40 126 14 176 40 204 15 209 196 213 34 219 28 232 29 
198 0.20089539290546346 0.32640040224111844 1.2482979807925672 0 0 0 0.3 25 24 113 28 209 197 
199 0.22940777355049377 0.3296142225152342 1.2273462695188366 0 0 0 0.43 25 25 61 24 111 85 172 48 209 198 227 33 
200 0.20033889398723928 0.3514069665266078 1.232866642493368 0 0 0 0.29 25 26 44 48 77 35 164 60 209 199 224 51 
201 0.20830014755664844 0.3928332575042616 1.2157135096424951 0 0 0 0.2 25 27 53 28 61 25 71 38 73 30 77 36 96 34 111 86 118 41 148 41 209 200 232 30 
202 0.2082531678043081 0.3929589296398137 1.2156767264827086 0 0 0 0.26 25 28 43 21 44 49 53 29 71 39 73 31 77 37 96 35 111 87 118 42 148 42 162 20 190 18 209 201 232 31 
203 0.260522508172409 0.40362906018014644 1.179312319629207 0 0 0 0.25 25 29 50 36 73 32 111 88 162 21 164 61 172 49 204 16 209 202 227 34 232 32 
204 0.18160141364447954 0.24101378282851654 1.288534840950634 0 0 0 0.24 25 30 71 40 73 33 96 36 111 89 114 31 164 62 209 203 
205 0.19383974170566698 0.2732265596874605 1.2690341782860641 0 0 0 0.33 25 31 44 50 71 41 77 38 103 34 111 90 126 15 148 43 164 63 176 41 196 13 209 204 221 16 224 52 232 33 
206 0.13120653037791113 0.24868014087156817 1.0289091041297531 0 0 0 0.56 25 32 73 34 103 35 199 11 209 205 224 53 
207 0.1978813717672684 0.2424617883716585 1.281336148818616 0 0 0 0.3 25 33 53 30 71 42 73 35 111 91 128 30 164 64 179 27 209 206 217 33 
208 0.12727895734550787 0.24645780539068393 1.0236318607032693 0 0 0 0.46 25 34 71 43 73 36 103 36 126 16 198 11 199 12 209 207 
209 0.22973022759071665 0.31943732442923634 1.2314325453655899 0 0 0 0.29 25 35 61 26 114 32 190 19 198 12 209 208 221 17 232 34 
210 0.12975174433477382 0.2812190276079294 1.0052743971517952 0 0 0 0.61 25 36 73 37 198 13 199 13 209 209 224 54 
211 0.15449276518316024 0.34141861865460027 1.0623448318134088 0 0 0 0.3 25 37 73 38 198 14 199 14 209 210 
212 0.27034727733269903 0.4106825566629418 1.170212550929377 0 0 0 0.28 25 38 50 37 209 211 213 35 
213 0.20840643154147853 0.2962327156484909 1.252181726489649 0 0 0 0.42 25 39 43 22 50 38 53 31 71 44 73 39 81 34 92 20 96 37 111 92 113 29 118 43 148 44 164 65 176 42 196 14 198 15 199 15 209 212 219 29 221 18 224 55 232 35 
214 0.25007176739980647 0.33193292235261895 1.2737390776259048 0 0 0 0.92 25 40 65 24 71 45 113 30 209 213 217 34 
215 0.25007176739980647 0.33193292235261895 1.2737390776259048 0 0 0 0.92 25 41 65 25 71 46 113 31 209 214 217 35 
216 0.31739820667078567 0.26179898715806643 1.207016918109993 0 0 0 0.14 148 45 157 34 209 215 
217 0.2341397002349705 0.27921450988315005 1.2471194578795082 0 0 0 0.16 77 39 164 66 209 216 
218 0.2578842905704709 0.30560351119948054 1.2207187862228046 0 0 0 0.16 50 39 61 27 164 67 209 217 213 36 
219 0.2019357320766159 0.35401393018214183 1.2325010075825724 0 0 0 0.17 77 40 148 46 209 218 224 56 
220 0.2910139564798499 0.3719076645812354 1.1769667736552625 0 0 0 0.17 44 51 176 43 209 219 
221 0.31734885718167016 0.202983740422515 1.232895268792316 0 0 0 0.42 92 21 164 68 176 44 209 220 
222 0.19711220483133501 0.2361614267683168 1.2854586879915895 0 0 0 0.18 53 32 61 28 96 38 103 37 118 44 128 31 157 35 176 45 179 28 209 221 227 35 232 36 
223 0.18371402829764047 0.2578731130778627 1.2809179831859534 0 0 0 0.2 44 52 77 41 103 38 111 93 114 33 164 69 209 222 224 57 
224 0.18688517354329234 0.2603642635891516 1.2768704092707535 0 0 0 0.24 92 22 103 39 209 223 221 19 
225 0.2718551877432405 0.251496467091337 1.2349172516810025 0 0 0 0.19 44 53 50 40 53 33 77 42 92 23 128 32 164 70 172 50 176 46 179 29 204 17 209 224 213 37 219 30 224 58 227 36 
226 0.2164674577088708 0.2780668779009181 1.257586300623654 0 0 0 0.31 77 43 92 24 111 94 127 17 164 71 172 51 176 47 209 225 224 59 
227 0.2562755244905278 0.27725790853959426 1.2310861195794873 0 0 0 0.29 111 95 176 48 209 226 
228 0.28348486450293214 0.29441815518199416 1.2162222462239736 0 0 0 0.18 127 18 209 227 213 38 
229 0.2006796624134276 0.34279429493400165 1.2350138863374396 0 0 0 0.25 164 72 209 228 224 60 
230 0.29035174812319103 0.3507925162797695 1.1828272685285754 0 0 0 0.15 118 45 209 229 213 39 
231 0.2794239889195142 0.3576909355203092 1.1914239579994557 0 0 0 0.16 44 54 50 41 77 44 113 32 118 46 148 47 157 36 164 73 172 52 204 18 209 230 213 40 
232 0.22935007168563476 0.23006705569084496 1.2671416412867342 0 0 0 0.21 77 45 127 19 209 231 
233 0.21830675938079303 0.24948928934198067 1.2614762218445716 0 0 0 0.3 71 47 111 96 114 34 209 232 217 36 
234 0.205528614256857 0.29617702270380036 1.2564473331189694 0 0 0 0.27 44 55 77 46 111 97 118 47 148 48 164 74 172 53 196 15 209 233 221 20 224 61 
235 0.202473443068424 0.392853077839088 1.2133244910049512 0 0 0 0.4 111 98 209 234 224 62 
236 0.23162613512369054 0.22792912379309963 1.277197026174283 0 0 0 0.6 71 48 73 40 77 47 114 35 127 20 164 75 209 235 224 63 
237 0.25045818837233913 0.26525821195579813 1.240238884875202 0 0 0 0.16 50 42 73 41 114 36 157 37 209 236 
238 0.2243355105179268 0.27465825098145197 1.2531887378274649 0 0 0 0.47 44 56 71 49 73 42 77 48 209 237 224 64 227 37 
239 0.2658765657045912 0.22775481129120725 1.252529049772094 0 0 0 0.36 50 43 71 50 73 43 81 35 209 238 217 37 227 38 
240 0.19689412806533207 0.30508163441101604 1.2502340626465105 0 0 0 0.28 113 33 198 16 209 239 
241 0.3065503736136285 0.3015223431454056 1.1997539332759033 0 0 0 0.29 50 44 53 34 71 51 92 25 96 39 111 99 113 34 118 48 128 33 148 49 157 38 164 76 176 49 179 30 190 20 209 240 217 38 227 39 232 37 
242 0.23692777339006807 0.22703032301024634 1.2839731280165476 0 0 0 0.66 73 44 77 49 103 40 111 100 114 37 199 16 209 241 
243 0.26783791835986376 0.3769371953050415 1.1842745391019818 0 0 0 0.25 50 45 61 29 81 36 103 41 111 101 209 242 213 41 227 40 
244 0.21530643644832653 0.3964380915807269 1.2084942492948652 0 0 0 0.52 50 46 81 37 111 102 118 49 162 22 199 17 209 243 221 21 
245 0.20354005474648465 0.2475450130406895 1.280343369311569 0 0 0 0.24 53 35 65 26 71 52 73 45 81 38 111 103 114 38 118 50 128 34 172 54 176 50 179 31 209 244 217 39 219 31 232 38 
246 0.2035517945460311 0.24756854837815787 1.280645695300438 0 0 0 0.26 65 27 71 53 73 46 103 42 111 104 114 39 118 51 128 35 172 55 179 32 209 245 217 40 
247 0.24836816472066328 0.40009525998327566 1.1903585364019558 0 0 0 0.58 43 23 111 105 118 52 128 36 209 246 217 41 224 65 
248 0.25035572455536 0.3852474524625311 1.1958036453395693 0 0 0 0.51 50 47 53 36 65 28 92 26 96 40 103 43 111 106 148 50 164 77 176 51 209 247 217 42 
249 0.2379884296001508 0.21491918927352377 1.2919007755663219 0 0 0 0.49 43 24 71 54 77 50 81 39 103 44 111 107 114 40 164 78 209 248 224 66 
250 0.3192382728370986 0.20948994863237877 1.2269544852605183 0 0 0 0.22 43 25 71 55 111 108 179 33 209 249 219 32 
251 0.1982772207260385 0.25558775007764745 1.2791575145156082 0 0 0 0.3 43 26 53 37 71 56 111 109 128 37 209 250 
252 0.19265503843791626 0.2608519341747605 1.274404982407731 0 0 0 0.34 43 27 50 48 73 47 103 45 111 110 148 51 164 79 196 16 209 251 224 67 
253 0.19465724648922914 0.28657811656610654 1.264416508481436 0 0 0 0.16 43 28 111 111 209 252 
254 0.2503050688474618 0.3061673234404429 1.2243827891549646 0 0 0 0.29 43 29 53 38 172 56 176 52 209 253 219 33 
255 0.22812406917622646 0.4056173281903292 1.1949955776115289 0 0 0 0.32 43 30 71 57 111 112 162 23 172 57 209 254 217 43 221 22 232 39 
256 0.1824635719398964 0.22550657270678923 1.2947134490055445 0 0 0 0.29 43 31 71 58 77 51 103 46 111 113 118 53 148 52 196 17 209 255 221 23 224 68 
257 0.1941133349875979 0.2701681769222389 1.270365019062307 0 0 0 0.33 43 32 44 57 65 29 71 59 73 48 77 52 81 40 92 27 96 41 111 114 118 54 126 17 148 53 164 80 176 53 196 18 209 256 221 24 232 40 
258 0.2545002198840663 0.31380887662112184 1.222137460856351 0 0 0 0.25 43 33 77 53 103 47 118 55 204 19 209 257 
259 0.2162592342347891 0.40800202523439716 1.193824452317916 0 0 0 0.49 43 34 71 60 209 258 
260 0.34698357233108723 0.18534284415924382 1.2234369549442148 0 0 0 0.71 44 58 128 38 209 259 
261 0.31726097285306537 0.20705158462089562 1.2274770580556447 0 0 0 0.35 44 59 77 54 209 260 
262 0.18311958984531687 0.24893105747547548 1.285577034913336 0 0 0 0.37 44 60 92 28 209 261 
263 0.17631428776236122 0.25510626138080966 1.2891617020325985 0 0 0 0.45 44 61 71 61 77 55 92 29 111 115 164 81 209 262 
264 0.2838214190084953 0.2485053723456789 1.2296844250252066 0 0 0 0.28 44 62 157 39 158 9 172 58 204 20 209 263 
265 0.2908647106931742 0.249131109735557 1.226353933867385 0 0 0 0.43 44 63 50 49 148 54 157 40 164 82 172 59 176 54 179 34 209 264 
266 0.2878229853497062 0.24986678135885382 1.2277975988343666 0 0 0 0.28 44 64 92 30 157 41 172 60 196 19 209 265 
267 0.25176873321689786 0.258092585091474 1.2419959174304582 0 0 0 0.35 44 65 50 50 96 42 128 39 157 42 172 61 176 55 179 35 204 21 209 266 213 42 219 34 224 69 227 41 
268 0.2032293764781098 0.2871368874123194 1.2612497297824223 0 0 0 0.16 44 66 77 56 209 267 
269 0.2638695071690157 0.291058209009679 1.2243413910594967 0 0 0 0.18 44 67 50 51 157 43 209 268 
270 0.3015145894078728 0.29869915418232196 1.2018756953953038 0 0 0 0.16 44 68 50 52 92 31 157 44 176 56 209 269 213 43 
271 0.31815430523665283 0.363264755793895 1.165120313672642 0 0 0 0.42 44 69 50 53 162 24 176 57 209 270 
272 0.3142179782073022 0.21031289053280794 1.230376879823433 0 0 0 0.12 44 70 176 58 209 271 
273 0.28901134169990683 0.2475237477171464 1.227648679918682 0 0 0 0.17 44 71 50 54 53 39 77 57 92 32 103 48 111 116 148 55 157 45 164 83 172 62 176 59 204 22 209 272 213 44 219 35 224 70 
274 0.28899188416964394 0.247536789145781 1.227745570093622 0 0 0 0.19 44 72 50 55 77 58 92 33 111 117 118 56 128 40 148 56 157 46 158 10 162 25 164 84 172 63 176 60 204 23 209 273 213 45 224 71 227 42 
275 0.2775632057710389 0.25214920978637895 1.2315961729982587 0 0 0 0.2 44 73 50 56 157 47 179 36 204 24 209 274 213 46 
276 0.23820044180214384 0.2593675766814545 1.2496061200672341 0 0 0 0.27 44 74 50 57 77 59 92 34 96 43 103 49 111 118 114 41 126 18 148 57 157 48 164 85 172 64 196 20 204 25 209 275 213 47 219 36 224 72 227 43 
277 0.23825856879009785 0.25934219466681 1.2492026002573138 0 0 0 0.18 44 75 77 60 111 119 148 58 164 86 179 37 196 21 209 276 213 48 224 73 
278 0.2684590596105395 0.2582819156124106 1.23621955870314 0 0 0 0.19 44 76 50 58 92 35 209 277 221 25 224 74 
279 0.2723999921788337 0.2572763650843974 1.2335540326585015 0 0 0 0.36 44 77 53 40 162 26 172 65 176 61 204 26 209 278 224 75 
280 0.3151180760647636 0.26188356523264505 1.2074467864696419 0 0 0 0.25 44 78 50 59 92 36 111 120 204 27 209 279 227 44 
281 0.1807436051834376 0.32923372380212734 1.2560076740076755 0 0 0 0.17 44 79 209 280 224 76 
282 0.23791088668942717 0.31889368266382073 1.229695473102713 0 0 0 0.15 44 80 77 61 128 41 209 281 
283 0.23037866067046892 0.3938920645596514 1.1992154834787985 0 0 0 0.3 44 81 53 41 61 30 71 62 111 121 118 57 157 49 164 87 209 282 227 45 232 41 
284 0.22464669676168772 0.3972069028290352 1.202093937988548 0 0 0 0.39 44 82 61 31 118 58 162 27 176 62 209 283 224 77 
285 0.2347997434684843 0.42857215565322593 1.1841003376210186 0 0 0 0.3 44 83 50 60 111 122 209 284 
286 0.29562921255259134 0.24352486307179214 1.226620121545105 0 0 0 0.55 44 84 61 32 96 44 103 50 114 42 128 42 148 59 157 50 158 11 162 28 172 66 176 63 179 38 204 28 209 285 213 49 217 44 224 78 232 42 
287 0.2996077690546617 0.3039115637026077 1.2040063236601015 0 0 0 0.33 44 85 53 42 71 63 77 62 92 37 96 45 111 123 113 35 118 59 126 19 148 60 157 51 162 29 164 88 176 64 179 39 190 21 196 22 209 286 213 50 221 26 224 79 227 46 232 43 
288 0.2845038802446521 0.307121478659763 1.2092688248631445 0 0 0 0.25 44 86 50 61 77 63 111 124 113 36 114 43 126 20 162 30 164 89 172 67 176 65 179 40 209 287 213 51 224 80 232 44 
289 0.2001261242927642 0.3516074350657777 1.2339923874081853 0 0 0 0.25 44 87 77 64 209 288 
290 0.20382142808915363 0.35586644804090006 1.2315810461808085 0 0 0 0.3 44 88 77 65 103 51 148 61 196 23 209 289 227 47 
291 0.28579849956494446 0.369155434277415 1.1782990618723324 0 0 0 0.37 44 89 50 62 111 125 113 37 209 290 
292 0.26776298735422094 0.4027705267807883 1.1759401478279126 0 0 0 0.3 44 90 77 66 164 90 172 68 209 291 224 81 
293 0.19487993607417545 0.28655069548347595 1.2636098895390069 0 0 0 0.14 44 91 77 67 103 52 209 292 
294 0.22364912870508455 0.3933291303729071 1.2034714748215454 0 0 0 0.27 44 92 61 33 71 64 81 41 111 126 209 293 217 45 221 27 
295 0.31743213635541956 0.21685791900425916 1.2237691445093406 0 0 0 0.34 44 93 92 38 114 44 209 294 
296 0.26412508024924164 0.336025603355559 1.2100102848117498 0 0 0 0.27 44 94 81 42 162 31 209 295 
297 0.26412508024924164 0.336025603355559 1.2100102848117498 0 0 0 0.27 44 95 81 43 162 32 209 296 
298 0.25413152495178815 0.233373914951202 1.2530485615544436 0 0 0 0.16 50 63 176 66 209 297 213 52 
299 0.30383113716045 0.24409772753956088 1.2215456001198945 0 0 0 0.31 50 64 157 52 176 67 179 41 209 298 
300 0.22521653404931455 0.2647603002482701 1.2554167925839046 0 0 0 0.17 118 60 128 43 157 53 164 91 209 299 213 53 
301 0.32170878683084436 0.2599225356177998 1.2050260484658424 0 0 0 0.15 50 65 157 54 209 300 213 54 
302 0.3201797164426861 0.26128812923432854 1.2065509493563296 0 0 0 0.11 50 66 157 55 209 301 213 55 
303 0.2669907727655036 0.29674549896409314 1.224622466684959 0 0 0 0.25 50 67 61 34 118 61 164 92 172 69 209 302 224 82 227 48 
304 0.29674902710889584 0.28971256048762195 1.21335378524179 0 0 0 0.47 50 68 209 303 227 49 
305 0.26972284152025827 0.29755994797251395 1.2209559677501745 0 0 0 0.15 50 69 61 35 113 38 209 304 213 56 
306 0.28304748181132394 0.3052546310218352 1.2603547764903562 0 0 0 1.36 50 70 176 68 209 305 
307 0.2806263306657352 0.36027492302405584 1.1917597190772218 0 0 0 0.26 50 71 157 56 176 69 209 306 213 57 
308 0.2912866434248721 0.37470236098727366 1.1759505714033591 0 0 0 0.27 50 72 157 57 176 70 209 307 213 58 
309 0.25787025981550865 0.3915896493444948 1.18565012538463 0 0 0 0.17 50 73 61 36 157 58 176 71 209 308 
310 0.2791287100541955 0.3944829788850337 1.1766626826343844 0 0 0 0.34 50 74 61 37 209 309 224 83 
311 0.28779399200698075 0.39405521112987835 1.1686219179620052 0 0 0 0.37 50 75 61 38 176 72 209 310 227 50 
312 0.3032721835809362 0.40138876007353685 1.1589238947432905 0 0 0 0.11 50 76 196 24 209 311 
313 0.20907583028892604 0.24704866090884617 1.2773177142599417 0 0 0 0.17 50 77 53 43 61 39 96 46 103 53 128 44 157 59 172 70 179 42 209 312 213 59 227 51 
314 0.2090399641431897 0.24703396554268797 1.2771837146010954 0 0 0 0.16 53 44 61 40 96 47 103 54 128 45 157 60 172 71 179 43 209 313 213 60 227 52 
315 0.20049380754847615 0.2503889721032242 1.2793017629052654 0 0 0 0.61 53 45 103 55 128 46 179 44 209 314 219 37 
316 0.214131620691656 0.277303317280337 1.2589500174270896 0 0 0 0.31 53 46 77 68 103 56 111 127 128 47 157 61 164 93 176 73 190 22 209 315 217 46 227 53 
317 0.19720714640665055 0.28386257787843727 1.2620398859819832 0 0 0 0.62 77 69 113 39 127 21 128 48 209 316 224 84 
318 0.2888819019219181 0.262968168031653 1.2228182652944073 0 0 0 0.23 50 78 118 62 209 317 224 85 
319 0.31830526682159965 0.2568453586071813 1.2084146650163081 0 0 0 0.24 50 79 158 12 172 72 204 29 209 318 219 38 
320 0.2546494946969009 0.3017338937966672 1.2241462956047087 0 0 0 0.22 50 80 61 41 128 49 209 319 
321 0.3075586989633938 0.2910914130327134 1.2024253791550368 0 0 0 0.24 50 81 158 13 209 320 213 61 219 39 
322 0.2851494813546967 0.30173634438214886 1.2099925977748687 0 0 0 0.29 50 82 53 47 103 57 172 73 176 74 179 45 204 30 209 321 
323 0.29906335274466556 0.3792007878100892 1.1686471409290031 0 0 0 0.44 164 94 176 75 209 322 227 54 
324 0.22544616146056973 0.22792082952541923 1.271495826317937 0 0 0 0.31 71 65 77 70 103 58 111 128 127 22 148 62 164 95 209 323 217 47 224 86 
325 0.21521364651340716 0.2680541885780841 1.2617296001917842 0 0 0 0.31 128 50 172 74 209 324 
326 0.22424802470007846 0.2702787472321117 1.2522318674115351 0 0 0 0.24 50 83 53 48 96 48 103 59 111 129 113 40 128 51 157 62 176 76 209 325 213 62 219 40 221 28 232 45 
327 0.31291441689900157 0.24970446668117588 1.2117278063519634 0 0 0 0.37 50 84 61 42 157 63 158 14 209 326 227 55 
328 0.2954764255208624 0.2782229821086806 1.215661819989482 0 0 0 0.17 50 85 77 71 128 52 162 33 209 327 
329 0.22128212094519115 0.302877380178085 1.24408141313305 0 0 0 0.29 71 66 92 39 111 130 113 41 114 45 164 96 172 75 176 77 179 46 209 328 219 41 224 87 232 46 
330 0.31007873857806567 0.2921940795976879 1.2003628114004121 0 0 0 0.25 50 86 77 72 111 131 204 31 209 329 232 47 
331 0.25820531169537375 0.3129560204748849 1.218367679261923 0 0 0 0.46 50 87 96 49 113 42 118 63 164 97 172 76 179 47 209 330 227 56 
332 0.2999142992374719 0.31836067202492396 1.198124760186077 0 0 0 0.17 50 88 71 67 96 50 209 331 232 48 
333 0.283752590109751 0.35115171827782665 1.1900608525536396 0 0 0 0.14 50 89 61 43 209 332 
334 0.22722614760667675 0.3849790733946052 1.2046838618562965 0 0 0 0.3 111 132 113 43 190 23 209 333 227 57 
335 0.2778488029730322 0.3985508866167665 1.1746144543366648 0 0 0 0.42 50 90 61 44 157 64 209 334 213 63 
336 0.2734188618785897 0.21896828651083006 1.251980178890978 0 0 0 0.28 50 91 103 60 111 133 157 65 158 15 179 48 209 335 217 48 227 58 232 49 
337 0.23914022500874282 0.2815041153186387 1.2423939820453822 0 0 0 0.39 50 92 114 46 118 64 176 78 209 336 
338 0.24635344056645603 0.3010041596292267 1.2351773448458503 0 0 0 0.23 50 93 53 49 61 45 71 68 73 49 77 73 96 51 113 44 157 66 209 337 217 49 232 50 
339 0.20867403617642852 0.2538706410796608 1.2784222190927228 0 0 0 0.56 53 50 65 30 81 44 114 47 118 65 128 53 157 67 176 79 179 49 190 24 209 338 217 50 227 59 
340 0.22240321762168816 0.25764371153212845 1.262884927387942 0 0 0 0.32 50 94 81 45 111 134 209 339 
341 0.3092307525905161 0.2512642259857824 1.2141458464533805 0 0 0 0.3 50 95 81 46 164 98 179 50 190 25 209 340 227 60 
342 0.2654953347484996 0.2897859001857836 1.225051304290823 0 0 0 0.21 81 47 176 80 204 32 209 341 
343 0.28536577204772456 0.3216641559537117 1.2039099165310718 0 0 0 0.29 50 96 111 135 209 342 
344 0.22997240286972762 0.33671585129241205 1.2243398256643299 0 0 0 0.34 73 50 157 68 209 343 
345 0.2170692505491429 0.3988557832167738 1.2003403201780871 0 0 0 0.38 190 26 209 344 219 42 
346 0.3058088079325549 0.2535844810781354 1.2218009309225057 0 0 0 0.32 172 77 179 51 198 17 209 345 227 61 
347 0.19161236872396492 0.3441075868746992 1.2356401438193771 0 0 0 0.2 50 97 96 52 103 61 111 136 209 346 
348 0.2460697438790753 0.3687467452137663 1.211040952837204 0 0 0 0.65 50 98 111 137 172 78 209 347 
349 0.21585967323287522 0.25863972051016465 1.2705044807372043 0 0 0 0.43 53 51 65 31 81 48 103 62 111 138 118 66 128 54 157 69 209 348 
350 0.21582876738481951 0.25853091390061156 1.2694078782319966 0 0 0 0.46 53 52 65 32 81 49 103 63 111 139 128 55 209 349 
351 0.0930094391343784 0.053856598075961534 0.9797963856742328 0 0 0 0.33 53 53 103 64 209 350 
352 0.2065490666752291 0.26643640717427197 1.2649478369664442 0 0 0 0.23 53 54 111 140 209 351 
353 0.21507531139512884 0.27439510239121984 1.2597786666705544 0 0 0 0.24 53 55 103 65 157 70 172 79 176 81 179 52 209 352 213 64 219 43 
354 0.2278640525285087 0.37657058199728916 1.2066234108093559 0 0 0 0.21 53 56 61 46 209 353 
355 0.2921627887358576 0.40358163231509786 1.163238057001465 0 0 0 0.52 53 57 179 53 209 354 
356 0.21294972169364493 0.2633918906024393 1.2687134918960312 0 0 0 0.27 53 58 128 56 179 54 209 355 227 62 
357 0.2389656555050532 0.256521918210836 1.2516879373602112 0 0 0 0.41 53 59 61 47 71 69 73 51 77 74 96 53 128 57 157 71 172 80 176 82 179 55 204 33 209 356 213 65 221 29 224 88 227 63 
358 0.2849554798515632 0.29634305904336194 1.2122739930390645 0 0 0 0.43 53 60 92 40 114 48 172 81 176 83 209 357 
359 0.22694081573172065 0.38012123509944984 1.2075688898250059 0 0 0 0.2 53 61 61 48 96 54 111 141 113 45 172 82 190 27 209 358 213 66 217 51 
360 0.19343133902360496 0.2298077955004086 1.2936381817766667 0 0 0 0.4 53 62 65 33 73 52 81 50 103 66 111 142 127 23 199 18 209 359 
361 0.30271026598186407 0.3863714093214359 1.1672774669053945 0 0 0 0.36 53 63 77 75 81 51 96 55 111 143 162 34 209 360 232 51 
362 0.18409502092901445 0.26625862701094377 1.27634405657976 0 0 0 0.27 77 76 148 63 209 361 
363 0.19727545095461427 0.28374972224056744 1.261312223765332 0 0 0 0.18 148 64 209 362 224 89 
364 0.2513870339104536 0.3121435101998964 1.2245395045715632 0 0 0 0.19 172 83 176 84 209 363 
365 0.22954108506563395 0.3846281207967193 1.202962522027235 0 0 0 0.19 172 84 190 28 209 364 227 64 
366 0.18417372926229952 0.24568032992647276 1.2833141464468003 0 0 0 0.11 127 24 176 85 209 365 
367 0.3159250961929154 0.243410917099949 1.2148462649606977 0 0 0 0.23 111 144 114 49 162 35 172 85 179 56 209 366 
368 0.2789080659192285 0.24987910641920907 1.233303898072481 0 0 0 0.48 172 86 204 34 209 367 219 44 
369 0.18386475845363573 0.28787377209990506 1.2702488543690769 0 0 0 0.14 111 145 164 99 209 368 
370 0.30804747016012207 0.30491344966767303 1.2017420861058994 0 0 0 0.3 113 46 179 57 209 369 219 45 
371 0.23817586196889962 0.21513826940211297 1.2934053646379053 0 0 0 0.37 71 70 81 52 103 67 111 146 148 65 209 370 232 52 
372 0.28053862830242404 0.2187661415956434 1.243289390032598 0 0 0 0.35 61 49 77 77 111 147 128 58 157 72 164 100 172 87 176 86 179 58 204 35 209 371 213 67 
373 0.18146997221194333 0.23428547888519846 1.2928160063117422 0 0 0 0.27 71 71 77 78 96 56 103 68 114 50 164 101 209 372 
374 0.17920142703928824 0.23845863361497857 1.2917666323603438 0 0 0 0.13 71 72 111 148 114 51 209 373 
375 0.19433895327448286 0.2820083255040561 1.2648800038004864 0 0 0 0.21 77 79 164 102 209 374 224 90 
376 0.1761487521068692 0.24615729186824015 1.2896097807839417 0 0 0 0.26 71 73 73 53 111 149 209 375 
377 0.19654638353952536 0.2891121212012888 1.2574264523769616 0 0 0 0.23 111 150 126 21 209 376 
378 0.31433872686974385 0.3892269506561241 1.162871388710319 0 0 0 0.44 61 50 96 57 176 87 209 377 
379 0.20356355351028763 0.2725597217681879 1.2666446034034735 0 0 0 0.3 96 58 103 69 128 59 164 103 209 378 224 91 232 53 
380 0.21417969297688927 0.2886025585086891 1.2516274067563145 0 0 0 0.2 61 51 198 18 209 379 
381 0.3083332263261339 0.3553300923864638 1.1781044051970886 0 0 0 0.2 61 52 96 59 209 380 
382 0.22601175592170542 0.33495153251768844 1.2292123881339987 0 0 0 0.29 61 53 81 53 103 70 111 151 114 52 172 88 209 381 
383 0.24436104407866222 0.38137210870627164 1.1981299781197083 0 0 0 0.2 61 54 111 152 204 36 209 382 
384 0.281942958334466 0.28769989040044874 1.2176675592079027 0 0 0 0.28 61 55 190 29 209 383 
385 0.20358099467080798 0.36012076232314305 1.236179747175338 0 0 0 0.84 65 34 118 67 209 384 
386 0.19804990486288546 0.27786324394739925 1.2591642620195223 0 0 0 0.82 65 35 71 74 103 71 209 385 
387 0.17633379188927456 0.26086874463317666 1.287442411745011 0 0 0 0.09 71 75 111 153 209 386 
388 0.09898756164050276 0.2334584205747695 0.9085963084449545 0 0 0 0.21 71 76 73 54 209 387 
389 0.1297310122455214 0.2774308778547374 1.0099808425432566 0 0 0 0.41 71 77 96 60 209 388 
390 0.2777519654962336 0.35569963847144576 1.1930005826792376 0 0 0 0.3 71 78 118 68 164 104 176 88 190 30 209 389 213 68 224 92 
391 0.23628057051730375 0.21907893897714978 1.293526894125454 0 0 0 0.28 71 79 73 55 81 54 103 72 114 53 209 390 217 52 
392 0.23308073454670908 0.23672990321505682 1.267999467472751 0 0 0 0.47 71 80 128 60 209 391 
393 0.2029145997908983 0.29252864341663487 1.2618252862095105 0 0 0 0.29 71 81 81 55 96 61 209 392 221 30 
394 0.1366512846321455 0.28686821115033856 1.0385074778419796 0 0 0 0.5 71 82 81 56 198 19 199 19 209 393 
395 0.21630158435611266 0.4071188361293795 1.1915079333050211 0 0 0 0.55 71 83 111 154 209 394 
396 0.2120738137176397 0.31575684483514094 1.2888523815963084 0 0 0 0.12 71 84 113 47 209 395 
397 0.05934935554659535 0.1903559041504116 0.8067943002245391 0 0 0 0.1 71 85 209 396 224 93 
398 0.18799214958844085 0.23989233279749608 1.287683685674686 0 0 0 0.59 71 86 73 56 198 20 209 397 
399 0.18801677392663063 0.23987266510206945 1.2866833447113017 0 0 0 0.59 71 87 73 57 81 57 198 21 209 398 
400 0.10794679004765462 0.1294780906756401 1.0309555363263743 0 0 0 0.2 73 58 199 20 209 399 
401 0.17624363828335843 0.2461236978208021 1.2899061569005688 0 0 0 0.14 73 59 111 155 127 25 209 400 
402 0.10423264542845415 0.24156758972966227 0.9273323323288527 0 0 0 0.35 73 60 103 73 209 401 
403 0.08413673076429747 0.2731387811930013 0.8438123077467995 0 0 0 0.08 73 61 209 402 224 94 
404 0.06482560593789995 0.15175205718652934 0.8533253020698617 0 0 0 0.44 73 62 209 403 224 95 
405 0.07410094545594477 0.18638552558145383 0.8728678767012418 0 0 0 0.12 73 63 209 404 221 31 
406 0.20008907751786706 0.3513796167764691 1.231937363067029 0 0 0 0.17 73 64 209 405 224 96 
407 0.08740573932225842 0.27361520661636496 0.8530468854113409 0 0 0 0.19 73 65 209 406 224 97 
408 0.05761035842500862 0.16707142563643762 0.8225685168127952 0 0 0 0.29 73 66 198 22 199 21 209 407 
409 0.16577736749458996 0.23006067436674235 1.1639004674237892 0 0 0 0.09 73 67 199 22 209 408 
410 0.17029689058181052 0.23493666543817615 1.1597820434445045 0 0 0 0.14 73 68 199 23 209 409 
411 0.20924892569353984 0.33001167870560155 1.243016979624929 0 0 0 0.42 73 69 113 48 209 410 
412 0.2334348332059071 0.3622647971500859 1.1997292741380632 0 0 0 0.25 73 70 111 156 209 411 
413 0.14497084461001708 0.20476110178846565 1.0980794188983745 0 0 0 0.37 73 71 198 23 199 24 209 412 221 32 
414 0.13881394716236392 0.25796096292498627 1.0309217651357423 0 0 0 0.61 73 72 96 62 209 413 
415 0.16910524314058828 0.3248211057950073 1.1156992597824713 0 0 0 0.04 73 73 199 25 209 414 
416 0.05552195694697805 0.0762459451238026 0.8707892189722114 0 0 0 0.28 73 74 96 63 199 26 209 415 
417 0.13406883413858475 0.2379407646302727 1.0577186049550111 0 0 0 0.28 73 75 198 24 199 27 209 416 
418 0.08631541267353657 0.06316080393732654 0.9846742853332308 0 0 0 0.42 73 76 198 25 199 28 209 417 
419 0.08631541267353657 0.06316080393732654 0.9846742853332308 0 0 0 0.42 73 77 198 26 199 29 209 418 
420 0.21180902777238825 0.239482014541262 1.2733711321288101 0 0 0 0.21 73 78 103 74 209 419 
421 0.03485449820925624 0.2264565135814751 0.7277525230981322 0 0 0 0.59 73 79 198 27 209 420 224 98 
422 0.034985481642896214 0.22640469910133248 0.7276050429568397 0 0 0 0.65 73 80 209 421 224 99 
423 0.11315360531407734 0.13827064554457735 1.0413626390137136 0 0 0 0.48 73 81 96 64 199 30 209 422 221 33 
424 0.12550013451597059 0.1629876120196937 1.076404380176255 0 0 0 0.35 73 82 199 31 209 423 
425 0.12550013451597059 0.1629876120196937 1.076404380176255 0 0 0 0.35 73 83 199 32 209 424 
426 0.22875623951819476 0.2974737832952141 1.242119851668719 0 0 0 0.17 103 75 162 36 198 28 209 425 
427 0.1997401018088039 0.3391623543796222 1.2385734491015257 0 0 0 0.46 111 157 148 66 164 105 209 426 
428 0.14456432411511747 0.1520841249815528 1.122964143780892 0 0 0 0.59 81 58 96 65 111 158 209 427 221 34 224 100 
429 0.31747821076395843 0.21686945280883707 1.225708866085716 0 0 0 0.33 92 41 111 159 179 59 209 428 
430 0.16777326929937766 0.2869783862710308 1.1307256555929779 0 0 0 0.2 111 160 198 29 199 33 209 429 
431 0.13288901058542535 0.2655288438289434 1.0251810056861161 0 0 0 0.48 198 30 209 430 224 101 
432 0.16925220986668835 0.3153401362372677 1.1203351521268607 0 0 0 0.33 81 59 111 161 209 431 
433 0.1549002210580311 0.19941840528812196 1.1338040888509395 0 0 0 0.16 111 162 209 432 221 35 
434 0.15479919404642117 0.19951920776793833 1.1340975350637867 0 0 0 0.35 96 66 111 163 209 433 
435 0.14677829527525554 0.16244294739376214 1.1318447394645184 0 0 0 0.36 96 67 198 31 199 34 209 434 224 102 
436 0.2636863456314023 0.19217343856488814 1.2593270131166983 0 0 0 0.16 77 80 148 67 209 435 
437 0.17446361717363412 0.24292000990479135 1.2916808353461329 0 0 0 0.18 77 81 164 106 209 436 224 103 
438 0.20044675791153505 0.2969721364141002 1.2560864060209964 0 0 0 0.17 77 82 148 68 209 437 224 104 
439 0.2686646442990082 0.32436560326984454 1.2115226700283122 0 0 0 0.41 77 83 148 69 176 89 209 438 
440 0.23891567066478586 0.33163756423834945 1.2258411460323642 0 0 0 0.17 77 84 164 107 209 439 
441 0.18980164288557444 0.2215981151505734 1.2974435833528346 0 0 0 0.34 77 85 111 164 196 25 209 440 
442 0.19095942786080441 0.251065039673336 1.2801012446887758 0 0 0 0.38 77 86 111 165 114 54 118 69 126 22 209 441 
443 0.28674767750148816 0.3915164135354009 1.1701628141429223 0 0 0 0.34 81 60 162 37 176 90 209 442 
