# 3D point list with one line of data per point:
#   POINT3D_ID, X, Y, Z, R, G, B, ERROR, TRACK[] as (IMAGE_ID, POINT2D_IDX)
# Number of points: 416, mean track length: 5.02
49 -0.03379214667806615 0.2603292488730865 0.95474193593995 0 0 0 0.21 128 48 146 29 157 15 185 7 214 7 
50 0.27362059337068845 0.30162743236325323 1.0032579208606762 0 0 0 0.22 128 49 164 12 172 7 187 23 232 14 234 18 
51 -0.12250588393123281 0.28421659439881336 0.9435401737249965 0 0 0 0.06 128 50 176 27 213 25 
52 0.1318109536733213 0.2932077001625517 0.972144252720261 0 0 0 0.19 128 51 172 8 187 24 194 0 232 15 
53 0.23973044855775028 0.30256303302138554 0.9951306123284421 0 0 0 0.05 128 52 187 25 234 19 
54 0.0624591853507049 0.08937427045355599 1.04491710437782 0 0 0 0.31 128 53 146 30 152 7 157 16 158 12 164 13 172 9 185 8 187 26 200 10 204 9 213 26 214 8 222 14 227 5 232 16 234 20 
55 -0.07312279302775519 0.19078536643129024 0.9792623703277159 0 0 0 0.27 128 54 146 31 172 10 176 28 204 10 231 10 232 17 
56 -0.021270599006253037 0.19375297510401082 0.990525008416199 0 0 0 0.21 128 55 146 32 172 11 176 29 204 11 213 27 219 5 
57 -0.012903557790433656 0.19380410058431483 0.9925766398618365 0 0 0 0.22 128 56 158 13 172 12 176 30 187 27 213 28 219 6 232 18 
58 0.004100629842207841 0.19429048289213766 0.9955798721702482 0 0 0 0.23 128 57 172 13 175 13 187 28 204 12 
59 0.0658588297777372 0.24330106176248786 0.9788495353354447 0 0 0 0.31 128 58 146 33 187 29 190 1 234 21 
60 -0.03983810463850821 0.24043165989244294 0.9622316954251792 0 0 0 0.25 128 59 146 34 157 17 158 14 172 14 204 13 213 29 219 7 
61 -0.022336749387628863 0.24620514087448614 0.9676111601689115 0 0 0 0.29 128 60 172 15 190 2 200 11 204 14 
62 0.08684977144373446 0.2537129516423596 0.9823645891895207 0 0 0 0.36 128 61 146 35 152 8 158 15 175 14 176 31 187 30 200 12 204 15 213 30 221 8 232 19 234 22 
63 0.08694119668830137 0.25383192834974067 0.9828972976456923 0 0 0 0.37 128 62 136 2 146 36 158 16 172 16 175 15 176 32 187 31 200 13 204 16 213 31 219 8 223 5 234 23 
64 0.03207426143758612 0.08345449340360361 1.0406509253397025 0 0 0 0.14 128 63 187 32 234 24 
65 -0.060505436108189196 0.111905084647447 1.0116848289572251 0 0 0 0.47 128 64 136 3 146 37 148 6 152 9 157 18 158 17 159 3 164 14 172 17 176 33 185 9 190 3 196 6 200 14 213 32 214 9 222 15 223 6 224 5 231 11 232 20 
66 0.1225033128059137 0.12395152914845463 1.0426136134863586 0 0 0 0.41 128 65 146 38 152 10 157 19 158 18 164 15 175 16 176 34 187 33 200 15 214 10 221 9 222 16 227 6 232 21 234 25 
67 0.19262563262262358 0.20260226582443336 1.0298677880237206 0 0 0 0.29 128 66 176 35 187 34 204 17 219 9 227 7 234 26 
68 -0.007516396575331147 0.19546551388319938 0.9902003091009464 0 0 0 0.32 128 67 176 36 187 35 204 18 219 10 234 27 
69 0.0960283903645354 0.246016298226396 0.9860026613934131 0 0 0 0.4 128 68 152 11 175 17 187 36 213 33 221 10 
70 -0.11201961309472562 0.24272488705883632 0.9601388103030426 0 0 0 0.25 128 69 172 18 190 4 
71 -0.08048162595576265 0.3000773533753115 0.9373146531598855 0 0 0 0.28 128 70 136 4 148 7 176 37 190 5 213 34 219 11 221 11 232 22 
72 -0.08040551028218113 0.30002599806611197 0.9369075890881577 0 0 0 0.2 128 71 148 8 176 38 190 6 213 35 219 12 232 23 
73 -0.09762799251574206 0.30042336396638153 0.9365443697072761 0 0 0 0.35 128 72 176 39 204 19 213 36 214 11 219 13 
74 -0.11196466491436752 0.3114656837783149 0.9270295853604648 0 0 0 0.17 128 73 148 9 164 16 219 14 221 12 
75 -0.05298671217520163 0.12760652299879968 1.006310273856963 0 0 0 0.33 128 74 158 19 172 19 185 10 204 20 213 37 221 13 222 17 
76 0.17221855676369022 0.2596385030654827 0.9917506397823227 0 0 0 0.19 128 75 152 12 176 40 187 37 
77 -0.014043166165524437 0.08155109569865483 1.0286546787419493 0 0 0 0.26 146 39 157 20 200 16 224 6 
78 -0.014601562820578298 0.10478255746240045 1.0232824760935049 0 0 0 0.16 146 40 157 21 164 17 176 41 213 38 
79 -0.012583583542172877 0.10865581428696178 1.0214281945892105 0 0 0 0.44 146 41 157 22 176 42 200 17 213 39 223 7 224 7 231 12 
80 0.004916786396779483 0.11061382641044357 1.0251567374357744 0 0 0 0.31 146 42 157 23 164 18 185 11 187 38 200 18 213 40 214 12 222 18 232 24 234 28 
81 0.05112275987239711 0.11294351628818086 1.0337347668043728 0 0 0 0.16 135 2 146 43 159 4 187 39 
82 0.05112275987239724 0.11294351628818085 1.0337347668043744 0 0 0 0.16 135 3 146 44 159 5 187 40 
83 -0.030070387562518005 0.10998669800818169 1.0182802531983126 0 0 0 0.13 146 45 158 20 164 19 185 12 200 19 213 41 232 25 
84 0.020871126207598133 0.11496886597985348 1.0262748311845753 0 0 0 0.21 146 46 157 24 187 41 213 42 
85 -0.015977156440729938 0.11506173982408621 1.0192482096220548 0 0 0 0.18 135 4 146 47 157 25 200 20 213 43 
86 -0.017003398788645256 0.11718098708295588 1.019004876056618 0 0 0 0.32 146 48 157 26 200 21 224 8 234 29 
87 -0.05373739775616951 0.11637406921206038 1.009511337165957 0 0 0 0.73 146 49 157 27 200 22 223 8 
88 -0.05959364792851632 0.11677391093882203 1.009977490607791 0 0 0 0.28 157 28 164 20 176 43 213 44 224 9 
89 0.06894377432919518 0.12440791931447838 1.03180935063663 0 0 0 0.33 135 5 157 29 159 6 187 42 200 23 214 13 
90 0.025288033783522727 0.1230281410047748 1.02338380504041 0 0 0 0.18 135 6 187 43 200 24 
91 0.09500042904987109 0.1300750143758888 1.0333013129305242 0 0 0 0.24 135 7 187 44 200 25 
92 0.09834733964853887 0.1302004334788531 1.0351029577308228 0 0 0 0.21 135 8 146 50 157 30 164 21 175 18 187 45 200 26 213 45 214 14 234 30 
93 0.22053038172363354 0.13581261733023342 1.0599317416254777 0 0 0 0.32 135 9 148 10 175 19 176 44 187 46 196 7 200 27 213 46 
94 0.1361051299367847 0.13413511023146135 1.0405804028504373 0 0 0 0.24 135 10 146 51 175 20 187 47 200 28 234 31 
95 0.13656246131264405 0.1340628505104613 1.0424504734633664 0 0 0 0.57 135 11 146 52 157 31 175 21 187 48 200 29 223 9 234 32 
96 0.22072822892742175 0.13818242219383067 1.0600009028004895 0 0 0 0.46 135 12 158 21 187 49 204 21 
97 0.2206287064787631 0.13818601338005101 1.0598621659232874 0 0 0 0.54 135 13 158 22 187 50 
98 -0.10245605643235502 0.12497957375740534 1.004686320408396 0 0 0 0.26 135 14 157 32 176 45 200 30 204 22 213 47 
99 -0.04622435461159181 0.1273431607799083 1.0079764770320112 0 0 0 0.2 135 15 146 53 158 23 200 31 
100 0.06083875482003994 0.15898934982011415 1.017250277342535 0 0 0 0.24 135 16 136 5 146 54 148 11 157 33 164 22 176 46 187 51 200 32 204 23 213 48 214 15 231 13 234 33 
101 0.05729014587523943 0.18472694448027538 1.0071591600820715 0 0 0 0.24 135 17 146 55 157 34 175 22 176 47 187 52 200 33 213 49 234 34 
102 -0.06019001278305765 0.18194677677927612 0.9841936726241665 0 0 0 0.16 135 18 136 6 146 56 164 23 176 48 200 34 224 10 
103 -0.079591390617384 0.1919235442635664 0.9815071874022281 0 0 0 0.15 135 19 146 57 157 35 172 20 
104 0.13512840814697247 0.24519021585087103 0.9907481060367642 0 0 0 0.32 135 20 175 23 187 53 
105 0.02101432792928561 0.24754825846203785 0.975628814772605 0 0 0 0.1 135 21 187 54 234 35 
106 0.0616640214982173 0.2631410078234612 0.9717639314886706 0 0 0 0.33 135 22 146 58 157 36 175 24 187 55 188 0 213 50 234 36 
107 -0.10744614270342544 0.2711853497180542 0.9432279366330796 0 0 0 0.14 135 23 136 7 146 59 213 51 214 16 
108 -0.10754411273758167 0.27122929905752596 0.9434364644157618 0 0 0 0.13 135 24 136 8 146 60 157 37 200 35 213 52 214 17 
109 0.10375599728326909 0.30944805897305894 0.9613598358564293 0 0 0 0.23 135 25 136 9 164 24 187 56 214 18 
110 0.21339197580936625 0.3156324118707577 0.9826854116852604 0 0 0 0.38 135 26 175 25 187 57 200 36 
111 0.10396484279235721 0.32118942243808285 0.9569764447344449 0 0 0 0.3 135 27 146 61 148 12 164 25 175 26 187 58 194 1 196 8 200 37 213 53 214 19 223 10 234 37 
112 0.070648101998017 0.08287138180332142 1.0451494924755398 0 0 0 0.17 146 62 176 49 185 13 187 59 223 11 234 38 
113 0.06590929548129734 0.08658248305542005 1.0455478131594274 0 0 0 0.28 146 63 148 13 157 38 159 7 164 26 176 50 185 14 187 60 196 9 200 38 213 54 222 19 223 12 227 8 234 39 
114 -0.01402823822738432 0.08401127527304668 1.0299979592876747 0 0 0 0.43 136 10 146 64 148 14 157 39 158 24 159 8 164 27 172 21 176 51 185 15 187 61 200 39 204 24 213 55 223 13 224 11 231 14 232 26 234 40 
115 -0.00316929868935649 0.0907259859490034 1.0303437427658606 0 0 0 0.25 157 40 158 25 164 28 187 62 213 56 214 20 222 20 224 12 
116 0.03245074335666935 0.0920794491076043 1.0377284990970745 0 0 0 0.27 146 65 148 15 152 13 157 41 159 9 164 29 185 16 187 63 190 7 200 40 213 57 221 14 222 21 227 9 234 41 
117 0.07682562687319036 0.10210988470568504 1.044121103321276 0 0 0 0.3 157 42 176 52 187 64 213 58 223 14 234 42 
118 0.06815839766448485 0.10316095626336666 1.0420039871815636 0 0 0 0.27 136 11 146 66 158 26 176 53 187 65 200 41 227 10 
119 0.07195599936983042 0.10334876810793746 1.0420010996370503 0 0 0 0.19 146 67 157 43 158 27 187 66 221 15 222 22 227 11 232 27 
120 0.07374041535176698 0.10716816577436643 1.0410017549223205 0 0 0 0.48 146 68 152 14 157 44 159 10 164 30 176 54 187 67 232 28 
121 0.09009410970995249 0.11155907782265749 1.041793856406614 0 0 0 0.32 135 28 159 11 187 68 
122 0.13159916558312632 0.11855464933784489 1.0418911276547123 0 0 0 0.26 146 69 157 45 158 28 164 31 175 27 176 55 187 69 200 42 213 59 219 15 234 43 
123 -0.0689850903338592 0.11399830308349546 1.0073774163332112 0 0 0 0.48 136 12 158 29 164 32 185 17 196 10 200 43 213 60 224 13 
124 0.057758910895884016 0.12592918062964875 1.0284606314139668 0 0 0 0.12 135 29 146 70 187 70 214 21 
125 0.12027875322071475 0.131044226502124 1.0393884973133367 0 0 0 0.58 135 30 146 71 148 16 185 18 187 71 200 44 213 61 214 22 
126 0.06669782777703241 0.129295402212848 1.0289367689266653 0 0 0 0.34 146 72 157 46 158 30 164 33 175 28 187 72 200 45 213 62 214 23 223 15 
127 0.152595928342714 0.13958377799471894 1.0453498975211402 0 0 0 0.25 135 31 164 34 187 73 234 44 
128 -0.08617868554946985 0.18019233881502458 0.9845189348593085 0 0 0 0.26 135 32 146 73 200 46 227 12 
129 -0.09511244697544888 0.1834595061354623 0.9831209504710755 0 0 0 0.23 135 33 148 17 158 31 172 22 185 19 213 63 219 16 
130 -0.0179799577780928 0.25471793384983266 0.9639424327570952 0 0 0 0.15 135 34 146 74 176 56 204 25 
131 -0.10018254432194124 0.26031056858124657 0.9492852355250643 0 0 0 0.34 135 35 148 18 164 35 200 47 213 64 
132 0.10114061452844256 0.31622187344372954 0.9585912219082408 0 0 0 0.37 135 36 146 75 158 32 172 23 175 29 187 74 194 2 213 65 214 24 234 45 
133 0.007770508180907515 0.10185800339433794 1.0289046532818138 0 0 0 0.3 146 76 157 47 164 36 176 57 187 75 213 66 224 14 232 29 
134 0.08126941621019744 0.10596886486182687 1.0432552712455903 0 0 0 0.34 146 77 157 48 159 12 164 37 176 58 187 76 200 48 213 67 222 23 232 30 234 46 
135 -0.08151174734196345 0.11247485249109476 1.0065349131596606 0 0 0 0.22 148 19 157 49 164 38 176 59 
136 -0.08131181514681977 0.11232832640376443 1.0035671824215722 0 0 0 0.12 135 37 176 60 222 24 
137 0.021988387435613498 0.11965677903500865 1.0246697134806932 0 0 0 0.37 146 78 157 50 187 77 200 49 214 25 223 16 224 15 234 47 
138 0.21119556073111215 0.13196127037957336 1.0600640769504643 0 0 0 0.4 148 20 158 33 159 13 175 30 176 61 185 20 187 78 196 11 200 50 204 26 213 68 219 17 221 16 232 31 234 48 
139 0.1915857114178948 0.13131340211220446 1.0564586223254004 0 0 0 0.26 135 38 148 21 164 39 175 31 176 62 185 21 187 79 196 12 204 27 227 13 234 49 
140 0.2014378324857331 0.30863185967430656 0.9838082971012202 0 0 0 0.37 135 39 158 34 172 24 175 32 187 80 200 51 213 69 234 50 
141 0.017369784637947923 0.08254075900093366 1.0368697103539815 0 0 0 0.35 146 79 158 35 159 14 164 40 176 63 185 22 187 81 200 52 204 28 219 18 224 16 227 14 
142 0.012781736271109588 0.08777266496048103 1.0348252050990023 0 0 0 0.23 146 80 158 36 159 15 187 82 224 17 
143 0.08520879398089908 0.09841487833513528 1.0465736676949506 0 0 0 0.61 146 81 148 22 152 15 157 51 158 37 164 41 185 23 187 83 200 53 204 29 223 17 227 15 232 32 234 51 
144 -0.03108209944409966 0.11467636846152673 1.0173126075709986 0 0 0 0.61 148 23 158 38 159 16 187 84 200 54 232 33 
145 -0.1103401654419628 0.265457070267231 0.945734570717812 0 0 0 0.13 135 40 157 52 213 70 
146 0.10360020517866964 0.3266196659798808 0.9559645520599419 0 0 0 0.34 135 41 158 39 187 85 200 55 
147 -0.01696179230398323 0.08981385971795793 1.027293902766247 0 0 0 0.89 159 17 176 64 200 56 
148 0.015028265456113814 0.09350872550450617 1.0341803097548277 0 0 0 0.21 136 13 158 40 172 25 187 86 200 57 204 30 219 19 227 16 
149 -0.009159338157128364 0.08791429294245887 1.0299106964170133 0 0 0 0.42 146 82 152 16 157 53 164 42 176 65 187 87 190 8 219 20 221 17 222 25 234 52 
150 -0.040074255936664596 0.10024357679673271 1.0196781179338272 0 0 0 0.8 152 17 159 18 164 43 185 24 190 9 200 58 223 18 232 34 
151 -0.0872877096389793 0.12899979004776088 1.0026065041148022 0 0 0 0.52 157 54 200 59 204 31 232 35 
152 0.22277216423984414 0.33461169319316597 0.9789310456823643 0 0 0 0.45 135 42 187 88 234 53 
153 0.04285187133605307 0.09660317333108667 1.0381755264017267 0 0 0 0.22 136 14 146 83 187 89 200 60 
154 0.013946152373123664 0.09687875200367471 1.032641811675145 0 0 0 0.09 136 15 146 84 187 90 
155 0.02946708447489481 0.09746692225187986 1.0350032100939195 0 0 0 0.25 136 16 146 85 187 91 213 71 234 54 
156 0.08059707120503237 0.10186907720926026 1.0440705541980198 0 0 0 0.19 136 17 187 92 213 72 234 55 
157 -0.022279477726019653 0.09753891978345532 1.024439139108616 0 0 0 0.52 136 18 187 93 200 61 
158 0.07803756631275478 0.10441952839120164 1.043417553372323 0 0 0 0.19 136 19 157 55 187 94 200 62 213 73 214 26 
159 0.0780919086958953 0.10439744546941292 1.0434456237805134 0 0 0 0.21 136 20 146 86 148 24 157 56 159 19 176 66 187 95 200 63 213 74 214 27 
160 0.08487930380785158 0.10454964171651389 1.0436157922708058 0 0 0 0.21 136 21 175 33 187 96 
161 -0.02312018759953925 0.10156474142245506 1.023397085987064 0 0 0 0.38 136 22 159 20 176 67 187 97 
162 0.012049700462463482 0.12982268134477057 1.0173632442274378 0 0 0 0.23 136 23 146 87 157 57 187 98 200 64 214 28 224 18 
163 0.02803196608612713 0.1901848817012381 0.9983384049540119 0 0 0 0.23 136 24 187 99 213 75 
164 0.06948056674590831 0.28316119063174544 0.9663207099319683 0 0 0 0.11 136 25 146 88 187 100 
165 0.03605578746900401 0.29516976473324363 0.9551231234054335 0 0 0 0.21 136 26 146 89 175 34 187 101 213 76 214 29 231 15 
166 0.08764883544526439 0.2987838618958983 0.967465468940001 0 0 0 0.33 136 27 187 102 214 30 
167 -0.05602507982182 0.2963867071053647 0.9404044141565703 0 0 0 0.44 136 28 146 90 176 68 213 77 214 31 223 19 
168 -0.04297740480016586 0.29730004379271946 0.9424773340927751 0 0 0 0.31 136 29 146 91 200 65 
169 0.09927072283276052 0.30150953660602087 0.9641150887733833 0 0 0 0.13 136 30 146 92 187 103 214 32 
170 0.06912402253313354 0.301221540086977 0.9580285413078344 0 0 0 0.36 136 31 146 93 187 104 234 56 
171 0.1237774235521936 0.07218238485242934 1.0636594951644356 0 0 0 0.42 136 32 157 58 187 105 
172 -0.015007415976469981 0.09537100792823788 1.0276427838899427 0 0 0 0.4 136 33 146 94 200 66 213 78 234 57 
173 0.014956199375341274 0.1852774401768965 0.9982737232400996 0 0 0 0.22 136 34 146 95 157 59 164 44 176 69 187 106 200 67 213 79 231 16 234 58 
174 0.09912679377384606 0.1938086101035328 1.0106432700388148 0 0 0 0.19 136 35 146 96 175 35 176 70 187 107 200 68 213 80 223 20 231 17 234 59 
175 0.09909842042898918 0.1938405465534537 1.0105064427321386 0 0 0 0.18 136 36 146 97 148 25 157 60 159 21 164 45 175 36 176 71 185 25 187 108 196 13 213 81 214 33 223 21 234 60 
176 0.029048942375464504 0.19184158236852908 0.9974452203845369 0 0 0 0.09 136 37 148 26 157 61 159 22 164 46 175 37 176 72 187 109 213 82 214 34 234 61 
177 -0.036878387303932024 0.1904058803224572 0.9854811074830523 0 0 0 0.1 136 38 146 98 148 27 157 62 159 23 213 83 214 35 
178 0.09891520560843674 0.29422379203043747 0.9669246135591166 0 0 0 0.34 136 39 148 28 164 47 187 110 213 84 214 36 234 62 
179 0.0654009122651388 0.2966940906617482 0.9599286586125683 0 0 0 0.15 136 40 146 99 187 111 213 85 
180 0.07071887898772618 0.2992844466083487 0.9597237748851967 0 0 0 0.26 136 41 146 100 164 48 175 38 187 112 196 14 200 69 213 86 214 37 231 18 234 63 
181 0.17254913094358718 0.30391311603220716 0.9783391077815071 0 0 0 0.09 136 42 187 113 213 87 
182 0.12539400011913665 0.19479281945521731 1.016781917350264 0 0 0 0.34 136 43 146 101 172 26 176 73 187 114 204 32 213 88 219 21 222 26 223 22 234 64 
183 0.05441729500159703 0.19275232137445097 1.0042088897547465 0 0 0 0.27 136 44 146 102 157 63 158 41 159 24 164 49 172 27 175 39 176 74 187 115 213 89 214 38 219 22 232 36 234 65 
184 0.0677554904927047 0.2868182618403059 0.964344206941722 0 0 0 0.14 136 45 146 103 148 29 164 50 172 28 187 116 196 15 213 90 214 39 223 23 232 37 234 66 
185 0.07041537065611012 0.2908999322997173 0.9631124977585861 0 0 0 0.26 136 46 146 104 148 30 164 51 187 117 213 91 223 24 234 67 
186 0.1699974641163948 0.2960051814416119 0.9804422847375008 0 0 0 0.36 136 47 148 31 187 118 213 92 214 40 
187 0.17006004820937032 0.29605835223327137 0.9805086925620651 0 0 0 0.34 136 48 148 32 164 52 187 119 213 93 
188 -0.0993461245837822 0.2931553761503542 0.9368090669312771 0 0 0 0.27 136 49 146 105 164 53 176 75 204 33 213 94 214 41 
189 0.06810056131719226 0.2975511163902608 0.9600077142040453 0 0 0 0.21 136 50 146 106 148 33 158 42 164 54 175 40 187 120 196 16 213 95 214 42 223 25 234 68 
190 -0.1196070619918303 0.29708589972123106 0.9348147439138746 0 0 0 0.26 136 51 176 76 213 96 
191 -0.0612722157549397 0.2486513495336836 0.9540633408375906 0 0 0 0.22 136 52 146 107 148 34 158 43 164 55 176 77 185 26 190 10 213 97 214 43 219 23 221 18 222 27 
192 -0.08619610202069428 0.2837920310215316 0.9428409030933852 0 0 0 0.33 136 53 146 108 164 56 176 78 190 11 213 98 214 44 232 38 
193 -0.06691893462336924 0.2894873973200144 0.9346841072956523 0 0 0 0.31 136 54 148 35 172 29 190 12 
194 0.031314655484742805 0.07006151061189285 1.0381699141962084 0 0 0 0.28 146 109 187 121 200 70 234 69 
195 0.03985722209940946 0.09204697600745174 1.0400201640858546 0 0 0 0.12 146 110 157 64 187 122 200 71 213 99 
196 -0.0018729068099164082 0.0935291452830032 1.0303535362650778 0 0 0 0.47 146 111 157 65 187 123 200 72 213 100 
197 0.021225722471055152 0.09527377918932788 1.0341095545259347 0 0 0 0.18 146 112 164 57 187 124 
198 0.0437295637437703 0.0986131909201671 1.037169543494918 0 0 0 0.2 146 113 157 66 187 125 200 73 214 45 
199 0.08274088661677925 0.10032375091829052 1.0451745850689427 0 0 0 0.23 146 114 148 36 176 79 187 126 213 101 
200 0.0020946904726313617 0.09996894943902969 1.0281579456897072 0 0 0 0.25 146 115 187 127 213 102 
201 0.08649769623205512 0.10333645971926808 1.0430621941941793 0 0 0 0.2 146 116 175 41 187 128 
202 -0.016560803657883795 0.1025480375005933 1.0242732508414465 0 0 0 0.17 146 117 157 67 234 70 
203 0.018244871596481905 0.10644291649045429 1.0289164649540954 0 0 0 0.2 146 118 157 68 187 129 234 71 
204 -0.028234545455438506 0.10756738966620483 1.0189851382233466 0 0 0 0.57 146 119 157 69 159 25 200 74 213 103 224 19 
205 0.050934765944298445 0.10994706254465843 1.0346402739954443 0 0 0 0.13 146 120 176 80 187 130 
206 0.016270042075035813 0.11096821927322456 1.026672636462216 0 0 0 0.13 146 121 157 70 187 131 200 75 213 104 234 72 
207 0.039838130465508284 0.1117278103209844 1.0313839592570888 0 0 0 0.12 146 122 187 132 200 76 
208 0.07138140212674354 0.11275379878632752 1.0386596047183354 0 0 0 0.09 146 123 175 42 187 133 213 105 
209 0.09024642070605624 0.113923425869284 1.0414164452590335 0 0 0 0.23 146 124 157 71 175 43 187 134 200 77 213 106 
210 0.09017830139956967 0.11396362628299796 1.041229927012767 0 0 0 0.33 146 125 157 72 187 135 
211 0.06109622184589857 0.11438220237862423 1.0355385209597852 0 0 0 0.24 146 126 175 44 187 136 200 78 213 107 
212 0.08598588692356379 0.11557020872909572 1.0408893973530482 0 0 0 0.29 146 127 157 73 175 45 187 137 
213 0.0858808735859872 0.11554631273194231 1.0404370977329473 0 0 0 0.37 146 128 157 74 175 46 187 138 214 46 
214 0.10750648446597383 0.11604176723299746 1.0435511660951302 0 0 0 0.02 146 129 175 47 187 139 
215 0.03002797856336211 0.11650094856835519 1.0277966698410554 0 0 0 0.23 146 130 157 75 187 140 
216 0.024652880329393195 0.11741977460720404 1.0264870464209577 0 0 0 0.11 146 131 157 76 176 81 187 141 200 79 231 19 234 73 
217 -0.006531942495192426 0.11785014026145262 1.0201888050191437 0 0 0 0.08 146 132 157 77 213 108 234 74 
218 0.0857199733754959 0.120893938024987 1.0380260381570865 0 0 0 0.17 146 133 157 78 175 48 187 142 213 109 
219 0.13396786007332054 0.12193892701150717 1.043467676933715 0 0 0 0.37 146 134 175 49 187 143 
220 0.132337559774207 0.12361825437773093 1.0425344172433895 0 0 0 0.11 146 135 175 50 187 144 
221 0.003523991706794457 0.12240826220649668 1.0188117238084262 0 0 0 0.33 146 136 157 79 187 145 213 110 214 47 224 20 234 75 
222 -0.061706930064731866 0.12143148527087679 1.0072250173773811 0 0 0 0.07 146 137 157 80 213 111 
223 -0.05870870786361166 0.12152523054796359 1.0076649559311597 0 0 0 0.1 146 138 157 81 176 82 213 112 
224 -0.05870036570923692 0.12152475919052509 1.0076495838321182 0 0 0 0.13 146 139 157 82 213 113 
225 0.00661931699438091 0.12272421998770126 1.0190649650784716 0 0 0 0.29 146 140 187 146 234 76 
226 -0.05599038858014097 0.1217858675876108 1.0085321444183777 0 0 0 0.15 146 141 157 83 213 114 
227 -0.055974805429517355 0.12180309920625786 1.0085295307952027 0 0 0 0.15 146 142 200 80 213 115 
228 0.07403984836525053 0.1269614410814476 1.0324262706647322 0 0 0 0.18 146 143 187 147 234 77 
229 0.023334014550647538 0.1299172114635332 1.019797278297952 0 0 0 0.27 146 144 164 58 187 148 200 81 213 116 224 21 231 20 234 78 
230 0.06195495569135624 0.13130175204700179 1.0275342989682856 0 0 0 0.15 146 145 175 51 187 149 234 79 
231 0.13408217408114925 0.13592549457143535 1.0401699090305034 0 0 0 0.07 146 146 175 52 187 150 200 82 
232 0.08859083937054318 0.13873690855122853 1.0312135141528351 0 0 0 0.19 146 147 175 53 187 151 234 80 
233 0.1246604666964312 0.15288422857533007 1.0336924625201838 0 0 0 0.11 146 148 157 84 176 83 187 152 234 81 
234 0.12658103075031035 0.15330741001705286 1.0331127290839408 0 0 0 0.14 146 149 176 84 187 153 
235 0.09005323551397977 0.15363888344524432 1.0276489693118966 0 0 0 0.14 146 150 157 85 187 154 200 83 
236 0.1963305141093847 0.1563367284815162 1.0479188761506613 0 0 0 0.27 175 54 187 155 200 84 
237 0.13278689538043414 0.15625483569460424 1.0323988413673875 0 0 0 0.23 146 151 157 86 175 55 187 156 200 85 
238 0.0937294978673552 0.1652312310901837 1.0206187110426324 0 0 0 0.23 146 152 175 56 187 157 
239 0.06511768741454071 0.1766221885500517 1.0117133262459648 0 0 0 0.19 146 153 175 57 176 85 187 158 
240 0.05919415828846298 0.18025578222849672 1.0078847015585752 0 0 0 0.34 146 154 175 58 187 159 234 82 
241 0.057384378672598116 0.18103136347749768 1.0089073319723023 0 0 0 0.2 146 155 157 87 175 59 187 160 
242 0.1277563848755375 0.18361994154343414 1.0209283372518714 0 0 0 0.31 146 156 157 88 175 60 187 161 213 117 
243 0.0222670332434161 0.1819982871028623 1.0024301051531248 0 0 0 0.31 146 157 157 89 175 61 187 162 200 86 
244 0.0478167949889663 0.18337263009425814 1.0048143001547896 0 0 0 0.14 146 158 157 90 187 163 213 118 
245 0.047881558865076036 0.1834050041226648 1.0050283867525736 0 0 0 0.18 146 159 157 91 175 62 187 164 
246 0.045952326171344024 0.1843037513429495 1.0037508476583095 0 0 0 0.23 146 160 157 92 175 63 187 165 200 87 234 83 
247 0.059367764343369864 0.18594604894763225 1.0064164899921406 0 0 0 0.28 146 161 157 93 175 64 187 166 200 88 214 48 234 84 
248 0.05299479940713003 0.18615176412342466 1.0051952362313754 0 0 0 0.17 146 162 175 65 176 86 187 167 234 85 
249 0.11238767842692535 0.1888726131665066 1.0151625754430644 0 0 0 0.23 146 163 148 37 157 94 159 26 164 59 175 66 176 87 187 168 200 89 213 119 214 49 231 21 234 86 
250 0.11895852422078781 0.1890354120803898 1.016678556100595 0 0 0 0.18 146 164 157 95 175 67 187 169 200 90 214 50 
251 0.013915875816527451 0.18760493811665524 0.9967219843080546 0 0 0 0.36 146 165 187 170 214 51 
252 0.09484328389248044 0.1907320742374364 1.0104552728694913 0 0 0 0.35 146 166 187 171 234 87 
253 -0.02642508551291719 0.18829052617660064 0.9917457680789725 0 0 0 0.28 146 167 176 88 187 172 
254 -0.012247707534494 0.18874837839550698 0.9926433890941556 0 0 0 0.4 146 168 157 96 176 89 187 173 213 120 
255 0.02296909695915268 0.1914823994642208 0.998768533182129 0 0 0 0.19 146 169 157 97 175 68 187 174 213 121 
256 0.14435273051058842 0.19502623795225063 1.0205779281637017 0 0 0 0.2 146 170 157 98 187 175 
257 -0.08736864491271165 0.1899385570978791 0.982201201376266 0 0 0 0.13 146 171 157 99 176 90 231 22 
258 0.1624130205275566 0.20063649567708097 1.023219642146628 0 0 0 0.23 146 172 157 100 187 176 213 122 234 88 
259 0.02741353429120547 0.1966493974195335 0.9960149586084516 0 0 0 0.28 146 173 175 69 187 177 200 91 213 123 214 52 234 89 
260 0.09734543437576257 0.20008194773998375 1.007791006807591 0 0 0 0.29 146 174 157 101 159 27 175 70 187 178 213 124 214 53 
261 -0.06447029650858167 0.23740050941638455 0.9508900102089823 0 0 0 0.15 146 175 176 91 213 125 
262 0.0653349464632471 0.24483274684016365 0.9789954415984945 0 0 0 0.06 146 176 175 71 187 179 
263 0.06587034987872818 0.24669375599069246 0.9759833904733205 0 0 0 0.22 146 177 175 72 187 180 234 90 
264 -0.007014124295525997 0.24753032013853954 0.965173871162737 0 0 0 0.21 146 178 157 102 200 92 214 54 
265 0.08120313833667459 0.2522226628420054 0.9845033622888069 0 0 0 0.09 146 179 175 73 187 181 214 55 
266 -0.016660631131445655 0.24889917770774697 0.967215030116018 0 0 0 0.43 146 180 176 92 187 182 
267 -0.01182958592174967 0.253069564580466 0.9652315089950977 0 0 0 0.23 146 181 175 74 187 183 
268 0.10001411560402064 0.2564837142975419 0.9786860346302219 0 0 0 0.3 146 182 175 75 187 184 
269 -0.13253869390221457 0.2516504624736787 0.9526700033401436 0 0 0 0.18 146 183 157 103 176 93 200 93 213 126 
270 0.1358873953230675 0.2599988300244964 0.9838566672113874 0 0 0 0.25 146 184 176 94 187 185 214 56 
271 0.06608919345907029 0.2577592125615835 0.9725200734240272 0 0 0 0.1 146 185 157 104 175 76 187 186 
272 -0.0068786306431086975 0.25556094943820395 0.9608860030491824 0 0 0 0.28 146 186 157 105 175 77 187 187 
273 -0.06743100808809901 0.2524833385179087 0.9446891993387884 0 0 0 0.17 146 187 157 106 176 95 231 23 
274 -0.060476965107474544 0.253830559959691 0.9517688210878535 0 0 0 0.16 146 188 164 60 176 96 213 127 
275 -0.03458826953626761 0.25445636736359917 0.953976640677955 0 0 0 0.06 146 189 157 107 214 57 231 24 
276 -0.03239909946416407 0.25465845933794135 0.9554771902451847 0 0 0 0.22 146 190 157 108 214 58 
277 -0.0015861014494250405 0.2556308895289525 0.9601275667474063 0 0 0 0.15 146 191 157 109 213 128 214 59 
278 0.26969004884967773 0.27370951433190305 1.01235406762729 0 0 0 0.46 175 78 176 97 187 188 196 17 
279 0.16929861635480234 0.26945428163144614 0.9904242865867074 0 0 0 0.13 157 110 175 79 187 189 214 60 
280 -0.011522721519959778 0.26454696923998827 0.9621359734796517 0 0 0 0.26 146 192 175 80 187 190 
281 0.029161986098257767 0.2648366550143073 0.9654484616217206 0 0 0 0.2 146 193 175 81 187 191 188 1 213 129 234 91 
282 0.17609249981363578 0.2711996690086746 0.9912321687232564 0 0 0 0.17 175 82 187 192 200 94 214 61 
283 0.24116785135433141 0.27449770592894956 1.0056920947737715 0 0 0 0.12 175 83 187 193 200 95 
284 -0.00021759623344740816 0.2642953226088921 0.9603086809722108 0 0 0 0.11 146 194 187 194 214 62 
285 0.10354823648596519 0.2687347934372969 0.9769878071001449 0 0 0 0.08 146 195 187 195 213 130 214 63 
286 0.23887005743762743 0.2760238942815938 1.005080125477451 0 0 0 0.21 175 84 187 196 194 3 213 131 
287 -0.029234649620691375 0.2643513333582793 0.9539196876291558 0 0 0 0.07 146 196 176 98 214 64 
288 0.2368113428706822 0.2773455350981025 1.0048168107701017 0 0 0 0.2 157 111 175 85 187 197 213 132 
289 -0.00270451679478766 0.26677465946021317 0.9572099949907413 0 0 0 0.28 146 197 187 198 234 92 
290 0.027988852474492464 0.2691933861197193 0.9635809623247398 0 0 0 0.23 146 198 157 112 187 199 
291 0.03382660425525729 0.2698572435239681 0.965349940533207 0 0 0 0.17 146 199 157 113 175 86 187 200 213 133 214 65 
292 -0.0008341096387218895 0.2685070834587073 0.958468092780562 0 0 0 0.1 146 200 187 201 214 66 
293 -0.035412592985501014 0.2669579660398706 0.9517287933335473 0 0 0 0.2 146 201 213 134 214 67 
294 -0.030353929238481854 0.2734543628096599 0.9505087045800629 0 0 0 0.26 146 202 176 99 213 135 
295 -0.002792258571182867 0.27575522456011725 0.9564033574547879 0 0 0 0.1 146 203 187 202 213 136 
296 0.034005857414111204 0.277040867993915 0.9624613657144588 0 0 0 0.16 146 204 175 87 187 203 213 137 
297 0.035563368274833085 0.2782638932537574 0.9615343968137808 0 0 0 0.42 146 205 187 204 213 138 
298 0.10590523265890261 0.285709829565231 0.9714156141944763 0 0 0 0.13 146 206 187 205 213 139 214 68 
299 -0.033317929405149285 0.28077149038294624 0.9477250858458375 0 0 0 0.32 146 207 176 100 214 69 
300 0.022387172206682644 0.2860853111492433 0.960795271500759 0 0 0 0.2 146 208 175 88 187 206 213 140 234 93 
301 0.020840580947250515 0.28789498592862656 0.9612071382264208 0 0 0 0.09 146 209 175 89 187 207 213 141 214 70 
302 0.07280546921849036 0.2920485228736138 0.9629828012814554 0 0 0 0.2 146 210 187 208 213 142 
303 0.20651518685697348 0.30071923067137896 0.9874579557434958 0 0 0 0.19 175 90 187 209 213 143 
304 -0.00070922027400314 0.2925049666320348 0.9510745048674535 0 0 0 0.32 146 211 157 114 175 91 187 210 213 144 
305 0.0656462126151442 0.29470763425686336 0.9607482115362853 0 0 0 0.04 146 212 187 211 214 71 
306 0.07045052915348898 0.2952173011124803 0.9613071577240598 0 0 0 0.42 146 213 148 38 187 212 214 72 223 26 234 94 
307 -0.0008243518409699769 0.29478632069696187 0.9487126643236202 0 0 0 0.15 146 214 157 115 213 145 214 73 224 22 
308 0.034582808424245916 0.2982003303506007 0.9540021237528838 0 0 0 0.09 146 215 187 213 214 74 
309 0.10233217451232618 0.30345558178649223 0.962644916566428 0 0 0 0.23 146 216 187 214 213 146 
310 0.20721853597549816 0.3115730870930983 0.9825077864070111 0 0 0 0.08 175 92 187 215 213 147 
311 -0.033457031505011295 0.3010925842173218 0.9394164599359731 0 0 0 0.07 146 217 176 101 213 148 214 75 
312 -0.03158741045553302 0.3011339735926588 0.9398304028609313 0 0 0 0.12 146 218 213 149 214 76 
313 -0.03143886588208852 0.3040384141273046 0.9385196377805196 0 0 0 0.23 146 219 176 102 213 150 214 77 
314 -0.03143886588208852 0.3040384141273046 0.9385196377805196 0 0 0 0.23 146 220 176 103 213 151 214 78 
315 0.21300008791624228 0.3154109674645407 0.9819323352920583 0 0 0 0.39 158 44 187 216 213 152 
316 -0.02965910993377951 0.30583256124946573 0.9370251685506683 0 0 0 0.24 146 221 176 104 213 153 
317 0.20730017180440952 0.31768759061827667 0.9805032126110297 0 0 0 0.2 175 93 187 217 213 154 
318 -0.03154620645003489 0.30654295231118006 0.9374597405345406 0 0 0 0.12 146 222 176 105 213 155 214 79 
319 -0.03521950927047493 0.30796378044456 0.9361887014144855 0 0 0 0.16 146 223 164 61 213 156 214 80 
320 -0.0312932224207632 0.3092945135352922 0.9364870509723416 0 0 0 0.16 146 224 213 157 214 81 
321 -0.10219192482197881 0.3081075170351508 0.9279835031487529 0 0 0 0.31 146 225 176 106 214 82 
322 0.034687377326989205 0.31456864725763556 0.9468092462797933 0 0 0 0.15 146 226 175 94 187 218 
323 -0.03104941937634286 0.3153561600810877 0.9344220614034362 0 0 0 0.15 146 227 213 158 214 83 
324 0.10491249316606263 0.3248624219052448 0.955907867062964 0 0 0 0.19 146 228 187 219 200 96 
325 -0.03281120093004464 0.3219595587870224 0.9313587714152007 0 0 0 0.25 146 229 176 107 214 84 
326 0.10215327985492252 0.3284123048578678 0.9537529635677999 0 0 0 0.18 146 230 175 95 187 220 
327 -0.0031616476959134615 0.09074995573033479 1.0299960531070482 0 0 0 0.42 146 231 158 45 176 108 185 27 187 221 213 159 214 85 222 28 223 27 
328 0.040678565443657826 0.09442877875863635 1.0390580127050733 0 0 0 0.33 146 232 157 116 187 222 234 95 
329 0.03997331718434794 0.09853144659965654 1.0357984392625097 0 0 0 0.19 146 233 157 117 187 223 213 160 234 96 
330 0.013124311343497974 0.11126051232919715 1.0266013455569565 0 0 0 0.36 146 234 157 118 187 224 213 161 
331 -0.015871774822986004 0.11288996075544012 1.0210697079023834 0 0 0 0.3 146 235 224 23 234 97 
332 0.1291701693062687 0.11611181876808445 1.0423160575834183 0 0 0 0.35 146 236 157 119 164 62 175 96 187 225 200 97 234 98 
333 -0.02442184172519317 0.11493234716607653 1.0185581692359653 0 0 0 0.24 146 237 157 120 213 162 
334 -0.015477362573254631 0.1264589060232196 1.0136701966364243 0 0 0 0.21 146 238 148 39 157 121 185 28 187 226 196 18 200 98 213 163 214 86 224 24 234 99 
335 0.10260713125362335 0.13028619925197707 1.0364584513765425 0 0 0 0.37 146 239 157 122 164 63 175 97 176 109 187 227 200 99 213 164 214 87 223 28 234 100 
336 0.10828401740421933 0.13044079396998154 1.0372176685782557 0 0 0 0.18 146 240 148 40 159 28 164 64 176 110 187 228 200 100 213 165 219 24 234 101 
337 0.1205493056523441 0.13105304854081368 1.0395267500858658 0 0 0 0.33 146 241 148 41 159 29 185 29 187 229 213 166 214 88 
338 0.1347472736668852 0.131527007883346 1.0413778616313532 0 0 0 0.24 146 242 157 123 175 98 176 111 187 230 200 101 213 167 234 102 
339 -0.02213384949499191 0.12855347383435575 1.0115871167482586 0 0 0 0.1 146 243 200 102 214 89 231 25 
340 0.005005964525175602 0.12939235267084764 1.0166421162440942 0 0 0 0.25 146 244 176 112 187 231 231 26 234 103 
341 0.008492812531553361 0.12959693229909167 1.0167895233063504 0 0 0 0.27 146 245 164 65 176 113 185 30 187 232 213 168 214 90 223 29 224 25 231 27 234 104 
342 -0.12044322104719059 0.12767260113246293 1.0027777177726536 0 0 0 0.3 146 246 157 124 158 46 176 114 
343 0.07494200703888161 0.1313632331236976 1.030667918673226 0 0 0 0.18 146 247 176 115 187 233 213 169 
344 0.16254913449894512 0.1333062919452217 1.0493991155232298 0 0 0 0.16 175 99 187 234 221 19 234 105 
345 0.114003147103835 0.13306083768470323 1.0368093460150005 0 0 0 0.13 146 248 148 42 175 100 176 116 187 235 234 106 
346 0.114003147103835 0.13306083768470323 1.0368093460150005 0 0 0 0.13 146 249 148 43 175 101 176 117 187 236 234 107 
347 0.12337625033289275 0.140355235573243 1.036514251131427 0 0 0 0.23 146 250 187 237 234 108 
348 0.16599239790028167 0.14853158559091498 1.043677738747401 0 0 0 0.16 175 102 187 238 213 170 
349 0.20189743502789387 0.15160333447107038 1.0507662239776279 0 0 0 0.11 175 103 187 239 234 109 
350 0.12878488175140756 0.1607344503489882 1.030418791334043 0 0 0 0.3 146 251 157 125 187 240 
351 0.058565889922414745 0.16789944662501005 1.0132545036074352 0 0 0 0.33 146 252 175 104 187 241 200 103 234 110 
352 0.05881959137750054 0.17113107176778253 1.0120298619129304 0 0 0 0.31 146 253 157 126 175 105 187 242 200 104 
353 0.05905240405816716 0.17484358707658385 1.0101952962219478 0 0 0 0.22 146 254 157 127 164 66 175 106 187 243 200 105 234 111 
354 -0.008500338539880912 0.17627207970536277 0.9960237081597336 0 0 0 0.26 146 255 187 244 234 112 
355 0.004343322771003366 0.18428035979222007 0.9967208624893387 0 0 0 0.14 146 256 176 118 187 245 213 171 231 28 234 113 
356 0.0426961685510608 0.1861565903703412 1.0032568698284203 0 0 0 0.2 146 257 157 128 158 47 175 107 176 119 187 246 200 106 213 172 231 29 
357 0.07510883760808432 0.1900987087162844 1.0108911818158162 0 0 0 0.22 146 258 175 108 187 247 
358 0.08993496116131716 0.19187687267799983 1.0119950311372976 0 0 0 0.09 146 259 187 248 234 114 
359 0.05093361393712204 0.19179497478489596 1.0029862642875849 0 0 0 0.27 146 260 157 129 159 30 175 109 187 249 213 173 
360 0.020710956981750597 0.19113215726123786 0.9980600463425223 0 0 0 0.15 146 261 157 130 187 250 
361 0.22954415036364711 0.19958341341576846 1.0385625940240435 0 0 0 0.28 157 131 159 31 164 67 175 110 176 120 187 251 213 174 
362 0.059819667286644 0.1992107644991332 1.0000178949158913 0 0 0 0.29 146 262 175 111 187 252 200 107 
363 0.23177899886841316 0.2402849898886674 1.023845660608117 0 0 0 0.11 175 112 187 253 234 115 
364 -0.04447210733034649 0.24436537458288013 0.9627127315730294 0 0 0 0.08 146 263 176 121 200 108 213 175 
365 0.012208796199183155 0.24860790565596166 0.9735068185742938 0 0 0 0.28 146 264 187 254 213 176 231 30 234 116 
366 0.01924535324270831 0.24941879333549052 0.9748679544776525 0 0 0 0.17 146 265 176 122 187 255 234 117 
367 -0.004622793427568564 0.24810289825071058 0.9646265042766435 0 0 0 0.19 146 266 176 123 187 256 213 177 234 118 
368 0.03167386745836445 0.25673820264850783 0.9661625193746719 0 0 0 0.19 146 267 157 132 175 113 187 257 188 2 213 178 231 31 
369 0.2027421682927628 0.26627072273839864 0.9984141121092032 0 0 0 0.15 176 124 187 258 234 119 
370 0.11836507965795878 0.2658126024660775 0.9838411079464079 0 0 0 0.14 146 268 187 259 194 4 214 91 
371 0.030658810558640903 0.26224641316257846 0.9658927641605047 0 0 0 0.23 146 269 148 44 157 133 159 32 175 114 187 260 188 3 196 19 213 179 214 92 223 30 231 32 234 120 
372 -0.01308928101905039 0.2624028166224682 0.9638911350923655 0 0 0 0.36 146 270 157 134 176 125 213 180 231 33 
373 -0.005451408438699178 0.2611535413601387 0.9602302140190564 0 0 0 0.18 146 271 176 126 187 261 214 93 
374 -0.03830383956695007 0.26045980742238845 0.9547649283214711 0 0 0 0.06 146 272 157 135 176 127 
375 -0.03830383956695039 0.2604598074223925 0.9547649283214933 0 0 0 0.06 146 273 157 136 176 128 
376 0.01763533388786728 0.2634460167617841 0.967453421617121 0 0 0 0.16 146 274 157 137 164 68 187 262 188 4 213 181 214 94 234 121 
377 0.19464409840919 0.272315030986028 1.0012253671771278 0 0 0 0.33 164 69 187 263 213 182 223 31 234 122 
378 0.09827597900861874 0.26706813258211504 0.9772871447698307 0 0 0 0.13 146 275 187 264 194 5 214 95 223 32 
379 0.09824771954723387 0.2670747545078399 0.9773792812420073 0 0 0 0.16 146 276 176 129 187 265 194 6 214 96 223 33 234 123 
380 0.10146134308647475 0.26716912280580907 0.9778018291433037 0 0 0 0.14 146 277 176 130 187 266 194 7 213 183 214 97 223 34 234 124 
381 0.1014563473480322 0.2671601349882264 0.9777744248073751 0 0 0 0.15 146 278 176 131 187 267 213 184 214 98 223 35 234 125 
382 0.10551363636774332 0.26718892625457913 0.97815753977963 0 0 0 0.19 146 279 187 268 214 99 223 36 
383 0.032037462996236714 0.26476793604341037 0.9657146401839982 0 0 0 0.19 146 280 175 115 187 269 188 5 200 109 223 37 234 126 
384 -0.03093063654556024 0.26259156039451076 0.9546382952790017 0 0 0 0.14 146 281 148 45 185 31 214 100 
385 -0.03083654301768634 0.26260245604069304 0.9546548050067889 0 0 0 0.23 146 282 148 46 157 138 176 132 185 32 196 20 213 185 214 101 223 38 
386 0.035545268783851496 0.26520456331068437 0.966339209507276 0 0 0 0.27 146 283 175 116 187 270 188 6 223 39 234 127 
387 0.046123648675519144 0.2668372313804437 0.9726618915310552 0 0 0 0.18 146 284 187 271 188 7 214 102 
388 -0.06906189115070499 0.2606429981621267 0.945069202055442 0 0 0 0.2 146 285 164 70 200 110 213 186 214 103 224 26 
389 -0.06364387704982867 0.260705061909083 0.9454426127580124 0 0 0 0.04 146 286 176 133 214 104 
390 -0.01565785729745335 0.2649055202270087 0.9618939185553954 0 0 0 0.09 146 287 176 134 187 272 214 105 
391 0.012934994408043085 0.2660977857762497 0.9672030674376128 0 0 0 0.17 146 288 187 273 188 8 214 106 
392 0.01638516580911943 0.26605929009408036 0.9674824227307257 0 0 0 0.23 146 289 164 71 187 274 188 9 214 107 231 34 
393 -0.10636006594637346 0.26175383309327194 0.9462609603282348 0 0 0 0.11 146 290 148 47 157 139 159 33 176 135 213 187 214 108 
394 -0.10203433216426674 0.2658007331347371 0.9450314958848258 0 0 0 0.12 146 291 176 136 185 33 213 188 
395 0.03548740739094139 0.2713622605210445 0.9644651318235281 0 0 0 0.14 146 292 187 275 213 189 234 128 
396 0.03591759095028927 0.275236089619168 0.9638656917771922 0 0 0 0.22 146 293 187 276 234 129 
397 0.17166200658847447 0.29020701236743573 0.9835136837155923 0 0 0 0.14 187 277 194 8 213 190 214 109 
398 -0.10015897709609678 0.2815295928691157 0.9455859166607049 0 0 0 0.36 146 294 176 137 185 34 213 191 
399 0.24062202241411074 0.29821197861224374 0.9978059192289782 0 0 0 0.14 164 72 187 278 213 192 
400 0.03558795913332397 0.288421252023093 0.957531488546935 0 0 0 0.13 146 295 187 279 223 40 
401 -0.10328614826964447 0.28426212807872847 0.9370644450674686 0 0 0 0.2 146 296 176 138 213 193 
402 0.021558655909106994 0.29087357664742913 0.9613840104381474 0 0 0 0.27 146 297 158 48 175 117 187 280 213 194 231 35 
403 -0.029976764531778534 0.28820221398407375 0.9457501976522489 0 0 0 0.15 146 298 164 73 176 139 
404 -0.0998779687673916 0.2868872725622877 0.939353021889708 0 0 0 0.23 146 299 148 48 157 140 164 74 176 140 213 195 214 110 
405 -0.033260908129054446 0.2881947027464833 0.9443116331319383 0 0 0 0.24 146 300 164 75 176 141 213 196 214 111 
406 0.13864840903088843 0.298439869048356 0.972026715858993 0 0 0 0.24 146 301 148 49 164 76 187 281 194 9 213 197 214 112 223 41 234 130 
407 -0.03543144910733714 0.29186969535624163 0.942754124664896 0 0 0 0.13 146 302 176 142 214 113 
408 -0.03317397507098535 0.29174550321805964 0.9432010811805785 0 0 0 0.2 146 303 164 77 176 143 213 198 214 114 
409 0.015702751136816503 0.2966472855144323 0.9552359117790473 0 0 0 0.33 146 304 175 118 187 282 213 199 234 131 
410 0.14038239503243982 0.3004708436283387 0.971027684370659 0 0 0 0.36 146 305 187 283 194 10 213 200 214 115 223 42 
411 -0.09528606326982134 0.2932223614148137 0.939187730059991 0 0 0 0.22 146 306 164 78 176 144 185 35 213 201 
412 -0.03334990415592757 0.29501162139175074 0.9416180454023988 0 0 0 0.21 146 307 164 79 176 145 213 202 214 116 
413 0.09173911860273656 0.3016754091814878 0.9653715074161713 0 0 0 0.31 146 308 187 284 204 34 222 29 223 43 234 132 
414 -0.022379237421311423 0.2975980503108319 0.945674667489533 0 0 0 0.29 146 309 176 146 213 203 214 117 
415 -0.011780647854748255 0.30041522241101487 0.9549625454636455 0 0 0 0.14 146 310 176 147 213 204 
416 0.06595568037887671 0.3022375297313951 0.9575919628580345 0 0 0 0.47 146 311 164 80 187 285 
417 0.09934623908078112 0.30623541858858366 0.9620760055148343 0 0 0 0.12 146 312 187 286 194 11 
418 -0.10892843714001255 0.3002089228152419 0.9314210643825649 0 0 0 0.05 146 313 213 205 214 118 
419 0.006671299939212779 0.30664915289781186 0.9442992708393046 0 0 0 0.41 146 314 164 81 172 30 204 35 213 206 234 133 
420 0.01712789702846607 0.309364902675557 0.9411608014089852 0 0 0 0.24 146 315 187 287 234 134 
421 0.1364574838783519 0.31549833114175235 0.9648737854643243 0 0 0 0.27 146 316 148 50 187 288 194 12 196 21 234 135 
422 -0.10561159506341793 0.3080102098380641 0.9289139307215629 0 0 0 0.19 146 317 176 148 213 207 
423 -0.03273981434934945 0.31328152937131865 0.9345031702524542 0 0 0 0.13 146 318 213 208 214 119 
424 0.10034156115176507 0.3198575283730817 0.9569495734647252 0 0 0 0.23 146 319 175 119 187 289 194 13 196 22 200 111 213 209 214 120 223 44 234 136 
425 -0.03461767522249815 0.315808982263907 0.9334133221201731 0 0 0 0.06 146 320 213 210 214 121 
426 -0.03461767522249815 0.315808982263907 0.9334133221201731 0 0 0 0.06 146 321 213 211 214 122 
427 0.13909407951945107 0.32388295633414294 0.9617355906029373 0 0 0 0.31 175 120 187 290 194 14 223 45 234 137 
428 0.10620694043855045 0.322937390220263 0.9566547642967012 0 0 0 0.3 146 322 148 51 164 82 187 291 194 15 213 212 214 123 223 46 
429 -0.03283994054009612 0.31721284783743703 0.9334332116499988 0 0 0 0.15 146 323 213 213 214 124 
430 -0.034578647003055595 0.32069908511972306 0.9310701978138742 0 0 0 0.22 146 324 164 83 200 112 213 214 214 125 
431 0.09492541132835582 0.09253168069648443 1.0467196537264443 0 0 0 0.41 146 325 157 141 176 149 187 292 223 47 234 138 
432 0.09506428330626424 0.09243748285496808 1.0469396012397265 0 0 0 0.39 146 326 187 293 223 48 234 139 
433 0.1162099877345161 0.10564520379510824 1.044508761509436 0 0 0 0.2 146 327 157 142 187 294 
434 0.05820329354300794 0.1113263153243316 1.0352376073009417 0 0 0 0.36 146 328 158 49 187 295 213 215 234 140 
435 -0.08975670798592539 0.11289425843233414 1.005393555990263 0 0 0 0.39 146 329 159 34 164 84 185 36 196 23 213 216 214 126 219 25 
436 0.13577602810657036 0.11932812136426214 1.0426574039261953 0 0 0 0.24 146 330 148 52 159 35 175 121 187 296 213 217 234 141 
437 -0.07331174380443978 0.1172996657992811 1.0068831525710376 0 0 0 0.4 146 331 157 143 158 50 176 150 185 37 196 24 213 218 214 127 
438 0.12568917814439634 0.1249786092644547 1.0425730952420265 0 0 0 0.43 146 332 152 18 157 144 175 122 185 38 187 297 200 113 
439 -0.011801705033672944 0.1264281572548613 1.0140436778462638 0 0 0 0.23 146 333 157 145 176 151 187 298 213 219 
440 -0.007796961511167155 0.1266857334011753 1.015242776310161 0 0 0 0.3 146 334 157 146 158 51 176 152 187 299 200 114 204 36 213 220 214 128 
441 0.06675524399121872 0.12934785682582645 1.0284254240500084 0 0 0 0.35 146 335 158 52 175 123 187 300 234 142 
442 0.13186260135966296 0.13371256451681252 1.039995768004179 0 0 0 0.19 146 336 187 301 200 115 234 143 
443 -0.008726877558293333 0.13163083537221817 1.0134331414763749 0 0 0 0.17 146 337 187 302 214 129 231 36 
444 -0.03595244807672205 0.18020053181405557 0.9908082910494097 0 0 0 0.44 146 338 158 53 187 303 
445 0.011294909547331823 0.18742196330905012 0.99673967235911 0 0 0 0.28 146 339 157 147 159 36 187 304 200 116 213 221 224 27 
446 0.07685383531106765 0.1938555973897324 1.0087760105213055 0 0 0 0.19 146 340 158 54 176 153 187 305 222 30 
447 0.08078111704746556 0.19397397504280442 1.009934578792811 0 0 0 0.09 146 341 187 306 234 144 
448 -0.07958888348044581 0.19192967256984506 0.9813191967582041 0 0 0 0.15 146 342 157 148 172 31 
449 -0.011893281969873996 0.2452286407890738 0.9669313412945824 0 0 0 0.13 146 343 157 149 221 20 
450 -0.0020895600857017615 0.2463901522198603 0.964574802712658 0 0 0 0.43 146 344 157 150 187 307 234 145 
451 -0.07043359649369309 0.24548262734180465 0.9500872545853483 0 0 0 0.22 146 345 157 151 164 85 200 117 213 222 
452 0.1999437719736001 0.25865012535890236 1.0033023478781362 0 0 0 0.25 157 152 158 55 176 154 187 308 200 118 213 223 
453 0.028165788890338345 0.2532667154606067 0.969435207476779 0 0 0 0.34 146 346 157 153 158 56 175 124 176 155 187 309 213 224 
454 -0.02780447989108662 0.2545743917588797 0.9585277471241563 0 0 0 0.2 146 347 158 57 231 37 
455 0.17092050017355087 0.26693806343891774 0.9913925210669007 0 0 0 0.21 157 154 175 125 176 156 187 310 204 37 213 225 234 146 
456 0.1787038831627237 0.26739641075979886 0.9939333023561987 0 0 0 0.22 175 126 176 157 187 311 234 147 
457 0.06663324061179784 0.2629934778334237 0.9720811025349442 0 0 0 0.35 146 348 175 127 176 158 187 312 188 10 213 226 231 38 232 39 234 148 
458 0.06667302162869967 0.26303739696091943 0.9723540286458026 0 0 0 0.33 146 349 175 128 176 159 187 313 188 11 213 227 214 130 231 39 232 40 234 149 
459 0.10007534108100219 0.2641520530648003 0.9776368705556607 0 0 0 0.17 146 350 148 53 157 155 164 86 176 160 185 39 187 314 194 16 204 38 213 228 214 131 219 26 223 49 234 150 
460 0.02766419030675682 0.262174194921647 0.9653930877458876 0 0 0 0.17 146 351 159 37 187 315 213 229 
461 0.027689684921621258 0.26218880296254204 0.9656444160421033 0 0 0 0.13 146 352 187 316 188 12 213 230 214 132 
462 0.033957615847416224 0.26234176337852955 0.966313159320212 0 0 0 0.1 146 353 157 156 175 129 187 317 188 13 204 39 213 231 234 151 
463 0.03395531781406013 0.26234164800008164 0.9662622072259073 0 0 0 0.09 146 354 157 157 175 130 187 318 188 14 213 232 234 152 
464 0.08848159552623598 0.2652556249311594 0.9794269891777203 0 0 0 0.31 146 355 187 319 213 233 234 153 
