# 3D point list with one line of data per point:
#   POINT3D_ID, X, Y, Z, R, G, B, ERROR, TRACK[] as (IMAGE_ID, POINT2D_IDX)
# Number of points: 431, mean track length: 5.27
245 -0.08926916144390175 -0.04476267420374726 1.0331768833269173 0 0 0 0.63 126 188 142 245 159 93 185 43 194 40 196 93 200 13 224 35 
246 -0.33045772650602157 -0.013833584073729352 1.027308331819797 0 0 0 0.38 126 189 142 246 148 129 159 94 
247 -0.34568384596523216 -0.012374398080596117 1.026992144417491 0 0 0 0.37 126 190 142 247 148 130 159 95 196 94 
248 -0.29855438702045195 -0.006156841569695031 0.8821268071648962 0 0 0 0.23 126 191 142 248 148 131 224 36 
249 0.09662181679535144 -0.009580379504461205 1.0458173417894303 0 0 0 0.3 126 192 136 45 142 249 148 132 162 30 163 13 190 25 217 14 220 45 222 30 227 16 
250 -0.2579348117480558 -0.0033434370349783413 1.0229229378647562 0 0 0 0.22 126 193 142 250 159 96 185 44 
251 -0.3736334776775793 0.005174914414013423 1.0295928312456626 0 0 0 0.52 126 194 142 251 159 97 
252 0.12354302703772009 0.0035930538650714877 1.046696488085422 0 0 0 0.33 126 195 142 252 194 41 
253 0.13016877074610345 0.009902578977807922 1.0492634409264532 0 0 0 0.51 126 196 142 253 172 30 185 45 199 14 213 39 217 15 221 43 232 55 
254 -0.12855228929682394 0.032155818474116145 1.0174276957379913 0 0 0 0.23 126 197 142 254 196 95 220 46 224 37 
255 0.14517338830079046 0.033148791573462726 1.0470174792802156 0 0 0 0.27 126 198 142 255 148 133 152 5 159 98 185 46 194 42 196 96 220 47 232 56 
256 -0.09361670818839057 0.04162204150330276 1.0154741633633362 0 0 0 0.23 126 199 142 256 159 99 
257 0.11917041356262509 0.039415910286801414 1.041564501251857 0 0 0 0.37 126 200 142 257 164 71 222 31 
258 0.13180249839449784 0.05790556891188775 1.039126893253152 0 0 0 0.22 126 201 142 258 220 48 
259 0.13082424954304955 0.07418260078312847 1.038847698433664 0 0 0 0.15 126 202 142 259 148 134 
260 -0.11317610461249773 0.08728104064718749 1.0023035038359762 0 0 0 0.66 126 203 136 46 142 260 185 47 214 25 
261 -0.053680610431680736 0.0868548118516616 1.0051677720741563 0 0 0 0.57 126 204 142 261 196 97 198 18 
262 -0.021695676596913252 0.08766144222944226 1.011859902808651 0 0 0 0.17 126 205 142 262 199 15 
263 -0.11408282745706215 0.09551798277635416 1.0026036120566022 0 0 0 0.08 126 206 142 263 196 98 198 19 
264 0.12484918800047656 0.08681673001837212 1.0285142500768383 0 0 0 0.42 126 207 142 264 147 22 148 135 159 100 164 72 190 26 196 99 213 40 217 16 232 57 
265 -0.36717547269898676 0.11216087809339521 1.0042499134168437 0 0 0 0.48 126 208 142 265 159 101 
266 0.13919599469693023 0.10950302808270959 1.0311825272695427 0 0 0 0.13 126 209 142 266 148 136 
267 -0.1835228512203205 0.12487094924336736 1.003265024471426 0 0 0 0.21 126 210 142 267 148 137 
268 -0.16938233266765126 0.12761154000003022 0.9987917367571914 0 0 0 0.43 126 211 142 268 148 138 
269 -0.061539049557871116 0.12134612955851638 0.9982666274170836 0 0 0 0.2 126 212 142 269 172 31 
270 -0.15885970941585714 0.14188849092662853 0.9924044837402225 0 0 0 0.61 126 213 142 270 148 139 181 4 196 100 199 16 214 26 219 22 221 44 224 38 
271 -0.09448030386442176 0.14006993030146975 0.9958210490183833 0 0 0 0.42 126 214 136 47 142 271 148 140 190 27 198 20 232 58 
272 -0.0929087804999719 0.13945183006718753 0.9928556698276861 0 0 0 0.39 126 215 136 48 142 272 148 141 194 43 198 21 
273 -0.06275962374624015 0.13888350358087548 0.9968828363030435 0 0 0 0.07 126 216 142 273 194 44 
274 -0.016522615200797872 0.14043393100100449 1.0030051124325285 0 0 0 0.48 126 217 142 274 148 142 194 45 220 49 
275 0.11789359393543666 0.1394152622546372 1.0167356160793186 0 0 0 0.47 126 218 142 275 198 22 217 17 223 8 
276 0.0099571465951231 0.14476774722328348 1.0024361157921031 0 0 0 0.53 126 219 142 276 148 143 196 101 223 9 
277 0.14728995999486516 0.14884558570771972 1.02150207404062 0 0 0 0.54 126 220 142 277 220 50 
278 -0.29854703529735915 -0.06421360733007594 0.882274502643455 0 0 0 0.31 126 221 142 278 164 73 181 5 198 23 199 17 
279 0.15544782566730736 -0.06805729202520465 1.073297406843851 0 0 0 0.36 126 222 142 279 148 144 
280 0.18539008865064172 -0.0533720926433672 1.072156573779118 0 0 0 0.15 126 223 142 280 159 102 185 48 
281 -0.037901646258978905 -0.0518119970366999 1.036435710315213 0 0 0 0.51 126 224 142 281 152 6 159 103 185 49 190 28 219 23 221 45 227 17 
282 -0.00900162062942596 -0.049921753401173156 1.04119035841225 0 0 0 0.26 126 225 136 49 142 282 159 104 162 31 164 74 172 32 196 102 200 14 220 51 224 39 
283 -0.008574575312874304 -0.049929227137179545 1.0402966097936084 0 0 0 0.25 126 226 128 17 142 283 148 145 159 105 185 50 196 103 217 18 222 32 224 40 
284 -0.29628615626772764 -0.03365570911404514 0.8552823996107393 0 0 0 0.47 126 227 142 284 159 106 199 18 224 41 
285 -0.09809191885502291 -0.03849773960130969 1.029718186397399 0 0 0 0.17 126 228 142 285 220 52 
286 -0.10796514850736823 -0.037794748711656084 1.028813134886096 0 0 0 0.25 126 229 142 286 159 107 181 6 
287 0.11533415127592418 -0.037005356759801926 1.0600686799796755 0 0 0 0.8 126 230 142 287 221 46 
288 -0.26606272889690874 -0.03512571576487076 1.0275597431880141 0 0 0 0.33 126 231 142 288 159 108 224 42 
289 -0.00019949167579054027 -0.01695534593747271 1.0320862683684329 0 0 0 0.32 126 232 142 289 159 109 
290 -0.014839108305087929 -0.014729998214425825 1.032459153940611 0 0 0 0.27 126 233 136 50 142 290 159 110 172 33 194 46 199 19 204 20 219 24 220 53 
291 -0.28701668948897324 0.008088298712529432 0.7833876055096688 0 0 0 0.42 126 234 142 291 181 7 224 43 
292 -0.32331277019846705 0.010345520525072068 1.0251327271744484 0 0 0 0.19 126 235 142 292 148 146 199 20 224 44 
293 -0.29375140631170193 0.01607712802588209 0.8544995100988364 0 0 0 0.64 126 236 142 293 159 111 
294 -0.1742486628908919 0.03516993491460712 1.0185711229323882 0 0 0 0.34 126 237 127 26 142 294 148 147 159 112 164 75 198 24 
295 -0.01799122095911207 0.0425386553045981 1.0232461345523123 0 0 0 0.21 126 238 142 295 198 25 
296 -0.33261305537118574 0.06423596542841252 1.0069172288392985 0 0 0 0.3 126 239 142 296 148 148 164 76 196 104 198 26 224 45 
297 0.12744368699165592 0.0637038284742127 1.0373214336278989 0 0 0 0.37 126 240 127 27 142 297 
298 -0.07751289085361833 0.08722663676834308 1.0023551032629112 0 0 0 0.32 126 241 142 298 159 113 196 105 220 54 
299 -0.18513694726703442 0.0978864655879255 1.0022448672953017 0 0 0 0.16 126 242 142 299 148 149 164 77 
300 0.007828218313232903 0.11303686252099547 1.0102627028555902 0 0 0 0.29 126 243 142 300 148 150 152 7 190 29 194 47 196 106 213 41 217 19 220 55 223 10 232 59 
301 -0.21819513135627563 0.14029284908808884 0.9937565698364884 0 0 0 0.33 126 244 142 301 162 32 199 21 
302 -0.045685242068076046 0.14005301026982395 1.0010012015341936 0 0 0 0.15 126 245 142 302 148 151 
303 0.025213151166682733 0.14122016743348964 1.0049544946901006 0 0 0 0.25 126 246 142 303 148 152 194 48 222 33 
304 0.027087457302270055 -0.09352278900005587 1.0504549974895738 0 0 0 0.34 126 247 142 304 148 153 196 107 
305 -0.024801367314281387 -0.08786594518387449 1.0473880993598377 0 0 0 0.45 126 248 142 305 159 114 196 108 
306 -0.05506501350399666 -0.0661763397350798 1.039754035269584 0 0 0 0.86 126 249 136 51 142 306 185 51 196 109 224 46 
307 -0.13209188580459866 -0.0546946715322433 1.0347686868084935 0 0 0 0.26 126 250 136 52 142 307 159 115 196 110 220 56 
308 -0.29077580426286675 -0.052261227618057154 1.0438625803697155 0 0 0 0.77 126 251 142 308 196 111 
309 -0.11704724053140085 -0.045054420274936426 1.0381463771026087 0 0 0 0.39 126 252 142 309 159 116 
310 0.09916762763196697 -0.04375648257433383 1.0560557643354158 0 0 0 0.6 126 253 127 28 136 53 142 310 148 154 159 117 162 33 164 78 185 52 196 112 198 27 204 21 220 57 
311 0.11568787996610448 -0.043847652103793565 1.0574384970295068 0 0 0 0.38 126 254 142 311 148 155 159 118 164 79 196 113 219 25 220 58 
312 -0.0573096202560462 -0.042081536924797665 1.0329974863923768 0 0 0 0.45 126 255 127 29 128 18 136 54 142 312 147 23 148 156 159 119 162 34 164 80 172 34 176 22 181 8 185 53 190 30 196 114 199 22 200 15 204 22 213 42 214 27 219 26 221 47 222 34 227 18 232 60 
313 0.16040371864226308 -0.03661864257226995 1.0636179904827308 0 0 0 0.53 126 256 142 313 159 120 164 81 176 23 185 54 190 31 222 35 232 61 
314 0.08425576613563984 -0.02511271531773409 1.0485147995020434 0 0 0 0.29 126 257 136 55 142 314 148 157 159 121 162 35 196 115 217 20 220 59 
315 0.13628413117334498 -0.01407167660338334 1.0533807500128147 0 0 0 0.38 126 258 136 56 142 315 148 158 159 122 
316 -0.3033130137975976 -0.004718849496288816 1.025239939367015 0 0 0 0.38 126 259 142 316 148 159 159 123 164 82 181 9 196 116 224 47 
317 -0.3141038125007493 -0.0028782164253600443 1.0262813654069987 0 0 0 0.25 126 260 142 317 148 160 164 83 196 117 224 48 
318 -0.31472526479328194 -0.002982655741112678 1.0269073612329165 0 0 0 0.16 126 261 142 318 148 161 196 118 224 49 
319 0.10141572304294379 -0.0074043469313177 1.0464512739973915 0 0 0 0.34 126 262 142 319 148 162 159 124 163 14 196 119 214 28 220 60 
320 0.1739856291782678 -0.008121989410409463 1.0556639929190885 0 0 0 0.44 126 263 136 57 142 320 162 36 
321 -0.2987932210709673 0.041090718232700975 0.875922444944664 0 0 0 0.21 126 264 142 321 148 163 159 125 164 84 181 10 199 23 224 50 
322 0.174256552261685 0.04335420933073842 1.0481948150279428 0 0 0 0.26 126 265 142 322 194 49 
323 -0.08319811630125107 0.09774770589429801 0.9974714833792487 0 0 0 0.36 126 266 142 323 164 85 181 11 
324 -0.29924860574478707 0.12894806678392634 0.8822331972053414 0 0 0 0.26 126 267 142 324 148 164 159 126 164 86 199 24 
325 -0.007023933503144834 0.12952302787513933 1.0044807811435228 0 0 0 0.45 126 268 142 325 148 165 164 87 194 50 198 28 
326 0.03116518224037532 0.14698316493500133 1.001716932428533 0 0 0 0.37 126 269 142 326 148 166 194 51 196 120 198 29 
327 0.11553700303585303 -0.05441470188158722 1.0578386366817005 0 0 0 0.41 126 270 142 327 148 167 181 12 
328 -0.08614752781301435 -0.049167398483361296 1.0313849518111127 0 0 0 0.34 126 271 136 58 142 328 159 127 185 55 
329 -0.24585449916272611 -0.046241900254932126 1.035767136120287 0 0 0 0.48 126 272 142 329 159 128 
330 0.14863660580118618 -0.043067902882886124 1.0620456536040208 0 0 0 0.32 126 273 142 330 148 168 159 129 185 56 
331 -0.2932971308023469 -0.03594214425892202 0.8428589258864494 0 0 0 0.36 126 274 142 331 196 121 
332 -0.26047125385116 -0.042021996272667686 1.036825615543518 0 0 0 0.83 126 275 142 332 159 130 196 122 
333 -0.1535176064649892 -0.030150497140818525 1.0291699938159269 0 0 0 0.41 126 276 142 333 159 131 185 57 196 123 214 29 
334 -0.29632930199107954 -0.011887352086786622 0.8512021210250016 0 0 0 0.29 126 277 142 334 159 132 224 51 
335 -0.295331623211841 -0.011972975745165735 0.8502534292308782 0 0 0 0.28 126 278 142 335 224 52 
336 -0.2977438607782136 -0.007594966841795843 0.8723067597464979 0 0 0 0.27 126 279 142 336 148 169 
337 -0.28579518989228714 0.006892368024203449 0.773376396369303 0 0 0 0.62 126 280 142 337 224 53 
338 -0.29778867612024257 0.01924604873183356 0.8904802646644336 0 0 0 0.28 126 281 142 338 159 133 164 88 196 124 
339 -0.28756496705928697 0.02325182021329511 0.7826165115156544 0 0 0 0.45 126 282 142 339 181 13 198 30 
340 -0.29894616953132536 0.028269981800089442 0.8900511825134161 0 0 0 0.37 126 283 142 340 148 170 159 134 164 89 196 125 
341 -0.2974417133389378 0.037990936197511545 0.8643640681429717 0 0 0 0.65 126 284 142 341 196 126 224 54 
342 -0.2860535080228267 0.043757521169949444 0.7677503282173433 0 0 0 0.4 126 285 142 342 181 14 199 25 
343 -0.29956797688844966 0.003951094998576456 0.887974671391292 0 0 0 0.31 126 286 142 343 148 171 159 135 164 90 
344 -0.2725092921968237 0.04704338512747561 1.0152969045976599 0 0 0 0.32 126 287 142 344 148 172 164 91 198 31 199 26 
345 -0.27262228359246476 0.046905392234845196 1.015431059956886 0 0 0 0.32 126 288 142 345 148 173 
346 -0.22320579101509005 0.11828812521213088 0.9998935335007624 0 0 0 0.23 126 289 142 346 148 174 
347 -0.1559435246059056 0.11709379461744908 1.0004463960170007 0 0 0 0.23 126 290 142 347 148 175 
348 -0.08333232567534142 0.11518939012464957 0.9970297062053742 0 0 0 0.14 126 291 142 348 148 176 185 58 219 27 
349 -0.08388512826145893 0.11526083204075534 0.9979766720317975 0 0 0 0.05 126 292 142 349 148 177 185 59 
350 -0.053918729606487636 0.11554690347223451 1.0026314485302705 0 0 0 0.15 126 293 142 350 148 178 194 52 
351 -0.05384791653793823 0.11546564455477065 1.0025300787921922 0 0 0 0.1 126 294 142 351 194 53 
352 -0.15443261448217951 0.15151424260237142 0.9928495014167001 0 0 0 0.14 126 295 142 352 196 127 
353 -0.28005403606013896 -0.15313775606067395 0.7007244034414104 0 0 0 0.52 126 296 142 353 198 32 199 27 224 55 
354 -0.2800540360601388 -0.15313775606067387 0.7007244034414103 0 0 0 0.52 126 297 142 354 198 33 199 28 224 56 
355 -0.2747087884168736 -0.14279966647770534 0.7064784760668371 0 0 0 0.5 126 298 142 355 198 34 199 29 
356 -0.33439325684761967 -0.0464445785841907 1.0329723370498662 0 0 0 0.54 126 299 142 356 159 136 196 128 
357 -0.08202655912778554 -0.019227307037734453 1.028264862141248 0 0 0 0.6 126 300 127 30 136 59 142 357 148 179 159 137 162 37 164 92 172 35 176 24 181 15 185 60 190 32 194 54 196 129 198 35 199 30 213 43 221 48 224 57 232 62 
358 0.15270836312773137 0.013200487538463484 1.0518494930992182 0 0 0 0.32 126 301 142 358 199 31 217 21 220 61 
359 -0.28963813164431934 0.0373249688804114 0.7809756418561117 0 0 0 0.71 126 302 142 359 199 32 
360 -0.06898121079034884 0.04344851156325802 1.0158653309225563 0 0 0 0.17 126 303 142 360 196 130 
361 -0.20789140909284073 0.07470607699698878 1.0119163305572676 0 0 0 0.47 126 304 142 361 224 58 
362 -0.23907502477847045 0.11833989121256307 0.9996483547927619 0 0 0 0.24 126 305 142 362 148 180 196 131 
363 -0.23907502477847017 0.11833989121256304 0.9996483547927616 0 0 0 0.24 126 306 142 363 148 181 196 132 
364 -0.20677673179367714 0.11770948521883726 1.0000662124905606 0 0 0 0.14 126 307 142 364 148 182 196 133 224 59 
365 -0.0680964013412626 0.11523606812907301 0.99966362162184 0 0 0 0.2 126 308 142 365 148 183 
366 -0.0402350358614529 0.11560979247506994 1.0055680210433469 0 0 0 0.22 126 309 142 366 194 55 
367 -0.04023503586145317 0.11560979247507001 1.0055680210433473 0 0 0 0.22 126 310 142 367 194 56 
368 -0.012859682271824656 0.11559536876496739 1.0102984954264478 0 0 0 0.47 126 311 142 368 148 184 194 57 
369 -0.01359850057079247 0.11584849026015676 1.0113994334903318 0 0 0 0.5 126 312 142 369 194 58 
370 -0.27558887361888734 -0.12517479380862878 0.7066355495056775 0 0 0 0.15 126 313 142 370 198 36 
371 -0.014153463865586281 -0.02458731695886903 1.0326424411459896 0 0 0 0.73 126 314 142 371 147 24 148 185 176 25 204 23 
372 -0.22464366557655865 -0.015770725843057224 1.022678631435725 0 0 0 0.21 126 315 142 372 148 186 164 93 
373 0.10708773166438791 -0.0018782255693150865 1.046572680709289 0 0 0 0.48 126 316 136 60 142 373 152 8 217 22 220 62 
374 -0.17182927320261063 0.11608072742972947 1.0003618383652657 0 0 0 0.56 126 317 142 374 148 187 196 134 204 24 
375 0.05930219531862886 -0.024690045108708328 1.0380327894973476 0 0 0 1.24 126 318 142 375 159 138 181 16 204 25 219 28 220 63 
376 0.13697429967588037 -0.07949861500260239 1.0637497457012155 0 0 0 0.5 127 31 142 376 148 188 
377 0.07180515063871505 -0.018667017345400546 1.0441527316916066 0 0 0 0.34 127 32 128 19 142 377 146 21 148 189 159 139 164 94 176 26 194 59 200 16 213 44 219 29 220 64 
378 0.08402472196432513 0.03397142354987214 1.036996554116844 0 0 0 0.4 127 33 128 20 142 378 162 38 196 135 213 45 
379 0.16111869766715284 0.03458165408984302 1.0479117011493708 0 0 0 0.19 127 34 142 379 148 190 159 140 164 95 185 61 200 17 
380 0.13649711990284097 0.1088411120713787 1.0255432140698262 0 0 0 0.36 127 35 142 380 194 60 
381 0.04686914832533556 -0.022312007083217355 1.0425857499775657 0 0 0 0.2 127 36 128 21 142 381 148 191 196 136 222 36 
382 -0.08976271021821643 -0.010702290319958185 1.021419429254914 0 0 0 0.37 127 37 136 61 142 382 
383 -0.07781319076268746 0.02950863967440899 1.018389924285971 0 0 0 0.19 127 38 142 383 190 33 224 60 
384 0.07726091417768943 0.03379239383193059 1.0359128181813833 0 0 0 0.24 127 39 136 62 142 384 147 25 148 192 162 39 163 15 164 96 185 62 217 23 220 65 222 37 
385 0.08899728086066001 0.046839760131195896 1.032805078882114 0 0 0 0.34 127 40 142 385 220 66 
386 0.04767226542307295 -0.025426515898599865 1.0430147304893145 0 0 0 0.65 127 41 142 386 196 137 217 24 222 38 
387 -0.30048711078744944 0.05482202761838271 1.012038369782193 0 0 0 0.37 127 42 142 387 148 193 164 97 196 138 199 33 224 61 
388 0.1324140829843296 0.10071959325651303 1.0297285562477916 0 0 0 0.33 127 43 142 388 217 25 
389 0.1742238553690547 0.14071537685634328 1.0232954541319894 0 0 0 0.56 127 44 142 389 148 194 162 40 163 16 164 98 185 63 194 61 220 67 
390 0.06034036465911441 -0.029740815938212886 1.0431399005920428 0 0 0 0.3 127 45 142 390 148 195 
391 0.15480186164658533 0.08853183145810208 1.0322913054979248 0 0 0 0.2 127 46 142 391 148 196 159 141 196 139 220 68 
392 -0.14823673760561412 -0.007829414178482869 1.026826139915468 0 0 0 0.35 127 47 142 392 181 17 
393 0.08121792697795407 -0.022876080133236883 1.0457041667642093 0 0 0 0.62 127 48 142 393 159 142 164 99 176 27 198 37 199 34 217 26 
394 0.03717696140993763 -0.07060902016577685 1.0481234612883539 0 0 0 0.21 128 22 142 394 148 197 220 69 
395 0.13060427284573517 -0.015540708754531507 1.052450582192859 0 0 0 0.4 128 23 136 63 142 395 159 143 162 41 194 62 222 39 
396 -0.04914400074377514 -0.06367855711549626 1.0323837109346825 0 0 0 0.19 128 24 142 396 196 140 
397 -0.16021497052832795 -0.04465984523827006 1.032873009993299 0 0 0 0.4 128 25 142 397 148 198 190 34 
398 -0.18559950712463605 0.10884221506964654 1.0001826375385081 0 0 0 0.47 128 26 142 398 148 199 
399 0.09674644380556227 -0.02687542566316786 1.0492438673819258 0 0 0 0.6 128 27 142 399 148 200 152 9 159 144 164 100 181 18 185 64 196 141 198 38 199 35 200 18 214 30 
400 0.12359254697680776 0.04853626664466715 1.0402246633404586 0 0 0 0.35 128 28 142 400 147 26 164 101 196 142 198 39 199 36 222 40 
401 0.16777864817002852 0.035420078204903734 1.0487108409349153 0 0 0 0.3 136 64 142 401 148 201 
402 -0.030068971453306538 -0.056220741557469284 1.0372053811553836 0 0 0 0.83 142 402 152 10 162 42 
403 -0.010409153239900576 -0.02638627634574981 1.0363646095612218 0 0 0 0.46 142 403 159 145 164 102 176 28 185 65 190 35 214 31 217 27 222 41 232 63 
404 -0.26830862606880607 -0.018507066054299814 1.0259777681988853 0 0 0 0.25 142 404 146 22 148 202 159 146 164 103 176 29 196 143 204 26 224 62 
405 -0.006531256248681247 -0.05973854354862436 1.0410145477172936 0 0 0 0.46 142 405 146 23 148 203 152 11 159 147 162 43 164 104 200 19 204 27 213 46 214 32 219 30 220 70 222 42 224 63 
406 -0.013952104089572854 -0.0587426300785226 1.0403928411583256 0 0 0 0.21 142 406 148 204 164 105 214 33 219 31 
407 -0.09086507036930393 -0.025614869378835056 1.0266085947612922 0 0 0 0.3 142 407 147 27 196 144 200 20 220 71 
408 -0.0668935451606707 -0.03649521829212683 1.0296408520632252 0 0 0 0.96 142 408 152 12 159 148 162 44 164 106 172 36 190 36 198 40 200 21 222 43 227 19 232 64 
409 0.16893826057079553 -0.016822707206479343 1.0574571676418092 0 0 0 0.45 142 409 159 149 185 66 198 41 199 37 204 28 217 28 221 49 
410 -0.03855421719570719 -0.05986210900326636 1.034567453000068 0 0 0 0.31 142 410 148 205 185 67 196 145 220 72 224 64 
411 0.03387522492654264 -0.04695935652129607 1.0438293381077524 0 0 0 0.93 142 411 147 28 148 206 159 150 162 45 176 30 185 68 198 42 200 22 204 29 214 34 219 32 220 73 221 50 232 65 
412 0.16873071680580298 0.1161539423213631 1.031002657216453 0 0 0 0.46 142 412 162 46 163 17 164 107 199 38 200 23 222 44 
413 0.13588478965940717 -0.07399552708154912 1.065265249468071 0 0 0 0.42 136 65 142 413 146 24 159 151 164 108 196 146 213 47 214 35 
414 0.03239526475895516 -0.05574179368028571 1.0471648545735095 0 0 0 0.33 136 66 142 414 148 207 162 47 196 147 217 29 
415 0.12405620851809698 -0.020987528886362565 1.0536285148492799 0 0 0 0.23 136 67 142 415 148 208 164 109 172 37 185 69 194 63 
416 0.16459399539168248 -0.01527353847873877 1.057757871658707 0 0 0 0.33 136 68 142 416 148 209 164 110 176 31 194 64 204 30 213 48 
417 0.17477517698984119 -0.01515419717714108 1.0585767455850612 0 0 0 0.29 136 69 142 417 172 38 194 65 196 148 
418 0.17956154932108467 -0.015183214890045057 1.0611567940653823 0 0 0 0.34 136 70 142 418 159 152 214 36 
419 -0.09042379756658035 -0.014370217091319465 1.022866171874352 0 0 0 0.27 136 71 142 419 148 210 159 153 194 66 222 45 
420 0.19529894474762252 0.030644806505073032 1.0577522499272072 0 0 0 0.25 136 72 142 420 159 154 
421 0.14225017537644918 0.058032170206953865 1.0414896506139044 0 0 0 0.23 136 73 142 421 159 155 163 18 
422 -0.030170092964588554 -0.014139951559274914 1.0304324105321765 0 0 0 0.24 136 74 142 422 148 211 159 156 172 39 194 67 222 46 
423 0.1308800280669822 0.08821862123026956 1.0356799710865268 0 0 0 0.46 136 75 142 423 159 157 196 149 220 74 
424 0.06528676039384014 0.09629515108679285 1.016829205851918 0 0 0 0.31 136 76 142 424 148 212 196 150 217 30 220 75 
425 0.008667385009728681 0.09713241314993844 1.0121004721245221 0 0 0 0.4 136 77 142 425 196 151 
426 0.2064531069769456 0.14501847140686563 1.0256121214481628 0 0 0 0.36 136 78 142 426 162 48 194 68 220 76 
427 0.05934443243889923 0.037735766441328054 1.0318581332805403 0 0 0 0.27 136 79 142 427 148 213 159 158 194 69 196 152 214 37 223 11 
428 0.15862128835687656 0.08819898124891239 1.0346924220725886 0 0 0 0.2 136 80 142 428 181 19 220 77 
429 0.15478093745531835 0.09714321420135683 1.030645127723594 0 0 0 0.14 136 81 142 429 148 214 196 153 
430 -0.13866348279737065 -0.0616872588723037 1.034714023180129 0 0 0 0.47 136 82 142 430 196 154 
431 0.1072234191299528 0.003958099996298627 1.0504010393010115 0 0 0 0.07 136 83 142 431 163 19 164 111 
432 -0.10302460766496611 0.033471500558792465 1.019106836347849 0 0 0 0.18 136 84 142 432 185 70 196 155 198 43 217 31 220 78 224 65 
433 0.05891767979745053 0.041197983106755036 1.0315142805847983 0 0 0 0.25 136 85 142 433 220 79 
434 -0.11153334785789087 0.04211584502272979 1.0179769638736835 0 0 0 0.18 136 86 142 434 185 71 
435 -0.07401923192628451 0.09712986259748987 1.0037848782949974 0 0 0 0.41 136 87 142 435 159 159 
436 0.12399694753215282 0.09794376742505186 1.0237042662322353 0 0 0 0.39 136 88 142 436 148 215 198 44 217 32 
437 0.10789458371428387 -0.014243291426600685 1.0473506558964905 0 0 0 0.5 136 89 142 437 147 29 148 216 159 160 162 49 172 40 194 70 199 39 204 31 213 49 217 33 219 33 220 80 232 66 
438 0.10759299613023014 0.0211771555005931 1.0450120029986816 0 0 0 0.22 136 90 142 438 232 67 
439 0.18157349828538377 -0.058136134065088434 1.0702882576132444 0 0 0 0.32 142 439 204 32 232 68 
440 0.12979780721038559 -0.06604320441157246 1.0644764945044685 0 0 0 0.11 142 440 159 161 232 69 
441 0.1832627920675329 -0.05522149838929001 1.0694805709165998 0 0 0 0.41 142 441 159 162 204 33 
442 0.030220033763653772 -0.06778167333833103 1.045112686086207 0 0 0 0.27 142 442 164 112 220 81 
443 0.027784616492021963 -0.05683845946157513 1.0458469693347425 0 0 0 0.2 142 443 196 156 200 24 227 20 
444 -0.010166675482232837 -0.06032872465763176 1.0408288507551942 0 0 0 0.62 142 444 146 25 164 113 222 47 232 70 
445 -0.081563648798758 -0.07105166239463613 1.0381921737406532 0 0 0 0.18 142 445 185 72 196 157 220 82 
446 0.1726559185601349 -0.017624321884479537 1.0603705346353216 0 0 0 0.34 142 446 194 71 196 158 
447 -0.08117443875497155 -0.05517090518829435 1.0341251886131104 0 0 0 0.28 142 447 148 217 164 114 200 25 
448 -0.29561692195913397 -0.09471681403217334 0.8753046367101719 0 0 0 0.25 142 448 159 163 164 115 224 66 
449 -0.2959905921711589 -0.09471959169182105 0.875702696611294 0 0 0 0.27 142 449 164 116 224 67 
450 0.13785559276588694 -0.015542312247964667 1.057215464757322 0 0 0 0.33 142 450 148 218 162 50 
451 0.15880601886689716 -0.007685187253565564 1.0534197642222196 0 0 0 0.3 142 451 148 219 196 159 
452 0.054704234353931826 -0.01682444567365709 1.0412043412038636 0 0 0 0.32 142 452 159 164 219 34 
453 -0.2967052862377221 -0.0759075900196959 0.872022995839716 0 0 0 0.42 142 453 159 165 164 117 
454 0.14881459162529795 -0.002296472418046766 1.052876244168978 0 0 0 0.12 142 454 159 166 220 83 
455 -0.07977233331530127 -0.03172320754329512 1.028111752535249 0 0 0 0.13 142 455 148 220 214 38 
456 -0.3411781420922538 -0.06320761946389758 1.0370557808898835 0 0 0 0.22 142 456 148 221 196 160 224 68 
457 -0.006571644716300871 -0.020983921796183146 1.035956435886062 0 0 0 0.49 142 457 148 222 164 118 194 72 213 50 219 35 227 21 
458 0.03330759249294907 -0.014614838606106477 1.039714497024094 0 0 0 0.24 142 458 148 223 159 167 172 41 219 36 
459 -0.2875457421891377 -0.04282617400569222 1.035855460671266 0 0 0 0.22 142 459 159 168 196 161 
460 -0.11379168155879905 -0.021310066106661266 1.0265635443159693 0 0 0 0.5 142 460 162 51 172 42 
461 -0.22910786569872313 -0.03121706479173487 1.0240198110197805 0 0 0 0.48 142 461 159 169 224 69 
462 -0.18433539957956366 -0.023721768422325804 1.0284839889224926 0 0 0 0.25 142 462 148 224 159 170 204 34 224 70 
463 -0.12646890580171255 -0.013658109048520727 1.024312762021389 0 0 0 0.27 142 463 172 43 176 32 196 162 219 37 
464 -0.20206728878473273 -0.019666958487247314 1.0256167483767276 0 0 0 0.25 142 464 159 171 164 119 214 39 224 71 
465 -0.11670626070766096 -0.010278438801384838 1.0242374650108002 0 0 0 0.08 142 465 146 26 148 225 
466 -0.16945108172294926 -0.015598066077130206 1.026667445396786 0 0 0 0.15 142 466 148 226 159 172 196 163 224 72 
467 -0.3607574928339831 -0.032280965609488545 1.031314640084255 0 0 0 0.22 142 467 159 173 196 164 
468 -0.24413643792744522 -0.01880481184693051 1.0255189688515178 0 0 0 0.35 142 468 148 227 159 174 164 120 176 33 196 165 
469 -0.25334466221311347 -0.018888634658699742 1.0275072100365485 0 0 0 0.21 142 469 148 228 159 175 
470 0.17592502726331907 0.02878802302010384 1.0520038654271016 0 0 0 0.23 142 470 148 229 159 176 
471 0.19309752770618355 0.03067919008063354 1.0543851207912212 0 0 0 0.26 142 471 148 230 159 177 
472 -0.27689602544702324 -0.017902356469668725 1.0240384971614607 0 0 0 0.19 142 472 159 178 162 52 196 166 224 73 
473 -0.29455294843683977 -0.01817313207448105 1.029328175195088 0 0 0 0.2 142 473 148 231 164 121 224 74 
474 0.1376839689593171 0.027665782323004807 1.0498868006166504 0 0 0 0.25 142 474 164 122 194 73 
475 -0.16693300748437695 -0.0016009832740086502 1.0254938771015585 0 0 0 0.35 142 475 159 179 164 123 
476 -0.3386775492908994 -0.017424891673763016 1.0283155132424873 0 0 0 0.17 142 476 196 167 224 75 
477 -0.3482374973544171 -0.016506139122999086 1.0271118462671656 0 0 0 0.36 142 477 159 180 181 20 196 168 224 76 
478 0.14087197003017757 0.033148413777151796 1.0470280262077651 0 0 0 0.18 142 478 176 34 232 71 
479 -0.3455954309352387 -0.007326614641439919 1.026429071852317 0 0 0 0.27 142 479 148 232 159 181 196 169 
480 0.10564337599239228 0.037697314194881724 1.0377792809687347 0 0 0 0.27 142 480 159 182 221 51 
481 0.0851431174648693 0.042262008396141366 1.0355042632293443 0 0 0 0.28 142 481 159 183 196 170 
482 0.043708237128466054 0.03968533609763074 1.032408327694552 0 0 0 0.16 142 482 194 74 219 38 222 48 
483 -0.29950410059849775 -0.005980534932933855 0.8896735649225583 0 0 0 0.21 142 483 164 124 196 171 
484 -0.16126590592888637 0.029324393035270922 1.018286908219832 0 0 0 0.51 142 484 159 184 224 77 
485 -0.05764752357606451 0.03806161808586174 1.0156204896859833 0 0 0 0.37 142 485 148 233 159 185 164 125 185 73 194 75 196 172 214 40 
486 -0.2974250141384046 0.02147702864859628 1.0188844960551973 0 0 0 0.52 142 486 176 35 213 51 221 52 224 78 
487 -0.10789611699189523 0.03662222316153535 1.0161177460310609 0 0 0 0.33 142 487 148 234 196 173 221 53 
488 -0.08687771247853708 0.04076112113217401 1.01268526170957 0 0 0 0.35 142 488 146 27 232 72 
489 -0.2843223990970484 0.027532704862413482 1.0186502515257012 0 0 0 0.45 142 489 148 235 164 126 204 35 
490 -0.38358218460960547 0.02507982794119433 1.019887674631681 0 0 0 0.25 142 490 159 186 196 174 
491 -0.3740511891668552 0.025071201675574528 1.0189119578372539 0 0 0 0.2 142 491 159 187 196 175 224 79 
492 -0.37891146236930123 0.030703334798747487 1.0194968583658042 0 0 0 0.16 142 492 196 176 224 80 
493 -0.2992930824854093 0.015231554019299858 0.8907203590763154 0 0 0 0.32 142 493 159 188 196 177 
494 -0.2648262015401373 0.04501125472622886 1.0151294360849317 0 0 0 0.25 142 494 196 178 224 81 
495 0.13866669923167507 0.07824199767901567 1.0390814150438952 0 0 0 0.21 142 495 194 76 196 179 
496 -0.29696421533418393 0.026576888375683755 0.8761682048634263 0 0 0 0.35 142 496 148 236 159 189 196 180 224 82 
497 -0.2653916228668604 0.06064176011377073 1.0131567290040804 0 0 0 0.3 142 497 196 181 224 83 
498 -0.3756796494255115 0.06062576254583585 1.0134190767294833 0 0 0 0.44 142 498 159 190 196 182 224 84 
499 -0.292559301077773 0.03127990095978504 0.827914287696592 0 0 0 0.3 142 499 148 237 159 191 
500 -0.29762373833911926 0.06758242337445598 1.0113637338691548 0 0 0 0.25 142 500 148 238 159 192 224 85 
501 -0.37777234457779346 0.06418095031100302 1.011771075472538 0 0 0 0.2 142 501 159 193 196 183 224 86 
502 0.14741479059532994 0.09392447458003192 1.0318199030574602 0 0 0 0.3 142 502 148 239 159 194 196 184 
503 0.13179476969633713 0.09403268774104731 1.030547454078377 0 0 0 0.21 142 503 148 240 162 53 164 127 196 185 
504 0.11844755882815058 0.09332605075414718 1.0236043902958052 0 0 0 0.5 142 504 148 241 185 74 194 77 196 186 
505 0.14986603932622683 0.09655476988238962 1.029854290183735 0 0 0 0.31 142 505 148 242 196 187 
506 0.14986603932622683 0.09655476988238962 1.029854290183735 0 0 0 0.31 142 506 148 243 196 188 
507 -0.34833370824931803 0.0723795840351403 1.0092434096475384 0 0 0 0.2 142 507 159 195 224 87 
508 -0.32287441034267356 0.07284294252340814 1.005211608943411 0 0 0 0.32 142 508 148 244 159 196 162 54 164 128 196 189 
509 0.13621911814565485 0.09922118459871165 1.0300811291418757 0 0 0 0.29 142 509 148 245 159 197 164 129 196 190 
510 0.13609552281020248 0.09917892163006371 1.030095717942562 0 0 0 0.4 142 510 148 246 159 198 164 130 185 75 
511 0.004519104146877181 0.09081634622606052 1.0101120494570655 0 0 0 0.13 142 511 148 247 196 191 220 84 
512 0.1299276863144211 0.09951743182007594 1.026941037773773 0 0 0 0.17 142 512 148 248 159 199 196 192 220 85 
513 -0.2989046192591906 0.05559227900911941 0.8771546253847542 0 0 0 0.1 142 513 159 200 196 193 
514 -0.1525558256729859 0.0876109658031939 1.0074970652559259 0 0 0 0.71 142 514 159 201 224 88 
515 -0.29788243669890496 0.05583237763291318 0.8658873107665089 0 0 0 0.19 142 515 148 249 159 202 
516 0.1786249268975851 0.10532644031961541 1.031401394746554 0 0 0 0.47 142 516 194 78 221 54 
517 0.18023833568332573 0.10746543402784342 1.0309466378990506 0 0 0 0.31 142 517 162 55 163 20 194 79 
518 0.11840661332452694 0.10470901875934628 1.0243271210590807 0 0 0 0.19 142 518 148 250 194 80 232 73 
519 0.15217200492161687 0.10696714735263689 1.028269597948789 0 0 0 0.16 142 519 148 251 185 76 194 81 223 12 
520 -0.3021923835219928 0.06866947321946071 0.9006678692010615 0 0 0 0.23 142 520 148 252 164 131 
521 -0.19374553435597158 0.09305354275979814 1.0021318847984118 0 0 0 0.18 142 521 196 194 224 89 
522 -0.07877357941526418 0.10831283830275718 0.9979451079728829 0 0 0 0.3 142 522 164 132 185 77 190 37 222 49 
523 -0.29847426579287806 0.07798460290016727 0.8728693345109428 0 0 0 0.21 142 523 159 203 164 133 196 195 
524 0.07169191163315843 0.11629807748564346 1.0129916515201207 0 0 0 0.13 142 524 194 82 196 196 
525 -0.1846082426789574 0.11172166593985859 0.9992665833547241 0 0 0 0.2 142 525 148 253 164 134 204 36 
526 0.0557881591349983 0.12202827091004417 1.0143015670238367 0 0 0 0.33 142 526 204 37 232 74 
527 0.061815671860176856 0.12222496513509477 1.0133572749119446 0 0 0 0.72 142 527 148 254 164 135 172 44 223 13 232 75 
528 -0.29541890471433674 0.08363059406121656 0.8500779927170806 0 0 0 0.2 142 528 148 255 159 204 196 197 
529 -0.36946382895900687 0.11518340947896108 1.0005688294582915 0 0 0 0.26 142 529 159 205 196 198 224 90 
530 -0.34471725409469467 0.11527198429728013 0.9985845084763498 0 0 0 0.19 142 530 148 256 224 91 
531 -0.3008552768068669 0.11644446492780067 0.9983864038637303 0 0 0 0.2 142 531 162 56 196 199 
532 -0.07786791802091957 0.12098787048118526 0.9942193747653527 0 0 0 0.5 142 532 148 257 164 136 196 200 
533 -0.023184357285182686 0.1280542576836857 1.0020161931598066 0 0 0 0.27 142 533 213 52 222 50 
534 -0.18399236118009493 0.12590433381117158 0.9951928843997091 0 0 0 0.51 142 534 219 39 224 92 
535 -0.10290696154450771 0.12728760272977419 0.9986091246778938 0 0 0 0.14 142 535 148 258 172 45 232 76 
536 0.1972528861871555 0.1367288131339702 1.0311581606898623 0 0 0 0.4 142 536 148 259 162 57 164 137 213 53 
537 0.1602070481887699 0.1350359174055026 1.02387525563562 0 0 0 0.29 142 537 148 260 194 83 220 86 223 14 
538 -0.28932008456556313 0.08378160880547114 0.8080961129743142 0 0 0 0.07 142 538 159 206 196 201 
539 0.15551084371868207 0.13688963565231113 1.0232901455330912 0 0 0 0.41 142 539 148 261 196 202 223 15 
540 0.19982032607049913 0.13893871445715067 1.0288996511850519 0 0 0 0.25 142 540 148 262 220 87 
541 0.19985485728770597 0.13890334274637722 1.0287683790800242 0 0 0 0.2 142 541 148 263 194 84 220 88 
542 -0.3153205205745743 0.13279873988259175 0.9976745862939259 0 0 0 0.31 142 542 176 36 232 77 
543 -0.21760538696529697 0.13493910112238172 0.9918748063930951 0 0 0 0.29 142 543 148 264 196 203 
544 -0.017874988400309974 0.1395792029100679 0.9992623725073725 0 0 0 0.14 142 544 194 85 196 204 
545 -0.3192066002364971 0.13831161592535562 0.992882718877344 0 0 0 0.24 142 545 148 265 159 207 164 138 224 93 
546 0.09547413446408995 0.1454135123139147 1.012496451719709 0 0 0 0.21 142 546 222 51 232 78 
547 -0.21471201436004447 0.1435553919897708 0.9945984707100735 0 0 0 0.48 142 547 164 139 200 26 
548 -0.21393718139549184 0.14293632665571337 0.9931548903292169 0 0 0 0.08 142 548 148 266 164 140 
549 -0.018270084632472722 0.143916825340316 0.9974683320204276 0 0 0 0.22 142 549 194 86 196 205 
550 0.025442828232559 0.14547212690034603 1.0029846344146653 0 0 0 0.11 142 550 194 87 196 206 
551 -0.37680286821561854 0.14799957902750302 0.9947708767043941 0 0 0 0.19 142 551 159 208 196 207 
552 -0.29774942118959763 0.12075035940676321 0.8646901119135032 0 0 0 0.24 142 552 148 267 164 141 
553 -0.07578111508259701 0.15324116769114393 0.9908818812874309 0 0 0 0.12 142 553 194 88 220 89 
554 -0.2974895557573016 0.12707733532941112 0.8672987362272374 0 0 0 0.36 142 554 148 268 164 142 
555 -0.07799619473123584 0.15667277157627407 0.9878913591750017 0 0 0 0.14 142 555 194 89 196 208 
556 0.14264376882791846 -0.07366255072299445 1.0653363214968077 0 0 0 0.44 142 556 221 55 232 79 
557 0.14481215268786568 -0.0712486530911073 1.0677859486066155 0 0 0 0.37 142 557 148 269 221 56 
558 0.1510059232105867 -0.06483055272487627 1.0689323214987625 0 0 0 0.22 142 558 148 270 162 58 220 90 
559 0.13622357517982356 -0.055085781543502056 1.0618756016277426 0 0 0 0.14 142 559 220 91 222 52 
560 0.1415807160716921 -0.05384826843857161 1.0609878779564839 0 0 0 0.55 142 560 159 209 220 92 221 57 
561 0.13035584687357518 -0.05326879167463916 1.06066813126277 0 0 0 0.16 142 561 217 34 232 80 
562 0.038358600787968156 -0.06773601805130197 1.0512183018997225 0 0 0 0.29 142 562 148 271 196 209 
563 -0.02519678775470047 -0.0700078893006468 1.0430373893239888 0 0 0 1.06 142 563 148 272 159 210 176 37 
564 0.06565363422522212 -0.04068044085934256 1.049694486686262 0 0 0 0.73 142 564 148 273 172 46 185 78 190 38 
565 0.18357238793350508 -0.020744758883575885 1.0615607503450923 0 0 0 0.33 142 565 159 211 172 47 221 58 227 22 
566 -0.24124011424850939 -0.08390132421975308 1.0337619042434145 0 0 0 0.19 142 566 162 59 164 143 
567 0.02808695516358861 -0.04003846534141299 1.0435080328298187 0 0 0 0.28 142 567 196 210 200 27 217 35 
568 -0.04361583119474358 -0.0500671544988611 1.0343011440518413 0 0 0 0.77 142 568 162 60 185 79 204 38 
569 -0.2523982147816281 -0.07651273846836533 1.0354175902207114 0 0 0 0.18 142 569 164 144 196 211 224 94 
570 -0.015434239168494965 -0.04204137614290601 1.0388061216711066 0 0 0 0.38 142 570 148 274 185 80 196 212 232 81 
571 -0.002627230576612908 -0.039375600412186594 1.038523175632118 0 0 0 0.28 142 571 148 275 196 213 
572 -0.2551770017836876 -0.07234425494213545 1.0364924050430289 0 0 0 0.59 142 572 164 145 224 95 
573 -0.2551770017836876 -0.07234425494213545 1.0364924050430289 0 0 0 0.59 142 573 164 146 224 96 
574 -0.24924127692330258 -0.06212074902007709 1.0371756580004834 0 0 0 0.35 142 574 159 212 196 214 
575 -0.09871528574799358 -0.02208161838605401 1.0276207424718773 0 0 0 0.35 142 575 159 213 224 97 
576 0.17503306091249501 0.016862539577931317 1.0555678894707827 0 0 0 0.29 142 576 148 276 163 21 
577 -0.15658778126264378 -0.020962897545419 1.027784435946772 0 0 0 0.23 142 577 159 214 204 39 
578 -0.398511088002382 -0.04016983352438549 1.0258008153309324 0 0 0 0.26 142 578 159 215 224 98 
579 -0.34364826760309414 -0.030284625657239713 1.030054214951415 0 0 0 0.27 142 579 148 277 224 99 
580 0.17498150410946123 0.03132181329674985 1.0507286654242873 0 0 0 0.1 142 580 148 278 220 93 
581 0.16090657366453542 0.031286511886704 1.0480782811858087 0 0 0 0.3 142 581 148 279 163 22 232 82 
582 -0.23766276799062822 -0.006570845075115598 1.0251407213994097 0 0 0 0.18 142 582 162 61 196 215 224 100 
583 -0.0009533104737853219 0.03721443322191297 1.0238911052050272 0 0 0 0.28 142 583 148 280 159 216 176 38 
584 -0.2979083148377476 0.002498069532435042 0.8666795500138371 0 0 0 0.28 142 584 148 281 159 217 
585 -0.2991912954788926 0.004097066751747121 0.8760326893473498 0 0 0 0.2 142 585 148 282 159 218 
586 -0.14698151052688027 0.043768689939347905 1.0159583468797184 0 0 0 0.2 142 586 198 45 199 40 
587 -0.3001979987155948 0.013410382310227946 0.8751703337456324 0 0 0 0.45 142 587 159 219 196 216 
588 -0.29654096457567514 0.017093139003627866 0.8948456500471612 0 0 0 0.36 142 588 159 220 196 217 
589 -0.3944297521039904 0.033726279815889194 1.01811704512396 0 0 0 0.35 142 589 159 221 196 218 
590 -0.2970002212701375 0.017798079576405307 0.8633020146638387 0 0 0 0.35 142 590 148 283 159 222 164 147 196 219 
591 -0.29806189585025405 0.022209141631974204 0.8765745568345358 0 0 0 0.32 142 591 159 223 164 148 
592 -0.28426050186302404 0.04781688028066175 1.0143846596844124 0 0 0 0.27 142 592 148 284 159 224 162 62 
593 -0.29766171777420125 0.02754578452677954 0.8858528692851062 0 0 0 0.37 142 593 159 225 196 220 
594 0.1758356383003062 0.08844319070585357 1.0383594526378284 0 0 0 0.13 142 594 147 30 232 83 
595 -0.33465551303563545 0.06435151937643115 1.0088926601333783 0 0 0 0.14 142 595 159 226 196 221 224 101 
596 -0.2996889180816296 0.051846180838700705 0.8943582364317907 0 0 0 0.33 142 596 148 285 159 227 164 149 196 222 
597 -0.04068374158542531 0.08972205824812987 1.0122629857342726 0 0 0 0.22 142 597 159 228 194 90 
598 0.14680265130619902 0.100936577481563 1.0306818346866138 0 0 0 0.33 142 598 148 286 159 229 164 150 185 81 194 91 213 54 
599 -0.3788535240440409 0.08463167321113675 1.0099246243183393 0 0 0 0.22 142 599 159 230 196 223 224 102 
600 0.15517451587086825 0.10976926994258895 1.0286711977303855 0 0 0 0.31 142 600 159 231 222 53 
601 -0.29728734334329887 0.06423682475578227 0.8634995014823744 0 0 0 0.18 142 601 148 287 196 224 
602 0.1552704978525861 0.115643979579468 1.0280436304667946 0 0 0 0.22 142 602 146 28 148 288 164 151 172 48 185 82 194 92 196 225 213 55 214 41 222 54 223 16 
603 0.15541419633155765 0.11975284767478789 1.026976285300653 0 0 0 0.17 142 603 148 289 164 152 185 83 214 42 222 55 223 17 
604 -0.2973900326822815 0.07871732703304418 0.8610390575698293 0 0 0 0.13 142 604 148 290 159 232 196 226 
605 -0.29603789463111857 0.07691857280615176 0.8521649215842291 0 0 0 0.08 142 605 159 233 196 227 
606 -0.2982836168321409 0.08563711329993971 0.8611171459303713 0 0 0 0.2 142 606 148 291 159 234 164 153 196 228 
607 -0.3126078375632267 0.11843220833676305 1.0026454859533565 0 0 0 0.37 142 607 159 235 196 229 
608 -0.31664103061554705 0.11872850499011135 1.0064481331301542 0 0 0 0.41 142 608 148 292 159 236 164 154 196 230 
609 -0.31899045820100097 0.11784473446365311 1.00149489237187 0 0 0 0.41 142 609 159 237 162 63 196 231 
610 -0.2972457093911789 0.09190565539821217 0.8738315806276189 0 0 0 0.14 142 610 159 238 196 232 
611 0.19280433354894905 0.1331671583396031 1.029845791536587 0 0 0 0.35 142 611 162 64 164 155 172 49 185 84 194 93 196 233 220 94 222 56 
612 -0.18460622116759423 0.12423620026029579 0.9974701946872309 0 0 0 0.08 142 612 148 293 164 156 
613 0.18371609608130768 0.13448516940830968 1.0285844396762478 0 0 0 0.2 142 613 185 85 222 57 232 84 
614 -0.194239788413622 0.12521618516684982 0.9974748967532963 0 0 0 0.49 142 614 148 294 164 157 199 41 221 59 
615 0.1769846048760687 0.13560277113902341 1.027982191990248 0 0 0 0.12 142 615 194 94 220 95 
616 -0.29665400186681407 0.09709750030343628 0.8576329604072982 0 0 0 0.25 142 616 148 295 159 239 
617 0.20493694140751592 0.13934310919501747 1.0275162807372618 0 0 0 0.32 142 617 163 23 185 86 194 95 
618 -0.2956946947942635 0.0955638168785893 0.8487552775998017 0 0 0 0.24 142 618 148 296 159 240 196 234 
619 -0.29894563492241893 0.10441811041385582 0.8814652234115983 0 0 0 0.27 142 619 148 297 159 241 
620 0.18518791233486934 0.13972388618438386 1.0245568448579039 0 0 0 0.08 142 620 148 298 194 96 196 235 
621 0.17462751389412343 0.1406199417581414 1.022621474370831 0 0 0 0.33 142 621 148 299 162 65 163 24 164 158 194 97 220 96 
622 0.0865648650586351 0.14018057978949386 1.0129909935256523 0 0 0 0.19 142 622 190 39 222 58 
623 0.17515041563683673 0.14506626466652994 1.0229560396771227 0 0 0 0.25 142 623 162 66 222 59 
624 -0.028492033015149357 0.1403918500991492 0.9999997537485985 0 0 0 0.3 142 624 146 29 164 159 214 43 
625 -0.24392825185462355 0.14319682245816864 0.9955290250370126 0 0 0 0.53 142 625 176 39 196 236 
626 0.06563461019930955 0.14534915490224187 1.0101776868279722 0 0 0 0.21 142 626 147 31 232 85 
627 -0.03068355756561095 -0.09810603422299637 1.0505308341574202 0 0 0 0.44 142 627 185 87 196 237 
628 -0.08876587507761201 -0.09770410003331265 1.044963511306338 0 0 0 0.12 142 628 164 160 185 88 224 103 
629 0.1288090842231862 -0.05655211285045832 1.060053344008543 0 0 0 0.27 142 629 147 32 220 97 222 60 
630 0.1288063922092875 -0.056475022346737215 1.0597931502654905 0 0 0 0.44 142 630 162 67 163 25 217 36 
631 -0.09295535756943174 -0.05393329897298824 1.0322999158317099 0 0 0 0.36 142 631 148 300 159 242 
632 0.059166282483486037 -0.02973115919933339 1.045343811207972 0 0 0 0.07 142 632 148 301 196 238 
633 0.01765857726337837 -0.03293242184670215 1.040044049890978 0 0 0 0.09 142 633 148 302 196 239 220 98 
634 -0.278664546455856 -0.06527371398763172 1.0498680606492665 0 0 0 0.46 142 634 196 240 224 104 
635 0.12748934198486503 -0.01001371890102351 1.050487043186241 0 0 0 0.3 142 635 147 33 148 303 152 13 162 68 163 26 172 50 217 37 220 99 221 60 222 61 
636 -0.015544097110380744 -0.026647796153506164 1.0349956617694291 0 0 0 0.23 142 636 146 30 164 161 
637 -0.03733773792548354 -0.009917375039210845 1.0266880700946093 0 0 0 0.62 142 637 148 304 190 40 194 98 
638 -0.2978097457474314 -0.05162237459339402 0.8599428679021497 0 0 0 0.08 142 638 199 42 224 105 
639 -0.4000916655701176 -0.03634041770457684 1.036091526791483 0 0 0 0.41 142 639 159 243 196 241 
640 -0.3579069959528684 -0.028291411986029698 1.0326738811471368 0 0 0 0.14 142 640 148 305 196 242 224 106 
641 -0.20501920025411394 -0.01332881970944214 1.024806636481484 0 0 0 0.22 142 641 148 306 164 162 185 89 224 107 
642 -0.39910788265388547 -0.031064014069385724 1.0408337329185318 0 0 0 0.1 142 642 159 244 196 243 
643 -0.3608559594713858 -0.00245827544127398 1.0267726749755954 0 0 0 0.27 142 643 148 307 196 244 224 108 
644 -0.40287325902339216 -0.0010803514893342793 1.0275512791344057 0 0 0 0.09 142 644 159 245 196 245 
645 -0.39393441257648004 0.0017829384015664326 1.0261149601462665 0 0 0 0.12 142 645 159 246 196 246 
646 -0.3003749658091897 0.009234381368962232 0.8979495481093629 0 0 0 0.21 142 646 148 308 159 247 164 163 196 247 
647 -0.16595326601819446 0.04360379546734143 1.0159050111852093 0 0 0 0.24 142 647 146 31 159 248 164 164 196 248 214 44 
648 -0.1808623961771361 0.04395428651405788 1.015708218099025 0 0 0 0.17 142 648 198 46 199 43 
649 0.1359950604613864 0.079991071094756 1.035635763593945 0 0 0 0.2 142 649 194 99 220 100 
650 0.007060826339508835 0.08828455520773261 1.0161095053137668 0 0 0 0.15 142 650 196 249 199 44 
651 -0.29975694434041805 0.050341720988239684 0.88701312614215 0 0 0 0.27 142 651 148 309 159 249 164 165 196 250 
652 -0.282647054605616 0.09918309778045457 1.0031402355539178 0 0 0 0.27 142 652 159 250 196 251 
653 -0.27525182808504783 0.1071255053626815 1.002849434662132 0 0 0 0.26 142 653 162 69 164 166 196 252 224 109 
654 -0.3406639082254903 0.12414279809663563 0.9990227839164946 0 0 0 0.47 142 654 159 251 196 253 224 110 
655 -0.2963965808801813 0.12791184889376594 0.9937609258165492 0 0 0 0.34 142 655 148 310 159 252 162 70 164 167 196 254 221 61 224 111 
656 0.1924530084130816 0.13825409151473497 1.027798071464327 0 0 0 0.3 142 656 163 27 194 100 196 255 220 101 
657 -0.295476028240993 0.0961344869146378 0.8421642581031601 0 0 0 0.43 142 657 148 311 159 253 196 256 
658 -0.295476028240993 0.0961344869146378 0.8421642581031601 0 0 0 0.43 142 658 148 312 159 254 196 257 
659 0.10377409179380775 0.14058113305511316 1.016117736420623 0 0 0 0.23 142 659 148 313 198 47 199 45 
660 0.18486242293149002 0.14263664434307288 1.0221692393737694 0 0 0 0.27 142 660 148 314 162 71 163 28 164 168 194 101 196 258 199 46 220 102 222 62 
661 0.1935052643666602 0.1451486888129782 1.0260582122793942 0 0 0 0.37 142 661 148 315 162 72 185 90 194 102 196 259 198 48 214 45 
662 0.03318865594498765 -0.09319916958578937 1.0584567990959974 0 0 0 0.35 142 662 148 316 162 73 196 260 
663 0.1463805145323772 -0.06741263413434845 1.0675868431975508 0 0 0 0.38 142 663 148 317 190 41 220 103 
664 -0.03009831408029724 -0.08980172323422439 1.0472665898052864 0 0 0 0.36 142 664 185 91 196 261 
665 0.016539647777391173 -0.04958461210786111 1.0474480767912482 0 0 0 1.61 142 665 190 42 214 46 
666 0.021457357342107478 -0.03740401311935239 1.0420814066573951 0 0 0 0.54 142 666 148 318 152 14 162 74 164 169 194 103 196 262 198 49 200 28 214 47 220 104 221 62 
667 -0.29921735971957275 -0.07781071874554547 0.8656213092006391 0 0 0 0.12 142 667 148 319 199 47 
668 -0.1645469929148011 -0.043701467003012286 1.0308916011631966 0 0 0 0.28 142 668 164 170 185 92 196 263 220 105 224 112 232 86 
669 -0.3385348295695599 -0.060047457780716795 1.039855605821944 0 0 0 0.26 142 669 148 320 196 264 198 50 199 48 
670 -0.22071010971332516 -0.04311952138083725 1.0352379509126284 0 0 0 0.36 142 670 159 255 196 265 224 113 
671 0.06232915364820609 -0.007096140471795137 1.0388715776231405 0 0 0 0.11 142 671 196 266 199 49 
672 0.04048369289664264 -0.008891173886387348 1.0393749245209385 0 0 0 0.31 142 672 194 104 196 267 
673 -0.3531701415474142 -0.03739533498973735 1.0335257449976867 0 0 0 0.18 142 673 148 321 164 171 196 268 224 114 
674 -0.2699174944815131 -0.052785792076357745 0.6552586659157517 0 0 0 0.48 142 674 198 51 199 50 221 63 
675 -0.348541423871213 -0.0037592296022556514 1.025307254938779 0 0 0 0.17 142 675 148 322 196 269 224 115 
