# 3D point list with one line of data per point:
#   POINT3D_ID, X, Y, Z, R, G, B, ERROR, TRACK[] as (IMAGE_ID, POINT2D_IDX)
# Number of points: 386, mean track length: 6.41
348 -0.46157889741728764 0.03118525772255345 1.0994998837339987 0 0 0 0.27 30 167 31 85 72 144 115 60 116 42 119 46 150 77 166 52 168 208 173 118 191 80 193 59 216 53 226 59 233 43 
349 -0.4776960348358815 0.05834403944715172 0.9037620032883672 0 0 0 0.39 30 168 31 86 37 36 46 21 55 37 102 68 132 11 143 75 149 29 168 209 173 119 178 81 191 81 202 55 212 65 218 77 233 44 
350 -0.4834763720431934 0.06180262230246077 0.9032930333139328 0 0 0 0.35 30 169 31 87 37 37 99 96 137 24 168 210 178 82 193 60 202 56 228 52 233 45 
351 0.12469279467317175 -0.09833393917628587 1.3046405665404837 0 0 0 0.23 30 170 78 121 106 54 150 78 
352 -0.2896009732250154 -0.05827058089664529 1.3250459097781901 0 0 0 0.46 30 171 57 112 99 97 144 64 150 79 177 98 
353 -0.5318925686849245 -0.04825287656607016 0.7602556673434889 0 0 0 0.53 30 172 57 113 59 56 72 145 149 30 154 40 168 211 177 99 178 83 183 21 212 66 228 53 
354 -0.44223417326216785 -0.005366815744542966 1.2000745336507788 0 0 0 0.37 30 173 37 38 57 114 131 87 150 80 168 212 191 82 212 67 228 54 
355 -0.2901816511827122 0.009759231393673259 1.323867999579845 0 0 0 0.4 30 174 31 88 68 28 78 122 140 109 144 65 150 81 189 58 212 68 216 54 
356 0.028888567849875046 0.0966717878905147 1.2736440128830213 0 0 0 0.51 30 175 57 115 78 123 79 25 
357 -0.1859123593632223 0.10379568073495639 1.293601251443241 0 0 0 0.42 24 82 30 176 57 116 59 57 78 124 99 98 140 110 143 76 150 82 168 213 
358 0.12224242266196232 0.022530572981713955 1.2699469113494328 0 0 0 0.26 30 177 57 117 106 55 189 59 
359 -0.20949582392315244 0.0748096144397973 1.2995184987193646 0 0 0 0.4 30 178 72 146 106 56 177 100 189 60 191 83 
360 -0.02545617854336524 0.026075723182690965 1.2842436049636914 0 0 0 0.43 30 179 78 125 99 99 
361 -0.28920090830159706 0.07604189341416788 1.313180385544505 0 0 0 0.51 30 180 57 118 78 126 99 100 140 111 228 55 
362 -0.3114522530795428 -0.17932018701923025 1.3510179075436275 0 0 0 0.33 31 89 78 127 99 101 106 57 144 66 150 83 212 69 233 46 
363 -0.006797001430395249 -0.13452259399068006 1.297081431491574 0 0 0 0.1 31 90 78 128 150 84 177 101 189 61 
364 -0.2923383649558154 -0.1315652299019323 1.342910771486727 0 0 0 0.22 31 91 78 129 106 58 228 56 
365 -0.292289118245701 -0.13163152129426256 1.3429750731069732 0 0 0 0.15 31 92 78 130 150 85 216 55 
366 -0.19497913916787488 -0.12274589000701282 1.3125186980831938 0 0 0 0.24 31 93 68 29 72 147 78 131 106 59 150 86 233 47 
367 -0.29064375948536725 -0.12536823612598377 1.3485156582497555 0 0 0 0.33 31 94 99 102 140 112 143 77 177 102 
368 0.001697441994382779 -0.09570113287088203 1.293960520122132 0 0 0 0.29 31 95 57 119 78 132 99 103 140 113 150 87 177 103 191 84 
369 -0.19993273127239006 -0.09358363078786627 1.312215128187696 0 0 0 0.27 31 96 78 133 99 104 150 88 
370 -0.32847617175984845 -0.0928100553240826 1.3458089787308793 0 0 0 0.14 31 97 78 134 150 89 233 48 
371 -0.19827250808264804 -0.08863985462959909 1.3098107816255482 0 0 0 0.23 31 98 72 148 99 105 106 60 
372 -0.38129113067792714 -0.08207792465509774 1.3633967312736484 0 0 0 0.34 31 99 99 106 233 49 
373 -0.08066005386096957 -0.07465719996741503 1.2986717451712424 0 0 0 0.25 31 100 55 38 57 120 72 149 78 135 80 17 99 107 106 61 140 114 150 90 177 104 189 62 
374 -0.31528931101812546 -0.07761820995127468 1.3484833884234864 0 0 0 0.25 31 101 140 115 233 50 
375 -0.4262196414355667 -0.06635853934771399 1.3704648589942319 0 0 0 0.36 31 102 72 150 99 108 106 62 150 91 177 105 233 51 
376 -0.14968032027224154 -0.0605182874286555 1.3053683527119673 0 0 0 0.22 31 103 78 136 79 26 106 63 216 56 
377 -0.3057354858664989 -0.05867671023420379 1.3298655336642382 0 0 0 0.24 31 104 78 137 99 109 150 92 233 52 
378 -0.28303395499023204 -0.059139122479908705 1.3266738413867145 0 0 0 0.12 31 105 57 121 99 110 144 67 233 53 
379 0.08682943982237841 -0.05353518152395313 1.284264477479804 0 0 0 0.24 31 106 57 122 78 138 106 64 150 93 
380 -0.16818472752440602 -0.04869127585922942 1.3052725829554472 0 0 0 0.13 31 107 72 151 80 18 106 65 
381 -0.15425587580799424 -0.04659703675695746 1.3017205824592233 0 0 0 0.33 31 108 78 139 80 19 99 111 140 116 150 94 177 106 189 63 191 85 233 54 
382 -0.33827232462918494 -0.04865303361384518 1.3409304054984017 0 0 0 0.51 30 181 31 109 72 152 78 140 99 112 106 66 140 117 216 57 228 57 
383 0.14755951655204874 -0.04098675226447655 1.2782222228206397 0 0 0 0.29 31 110 55 39 57 123 78 141 106 67 150 95 177 107 189 64 
384 0.13066212755149156 -0.040777808944619666 1.2788022778430896 0 0 0 0.38 31 111 57 124 72 153 78 142 106 68 150 96 
385 0.1434514716628262 -0.03832505115800836 1.2781057082774294 0 0 0 0.32 31 112 55 40 78 143 150 97 177 108 
386 -0.29707208101373905 -0.04206558433403214 1.3310513102902557 0 0 0 0.7 31 113 68 30 78 144 79 27 99 113 106 69 150 98 177 109 
387 -0.26454437495329236 -0.01610415536238411 1.3172079465833266 0 0 0 0.26 31 114 99 114 140 118 150 99 
388 -0.06450401226921323 -0.014214505351006443 1.2906529200732293 0 0 0 0.12 31 115 78 145 80 20 99 115 
389 -0.13219947855551495 -0.012688078546959951 1.2960356352246192 0 0 0 0.17 31 116 78 146 143 78 150 100 
390 0.033783486171599854 -0.011210717689155734 1.2835886777965504 0 0 0 0.44 31 117 72 154 78 147 106 70 177 110 189 65 
391 0.03366493727613131 -0.01132491130355996 1.2840586091920079 0 0 0 0.34 31 118 55 41 78 148 106 71 140 119 177 111 
392 -0.11728186509660102 -0.008716571125386334 1.2922000446722126 0 0 0 0.41 31 119 78 149 99 116 
393 0.13000250348327239 -3.8466983282225764e-05 1.275402095529919 0 0 0 0.24 31 120 57 125 78 150 106 72 
394 -0.33813191686350935 0.006004308504402589 1.3435177527685243 0 0 0 0.25 30 182 31 121 57 126 72 155 78 151 99 117 140 120 143 79 150 101 228 58 
395 0.035772168623743286 0.019667973975542843 1.283119338907602 0 0 0 0.32 31 122 78 152 99 118 106 73 
396 -0.3885317785014962 0.03460128707688802 1.3624763923901777 0 0 0 0.17 31 123 143 80 150 102 177 112 
397 -0.12522357145384141 0.05421659189980813 1.2834401852026938 0 0 0 0.41 31 124 80 21 106 74 177 113 189 66 
398 -0.08121269461550222 0.05398143406260817 1.2855359889308773 0 0 0 0.37 31 125 78 153 80 22 99 119 
399 -0.14918344553697513 0.05549153497888562 1.2921582350714154 0 0 0 0.36 30 183 31 126 55 42 57 127 72 156 78 154 80 23 99 120 106 75 140 121 143 81 150 103 177 114 189 67 233 55 
400 -0.06154082089726417 0.05559216978688065 1.280626493057693 0 0 0 0.2 31 127 80 24 99 121 189 68 
401 -0.15005608502471712 0.07033831122862041 1.292671709055799 0 0 0 0.19 31 128 80 25 150 104 
402 -0.27666094871312435 0.08770799051063118 1.3105984107930464 0 0 0 0.22 31 129 99 122 106 76 177 115 191 86 
403 0.01802086660033651 0.10133113692299121 1.2749236622466626 0 0 0 0.5 31 130 79 28 99 123 
404 -0.22161415559009612 0.11585526090492614 1.2963556629702344 0 0 0 0.41 31 131 78 155 99 124 150 105 177 116 
405 -0.35286518929143496 0.12538956291907738 1.3370213184338926 0 0 0 0.14 31 132 99 125 143 82 191 87 
406 0.12741086818782976 -0.1786101825703331 1.3342653996619855 0 0 0 0.5 31 133 57 128 78 156 150 106 
407 -0.29481431068766983 -0.1764074499132551 1.3514831347885454 0 0 0 0.21 31 134 99 126 189 69 
408 -0.10599898068688368 -0.14026402518554745 1.311840953262934 0 0 0 0.42 31 135 78 157 79 29 99 127 140 122 177 117 
409 -0.3280813620464266 -0.1300598835537057 1.3554378017841444 0 0 0 0.35 31 136 78 158 99 128 106 77 119 47 140 123 150 107 189 70 191 88 228 59 233 56 
410 -0.2806274823322855 -0.12389178494998389 1.339925072141473 0 0 0 0.29 31 137 57 129 72 157 78 159 106 78 140 124 144 68 150 108 189 71 191 89 212 70 228 60 233 57 
411 -0.11635631456950715 -0.10956864109929486 1.3081263041401376 0 0 0 0.33 31 138 55 43 57 130 72 158 78 160 80 26 106 79 140 125 150 109 177 118 189 72 191 90 
412 -0.045730557618151056 -0.10041522599932093 1.300114771561189 0 0 0 0.19 31 139 78 161 99 129 106 80 
413 -0.4030868303325879 -0.09730505149349601 1.3769772193821208 0 0 0 0.42 31 140 78 162 99 130 106 81 150 110 212 71 228 61 233 58 
414 -0.2771757848638383 -0.09030126521345612 1.3286017727949149 0 0 0 0.18 31 141 72 159 99 131 106 82 140 126 144 69 150 111 177 119 189 73 191 91 233 59 
415 -0.30627008664421373 -0.06461546954675429 1.3321936905420129 0 0 0 0.24 31 142 57 131 68 31 78 163 99 132 150 112 216 58 
416 -0.3498684766420492 -0.058550721043474085 1.3470599825381107 0 0 0 0.24 31 143 68 32 72 160 99 133 106 83 140 127 150 113 191 92 233 60 
417 -0.16518748070982822 -0.05301934911087314 1.3047804801474228 0 0 0 0.76 31 144 79 30 80 27 106 84 233 61 
418 -0.057297046467570736 -0.052736319551884216 1.295447076776227 0 0 0 0.68 31 145 78 164 79 31 99 134 106 85 191 93 
419 -0.26033452105834254 -0.051473722128032195 1.3162674832883627 0 0 0 0.21 31 146 57 132 68 33 72 161 78 165 99 135 106 86 140 128 144 70 150 114 177 120 216 59 228 62 233 62 
420 -0.26895163168542613 -0.05025431099595814 1.3167169599361381 0 0 0 0.32 31 147 57 133 78 166 99 136 119 48 140 129 143 83 144 71 150 115 177 121 189 74 191 94 216 60 228 63 233 63 
421 -0.2687879069265953 -0.050194259084760925 1.316453703592931 0 0 0 0.35 31 148 78 167 99 137 143 84 191 95 
422 -0.16910401504240638 -0.04395411227769002 1.305284746449798 0 0 0 0.04 31 149 72 162 80 28 
423 -0.2513416467841308 -0.027208352682857567 1.31554035329464 0 0 0 0.2 31 150 68 34 99 138 106 87 140 130 150 116 177 122 
424 -0.15501497673464176 -0.021682998012324567 1.3015079413544013 0 0 0 0.32 30 184 31 151 57 134 72 163 78 168 80 29 99 139 106 88 140 131 150 117 189 75 191 96 216 61 
425 -0.06529562557024056 -0.0069275891206085965 1.2888198631782217 0 0 0 0.41 31 152 57 135 78 169 80 30 99 140 106 89 140 132 189 76 191 97 
426 0.049367400340497566 0.0072761363643961165 1.2784390213498273 0 0 0 0.19 31 153 140 133 177 123 189 77 
427 0.06896928986137393 0.0075525270935050525 1.278717217119916 0 0 0 0.28 31 154 78 170 140 134 189 78 191 98 
428 0.12045580087717961 0.013001909017386083 1.2747276596607213 0 0 0 0.84 31 155 57 136 78 171 106 90 177 124 
429 -0.1965884291964052 0.031634722026821174 1.3012488667430204 0 0 0 0.24 31 156 80 31 99 141 106 91 140 135 150 118 
430 0.03455882302348035 0.038526043504553395 1.2762436000968476 0 0 0 0.55 31 157 57 137 78 172 106 92 
431 -0.3658386026039692 0.041507780795247015 1.3479258453702743 0 0 0 0.3 31 158 140 136 143 85 177 125 191 99 
432 0.015676090775146957 0.04678128796890139 1.279945337467945 0 0 0 0.17 31 159 78 173 99 142 
433 -0.13714485033535043 0.05416342818994601 1.2850709416327926 0 0 0 0.24 31 160 80 32 99 143 106 93 140 137 177 126 
434 -0.014523528710515737 0.08727611871262049 1.2770987059256882 0 0 0 0.16 31 161 57 138 78 174 99 144 
435 -0.014401025721180074 0.08728062911847918 1.2760976627720175 0 0 0 0.19 31 162 78 175 79 32 
436 -0.064184743905967 0.10011931230358127 1.2747096770987694 0 0 0 0.1 31 163 57 139 106 94 191 100 
437 -0.21662732299959467 0.12021563681647117 1.2971046988635389 0 0 0 0.31 31 164 78 176 119 49 140 138 143 86 150 119 177 127 216 62 
438 -0.47974016246948176 -0.13015528649682617 0.8882072632403909 0 0 0 0.45 31 165 99 145 121 22 168 214 171 30 180 73 211 20 
439 -0.31338448499897853 -0.15422022630093837 1.354603711102414 0 0 0 0.32 31 166 78 177 99 146 106 95 115 61 144 72 150 120 189 79 228 64 233 64 
440 -0.025534892041340743 -0.13947893257591315 1.2955895818188687 0 0 0 0.27 31 167 55 44 57 140 78 178 99 147 106 96 140 139 150 121 177 128 
441 -0.10957009203509166 -0.13541657119642914 1.3087280782519928 0 0 0 0.23 31 168 55 45 78 179 79 33 99 148 106 97 
442 -0.1096048183091599 -0.13529758211377982 1.3085924059018796 0 0 0 0.12 31 169 55 46 57 141 78 180 99 149 
443 -0.29660620162380513 -0.11951297028721736 1.3413213691874022 0 0 0 0.24 31 170 78 181 140 140 143 87 150 122 177 129 189 80 212 72 216 63 228 65 233 65 
444 -0.30894878652297975 -0.11943685023486725 1.3475020830933024 0 0 0 0.26 31 171 57 142 78 182 99 150 106 98 140 141 143 88 144 73 150 123 177 130 189 81 212 73 216 64 233 66 
445 -0.4170004052710772 -0.11901586821653784 1.3876557338847568 0 0 0 0.24 31 172 168 215 191 101 
446 -0.2973068556713763 -0.10736459213129793 1.341969076202687 0 0 0 0.09 31 173 144 74 233 67 
447 -0.32154434205205956 -0.10719081967711837 1.3532990664628315 0 0 0 0.32 31 174 57 143 78 183 99 151 106 99 140 142 143 89 150 124 177 131 189 82 191 102 216 65 228 66 233 68 
448 -0.3088599656335778 -0.10713860986503858 1.3466760165834417 0 0 0 0.11 31 175 140 143 233 69 
449 -0.42566991929847936 -0.09484537421727621 1.3788506301657815 0 0 0 0.22 31 176 57 144 106 100 144 75 150 125 189 83 
450 -0.3653197063903036 -0.08968067482945827 1.3598200527008253 0 0 0 0.35 31 177 57 145 99 152 115 62 119 50 144 76 150 126 189 84 191 103 212 74 228 67 233 70 
451 -0.08061780442209752 -0.0682980633026775 1.2994765545979896 0 0 0 0.4 31 178 55 47 78 184 80 33 99 153 191 104 
452 0.028377467797517705 -0.059617336055803466 1.288953245512784 0 0 0 0.31 23 116 24 83 31 179 57 146 72 164 78 185 99 154 140 144 168 216 177 132 189 85 191 105 202 57 
453 0.21331973840642834 -0.054057543457428955 1.283600939408946 0 0 0 0.18 31 180 106 101 189 86 
454 0.21417836307461707 -0.054441539525696074 1.287659169157117 0 0 0 0.28 31 181 57 147 189 87 
455 0.18920085040448134 -0.05345840494635818 1.2773622450915176 0 0 0 0.3 30 185 31 182 78 186 150 127 189 88 
456 0.07667632584051723 -0.05262328159244686 1.2846265469038163 0 0 0 0.43 31 183 57 148 78 187 106 102 168 217 191 106 
457 0.10271174756382977 -0.05285481427561779 1.2815991554053632 0 0 0 0.48 30 186 31 184 57 149 78 188 150 128 189 89 
458 0.05678605313311085 -0.05228968153944703 1.2866519326004635 0 0 0 0.19 31 185 57 150 78 189 79 34 
459 0.13944769015920086 -0.04866613471000174 1.2828125754536897 0 0 0 0.33 31 186 57 151 78 190 106 103 150 129 
460 -0.3173058580860197 -0.04970855513660843 1.336781739116841 0 0 0 0.25 31 187 57 152 78 191 99 155 106 104 144 77 216 66 
461 -0.15989084946365273 -0.04284595220307931 1.3005097584682135 0 0 0 0.23 30 187 31 188 55 48 57 153 68 35 78 192 80 34 99 156 106 105 140 145 150 130 189 90 191 107 233 71 
462 -0.1725326421835833 -0.0366885507584402 1.3030130565029112 0 0 0 0.16 31 189 72 165 80 35 99 157 233 72 
463 -0.34721177747732607 0.001997253521037587 1.3414308674782125 0 0 0 0.34 31 190 57 154 72 166 78 193 99 158 115 63 119 51 140 146 144 78 150 131 189 91 191 108 
464 0.09311144239447001 0.0073078712156599964 1.276370024298881 0 0 0 0.34 31 191 57 155 72 167 78 194 140 147 189 92 
465 -0.48919056329815774 0.011575395447821563 0.8741099435348101 0 0 0 0.37 31 192 34 43 57 156 59 58 131 88 144 79 151 36 168 218 177 133 183 22 212 75 218 78 
466 -0.1921656495433563 0.019656166801768613 1.2972836356921107 0 0 0 0.3 31 193 78 195 99 159 140 148 150 132 177 134 233 73 
467 -0.2611067344503622 0.0214882960081041 1.3098686622083282 0 0 0 0.29 30 188 31 194 78 196 99 160 140 149 150 133 177 135 189 93 212 76 
468 -0.4043974732389933 0.05293623136135353 1.3677203453607891 0 0 0 0.18 31 195 72 168 177 136 189 94 191 109 
469 0.02302453973451013 0.08431792057845652 1.27309801106302 0 0 0 0.23 23 117 31 196 72 169 140 150 168 219 202 58 
470 -0.10911051546879742 0.09370025704012636 1.281316377722414 0 0 0 0.27 31 197 78 197 99 161 140 151 
471 -0.10900584247917967 0.09348785106555814 1.2811012862590263 0 0 0 0.3 31 198 78 198 140 152 177 137 
472 -0.31364551733426566 0.0993818668952827 1.3231057452135928 0 0 0 0.53 31 199 57 157 140 153 168 220 178 84 180 74 191 110 228 68 
473 -0.31372298386969516 0.09975727936145705 1.3233350269201412 0 0 0 0.48 31 200 57 158 140 154 168 221 178 85 191 111 228 69 
474 -0.08690517385812388 0.10039514334524112 1.2794574553804128 0 0 0 0.31 31 201 80 36 99 162 
475 -0.3476730306704407 0.12926837710559602 1.3369222679867117 0 0 0 0.24 31 202 143 90 150 134 191 112 
476 -0.46749416579236014 -0.15738227663463147 0.966381346127011 0 0 0 0.29 31 203 131 89 168 222 177 138 178 86 216 67 218 79 226 60 
477 -0.39229116291165395 -0.1471104802668812 1.3786469045635539 0 0 0 0.57 31 204 78 199 99 163 115 64 119 52 144 80 191 113 228 70 
478 -0.48522176718447124 -0.1014171262725842 1.0247225764973342 0 0 0 0.42 31 205 72 170 115 65 154 41 168 223 173 120 178 87 218 80 225 40 
479 -0.449740376607301 -0.0991933534332769 1.1454073748996747 0 0 0 0.4 31 206 115 66 149 31 168 224 178 88 180 75 216 68 
480 -0.18556119224431275 -0.09450189361953994 1.3087306817622695 0 0 0 0.45 31 207 55 49 72 171 78 200 79 35 80 37 99 164 106 106 115 67 140 155 150 135 189 95 216 69 233 74 
481 -0.29304856519035577 -0.09497707708976359 1.3279264804673367 0 0 0 0.42 31 208 57 159 59 59 72 172 99 165 102 69 131 90 144 81 168 225 171 31 177 139 212 77 216 70 225 41 233 75 
482 -0.30464068295136587 -0.09461142562228529 1.333823131277271 0 0 0 0.25 31 209 72 173 140 156 143 91 
483 0.14553754031854424 -0.08823972034087164 1.2975184454667241 0 0 0 0.24 31 210 78 201 150 136 189 96 
484 -0.3797174759058822 -0.08920335071433752 1.3627837055992358 0 0 0 0.3 31 211 57 160 99 166 115 68 144 82 150 137 189 97 191 114 233 76 
485 -0.348385114977732 -0.08419377862081452 1.3539498118732685 0 0 0 0.54 31 212 57 161 78 202 99 167 140 157 144 83 189 98 191 115 233 77 
486 -0.39410324980966555 -0.08270659403022766 1.3703730791831148 0 0 0 0.98 31 213 78 203 79 36 
487 -0.47858856978374414 -0.05275090015137913 1.0079034353934457 0 0 0 0.36 31 214 72 174 115 69 154 42 168 226 173 121 177 140 178 89 218 81 225 42 
488 0.007239765954806416 -0.0599929382368172 1.2913009124151358 0 0 0 0.26 31 215 78 204 99 168 
489 -0.4596178536424187 -0.052648469945305115 1.1054428033196126 0 0 0 0.39 31 216 72 175 99 169 119 53 133 31 168 227 173 122 178 90 191 116 
490 0.03535528794099529 -0.05683994344266637 1.2885927704322768 0 0 0 0.52 31 217 78 205 99 170 140 158 189 99 
491 -0.2517527041258007 -0.008463003279299506 1.3182910987392844 0 0 0 0.5 31 218 57 162 68 36 99 171 115 70 140 159 144 84 150 138 177 141 189 100 
492 -0.45655386579743 -0.0011330760559268682 1.1409195912189285 0 0 0 0.23 31 219 116 43 131 91 144 85 154 43 168 228 177 142 202 59 218 82 
493 -0.34190889084974907 0.010031748564556964 1.3425634957581996 0 0 0 0.07 31 220 78 206 228 71 
494 -0.3917966141514652 0.01103708595851931 1.3542924824010347 0 0 0 0.32 24 84 31 221 59 60 99 172 137 25 143 92 168 229 173 123 177 143 180 76 189 101 191 117 202 60 210 25 228 72 
495 -0.4014664730404344 0.019151063938856322 1.3614163161187343 0 0 0 0.46 31 222 57 163 59 61 72 176 99 173 115 71 119 54 131 92 139 23 143 93 150 139 168 230 189 102 191 118 226 61 228 73 
496 -0.24144776888380454 0.028726591772592035 1.3043499357747907 0 0 0 0.5 31 223 57 164 68 37 78 207 99 174 140 160 150 140 177 144 189 103 228 74 
497 -0.35321473530917685 0.06934379741016122 1.2253528311578379 0 0 0 0.81 31 224 137 26 168 231 178 91 
498 -0.4022811895658435 0.08618772737826862 1.3452378527519195 0 0 0 0.19 31 225 59 62 137 27 150 141 168 232 191 119 228 75 
499 -0.17292696260265975 0.10173211147054077 1.2873702092793864 0 0 0 0.45 31 226 68 38 78 208 80 38 99 175 140 161 150 142 168 233 
500 -0.3188254200025505 -0.16358391720869808 1.3566118802912355 0 0 0 0.51 31 227 78 209 115 72 150 143 189 104 191 120 
501 -0.015547330405464618 -0.14356260507325075 1.295847468239849 0 0 0 0.52 31 228 55 50 57 165 68 39 78 210 106 107 150 144 177 145 
502 -0.015730222325179646 -0.14357302598292637 1.2968930245452719 0 0 0 0.59 31 229 55 51 57 166 68 40 78 211 99 176 106 108 150 145 177 146 
503 -0.37648666664250496 -0.12335669723075565 1.3601258231009836 0 0 0 0.31 31 230 99 177 144 86 150 146 189 105 191 121 
504 0.11677536644057127 -0.08750453366367666 1.29863560795074 0 0 0 0.24 31 231 78 212 150 147 
505 -0.11010533030947049 -0.06846379897098258 1.3027231767310583 0 0 0 0.38 31 232 57 167 68 41 78 213 106 109 150 148 191 122 
506 -0.11022441879397206 -0.06845104521032919 1.3028484586757973 0 0 0 0.35 8 89 23 118 31 233 57 168 68 42 78 214 106 110 140 162 150 149 168 234 191 123 
507 -0.46637690513003227 -0.05564485560097592 1.077461758503807 0 0 0 0.38 31 234 37 39 46 22 57 169 72 177 94 33 99 178 116 44 119 55 125 33 131 93 133 32 149 32 150 150 154 44 166 53 168 235 173 124 191 124 211 21 212 78 215 39 
508 -0.3413577296290001 -0.007326757544823729 1.3435175440519176 0 0 0 0.32 31 235 68 43 78 215 99 179 140 163 144 87 150 151 189 106 191 125 212 79 216 71 228 76 
509 -0.2349738678282283 0.006863185555421117 1.3045969695456434 0 0 0 0.42 31 236 78 216 140 164 144 88 150 152 212 80 
510 -0.06036404499324254 0.08925294631170205 1.2797248827435215 0 0 0 0.35 31 237 78 217 80 39 99 180 
511 -0.059969551087830635 0.08906055615284157 1.2783925092089703 0 0 0 0.33 8 90 23 119 24 85 31 238 55 52 57 170 72 178 78 218 99 181 168 236 177 147 191 126 202 61 
512 -0.49008486726891975 0.0638042824663223 0.8795454800936771 0 0 0 0.42 31 239 57 171 121 23 168 237 215 40 
513 -0.2673406077671946 0.09458792033882578 1.3174822739253846 0 0 0 0.82 31 240 57 172 115 73 140 165 177 148 189 107 191 127 
514 -0.32418420423391797 -0.0015396927607966868 1.3389595178456017 0 0 0 0.67 31 241 57 173 68 44 78 219 115 74 139 24 140 166 144 89 168 238 178 92 202 62 212 81 216 72 228 77 
515 -0.24215556724901494 0.07271554504136957 1.3132351213805282 0 0 0 0.26 31 242 99 182 189 108 
516 -0.24210077067773353 0.07297300338323018 1.3123804508082952 0 0 0 0.27 31 243 57 174 99 183 106 111 189 109 191 128 
517 -0.1801681207560566 0.0748623812475971 1.3079167771954776 0 0 0 0.75 31 244 106 112 189 110 
518 -0.17832073115290795 0.07373861147923422 1.299553509298685 0 0 0 0.19 31 245 72 179 106 113 
519 -0.3263402681791918 0.09815422600200167 1.3329929610471472 0 0 0 0.08 31 246 137 28 168 239 
520 -0.47507146240221104 -0.09733999657229521 0.8951753265233602 0 0 0 0.45 31 247 57 175 59 63 72 180 99 184 102 70 116 45 125 34 131 94 133 33 140 167 144 90 149 33 151 37 154 45 166 54 168 240 173 125 177 149 178 93 193 61 202 63 210 26 212 82 215 41 216 73 218 83 226 62 
521 0.13092926457593007 -0.10074337709046265 1.2971760891887707 0 0 0 0.51 31 248 57 176 78 220 
522 -0.45057833573948386 -0.09021771312939195 1.116085816766942 0 0 0 0.67 31 249 34 44 57 177 59 64 94 34 115 75 116 46 119 56 125 35 131 95 133 34 140 168 144 91 151 38 166 55 168 241 173 126 177 150 191 129 193 62 218 84 225 43 228 78 233 78 
523 -0.48200830347044615 -0.07167433051814938 1.0390177615528944 0 0 0 0.43 31 250 59 65 72 181 115 76 131 96 154 46 168 242 177 151 218 85 225 44 
524 -0.27837362910662933 -0.06447477204439889 1.329321461478983 0 0 0 0.41 31 251 57 178 115 77 119 57 144 92 150 153 189 111 216 74 228 79 
525 -0.3549100093332134 -0.05059003170194054 1.346355893687858 0 0 0 0.57 31 252 68 45 78 221 99 185 115 78 140 169 189 112 191 130 212 83 
526 -0.3398518947754689 0.07461504778826965 1.3329190446320456 0 0 0 0.26 8 91 31 253 57 179 99 186 102 71 121 24 137 29 140 170 150 154 154 47 168 243 178 94 180 77 189 113 191 131 212 84 216 75 228 80 
527 -0.11981729857423513 0.07774209543798545 1.2882710334538205 0 0 0 0.46 31 254 78 222 80 40 
528 -0.2788031187630903 0.09563669963674012 1.3146149273579228 0 0 0 0.53 31 255 68 46 99 187 150 155 
529 -0.33800102410014715 -0.06355222937093823 1.3511430958834891 0 0 0 0.91 31 256 68 47 78 223 106 114 115 79 150 156 228 81 
530 -0.015535711661602914 -0.1324481454550798 1.298634535494816 0 0 0 0.66 31 257 72 182 78 224 106 115 140 171 150 157 168 244 177 152 202 64 
531 -0.015012681598146855 -0.1320053253746174 1.296579789576925 0 0 0 0.52 31 258 78 225 106 116 150 158 
532 -0.4366693748122333 -0.08064360894880236 1.2113905057283156 0 0 0 0.54 34 45 37 40 59 66 72 183 86 22 119 58 131 97 140 172 144 93 149 34 168 245 173 127 177 153 178 95 180 78 191 132 193 63 210 27 211 22 215 42 225 45 228 82 233 79 
533 -0.5290065779557543 -0.06073811668299477 0.7668791756434429 0 0 0 0.29 34 46 37 41 59 67 94 35 99 188 116 47 131 98 133 35 168 246 191 133 212 85 
534 -0.4254619629950681 -0.05929395434427566 1.2157248009192299 0 0 0 0.32 34 47 59 68 72 184 151 39 168 247 173 128 178 96 193 64 
535 -0.4620830241493386 0.056102954342069675 0.9491508501239997 0 0 0 0.51 34 48 37 42 46 23 57 180 125 36 132 12 144 94 168 248 177 154 202 65 218 86 233 80 
536 -0.5151083508728139 -0.11366394792232629 0.8413531402833021 0 0 0 0.62 34 49 46 24 99 189 166 56 168 249 202 66 233 81 
537 -0.47191797837788924 -0.10703756936137024 1.0586114039327477 0 0 0 0.26 34 50 59 69 72 185 125 37 140 173 143 94 144 95 168 250 173 129 177 155 180 79 183 23 193 65 212 86 215 43 218 87 225 46 226 63 
538 -0.4487122690581449 0.009332852953742884 1.1307500934351657 0 0 0 0.28 34 51 68 48 133 36 140 174 168 251 212 87 226 64 
539 -0.494958967571907 0.07261366696628832 0.8225885336684812 0 0 0 0.33 34 52 144 96 168 252 180 80 183 24 
540 -0.4755953488713915 0.025419444253094704 1.0167679281329447 0 0 0 0.36 34 53 59 70 133 37 168 253 
541 -0.5513445685781769 0.02008327608330967 0.5482508468549846 0 0 0 0.29 34 54 72 186 168 254 180 81 
542 -0.5428897201641977 -0.13829759401297176 0.6265672516819952 0 0 0 0.68 34 55 59 71 131 99 150 159 168 255 173 130 226 65 228 83 
543 -0.541674781570184 -0.1346867510337085 0.7079297829694796 0 0 0 0.33 34 56 168 256 180 82 202 67 218 88 
544 -0.5069234366722761 -0.09147437829979595 0.8361949805155459 0 0 0 0.49 34 57 72 187 168 257 
545 -0.5579718870118231 -0.11943134728152371 0.6380053973638096 0 0 0 0.44 34 58 59 72 116 48 119 59 131 100 133 38 151 40 153 39 154 48 168 258 183 25 202 68 212 88 215 44 216 76 226 66 
546 -0.5163316628414015 -0.04347450021617786 0.8126270906112457 0 0 0 1.38 34 59 99 190 133 39 143 95 168 259 173 131 
547 -0.5292907898128844 -0.06085352295173682 0.7675357006103348 0 0 0 0.29 37 43 99 191 168 260 191 134 
548 -0.5532587278686355 -0.06336077489058593 0.6600149752894707 0 0 0 0.18 37 44 46 25 119 60 144 97 168 261 191 135 226 67 
549 -0.5692013699302481 -0.25097759304710643 0.8729604642379446 0 0 0 0.58 37 45 59 73 72 188 143 96 168 262 173 132 178 97 180 83 191 136 202 69 226 68 
550 -0.5718535213912831 -0.10628158765981904 0.592028804827108 0 0 0 0.55 115 80 168 263 191 137 
551 -0.46363734294490117 0.03886412811307132 0.9888303259627619 0 0 0 0.41 37 46 115 81 116 49 119 61 131 101 140 175 143 97 144 98 151 41 168 264 173 133 178 98 193 66 202 70 211 23 212 89 215 45 216 77 218 89 233 82 
552 -0.5801091312822713 -0.06730507066124215 0.4662335572077006 0 0 0 0.21 37 47 72 189 143 98 168 265 191 138 
553 -0.5832789731186473 -0.025427105112872037 0.4647439647090254 0 0 0 0.49 37 48 143 99 168 266 
554 -0.4766579635512397 0.06442062533729279 0.90690303868884 0 0 0 0.31 37 49 133 40 168 267 178 99 
555 -0.4130399759401764 -0.0009982029080148312 1.2325311555317255 0 0 0 0.39 37 50 46 26 59 74 72 190 115 82 119 62 143 100 144 99 150 160 151 42 168 268 178 100 191 139 202 71 211 24 212 90 226 69 
556 -0.47263769326057015 0.032570716384329915 1.0390262455705632 0 0 0 0.38 37 51 57 181 116 50 125 38 131 102 137 30 143 101 168 269 177 156 211 25 212 91 215 46 218 90 228 84 
557 -0.5662547151082093 0.013909908241810652 0.4796560395310336 0 0 0 0.77 37 52 59 75 131 103 143 102 151 43 168 270 171 32 212 92 
558 -0.5083824005081383 -0.16436797540962164 0.85522311379086 0 0 0 0.8 37 53 72 191 131 104 143 103 168 271 191 140 226 70 
559 -0.5637564175501749 -0.09968226862211507 0.637520720166603 0 0 0 0.52 102 72 116 51 154 49 168 272 173 134 193 67 
560 -0.46333191609010793 0.03896299850484209 0.9877886999069628 0 0 0 0.17 46 27 57 182 72 192 168 273 226 71 
561 -0.5462995905689036 -0.1200923474886176 0.7400011577917006 0 0 0 0.36 46 28 72 193 140 176 168 274 177 157 
562 -0.4560197950574714 0.04639629563165157 0.9800438377888377 0 0 0 0.65 46 29 140 177 168 275 177 158 202 72 215 47 
563 -0.5720017824216878 0.03062398300044762 0.4712884772391742 0 0 0 0.41 46 30 168 276 212 93 218 91 
564 -0.5701590208741 -0.10420047385470378 0.602592884715362 0 0 0 0.67 46 31 168 277 178 101 180 84 
565 0.13284836445427714 -0.18561783614598187 1.3408593948936138 0 0 0 0.37 55 53 57 183 78 226 150 161 
566 0.13284836445427714 -0.18561783614598187 1.3408593948936138 0 0 0 0.37 55 54 57 184 78 227 150 162 
567 -0.20748781688394388 -0.07488297974668014 1.3134591363172035 0 0 0 0.12 55 55 78 228 79 37 150 163 
568 -0.1647740696520745 -0.06780782147091495 1.3059909030058703 0 0 0 0.51 55 56 57 185 78 229 
569 -0.05935586228690711 -0.007861649423804951 1.2894356454200941 0 0 0 0.42 55 57 68 49 78 230 80 41 99 192 115 83 140 178 189 114 191 141 
570 -0.05207571915577988 0.00021212760913343266 1.2888767793862141 0 0 0 0.16 55 58 78 231 79 38 80 42 99 193 
571 -0.15421187380905269 -0.0006002228463300871 1.295596815678069 0 0 0 0.19 55 59 57 186 72 194 78 232 99 194 140 179 150 164 233 83 
572 -0.05599602623666472 0.04492148565351131 1.2836674301794424 0 0 0 0.23 55 60 78 233 80 43 99 195 106 117 140 180 191 142 
573 -0.12930061458178715 0.10150756004111762 1.2846593606709782 0 0 0 0.3 55 61 78 234 79 39 140 181 
574 -0.13876800509285034 0.10231616043705376 1.2844106138756015 0 0 0 0.4 55 62 78 235 80 44 99 196 
575 -0.10274075145641379 -0.10953643784324603 1.304687343165446 0 0 0 0.37 55 63 78 236 79 40 150 165 189 115 
576 -0.2157035698560982 -0.09283607816777596 1.3125035379655394 0 0 0 0.27 55 64 68 50 78 237 106 118 140 182 150 166 189 116 216 78 233 84 
577 0.033665183512754306 -0.03466312689111982 1.2893718645031442 0 0 0 0.29 55 65 78 238 189 117 
578 -0.1657181231140054 -0.01725460560697156 1.3014974122981398 0 0 0 0.21 55 66 68 51 78 239 189 118 
579 -0.12662188979273575 0.002826661207719344 1.296998028481905 0 0 0 0.2 55 67 78 240 150 167 177 159 
580 0.04912348608846596 0.014585938433143718 1.2768368777120873 0 0 0 0.24 55 68 57 187 78 241 
581 -0.04610634900851716 0.09106995223282414 1.2770401451116047 0 0 0 0.34 55 69 57 188 78 242 106 119 
582 -0.006749883048501208 -0.13999707456475977 1.2975735599068432 0 0 0 0.5 55 70 72 195 78 243 79 41 140 183 150 168 168 278 177 160 189 119 
583 -0.30840512169857814 -0.1264143454375909 1.3477751511905829 0 0 0 0.47 55 71 59 76 68 52 78 244 99 197 115 84 140 184 143 104 144 100 168 279 171 33 177 161 180 85 189 120 202 73 212 94 216 79 225 47 228 85 233 85 
584 -0.15118324999446373 -0.0773241446256809 1.2997419330840476 0 0 0 0.08 55 72 168 280 177 162 
585 -0.15188031433606367 -0.07755104247992227 1.304197721374891 0 0 0 0.16 55 73 137 31 143 105 168 281 177 163 191 143 
586 0.2198102442883469 -0.022723826730818117 1.271969479394832 0 0 0 0.37 55 74 57 189 78 245 
587 0.040142006096442744 0.04906778393981539 1.2843404780537044 0 0 0 0.32 55 75 72 196 168 282 
588 -0.05821932541066359 0.09794139205759667 1.277155011650373 0 0 0 0.46 30 189 55 76 57 190 78 246 99 198 106 120 191 144 
589 -0.025740318042169908 0.0989344459954096 1.2760667620222772 0 0 0 0.29 55 77 57 191 78 247 79 42 
590 -0.09842196105506355 -0.10255256723412631 1.305547447189845 0 0 0 0.31 55 78 68 53 78 248 106 121 177 164 
591 -0.24540630656051782 -0.10570469172850687 1.3286198517486525 0 0 0 0.27 55 79 57 192 131 105 140 185 143 106 168 283 177 165 191 145 
592 -0.19741393566523688 -0.06517682523257835 1.3122427969087456 0 0 0 0.31 55 80 57 193 78 249 
593 -0.1856511888451532 -0.036359495189084205 1.3079239014483433 0 0 0 0.42 55 81 78 250 150 169 
594 -0.17409032216709802 -0.027621469281330874 1.303871877553104 0 0 0 0.32 55 82 78 251 150 170 
595 -0.17375820272524403 -0.02759500705634287 1.3031741037243292 0 0 0 0.31 55 83 78 252 140 186 150 171 
596 0.20914585080294718 0.012988415758544347 1.2694764121390172 0 0 0 0.29 55 84 78 253 106 122 189 121 
597 0.08854437111389192 0.04091067048364458 1.2773200764744506 0 0 0 0.15 55 85 106 123 168 284 177 166 189 122 
598 -0.2281944460310836 -0.11325935867150518 1.318842374179779 0 0 0 0.41 55 86 57 194 133 41 140 187 143 107 150 172 168 285 177 167 189 123 191 146 212 95 
599 -0.5330696391955376 -0.04882054672704981 0.7628263361927587 0 0 0 0.63 55 87 72 197 102 73 115 85 132 13 137 32 140 188 143 108 144 101 149 35 154 50 168 286 177 168 178 102 193 68 215 48 218 92 228 86 
600 0.005246642179574396 -0.1199514287454619 1.301636476097324 0 0 0 0.47 55 88 78 254 150 173 189 124 
601 0.05127710199119957 -0.014273055858605551 1.2881048337939174 0 0 0 0.48 55 89 72 198 78 255 191 147 
602 -0.04934104031344186 0.079822164522105 1.292696904190961 0 0 0 0.36 55 90 72 199 168 287 191 148 
603 -0.3034805136871865 -0.16969445230981536 1.3524905204192597 0 0 0 0.76 55 91 78 256 115 86 228 87 
604 -0.024834811646265064 -0.10261398374713539 1.294693715663743 0 0 0 0.28 57 195 99 199 140 189 
605 -0.2842890482510013 -0.1188944371711004 1.3385987283629175 0 0 0 0.23 57 196 68 54 72 200 78 257 99 200 140 190 143 109 144 102 150 174 177 169 212 96 228 88 233 86 
606 -0.008266470487261228 -0.09592122632148725 1.297029757832836 0 0 0 0.24 57 197 78 258 79 43 99 201 106 124 140 191 150 175 191 149 
607 -0.031015089345415862 -0.09546776744413511 1.2979415397927387 0 0 0 0.12 57 198 78 259 99 202 140 192 191 150 
608 -0.03192264987698172 -0.09113627590968053 1.2987540769879304 0 0 0 0.49 57 199 78 260 80 45 191 151 
609 -0.3515383349827419 -0.09940138737554806 1.358841302592653 0 0 0 0.09 57 200 99 203 233 87 
610 -0.4387688486815221 -0.10306690940879755 1.3895414465152 0 0 0 0.39 57 201 78 261 150 176 189 125 233 88 
611 0.015637637316392044 -0.071940207110141 1.2941176294274062 0 0 0 0.16 57 202 78 262 99 204 106 125 140 193 191 152 
612 0.01563763731639202 -0.07194020711014096 1.294117629427406 0 0 0 0.16 57 203 78 263 99 205 106 126 140 194 191 153 
613 -0.43471010134099064 -0.09696486600507082 1.3879567011254106 0 0 0 0.32 57 204 72 201 78 264 140 195 143 110 144 103 150 177 177 170 189 126 191 154 216 80 233 89 
614 -0.28957200641051184 -0.08220706038852034 1.350465082340971 0 0 0 0.12 57 205 115 87 191 155 
615 -0.22927880283807453 -0.07660537791175544 1.313373794668787 0 0 0 0.35 57 206 78 265 233 90 
616 -0.14272986187671732 -0.06987634991020102 1.306653758032227 0 0 0 0.15 57 207 80 46 99 206 140 196 191 156 233 91 
617 -0.40713707712499536 -0.08061135739001639 1.371528804018031 0 0 0 0.24 57 208 99 207 106 127 144 104 150 178 
618 -0.2768359689195165 -0.054352748578346176 1.3150618563505398 0 0 0 0.26 57 209 143 111 144 105 150 179 177 171 191 157 233 92 
619 -0.09583279564719771 -0.008556194060856443 1.2906577204531107 0 0 0 0.27 57 210 78 266 80 47 99 208 106 128 177 172 189 127 
620 -0.011489528511737738 -0.003755423288499602 1.285468217380999 0 0 0 0.18 57 211 78 267 79 44 99 209 
621 0.014180062766397357 0.0003241564366420814 1.2818304750648244 0 0 0 0.19 57 212 78 268 79 45 
622 -0.2206514999614334 0.036448129947820394 1.308062552367311 0 0 0 0.12 57 213 99 210 140 197 
623 -0.03873487920002954 0.044369868981774405 1.281825553637599 0 0 0 0.34 57 214 78 269 79 46 80 48 99 211 
624 -0.12985432451501855 0.05010274729693494 1.2890941444061603 0 0 0 0.33 57 215 78 270 79 47 80 49 99 212 140 198 233 93 
625 0.12935911880611334 0.08673711445492491 1.2697663367404186 0 0 0 0.68 57 216 78 271 79 48 
626 -0.19246817325802662 0.09332776706045257 1.283451762276591 0 0 0 0.44 57 217 78 272 99 213 140 199 177 173 189 128 191 158 233 94 
627 -0.14882141904989504 0.10601270657537262 1.2866758615691858 0 0 0 0.5 57 218 80 50 99 214 143 112 191 159 
628 -0.30519295654902046 -0.18097173574720543 1.3496859390534208 0 0 0 0.19 31 259 57 219 78 273 99 215 106 129 144 106 150 180 189 129 228 89 233 95 
629 -0.30502073974384825 -0.18093866535721462 1.3495868047379074 0 0 0 0.3 31 260 57 220 78 274 99 216 106 130 140 200 144 107 150 181 189 130 191 160 233 96 
630 -0.21286153902234403 -0.13365239053239952 1.3195234108737137 0 0 0 0.19 57 221 78 275 106 131 150 182 189 131 233 97 
631 -0.04515557500291874 -0.11487745658724893 1.3040658984296771 0 0 0 0.19 57 222 80 51 106 132 
632 -0.045204831272848814 -0.11491177077368124 1.30323350313351 0 0 0 0.23 57 223 78 276 80 52 99 217 106 133 177 174 
633 -0.36629607645791507 -0.093917664586014 1.3415479007164828 0 0 0 0.39 57 224 115 88 119 63 144 108 150 183 191 161 212 97 228 90 
634 -0.045093732913086694 -0.0703987192768993 1.2981475228065744 0 0 0 0.17 57 225 72 202 80 53 99 218 106 134 177 175 
635 -0.06476542849397543 -0.07132202201206848 1.2991552115292948 0 0 0 0.36 57 226 78 277 140 201 
636 -0.51656928728734 -0.07228283230457312 0.8394441465251771 0 0 0 0.31 57 227 59 77 72 203 168 288 177 176 180 86 202 74 228 91 
637 -0.35921409429332396 -0.07866265459097005 1.33562845032361 0 0 0 0.24 57 228 115 89 119 64 144 109 150 184 191 162 212 98 228 92 
638 0.00988630567183084 -0.05358056317348262 1.2909508080380487 0 0 0 0.26 57 229 78 278 99 219 106 135 
639 0.12169202319597405 -0.04323481605220266 1.282710389092002 0 0 0 0.28 57 230 78 279 150 185 
640 -0.15086671658481132 -0.04142085717847999 1.3001994127491352 0 0 0 0.74 57 231 80 54 99 220 115 90 233 98 
641 0.028750810571224902 -0.020760269406429537 1.2881463171628043 0 0 0 0.24 57 232 78 280 106 136 177 177 
642 0.14567719908562313 -0.007626932358456195 1.2715203736465555 0 0 0 0.21 57 233 177 178 189 132 
643 0.08143908900140799 0.0016664609267137336 1.2755535007195367 0 0 0 0.37 57 234 78 281 140 202 150 186 189 133 
644 0.0726365876651902 0.0016601003420015023 1.2780321531065235 0 0 0 0.26 57 235 72 204 78 282 140 203 150 187 
645 -0.2922530107477714 -0.007427780021209164 1.3275935448051854 0 0 0 0.14 57 236 78 283 106 137 140 204 144 110 
646 -0.2357892101239796 0.020784326317442838 1.3089661688574616 0 0 0 0.29 57 237 72 205 99 221 106 138 140 205 144 111 150 188 
647 -0.15754843269758273 0.03399628991366092 1.3012511658164518 0 0 0 0.72 57 238 78 284 143 113 191 163 
648 -0.3681397416622322 0.03298260593583764 1.3434415081587168 0 0 0 0.15 57 239 72 206 99 222 143 114 144 112 150 189 177 179 189 134 191 164 
649 -0.047284718757029366 0.036625220148226674 1.286031266650143 0 0 0 0.15 57 240 78 285 80 55 99 223 106 139 140 206 189 135 
650 -0.15456686204220385 0.0422114404901247 1.293418042036649 0 0 0 0.2 57 241 80 56 189 136 191 165 
651 -0.42506745966639553 0.05322567231240775 1.3682319991182832 0 0 0 0.16 57 242 150 190 233 99 
652 -0.43537937829145 0.07265560750905123 1.3703616819277413 0 0 0 0.28 57 243 143 115 189 137 
653 -0.15996655340767713 0.09368272762910675 1.2859316268746555 0 0 0 0.46 57 244 78 286 80 57 99 224 106 140 143 116 150 191 177 180 191 166 233 100 
654 -0.5757859189061945 -0.16463790450821514 0.4693257984090951 0 0 0 0.63 57 245 125 39 131 106 132 14 139 25 153 40 166 57 168 289 183 26 193 69 202 75 211 26 212 99 
655 0.13837114907531642 -0.17919292493019184 1.3343686523215366 0 0 0 0.63 57 246 78 287 150 192 
656 -0.01725920812237712 -0.11125873223074476 1.3005206320816487 0 0 0 0.26 57 247 68 55 78 288 79 49 99 225 
657 -0.33634029584255865 -0.11492385422414897 1.3588059036778917 0 0 0 0.58 57 248 99 226 106 141 140 207 150 193 177 181 189 138 191 167 233 101 
658 -0.2609530753763464 -0.09674723438481551 1.3217743326007407 0 0 0 0.48 57 249 72 207 115 91 131 107 140 208 143 117 144 113 150 194 168 290 191 168 228 93 
659 -0.27302811225676527 -0.095677536864413 1.3223462465686089 0 0 0 0.36 57 250 191 169 233 102 
660 0.16322969161423476 -0.05940920180478107 1.2766300425485841 0 0 0 0.52 57 251 78 289 189 139 
661 -0.020989621553291215 -0.06750517144316574 1.2943480101181144 0 0 0 0.16 57 252 78 290 99 227 
662 -0.3578470306485212 -0.08457365131163087 1.3574014830443544 0 0 0 0.29 31 261 57 253 78 291 99 228 106 142 115 92 119 65 144 114 189 140 191 170 212 100 228 94 233 103 
663 -0.34872167998640596 -0.08357721246918921 1.355372978130613 0 0 0 0.19 57 254 99 229 144 115 191 171 
664 0.10219930911288316 -0.05263689628365788 1.2823407577561639 0 0 0 0.21 57 255 78 292 150 195 
665 0.12334949099859387 -0.029835504308925922 1.275256128301022 0 0 0 0.28 57 256 78 293 106 143 150 196 
666 0.12333757942424543 -0.029829484570193274 1.2751898171395948 0 0 0 0.36 57 257 78 294 106 144 
667 0.0334745628895616 -0.02474683503189172 1.2878464094431321 0 0 0 0.3 57 258 78 295 106 145 191 172 
668 0.02322003981383918 -0.01722240679052408 1.2878277054690759 0 0 0 0.24 57 259 78 296 106 146 189 141 
669 0.06447466677354532 -0.007009934644116118 1.2793673034596709 0 0 0 0.41 57 260 78 297 106 147 115 93 140 209 
670 0.05770071169959566 -0.004507323594893172 1.2975746085861641 0 0 0 0.4 57 261 115 94 177 182 
671 0.0711014633351032 -0.004466123295116772 1.2801329599217448 0 0 0 0.49 57 262 78 298 115 95 
672 0.21174327384617844 -3.2424319112841464e-05 1.2685287958435159 0 0 0 0.29 57 263 78 299 106 148 189 142 
673 0.04825204539775892 0.0018151002728109523 1.2820818622944221 0 0 0 0.31 57 264 78 300 106 149 115 96 
674 0.05678864586478577 0.0017551500078213755 1.2809603143367343 0 0 0 0.28 57 265 78 301 106 150 115 97 140 210 
675 0.07540640541530856 0.007293269540852427 1.2803696199693688 0 0 0 0.38 57 266 78 302 115 98 140 211 150 197 
676 -0.34190970343077876 0.010017141518428982 1.3421493971776757 0 0 0 0.16 57 267 78 303 79 50 99 230 
677 -0.37678641559368653 0.024636975258228257 1.3510671018770477 0 0 0 0.15 57 268 119 66 143 118 150 198 168 291 189 143 191 173 
678 -0.18445695694933675 0.028013334681711154 1.2968858067098208 0 0 0 0.76 57 269 78 304 99 231 140 212 150 199 
679 -0.18461517565986296 0.02796316073774005 1.2969845877265758 0 0 0 0.59 57 270 78 305 99 232 150 200 233 104 
680 -0.07213026268653451 0.03143592670879361 1.3050151630566682 0 0 0 0.38 57 271 72 208 168 292 202 76 
681 -0.4148045418334903 0.03431433832009077 1.3544936217751415 0 0 0 0.46 57 272 59 78 68 56 72 209 115 99 116 52 119 67 131 108 139 26 143 119 144 116 150 201 154 51 168 293 178 103 189 144 191 174 193 70 202 77 212 101 226 72 233 105 
682 -0.41599849953504675 0.034498702316781746 1.3585327209522615 0 0 0 0.23 31 262 57 273 59 79 68 57 72 210 99 233 116 53 119 68 131 109 137 33 139 27 143 120 144 117 150 202 151 44 154 52 168 294 178 104 189 145 191 175 202 78 212 102 226 73 228 95 233 106 
683 -0.17154111646376372 0.04090819246629917 1.300500819098731 0 0 0 0.37 57 274 78 306 99 234 140 213 150 203 
684 -0.21105390523293627 0.04364432867208096 1.3426614227163745 0 0 0 1.13 57 275 115 100 150 204 177 183 189 146 
685 -0.37848464433494117 0.062019670723033965 1.3532129566773738 0 0 0 0.39 57 276 59 80 72 211 115 101 119 69 137 34 140 214 143 121 150 205 168 295 177 184 178 105 191 176 193 71 202 79 212 103 226 74 228 96 
686 -0.2687155078218961 0.08338413780918252 1.3031578735868974 0 0 0 0.2 57 277 78 307 140 215 150 206 177 185 189 147 191 177 
687 -0.025710915382619683 0.09902951953489147 1.2766412994185452 0 0 0 0.38 57 278 78 308 99 235 
688 -0.0050647871165641735 0.09900724128529374 1.276903710013559 0 0 0 0.35 57 279 78 309 79 51 99 236 
689 -0.005225446333915467 0.09908020515645403 1.2789006701260972 0 0 0 0.2 57 280 78 310 191 178 
690 0.13110883990123548 -0.14379747663766612 1.3048054126645894 0 0 0 0.32 57 281 78 311 150 207 189 148 
691 -0.015029058868595223 -0.1193533393409438 1.300025313769836 0 0 0 0.41 57 282 72 212 78 312 99 237 140 216 150 208 168 296 177 186 189 149 191 179 
692 -0.27979507263742615 -0.07378732416127305 1.3270458608631823 0 0 0 0.48 57 283 78 313 150 209 216 81 228 97 233 107 
693 -0.5302745190826749 -0.06545205838314001 0.8108777603917642 0 0 0 0.42 57 284 59 81 125 40 154 53 168 297 180 87 191 180 202 80 
694 0.08904604521975314 -0.050161006927691223 1.2805228022801463 0 0 0 0.37 57 285 78 314 140 217 150 210 
695 0.2259846485286525 -0.04184685469996196 1.2782095692964615 0 0 0 0.41 57 286 78 315 177 187 
696 -0.32318497912955113 -0.05903552010828857 1.3417152290807466 0 0 0 0.32 57 287 68 58 99 238 106 151 144 118 150 211 189 150 191 181 
697 0.033340964569636214 -0.04097918512871581 1.289573016042768 0 0 0 0.15 57 288 78 316 177 188 189 151 
698 0.08945706521053474 -0.035607482843100474 1.2555663956978447 0 0 0 0.93 57 289 115 102 150 212 
699 0.06412767418249979 -0.03117477176621612 1.2862039435610415 0 0 0 0.19 23 120 55 92 57 290 78 317 140 218 168 298 
700 0.1070178757764693 -0.026767662686742327 1.2949881352030468 0 0 0 0.11 57 291 177 189 189 152 
701 -0.4718488029593221 -0.0407349883953111 0.9261449538949381 0 0 0 0.34 57 292 59 82 121 25 131 110 168 299 
702 0.03973679411442227 -0.019920424675914192 1.2850222600923014 0 0 0 0.18 57 293 78 318 177 190 189 153 
703 -0.19705333528586758 -0.020683415601991696 1.3063424438710507 0 0 0 0.14 57 294 78 319 233 108 
704 -0.4427265646431097 -0.005344430833903796 1.2015748430824644 0 0 0 0.35 57 295 131 111 133 42 150 213 168 300 177 191 212 104 228 98 
705 -0.14976992670441033 0.0037195031730405943 1.3007501851318009 0 0 0 0.17 57 296 78 320 150 214 168 301 189 154 191 182 216 82 
706 -0.4868277508739005 0.0044929549553606625 0.8819780474798609 0 0 0 0.86 57 297 99 239 144 119 168 302 210 28 212 105 233 109 
707 0.039669536163032454 0.024202035328979958 1.278159911221368 0 0 0 0.42 57 298 78 321 106 152 189 155 191 183 
708 0.17170114159552338 0.03855339913482171 1.2692407037650422 0 0 0 0.17 57 299 106 153 177 192 189 156 
709 0.17170114159552338 0.03855339913482171 1.2692407037650422 0 0 0 0.17 57 300 106 154 177 193 189 157 
710 -0.35895116127651633 0.034793397835041644 1.3445217794343698 0 0 0 0.37 57 301 106 155 115 103 143 122 144 120 177 194 189 158 191 184 
711 -0.036596477115654315 0.03864013223156774 1.279882451285923 0 0 0 0.18 57 302 80 58 99 240 
712 0.1957236213845182 0.04272843939952905 1.265500363069169 0 0 0 0.33 57 303 78 322 106 156 177 195 189 159 
713 0.0401742943443769 0.049051432499430336 1.2775990348331583 0 0 0 0.18 57 304 78 323 106 157 189 160 
714 -0.4317421891133498 0.05912930002458384 1.134660217715353 0 0 0 0.35 57 305 102 74 116 54 166 58 168 303 226 75 
715 0.0076762038038049275 0.09830646031564498 1.2742369912194014 0 0 0 0.46 57 306 78 324 79 52 191 185 
716 -0.24892714933448337 0.10561383565234225 1.3037117141823067 0 0 0 0.29 57 307 78 325 191 186 
717 -0.18109049613993675 -0.10479721400762924 1.3133563548079847 0 0 0 0.61 57 308 78 326 115 104 150 215 168 304 191 187 
718 0.09817536697691479 -0.08239928440884957 1.2935984553135929 0 0 0 0.28 57 309 78 327 106 158 
719 -0.2850461347547527 -0.08505807471342919 1.329192954449043 0 0 0 0.67 8 92 24 86 31 263 57 310 59 83 68 59 78 328 99 241 115 105 131 112 137 35 150 216 168 305 189 161 225 48 228 99 
720 -0.12176301518464085 -0.07509426677131807 1.3061615217611815 0 0 0 0.75 57 311 78 329 150 217 
721 -0.12176301518464075 -0.07509426677131804 1.3061615217611813 0 0 0 0.75 57 312 78 330 150 218 
722 -0.3378860105679923 -0.08442646054078858 1.352653226438477 0 0 0 0.22 31 264 57 313 78 331 99 242 144 121 150 219 191 188 233 110 
723 0.10620823139090298 -0.04474500799375453 1.2777221762476472 0 0 0 0.75 57 314 72 213 78 332 150 220 177 196 189 162 
724 -0.30325833599910723 0.02106822236592993 1.3257158338958346 0 0 0 0.26 57 315 68 60 78 333 140 219 150 221 189 163 212 106 228 100 
725 -0.014476348200382919 0.037208625837812544 1.2790166320002179 0 0 0 0.26 57 316 78 334 99 243 
726 -0.01996757096904998 0.03999328816309138 1.332949882668223 0 0 0 1.37 57 317 115 106 191 189 
727 -0.49811047702425887 0.021558614342950835 0.822150304078426 0 0 0 0.52 57 318 68 61 140 220 149 36 168 306 193 72 212 107 233 111 
728 0.13893450501031301 0.05735508988607873 1.2761727794060205 0 0 0 0.21 57 319 78 335 189 164 
729 -0.2969330416030687 -0.11380958463496729 1.3582452568822263 0 0 0 0.75 57 320 59 84 115 107 133 43 150 222 168 307 202 81 228 101 
730 -0.05345167000045053 -0.04677065418737533 1.2977661954802502 0 0 0 0.18 57 321 78 336 189 165 
731 -0.355362128355128 -0.026330336352869018 1.3479534802984579 0 0 0 0.63 57 322 78 337 140 221 144 122 150 223 189 166 191 190 
732 0.06380857026400213 -0.001615435902709813 1.2859467219045277 0 0 0 0.46 57 323 78 338 189 167 191 191 
733 0.12233489325760051 0.0228159290807062 1.2729446942193279 0 0 0 0.23 57 324 177 197 189 168 
