# 3D point list with one line of data per point:
#   POINT3D_ID, X, Y, Z, R, G, B, ERROR, TRACK[] as (IMAGE_ID, POINT2D_IDX)
# Number of points: 404, mean track length: 9.07
1083 -0.4688190628804095 0.015807325813714402 0.9174169439225351 0 0 0 0.62 55 88 57 263 119 196 133 76 137 154 161 227 174 412 183 208 228 218 
1084 -0.46356071530567344 -0.3508331968198684 0.9585842782652485 0 0 0 0.74 55 89 154 196 174 413 
1085 -0.4287826267716542 -0.21124714429338776 1.2529448440436521 0 0 0 1.24 55 90 115 22 116 366 137 155 139 225 154 197 166 232 174 414 212 207 
1086 -0.49333283316499765 -0.6778996799908661 0.9494539712864533 0 0 0 0.25 57 264 116 367 139 226 144 355 212 208 
1087 -0.5531468956217656 -0.5497021078752168 0.8835722356093677 0 0 0 0.25 57 265 117 523 191 130 218 318 
1088 -0.5420549792118595 -0.5414516564943187 0.8916559463266944 0 0 0 0.31 57 266 116 368 173 199 191 131 226 205 
1089 -0.553207736969139 -0.4525742002821298 0.9726739405744727 0 0 0 0.2 119 197 125 321 216 277 
1090 -0.48721228588642973 -0.25486571595033164 0.8368249168655644 0 0 0 0.18 57 267 86 207 94 311 106 87 116 369 117 524 140 286 149 201 151 372 173 200 183 209 193 362 218 319 228 219 
1091 -0.4761682365879306 -0.14726692795231835 1.037144829471213 0 0 0 0.27 57 268 59 179 117 525 131 155 145 197 161 228 193 363 216 278 218 320 228 220 
1092 -0.034563585485472184 -0.11367855102907394 1.2898310675885007 0 0 0 0.51 57 269 106 88 117 526 140 287 177 240 
1093 -0.4802162189416409 -0.11031004675285543 0.9326252137606095 0 0 0 0.81 57 270 86 208 117 527 137 156 193 364 216 279 
1094 -0.523781643112309 -0.09333487496524409 0.7898991541777054 0 0 0 0.13 57 271 145 198 174 415 193 365 
1095 -0.4818442879809877 -0.10166958304088791 1.0309645407847017 0 0 0 0.33 57 272 117 528 125 322 131 156 212 209 
1096 -0.46767927472800525 -0.09413393020851886 1.043508331616977 0 0 0 0.45 57 273 86 209 117 529 125 323 205 291 
1097 -0.46413813148941613 -0.08472812649895105 0.9394752309633015 0 0 0 0.24 57 274 117 530 122 24 125 324 140 288 144 356 150 167 161 229 183 210 205 292 211 247 216 280 228 221 233 101 
1098 -0.5722792002374439 -0.06432827406564734 0.568113555627052 0 0 0 0.28 57 275 131 157 144 357 174 416 
1099 -0.45311998552532556 -0.028158794088896544 1.2021159250617146 0 0 0 0.08 57 276 117 531 140 289 
1100 -0.5100600503910071 -0.641806380794983 0.9188471975822758 0 0 0 0.43 57 277 125 325 144 358 151 373 174 417 189 191 
1101 -0.5299357174848582 -0.591435880196722 0.9070305124725618 0 0 0 0.38 57 278 161 230 174 418 205 293 211 248 
1102 -0.5187797322276128 -0.48838913012034507 0.9388412070847669 0 0 0 0.62 57 279 117 532 137 157 183 211 
1103 -0.4784751781341885 -0.3806910858113953 0.9068995226708773 0 0 0 0.41 57 280 86 210 94 312 115 23 117 533 125 326 144 359 145 199 161 231 166 233 202 179 212 210 
1104 -0.593255069462148 -0.20454641349100516 0.526051990823477 0 0 0 0.68 57 281 116 370 174 419 
1105 -0.5626874750175371 -0.19344111363224809 0.6377312527696624 0 0 0 0.5 57 282 94 313 174 420 
1106 -0.5587726440734855 -0.18199099733815943 0.6440269685043502 0 0 0 0.24 57 283 58 63 94 314 116 371 174 421 228 222 
1107 -0.5536351981410013 -0.17906834836328092 0.6783663010084092 0 0 0 0.68 57 284 116 372 167 42 174 422 225 68 
1108 -0.5433693027955967 -0.1752447794300283 0.7115642481920791 0 0 0 0.28 57 285 58 64 116 373 144 360 145 200 167 43 174 423 183 212 212 211 228 223 
1109 -0.536419829620776 -0.17281004789914906 0.7260081622699245 0 0 0 0.42 57 286 140 290 144 361 145 201 174 424 
1110 -0.5754658271163353 -0.14392916836020458 0.5944935083011589 0 0 0 0.34 57 287 94 315 144 362 174 425 205 294 
1111 -0.4749464149536165 -0.1350103862072967 0.9795592235723375 0 0 0 0.31 57 288 117 534 119 198 137 158 144 363 145 202 183 213 189 192 191 132 193 366 212 212 
1112 -0.48631044687069697 -0.119755747135592 0.8426161607795153 0 0 0 0.29 57 289 59 180 131 158 144 364 174 426 177 241 
1113 -0.41988755393203964 -0.13203732297701895 1.3776941718201772 0 0 0 0.43 57 290 86 211 150 168 154 198 173 201 174 427 180 83 189 193 216 281 
1114 -0.4865507686707055 -0.11475527398479168 1.0352460380069088 0 0 0 0.24 57 291 117 535 139 227 189 194 212 213 
1115 -0.5424887704542517 -0.09532124855093557 0.7340910798363913 0 0 0 0.41 57 292 174 428 183 214 205 295 
1116 -0.46604859971740054 -0.07966295639342608 1.0711622571037096 0 0 0 0.4 57 293 117 536 119 199 137 159 144 365 154 199 174 429 183 215 212 214 
1117 -0.4369506724489608 -0.005421201124599276 1.2113916186451215 0 0 0 0.49 57 294 117 537 125 327 137 160 139 228 144 366 202 180 216 282 
1118 -0.5104175035223101 -0.5778057875375257 0.9036015045949063 0 0 0 0.32 57 295 117 538 144 367 
1119 -0.4790232961205511 -0.5556526091083455 0.9441773947545513 0 0 0 0.34 57 296 117 539 125 328 205 296 
1120 -0.543376991305156 -0.45844544504655127 0.9758934937481438 0 0 0 0.3 57 297 94 316 117 540 119 200 125 329 144 368 151 374 189 195 
1121 -0.46415272438695937 -0.11748262992445307 0.9501667586288441 0 0 0 0.53 57 298 86 212 117 541 119 201 125 330 137 161 166 234 183 216 189 196 191 133 193 367 202 181 205 297 
1122 -0.5747483746496796 -0.08642827904677665 0.5469470171126489 0 0 0 0.3 57 299 94 317 131 159 139 229 144 369 174 430 193 368 228 224 
1123 -0.44782597061802387 -0.10912050466503308 1.1760419061286957 0 0 0 0.31 57 300 72 78 86 213 94 318 116 374 117 542 131 160 144 370 145 203 151 375 173 202 177 242 178 114 218 321 
1124 -0.4806029082652268 -0.09298177077387243 1.0123382228587245 0 0 0 0.21 57 301 117 543 183 217 
1125 -0.5456344003314365 -0.07429412721699057 0.6834377861398748 0 0 0 0.24 57 302 125 331 140 291 174 431 212 215 
1126 -0.4661030869842892 -0.08063750981388523 0.9381317425345984 0 0 0 0.28 57 303 86 214 94 319 117 544 119 202 145 204 183 218 191 134 
1127 -0.464382343514523 -0.0852157554297092 1.1291099604157686 0 0 0 0.24 57 304 117 545 119 203 137 162 140 292 145 205 193 369 
1128 -0.5185846005910374 -0.4582948848006655 0.9350420356016277 0 0 0 0.37 57 305 117 546 125 332 144 371 151 376 189 197 212 216 
1129 -0.557894295642463 -0.13691947435432203 0.6810835680986063 0 0 0 0.26 57 306 139 230 144 372 174 432 
1130 -0.40027903328189035 -0.1579096010111266 1.4005470648409795 0 0 0 0.48 57 307 59 181 116 375 125 333 137 163 144 373 174 433 211 249 216 283 225 69 228 225 
1131 -0.3997378285398677 -0.1574403290931327 1.3987948475361898 0 0 0 0.47 57 308 116 376 125 334 137 164 144 374 174 434 216 284 225 70 
1132 -0.44858822967274065 -0.10747193754852463 1.1344240848796328 0 0 0 0.23 57 309 59 182 117 547 119 204 131 161 140 293 166 235 189 198 191 135 193 370 202 182 216 285 228 226 
1133 -0.4697365558596862 -0.06725348507377485 1.0947420500030358 0 0 0 0.46 57 310 59 183 86 215 94 320 116 377 117 548 140 294 166 236 216 286 
1134 -0.47401609724667504 -0.01946150074309884 1.1281537826599086 0 0 0 0.22 57 311 117 549 137 165 144 375 151 377 
1135 -0.4696121968753689 -0.017263845605834258 1.0912371949258486 0 0 0 0.36 57 312 117 550 145 206 
1136 -0.5602312009903198 -0.1595593103014786 0.6444972924836712 0 0 0 0.33 57 313 139 231 140 295 143 157 144 376 174 435 193 371 228 227 
1137 -0.45387609764877596 0.0033223046019366315 1.1340444885240308 0 0 0 0.14 57 314 117 551 137 166 144 377 151 378 226 206 
1138 -0.5308572158874636 -0.006239385095793748 0.7483972797089151 0 0 0 0.39 57 315 133 77 174 436 177 243 212 217 
1139 -0.5758612901033823 -0.49943843176230124 0.8820047851214093 0 0 0 1.04 57 316 94 321 116 378 154 200 216 287 
1140 -0.4913193815839457 -0.5041530551350059 0.9720988208754463 0 0 0 0.47 57 317 86 216 117 552 125 335 131 162 133 78 137 167 139 232 144 378 151 379 161 232 166 237 174 437 189 199 202 183 205 298 211 250 212 218 
1141 -0.5242098134079384 -0.4588350327726855 1.0232951659227854 0 0 0 0.26 57 318 117 553 144 379 
1142 -0.5976536565322466 -0.1620250208406313 0.5112054673592829 0 0 0 1.04 57 319 139 233 161 233 174 438 183 219 216 288 228 228 
1143 -0.5706207909195651 -0.1626983619957422 0.6125711841745914 0 0 0 0.31 57 320 119 205 140 296 144 380 174 439 226 207 
1144 -0.45803938615561113 -0.008336057426123877 1.1126518238610388 0 0 0 0.51 57 321 59 184 106 89 117 554 140 297 143 158 154 201 177 244 226 208 
1145 -0.512382412341714 -0.7894233809773145 0.9430238802930113 0 0 0 0.42 57 322 102 88 133 79 137 168 143 159 218 322 225 71 
1146 -0.49396945263393927 -0.675527269472932 0.9570988945694653 0 0 0 0.54 57 323 94 322 116 379 133 80 144 381 189 200 205 299 211 251 218 323 
1147 -0.44986032711842694 -0.0984383144519354 1.1051284213570607 0 0 0 0.52 57 324 59 185 94 323 117 555 125 336 131 163 133 81 140 298 144 382 151 380 166 238 177 245 193 372 218 324 228 229 233 102 
1148 -0.5543941315075077 -0.01167723531561618 0.6417562408214595 0 0 0 0.66 57 325 58 65 59 186 116 380 125 337 144 383 166 239 174 440 183 220 
1149 -0.45820155378060834 0.07017594011494739 1.0057866241711562 0 0 0 0.42 57 326 125 338 144 384 151 381 174 441 228 230 
1150 -0.5850559148639839 -0.0551379741609843 0.4925007162449197 0 0 0 0.67 57 327 119 206 151 382 174 442 
1151 -0.5286725568561591 0.023007598466049363 0.6144878634501955 0 0 0 0.91 58 66 161 234 166 240 174 443 
1152 -0.5600947093364049 -0.19309010792080938 0.6473072071522421 0 0 0 0.21 58 67 140 299 154 202 167 44 174 444 193 373 218 325 
1153 -0.5430593883891139 -0.18674116819287281 0.7165390926959969 0 0 0 0.45 58 68 86 217 167 45 174 445 
1154 -0.5840477037128026 -0.2994408098374281 0.4772492323881077 0 0 0 1.27 58 69 116 381 174 446 
1155 -0.5809739226859914 -0.21319098076852383 0.4737366673121753 0 0 0 1.2 58 70 137 169 174 447 216 289 
1156 -0.537436606208123 -0.17317585538880523 0.7276193906441943 0 0 0 0.34 58 71 86 218 116 382 140 300 144 385 167 46 174 448 193 374 202 184 212 219 228 231 
1157 -0.5502841620577592 -0.011595488031464086 0.5408382843324677 0 0 0 0.35 58 72 116 383 189 201 
1158 -0.5794858494419308 -0.20495278876853587 0.46390850517650656 0 0 0 1.18 58 73 94 324 161 235 167 47 174 449 
1159 -0.5559826221908886 -0.08600499142610127 0.6159109992543853 0 0 0 0.17 58 74 119 207 133 82 144 386 151 383 154 203 161 236 174 450 193 375 216 290 218 326 228 232 
1160 -0.5529800771147801 0.03806429881607975 0.47092834901591135 0 0 0 0.86 58 75 131 164 174 451 
1161 -0.5529800771147801 0.03806429881607975 0.47092834901591135 0 0 0 0.86 58 76 131 165 174 452 
1162 -0.5629501098533527 0.023867854984089856 0.4829124705917286 0 0 0 0.65 58 77 131 166 174 453 
1163 -0.526841037266354 -0.7443292246198112 0.915674119370099 0 0 0 0.21 59 187 102 89 144 387 151 384 218 327 
1164 -0.5904289908434688 -0.7510006808991807 0.9390088821540893 0 0 0 0.15 59 188 151 385 218 328 
1165 -0.4737559489837368 -0.6034822217315482 0.9135589490940149 0 0 0 0.15 59 189 117 556 125 339 
1166 -0.5868066917215118 -0.3517393534148717 0.5044179628019484 0 0 0 1.44 59 190 161 237 174 454 
1167 -0.5654840822341142 -0.184170554561285 0.615674442840585 0 0 0 0.27 150 169 154 204 174 455 178 115 180 84 211 252 
1168 -0.5553131250261882 -0.1363440710020337 0.6562909857871493 0 0 0 0.26 59 191 144 388 174 456 
1169 -0.4675510123467137 -0.03288427129033853 1.0725006388365144 0 0 0 0.45 59 192 86 219 116 384 117 557 131 167 144 389 202 185 225 72 
1170 -0.5282506250033047 0.032388815805533606 0.5955040153288311 0 0 0 0.64 59 193 144 390 174 457 
1171 -0.47521331100725306 -0.46459094376051807 0.9281964890122086 0 0 0 0.38 59 194 116 385 117 558 125 340 137 170 139 234 144 391 151 386 166 241 193 376 202 186 
1172 -0.5912224467611875 -0.3553525957777426 0.872512531890258 0 0 0 0.33 59 195 116 386 131 168 140 301 145 207 180 85 193 377 218 329 
1173 -0.47159192809651307 -0.25388523908083993 0.9362499291718236 0 0 0 0.29 59 196 86 220 117 559 144 392 154 205 177 246 212 220 215 54 218 330 226 209 228 233 
1174 -0.5339261842615581 -0.16561436004469912 0.7770633392003857 0 0 0 0.46 59 197 132 20 144 393 151 387 174 458 
1175 -0.4504670769428398 -0.1127902663249249 1.15900388902251 0 0 0 0.15 59 198 86 221 106 90 117 560 131 169 143 160 177 247 178 116 189 202 226 210 
1176 -0.5169454997610973 -0.7112978584257009 0.9313743266240165 0 0 0 0.45 59 199 86 222 94 325 116 387 144 394 149 202 151 388 166 242 174 459 178 117 191 136 202 187 211 253 225 73 
1177 -0.4769818793153862 -0.09551639951641082 1.052091433876743 0 0 0 0.38 59 200 115 24 116 388 117 561 119 208 144 395 154 206 177 248 191 137 193 378 212 221 216 291 226 211 228 234 
1178 -0.48769918346744634 -0.35365986200787347 0.8928407386719301 0 0 0 0.81 59 201 86 223 94 326 106 91 117 562 125 341 132 21 139 235 140 302 143 161 150 170 151 389 166 243 191 138 193 379 211 254 225 74 
1179 -0.4741990379853025 -0.3509837739255041 0.9170425137438595 0 0 0 0.81 59 202 117 563 139 236 140 303 144 396 145 208 151 390 161 238 166 244 189 203 193 380 202 188 205 300 211 255 212 222 216 292 
1180 -0.4774069700222457 -0.5399954673435484 0.9836165016601505 0 0 0 0.27 72 79 116 389 117 564 125 342 151 391 161 239 173 203 
1181 -0.4773880670446837 -0.5399597264038033 0.9836186872993118 0 0 0 0.27 72 80 116 390 117 565 125 343 161 240 173 204 
1182 -0.47861534169722675 -0.5371128531517207 0.9853913273879108 0 0 0 0.29 72 81 116 391 117 566 161 241 226 212 
1183 -0.4793834153648834 -0.5303080179813273 0.983550824383148 0 0 0 0.29 72 82 116 392 117 567 125 344 177 249 216 293 
1184 -0.4644662319694662 -0.49424003656545196 0.9735316777973809 0 0 0 0.51 72 83 86 224 117 568 125 345 161 242 183 221 193 381 211 256 
1185 -0.6018223325924054 -0.4759526997718809 0.9062514831422949 0 0 0 0.23 72 84 117 569 180 86 
1186 -0.4937962001032487 -0.43473514475719705 0.8543142140126203 0 0 0 0.6 72 85 145 209 161 243 180 87 
1187 -0.4885833021425295 -0.4297749501672533 0.8522291963472645 0 0 0 0.26 72 86 116 393 177 250 180 88 193 382 205 301 210 56 226 213 
1188 -0.46787842856846146 -0.43900064901290736 0.9612191335591952 0 0 0 0.32 72 87 117 570 161 244 173 205 183 222 193 383 205 302 
1189 -0.4871415005278184 -0.323291657812235 0.8632816236895406 0 0 0 0.32 72 88 117 571 132 22 216 294 226 214 228 235 
1190 -0.008112924201495404 -0.10402272283699988 1.2935626988341133 0 0 0 0.28 72 89 117 572 140 304 
1191 -0.44461222499408476 -0.1113907900993798 1.1881035529634574 0 0 0 0.16 72 90 117 573 143 162 216 295 226 215 233 103 
1192 -0.06560801771396399 -0.06857045990557668 1.3032480087884943 0 0 0 0.35 72 91 117 574 140 305 
1193 -0.4491006472825832 -0.06364260756621942 1.1711232693465894 0 0 0 0.15 72 92 117 575 140 306 193 384 216 296 226 216 
1194 -0.45152183428800535 -0.0018083788185448257 1.1921209881619166 0 0 0 0.41 72 93 117 576 119 209 154 207 
1195 -0.6089433257207444 -0.50093598426662 0.8972701811073344 0 0 0 0.33 72 94 193 385 218 331 
1196 -0.5107899420083273 -0.44609745360889524 0.8551231758169694 0 0 0 0.27 72 95 117 577 125 346 193 386 
1197 -0.45359691034532174 -0.08980758890215855 1.1356436956611726 0 0 0 0.23 72 96 102 90 117 578 131 170 216 297 226 217 
1198 -0.4600134842513441 -0.08588332773462992 1.1059262501190243 0 0 0 0.24 72 97 94 327 117 579 131 171 140 307 150 171 154 208 177 251 178 118 193 387 218 332 226 218 228 236 
1199 -0.46137332353533295 -0.026551954187270826 1.1022841302642659 0 0 0 0.3 72 98 117 580 125 347 143 163 151 392 154 209 166 245 173 206 216 298 226 219 233 104 
1200 -0.544080329214674 -0.41575973864163424 0.8848566128906219 0 0 0 0.25 72 99 102 91 117 581 143 164 177 252 193 388 210 57 
1201 -0.46857393543116116 -0.3986888238105584 0.9592357667879426 0 0 0 0.26 72 100 116 394 117 582 140 308 173 207 211 257 215 55 
1202 -0.4747687291489633 -0.3411004097337142 0.9327212632968377 0 0 0 0.37 72 101 117 583 137 171 143 165 161 245 166 246 173 208 205 303 211 258 215 56 216 299 226 220 
1203 -0.4718408904107902 -0.15638242742961228 0.9269629082536719 0 0 0 0.2 72 102 117 584 137 172 
1204 -0.4755799020659949 -0.14152413900597405 0.9165084926450802 0 0 0 0.61 72 103 116 395 117 585 119 210 125 348 137 173 178 119 191 139 205 304 225 75 228 237 
1205 -0.4846484509639962 -0.24891125057862132 0.8859563206933405 0 0 0 0.34 72 104 106 92 116 396 117 586 140 309 144 397 154 210 161 246 166 247 173 209 177 253 178 120 193 389 210 58 215 57 216 300 226 221 
1206 -0.4770822354180783 -0.2276509415012354 0.9188590575610247 0 0 0 0.67 72 105 117 587 125 349 144 398 205 305 216 301 
1207 -0.4690124963029387 -0.16692508331329908 0.9375497934832908 0 0 0 0.27 72 106 117 588 144 399 173 210 178 121 
1208 -0.5084366606110111 -0.8477199306730552 0.955192311024227 0 0 0 0.35 86 225 119 211 151 393 166 248 205 306 211 259 
1209 -0.5071535265037503 -0.8267214581528689 1.0025297856706625 0 0 0 0.3 86 226 94 328 117 589 211 260 
1210 -0.4965669835394669 -0.7806979366633907 0.957115961365771 0 0 0 0.2 86 227 143 166 218 333 
1211 -0.580840938343491 -0.7546518209085575 0.9336232272518552 0 0 0 0.21 86 228 173 211 218 334 
1212 -0.5453226172001964 -0.5619304886797823 0.8943344182280086 0 0 0 0.25 86 229 116 397 151 394 173 212 218 335 
1213 -0.4723486154166222 -0.5410182523545093 0.989301886253927 0 0 0 0.37 86 230 117 590 125 350 151 395 161 247 183 223 205 307 211 261 216 302 226 222 
1214 -0.4972686716194171 -0.5102229267002528 0.8741309761360321 0 0 0 0.29 86 231 117 591 125 351 
1215 -0.4633523250657747 -0.4933524428435771 0.9717507322562857 0 0 0 0.57 86 232 117 592 125 352 139 237 183 224 193 390 211 262 
1216 -0.4590166217008935 -0.4262464181171729 0.9826258682043638 0 0 0 0.3 86 233 94 329 117 593 173 213 193 391 
1217 -0.4886228079814942 -0.3148703402894628 0.8782957512446558 0 0 0 0.24 86 234 117 594 140 310 193 392 226 223 
1218 -0.4890080873496027 -0.2809407509407475 0.8409252525573172 0 0 0 0.21 86 235 90 96 94 330 117 595 119 212 132 23 140 311 150 172 177 254 186 66 193 393 215 58 218 336 228 238 
1219 -0.3675799224814321 -0.11121810777720288 1.377245673031934 0 0 0 0.68 86 236 116 398 150 173 166 249 174 460 
1220 -0.5893250082919237 -0.11626612547277133 0.6492690423924173 0 0 0 1.86 86 237 174 461 183 225 
1221 -0.49375548284920406 -0.7102020880174621 0.9517204157726356 0 0 0 0.45 86 238 94 331 131 172 139 238 166 250 202 189 211 263 212 223 
1222 -0.4212486359108523 -0.1377760510552822 1.3972666924695372 0 0 0 0.22 86 239 174 462 216 303 
1223 -0.5481869406233971 -0.09709665787452268 0.7128929293164676 0 0 0 0.38 86 240 94 332 119 213 125 353 143 167 149 203 166 251 174 463 
1224 -0.49260709365124894 -0.529481244591764 0.8823444148477729 0 0 0 0.31 86 241 117 596 125 354 
1225 -0.4777406418860944 -0.3798439909252281 0.9061279543261028 0 0 0 0.28 86 242 117 597 137 174 140 312 144 400 145 210 154 211 
1226 -0.47270655506285975 -0.2606980503185703 0.9390989021518862 0 0 0 0.31 86 243 117 598 140 313 151 396 183 226 193 394 226 224 
1227 -0.33709569470502715 -0.1387657903690311 1.3743846248092373 0 0 0 0.81 86 244 116 399 174 464 180 89 212 224 
1228 -0.46788920625317254 -0.10800485785024493 1.0920687972310739 0 0 0 0.28 86 245 117 599 189 204 
1229 -0.4400967583039427 -0.02211020574405287 1.210667833995342 0 0 0 0.48 86 246 117 600 149 204 173 214 177 255 178 122 191 140 212 225 
1230 -0.43990869450132863 -0.02211804603967607 1.2101814605218761 0 0 0 0.44 86 247 117 601 149 205 173 215 177 256 178 123 180 90 191 141 212 226 
1231 -0.4388236726349586 -0.25126834932581604 1.2332656918864917 0 0 0 0.47 86 248 145 211 174 465 
1232 -0.3385747796787756 -0.12719267413941832 1.3742892299097464 0 0 0 0.84 86 249 116 400 137 175 139 239 166 252 174 466 212 227 
1233 -0.501647261424594 -0.7704269736984604 0.9492376096872363 0 0 0 0.37 133 83 144 401 205 308 
1234 -0.5451165580974756 -0.7676259624335404 0.9141144812727976 0 0 0 0.48 86 250 133 84 166 253 178 124 189 205 202 190 205 309 
1235 -0.4872953225637097 -0.2875142044494949 0.8818360582209906 0 0 0 0.51 86 251 117 602 119 214 133 85 150 174 215 59 
1236 -0.3904144392341113 -0.12428381241246463 1.3634471703819797 0 0 0 0.91 86 252 116 401 119 215 137 176 139 240 166 254 174 467 212 228 225 76 
1237 -0.474960865544127 -0.5544108476263362 0.9871516763049871 0 0 0 0.28 90 97 116 402 117 603 161 248 166 255 173 216 205 310 216 304 226 225 
1238 -0.5520118335722763 -0.5484571923434118 0.8808457830839533 0 0 0 0.33 90 98 116 403 212 229 
1239 -0.5530107177282173 -0.5410030160377779 0.877002474167975 0 0 0 0.63 90 99 117 604 125 355 
1240 -0.49045708528809306 -0.494211766455013 0.8591833869451782 0 0 0 0.27 90 100 94 333 125 356 154 212 161 249 
1241 -0.6114526336014321 -0.5598204722227328 0.902362364096705 0 0 0 0.93 90 101 149 206 174 468 
1242 -0.5613426770126557 -0.17288386402968806 0.6499665291953529 0 0 0 0.21 90 102 116 404 161 250 174 469 
1243 -0.5558038516686857 -0.1705794873050144 0.6751345482588531 0 0 0 0.32 90 103 116 405 150 175 151 397 174 470 
1244 -0.4405926454474908 -0.07551485471760562 1.2016156383643433 0 0 0 0.35 90 104 117 605 122 25 140 314 149 207 180 91 210 59 228 239 
1245 -0.5416512251818547 -0.06687185198159093 0.7024475618578533 0 0 0 0.58 90 105 94 334 116 406 167 48 174 471 216 305 
1246 -0.4887250506984743 -0.499356856761682 0.8600440592467095 0 0 0 0.27 90 106 116 407 149 208 
1247 -0.5025945355051776 -0.35746951926478016 0.8638593662239124 0 0 0 1.37 90 107 102 92 117 606 131 173 140 315 143 168 144 402 154 213 166 256 193 395 218 337 
1248 -0.48675575565780793 -0.2822175296225396 0.8438890479998252 0 0 0 0.3 90 108 116 408 117 607 132 24 140 316 144 403 173 217 
1249 -0.48751624479239214 -0.280516142779878 0.8678412305107065 0 0 0 0.51 90 109 116 409 117 608 154 214 228 240 
1250 -0.46286385166888 -0.15057448807714435 0.954020257680006 0 0 0 0.49 90 110 117 609 186 67 
1251 -0.48376575452032805 -0.06897736957867062 1.0201833151961077 0 0 0 0.18 117 610 140 317 150 176 205 311 211 264 226 226 
1252 -0.5412824989909881 -0.13084552096811214 0.7258569339539751 0 0 0 0.32 90 111 145 212 149 209 174 472 205 312 
1253 -0.5139965800997249 -0.7392279263015213 0.9132762475513371 0 0 0 0.38 90 112 94 335 116 410 144 404 149 210 151 398 174 473 205 313 
1254 -0.4685743409999483 0.020129109136905916 1.0437746442819797 0 0 0 0.27 90 113 139 241 174 474 
1255 -0.5581227495876302 -0.1285123793323474 0.6198490982540752 0 0 0 0.52 90 114 139 242 151 399 174 475 183 227 205 314 
1256 -0.49736583952960495 0.052076424662491995 0.7881015480134441 0 0 0 0.32 90 115 144 405 174 476 
1257 -0.5352989529931785 -0.8125636875983787 0.9257608558698869 0 0 0 0.17 94 336 151 400 218 338 
1258 -0.49528923871502567 -0.7369456546543088 0.9750351077077316 0 0 0 0.35 94 337 139 243 202 191 
1259 -0.49745081373561084 -0.7192716617691147 0.9882318003337535 0 0 0 0.12 94 338 116 411 149 211 211 265 
1260 -0.47331684610631336 -0.5155988805346671 0.9743933518292388 0 0 0 0.16 94 339 117 611 125 357 
1261 -0.4636047519992253 -0.5138385074555479 0.9795388620995504 0 0 0 0.29 94 340 116 412 117 612 125 358 161 251 193 396 205 315 216 306 
1262 -0.4702935257905461 -0.4752321783312511 0.911018816221555 0 0 0 0.24 94 341 116 413 117 613 125 359 149 212 151 401 161 252 193 397 205 316 216 307 
1263 -0.4881098988268676 -0.4709121530086371 0.9763182978530095 0 0 0 0.29 94 342 116 414 117 614 
1264 -0.47154586763314027 -0.3607985909288305 0.8979682838337999 0 0 0 0.28 94 343 117 615 125 360 140 318 149 213 150 177 177 257 180 92 216 308 
1265 -0.47605602022995425 -0.33730216028858695 0.9188115849406114 0 0 0 0.24 94 344 117 616 139 244 140 319 177 258 211 266 226 227 
1266 -0.4638169587135673 -0.3397341880554308 0.9759209134130707 0 0 0 0.33 94 345 116 415 117 617 125 361 140 320 150 178 151 402 161 253 177 259 193 398 211 267 216 309 226 228 
1267 -0.46504119176655806 -0.28982856354741304 0.9488142970465953 0 0 0 0.2 94 346 116 416 117 618 140 321 151 403 193 399 218 339 228 241 
1268 -0.5421716507341512 -0.26867372766933323 0.8547981442956943 0 0 0 0.17 94 347 117 619 183 228 226 229 
1269 -0.4878741709252945 -0.21951662824126952 0.873619221659822 0 0 0 0.44 94 348 106 93 116 417 117 620 125 362 140 322 151 404 154 215 
1270 -0.47883270470188327 -0.1298708759124563 0.9871296979536865 0 0 0 0.12 94 349 117 621 140 323 193 400 
1271 -0.4992822571167738 -0.8106943550154118 0.9945506074225807 0 0 0 0.28 94 350 122 26 149 214 226 230 
1272 -0.4824930111067569 -0.5612092279103792 0.9194737685976703 0 0 0 0.23 94 351 125 363 205 317 218 340 
1273 -0.4944255564813263 -0.5490144277780162 0.9717398675893141 0 0 0 0.23 94 352 116 418 117 622 166 257 193 401 
1274 -0.4721320549349748 -0.5409846643925337 0.9890660388856504 0 0 0 0.26 94 353 117 623 125 364 151 405 177 260 183 229 205 318 211 268 216 310 226 231 
1275 -0.6146967562880449 -0.5473556762759871 0.9001069879698009 0 0 0 0.35 94 354 116 419 125 365 149 215 211 269 
1276 -0.553329805720647 -0.4582626651877594 0.9771906259149167 0 0 0 0.39 94 355 125 366 193 402 
1277 -0.5440573307314956 -0.4531057720410561 0.9765171511637205 0 0 0 0.3 94 356 117 624 125 367 151 406 
1278 -0.5347589119255141 -0.4164562019434506 0.8885993038605401 0 0 0 0.25 94 357 116 420 117 625 125 368 177 261 218 341 
1279 -0.48472588892079066 -0.3746016615664947 0.8413046013632625 0 0 0 0.33 94 358 116 421 145 213 149 216 180 93 
1280 -0.4732619052679922 -0.3626516514121739 0.956016703240483 0 0 0 0.38 94 359 117 626 125 369 150 179 151 407 205 319 
1281 -0.45572993475667173 -0.348283971259787 0.9767207588950646 0 0 0 0.42 94 360 117 627 125 370 151 408 216 311 
1282 -0.4412163331349314 -0.08422672280510038 1.2138784984639848 0 0 0 0.23 94 361 116 422 117 628 125 371 193 403 233 105 
1283 -0.4510727396923916 -0.04905845613743469 1.171323567056525 0 0 0 0.39 117 629 211 270 218 342 
1284 -0.5175903309623905 -0.8054972482225056 0.9339998310393213 0 0 0 0.32 94 362 102 93 131 174 166 258 211 271 
1285 -0.4760721085673203 -0.6414536684398542 0.9235434265842836 0 0 0 0.25 94 363 131 175 173 218 218 343 
1286 -0.46959051681586617 -0.4871636120934374 0.973621508705759 0 0 0 0.22 94 364 125 372 151 409 177 262 183 230 193 404 
1287 -0.45996086946869674 -0.4375428467357711 0.9779219836233877 0 0 0 0.22 94 365 116 423 117 630 125 373 144 406 151 410 193 405 
1288 -0.4917357533179956 -0.07196483975666557 1.0064161896830264 0 0 0 0.47 94 366 116 424 117 631 140 324 144 407 189 206 212 230 
1289 -0.4197258557816101 -0.0486917189506457 1.2239376677026998 0 0 0 0.26 94 367 117 632 140 325 143 169 151 411 177 263 193 406 212 231 218 344 226 232 228 242 
1290 -0.47036772463186705 -0.008589212589004011 1.0929407607794845 0 0 0 0.17 106 94 117 633 140 326 143 170 150 180 177 264 211 272 218 345 
1291 -0.5298027032852538 -0.6542359279751716 0.9226516142805739 0 0 0 0.81 94 368 151 412 174 477 178 125 225 77 
1292 -0.6229284798446604 -0.5298538951322657 0.8975289040313691 0 0 0 0.53 94 369 117 634 212 232 
1293 -0.5309306986860542 -0.4356795065608364 0.9534179411115388 0 0 0 0.23 94 370 117 635 125 374 144 408 151 413 189 207 193 407 
1294 -0.5683577808753201 -0.18511898015969244 0.6268738917975123 0 0 0 0.75 94 371 174 478 205 320 
1295 -0.48375454037624466 -0.5571386460788559 0.9176409995987002 0 0 0 0.31 94 372 116 425 117 636 125 375 166 259 212 233 218 346 
1296 -0.5627639828156129 -0.6752588896241191 0.9056814967645932 0 0 0 1.44 94 373 116 426 144 409 166 260 174 479 211 273 212 234 
1297 -0.4839006278404215 -0.28903803618269425 1.2734262896170705 0 0 0 0.63 94 374 144 410 151 414 174 480 211 274 
1298 -0.30361739582365727 -0.1218108643510685 1.3567052843287384 0 0 0 1.21 99 25 139 245 174 481 
1299 -0.30361739582365727 -0.1218108643510685 1.3567052843287384 0 0 0 1.21 99 26 139 246 174 482 
1300 -0.42672798482674507 -0.28026556781214607 1.2685685047735136 0 0 0 1.17 99 27 174 483 233 106 
1301 -0.5467599057308328 -0.8117099342060999 0.9272106148275733 0 0 0 0.32 102 94 166 261 189 208 
1302 -0.5518144802721351 -0.7183421443889768 0.9094537364574938 0 0 0 0.18 102 95 210 60 218 347 226 233 
1303 -0.49610500578361055 -0.30230167583108847 0.8364116712141866 0 0 0 0.21 102 96 117 637 140 327 145 214 150 181 177 265 193 408 218 348 
1304 -0.5003319941010534 -0.29950193454219537 0.8381626733638391 0 0 0 0.28 102 97 106 95 117 638 140 328 150 182 177 266 193 409 215 60 218 349 
1305 -0.4953755376218486 -0.29437904501838963 0.8346208155694966 0 0 0 0.4 102 98 117 639 131 176 140 329 177 267 193 410 
1306 -0.49916520790383595 -0.2897780246557264 0.8347793567488374 0 0 0 0.2 102 99 117 640 218 350 
1307 -0.496635474667464 -0.28631053348175756 0.8363052910804 0 0 0 0.24 102 100 117 641 131 177 140 330 143 171 150 183 177 268 193 411 215 61 218 351 
1308 -0.49563770122917433 -0.2738151075763905 0.8337596743890364 0 0 0 0.26 102 101 117 642 119 216 131 178 140 331 143 172 177 269 193 412 218 352 
1309 -0.4938525353354382 -0.2718734332846546 0.8359577138292079 0 0 0 0.1 102 102 106 96 117 643 
1310 -0.4998341002978738 -0.27230771618547067 0.834308517727969 0 0 0 0.34 102 103 117 644 140 332 177 270 
1311 -0.010458865529693082 -0.10709783733888098 1.289443035234084 0 0 0 0.51 102 104 117 645 140 333 
1312 -0.019354678741681737 -0.10699960647496934 1.2906708369452509 0 0 0 0.39 102 105 106 97 117 646 150 184 177 271 
1313 -0.5653564232344002 -0.8394488313331934 0.9361351386818443 0 0 0 0.29 102 106 189 209 218 353 
1314 -0.5653564232344002 -0.8394488313331934 0.9361351386818443 0 0 0 0.29 102 107 189 210 218 354 
1315 -0.5145347188024446 -0.7428656976292489 0.9131375193236186 0 0 0 0.31 102 108 137 177 173 219 218 355 
1316 -0.5496232496795224 -0.7281171758755874 0.9079515951565711 0 0 0 0.31 102 109 131 179 143 173 218 356 
1317 -0.03242912592927136 -0.07565136303511243 1.2893854111179048 0 0 0 0.35 102 110 117 647 140 334 177 272 
1318 -0.05861815301653404 -0.056389717542197286 1.2895261306945154 0 0 0 0.37 102 111 106 98 117 648 
1319 -0.34971864494725863 -0.06584448701931248 1.3478406232960503 0 0 0 0.25 102 112 117 649 177 273 
1320 -0.3842607641550573 0.003834241064466176 1.3557358252457596 0 0 0 0.23 102 113 106 99 117 650 
1321 -0.03753191196342454 -0.07825200619334427 1.2885564635790838 0 0 0 0.38 102 114 117 651 140 335 
1322 -0.5083678124271487 -0.7138454643757312 0.927604862847468 0 0 0 0.28 102 115 137 178 173 220 
1323 -0.5077988758160606 -0.2823896373334568 0.8415100487573827 0 0 0 0.37 102 116 117 652 131 180 140 336 177 274 189 211 218 357 
1324 -0.5099931686707458 -0.29294797994554594 0.8445166286535128 0 0 0 0.2 102 117 133 86 177 275 193 413 218 358 
1325 -0.46120637840387974 -0.3590202571409609 0.9468318935587736 0 0 0 0.34 106 100 117 653 140 337 
1326 -0.46172071161119554 -0.359252446599737 0.9480525909708689 0 0 0 0.4 106 101 117 654 140 338 145 215 
1327 -0.455305685715895 -0.13909974376823345 1.134239474486542 0 0 0 0.2 106 102 117 655 149 217 218 359 
1328 -0.024466715078057033 -0.10668610169582034 1.2791439755083027 0 0 0 0.41 106 103 117 656 140 339 
1329 -0.42887663231190704 -0.08565705595018212 1.380756651374864 0 0 0 0.16 106 104 117 657 140 340 
1330 -0.5263644233795446 -0.06543136478009089 1.2691899270460638 0 0 0 1.65 117 658 145 216 151 415 166 262 193 414 216 312 
1331 -0.4200203601762885 -0.06501186073276559 1.3779097880979192 0 0 0 0.26 106 105 117 659 173 221 
1332 -0.48150768406303396 -0.3620008369960108 0.8913627050280791 0 0 0 0.27 106 106 116 427 117 660 140 341 151 416 177 276 193 415 
1333 -0.46272392949550206 -0.2901194259561353 0.9580504352140685 0 0 0 0.22 106 107 116 428 117 661 145 217 173 222 183 231 216 313 
1334 -0.45889469406818795 -0.12559132848817373 1.1200637484095675 0 0 0 0.21 106 108 117 662 140 342 226 234 
1335 -0.015482245861079876 -0.10323898412449163 1.2813127597017846 0 0 0 0.27 106 109 117 663 150 185 
1336 -0.3784911382959342 0.013180938416756762 1.3514925291313047 0 0 0 0.5 106 110 117 664 189 212 193 416 212 235 
1337 -0.47797620337530394 -0.31814658681524827 0.9108354268278497 0 0 0 0.46 115 25 117 665 137 179 139 247 145 218 150 186 151 417 193 417 228 243 
1338 -0.43912931399106786 -0.2512236579803473 1.2635935294211957 0 0 0 0.95 115 26 154 216 174 484 216 314 
1339 -0.4999333202412441 -0.8096842457554138 0.9553415451625666 0 0 0 0.22 116 429 151 418 218 360 
1340 -0.4956302277704042 -0.6975669896873026 0.9437223492289818 0 0 0 0.17 116 430 122 27 149 218 218 361 
1341 -0.4741132298128663 -0.6462329782342453 0.9433817105139833 0 0 0 0.47 116 431 117 666 218 362 
1342 -0.4797565808301022 -0.486178573352243 0.8455860806093555 0 0 0 0.47 116 432 154 217 193 418 
1343 -0.48089257366515514 -0.47198300531121584 0.9119168139892947 0 0 0 0.35 116 433 117 667 216 315 218 363 
1344 -0.48177246778463617 -0.48181356860816915 0.9721008817829958 0 0 0 0.26 116 434 117 668 125 376 137 180 151 419 161 254 166 263 177 277 218 364 226 235 
1345 -0.4901654372779514 -0.47257608934641404 0.9798574368011005 0 0 0 0.1 116 435 117 669 183 232 
1346 -0.49038439342117407 -0.4227719797234128 0.8561447659387585 0 0 0 0.25 116 436 117 670 166 264 211 275 
1347 -0.4651671320778852 -0.4462231631866247 0.9692784395777364 0 0 0 0.38 116 437 117 671 125 377 143 174 177 278 215 62 218 365 226 236 
1348 -0.46845534413619627 -0.4358262000812419 0.9671105073270836 0 0 0 0.31 116 438 117 672 161 255 
1349 -0.4612332326144829 -0.3732815340138814 0.9582685787293131 0 0 0 0.22 116 439 117 673 151 420 216 316 
1350 -0.46124365640316356 -0.36403209210231474 0.9472930392479911 0 0 0 0.27 116 440 117 674 140 343 
1351 -0.48599946384981824 -0.3333400797199607 0.8577365146193409 0 0 0 0.14 116 441 117 675 183 233 
1352 -0.5234812745094276 -0.28652552898444206 0.8476061751603367 0 0 0 0.12 116 442 117 676 154 218 
1353 -0.4849547384892238 -0.27901093321325404 0.8579519117118023 0 0 0 0.23 116 443 117 677 154 219 177 279 
1354 -0.47446774602296765 -0.25581993823135013 0.9195031699410672 0 0 0 0.12 116 444 117 678 140 344 145 219 177 280 193 419 226 237 
1355 -0.48272015094209336 -0.16245021034701665 0.8668089585673104 0 0 0 0.15 116 445 117 679 140 345 218 366 226 238 
1356 -0.46582836200338146 -0.0939131405335272 1.1337629829942641 0 0 0 0.21 116 446 117 680 150 187 
1357 -0.46252825121935376 -0.07662462063169591 0.9351862227855186 0 0 0 0.19 116 447 117 681 150 188 154 220 161 256 216 317 
1358 -0.4731512689963948 -0.019970427699522814 1.0483035498352136 0 0 0 0.13 116 448 117 682 140 346 154 221 211 276 
1359 -0.5480678364196364 -0.5641977747495509 0.8816024356072978 0 0 0 0.39 116 449 151 421 226 239 
1360 -0.4660919054722007 -0.44029908889775354 0.9704574045396747 0 0 0 0.65 116 450 117 683 151 422 193 420 211 277 215 63 216 318 226 240 
1361 -0.46862810822933093 -0.3575857469564039 0.8979412913055479 0 0 0 0.15 116 451 117 684 149 219 177 281 
1362 -0.5413408158508703 -0.17814695879750134 0.7213793857388228 0 0 0 0.29 116 452 125 378 174 485 177 282 
1363 -0.32153251090721385 -0.1903184305710012 1.3836183392034132 0 0 0 0.68 116 453 174 486 212 236 
1364 -0.32195670877239035 -0.11834182930373369 1.383321067195227 0 0 0 1.06 116 454 174 487 205 321 
1365 -0.32195670877239035 -0.11834182930373369 1.383321067195227 0 0 0 1.06 116 455 174 488 205 322 
1366 -0.4773772012795756 -0.06399629343064513 1.0246323645740367 0 0 0 0.24 116 456 117 685 140 347 154 222 183 234 193 421 205 323 212 237 
1367 -0.53249897862424 -0.05156179840028425 1.253548640202353 0 0 0 1.69 117 686 151 423 173 223 
1368 -0.4872809173535916 -0.7347451852032035 0.9398594216887215 0 0 0 0.4 116 457 131 181 151 424 166 265 178 126 
1369 -0.49851999252523793 -0.5501770498059344 0.9174618327139562 0 0 0 0.46 116 458 117 687 139 248 189 213 212 238 
1370 -0.4838877071448474 -0.2630478330190515 0.877989614004529 0 0 0 0.5 116 459 140 348 174 489 
1371 -0.5362694652313574 -0.1830206362785618 0.7578014781747698 0 0 0 0.67 116 460 174 490 225 78 
1372 -0.46932979247331746 -0.025373006033526397 1.075718323102115 0 0 0 0.16 116 461 117 688 143 175 218 367 
1373 -0.5117598686000792 -0.6327169241951829 0.9088983034443411 0 0 0 0.11 116 462 144 411 151 425 
1374 -0.5924893536498709 -0.19531935682420934 0.5128105045086865 0 0 0 0.7 116 463 144 412 167 49 174 491 228 244 
1375 -0.2918388138930738 -0.19164353616917587 1.3789150165837338 0 0 0 1.21 116 464 137 181 174 492 
1376 -0.4928613962149505 -0.7181019518215793 0.9763823887894553 0 0 0 0.18 116 465 117 689 144 413 166 266 225 79 
1377 -0.4154044107396838 -0.12802871880253328 1.2537401717372298 0 0 0 0.54 116 466 154 223 174 493 
1378 -0.3234992585260262 -0.06767775436425513 1.3493643727220035 0 0 0 0.74 116 467 139 249 154 224 174 494 178 127 180 94 212 239 
1379 -0.42294204282042086 -0.18511849250316437 1.2508345846046298 0 0 0 0.49 116 468 154 225 174 495 
1380 -0.32507740034290944 -0.15786702525528834 1.365250995095778 0 0 0 0.99 116 469 139 250 154 226 174 496 
1381 -0.4819101193761627 -0.6441953623660375 0.9436683109189615 0 0 0 0.44 116 470 174 497 211 278 
1382 -0.5461557385007001 -0.38175613151086896 0.8600231713281857 0 0 0 0.73 116 471 145 220 154 227 166 267 173 224 174 498 
1383 -0.5224246392984477 -0.9171517138834714 0.9831633412499685 0 0 0 0.34 117 690 151 426 166 268 
1384 -0.5058111466275127 -0.8636583684673352 0.9444175833040229 0 0 0 0.18 151 427 205 324 211 279 
1385 -0.5191083717320218 -0.8533745985716754 0.952022110641581 0 0 0 0.28 151 428 205 325 212 240 
1386 -0.49800326685971114 -0.7758774626660684 0.953485661224179 0 0 0 0.42 117 691 205 326 218 368 
1387 -0.5003437986329144 -0.7608962828187484 0.9505177515054646 0 0 0 0.13 144 414 151 429 202 192 205 327 
1388 -0.5277024811659404 -0.6915923171131122 0.9106429092192873 0 0 0 0.49 149 220 205 328 218 369 
1389 -0.538802938324866 -0.6788181936198141 0.9195471209179024 0 0 0 0.31 117 692 119 217 173 225 191 142 
1390 -0.539109653361686 -0.6791591048926661 0.9203732194040785 0 0 0 0.18 117 693 119 218 173 226 
1391 -0.509207719104613 -0.6748631174291405 0.9304519967946276 0 0 0 0.15 151 430 173 227 183 235 210 61 218 370 226 241 
1392 -0.5134001131882278 -0.5505148197233056 0.9152740786314445 0 0 0 0.25 117 694 125 379 151 431 
1393 -0.4970796733588659 -0.5162507403787507 0.859889950312082 0 0 0 0.39 117 695 193 422 218 371 
1394 -0.49406840773837796 -0.5174384014846176 0.8855537881251004 0 0 0 0.15 117 696 125 380 193 423 
1395 -0.5531253466195016 -0.493254918835453 0.8837297225972676 0 0 0 0.17 145 221 173 228 177 283 193 424 218 372 
1396 -0.4877348056815085 -0.53765120083722 0.9307014674869903 0 0 0 0.54 117 697 139 251 166 269 
1397 -0.5619049428833501 -0.4652749307277233 0.8741504043345389 0 0 0 0.12 117 698 177 284 193 425 
1398 -0.5619049428833501 -0.4652749307277233 0.8741504043345389 0 0 0 0.12 117 699 177 285 193 426 
1399 -0.48647372543436995 -0.45811928526896606 0.85831784196848 0 0 0 0.61 117 700 186 68 211 280 
1400 -0.5461152821290189 -0.45745370433826016 0.8912862750979876 0 0 0 0.21 117 701 154 228 210 62 
1401 -0.4741733601269244 -0.4824325011241791 0.9251430052578007 0 0 0 0.04 117 702 151 432 166 270 
1402 -0.4859469724460432 -0.4882836155254001 0.9674870173995521 0 0 0 0.76 117 703 161 257 193 427 
1403 -0.4865068031749048 -0.4485627156486346 0.9140265955726018 0 0 0 0.15 117 704 145 222 154 229 
1404 -0.5510617110114895 -0.41109313573353756 0.8890373108088262 0 0 0 0.11 117 705 140 349 177 286 218 373 
1405 -0.5469518834015191 -0.4109599934685754 0.8885117178229615 0 0 0 0.43 117 706 151 433 177 287 
1406 -0.5917752992901045 -0.3828191614209411 0.8813708962139072 0 0 0 0.33 117 707 151 434 202 193 
1407 -0.4783488110834373 -0.4293525502015023 0.9044378767745543 0 0 0 0.25 117 708 193 428 218 374 
1408 -0.5571364506243958 -0.38170884197519284 0.8717257770838293 0 0 0 0.21 117 709 140 350 193 429 
1409 -0.5317034558386282 -0.4374844253262258 0.9630948984462315 0 0 0 0.44 117 710 125 381 193 430 
1410 -0.47968448098159294 -0.37541948092135385 0.8370722061251274 0 0 0 0.06 117 711 139 252 205 329 
1411 -0.5365917721573583 -0.3642976738294791 0.8556793540252066 0 0 0 0.15 117 712 140 351 218 375 
1412 -0.48044582170446387 -0.361877898888316 0.8466583372812582 0 0 0 0.34 117 713 151 435 154 230 
1413 -0.4847887413052349 -0.38627438000734315 0.9062493493011649 0 0 0 0.26 117 714 151 436 154 231 
1414 -0.4802917735201985 -0.38375233426211464 0.8985973647834007 0 0 0 0.29 117 715 145 223 151 437 
1415 -0.48610134691183005 -0.37634917778855503 0.8931008925359768 0 0 0 0.19 117 716 150 189 151 438 177 288 
1416 -0.5037907898915577 -0.33094041534804913 0.8405614950247029 0 0 0 0.28 117 717 140 352 145 224 150 190 161 258 177 289 218 376 
1417 -0.47134355879618156 -0.3605738813891557 0.8971712310841815 0 0 0 0.21 117 718 140 353 151 439 173 229 180 95 
1418 -0.5068294489344916 -0.30951056197854077 0.8431341195886861 0 0 0 0.3 117 719 150 191 177 290 218 377 
1419 -0.46365035995148435 -0.3798199344703592 0.9694747722352758 0 0 0 0.37 117 720 161 259 180 96 193 431 
1420 -0.4616139471371239 -0.3754793253531745 0.971943934074561 0 0 0 0.37 117 721 166 271 193 432 205 330 
1421 -0.4813469538689148 -0.29638084369141876 0.8383519906237998 0 0 0 0.21 117 722 140 354 211 281 228 245 
1422 -0.4591778440001048 -0.3592836699071622 0.9572668846205582 0 0 0 0.34 117 723 125 382 151 440 161 260 193 433 205 331 
1423 -0.48755626497839333 -0.28843965630465085 0.8558784916421559 0 0 0 0.25 117 724 140 355 228 246 
1424 -0.48733021280506567 -0.25571672431903353 0.8522408582808193 0 0 0 0.2 117 725 161 261 183 236 205 332 216 319 
1425 -0.48174259424354937 -0.25880304693418155 0.8758967622909867 0 0 0 0.12 117 726 140 356 145 225 193 434 226 242 
1426 -0.48671150172285854 -0.2334177398487511 0.8497698598401819 0 0 0 0.24 117 727 150 192 177 291 
1427 -0.4816731772372561 -0.26417649894008904 0.9204071690556145 0 0 0 0.24 117 728 183 237 228 247 
1428 -0.5112651069727044 -0.29714954055365184 1.0536398324489125 0 0 0 0.39 117 729 161 262 228 248 
1429 -0.49326806433183207 -0.28321949889383885 1.014443184921911 0 0 0 0.37 117 730 150 193 183 238 
1430 -0.48967827825928606 -0.22033695757464478 0.8768374248737159 0 0 0 0.17 117 731 183 239 226 243 
1431 -0.4786024646322182 -0.1286161035263235 1.0285151673835904 0 0 0 0.22 117 732 154 232 161 263 205 333 218 378 226 244 
1432 -0.4608557412656574 -0.10734153993985501 0.934967441450202 0 0 0 0.31 117 733 193 435 233 107 
1433 -0.4814890462556632 -0.12385011498384685 1.0221328030016903 0 0 0 0.13 117 734 149 221 205 334 
1434 -0.46826155755897003 -0.09698978782139991 0.9227040667493656 0 0 0 0.3 117 735 149 222 161 264 
1435 -0.4658737525754576 -0.09877194491799794 0.9226944406190654 0 0 0 0.29 117 736 150 194 154 233 205 335 233 108 
1436 -0.46637945019334787 -0.09879022803079758 0.9238166718663776 0 0 0 0.23 117 737 125 383 150 195 183 240 218 379 233 109 
1437 -0.4642337553527615 -0.09851262415593691 0.9391059814996566 0 0 0 0.41 117 738 150 196 177 292 226 245 
1438 -0.47961767451520715 -0.08569560016302114 1.013763010199451 0 0 0 0.23 117 739 145 226 183 241 205 336 228 249 
1439 -0.46287864656007255 -0.06531998759808937 1.1119633985779793 0 0 0 0.18 117 740 122 28 193 436 
1440 -0.4422460133736733 -0.0862295306202388 1.397208036771851 0 0 0 0.2 117 741 140 357 193 437 218 380 
1441 -0.4397336751821279 -0.07788023895636775 1.380528846640242 0 0 0 0.41 117 742 122 29 125 384 193 438 218 381 
1442 -0.41786983748696016 -0.08127417736369671 1.3885197098567301 0 0 0 0.18 117 743 177 293 193 439 218 382 
1443 -0.47226507511508725 0.002980808393558108 1.044547859644853 0 0 0 0.12 117 744 140 358 193 440 228 250 233 110 
1444 -0.44650602877601614 -0.06556085253571385 1.38766584711069 0 0 0 0.2 117 745 150 197 151 441 216 320 
1445 -0.4091878140359838 -0.07554636020405196 1.378556036636824 0 0 0 0.29 117 746 140 359 177 294 193 441 218 383 
1446 -0.38701060842884705 -0.07953199651142585 1.3718570449990746 0 0 0 0.31 117 747 193 442 218 384 
1447 -0.42170637699108965 0.008346509605810707 1.2379069328226966 0 0 0 0.35 117 748 140 360 216 321 
1448 -0.34038931365479574 -0.03511104799268762 1.342512170353447 0 0 0 0.28 117 749 140 361 193 443 228 251 
1449 -0.42162382017339584 0.02754268512992138 1.229393690918572 0 0 0 0.26 117 750 140 362 193 444 216 322 
1450 -0.5189677969416823 -0.739400572829098 0.963421413035258 0 0 0 0.93 117 751 143 176 202 194 
1451 -0.5189677969416823 -0.739400572829098 0.963421413035258 0 0 0 0.93 117 752 143 177 202 195 
1452 -0.4784339630603723 -0.6986128107171662 0.9073366539615733 0 0 0 0.51 151 442 183 242 225 80 
1453 -0.49150814103272067 -0.707367757216608 0.9478545825970692 0 0 0 0.23 143 178 205 337 218 385 
1454 -0.484309339431599 -0.6787961372170593 0.9534383852291057 0 0 0 0.37 117 753 144 415 189 214 205 338 211 282 
1455 -0.5579341987392906 -0.6705789924034365 0.9999043985434884 0 0 0 0.54 117 754 125 385 183 243 
1456 -0.5485640959207111 -0.5592639114633589 0.8817155626527526 0 0 0 0.13 161 265 173 230 205 339 
1457 -0.5729176649462395 -0.4666435678133696 0.8859526089941038 0 0 0 0.49 117 755 125 386 144 416 
1458 -0.6060742216912388 -0.4628037855291131 0.900658144884579 0 0 0 0.45 125 387 151 443 173 231 177 295 202 196 205 340 211 283 216 323 218 386 
1459 -0.5022145672126844 -0.530966949174306 0.9802323275934767 0 0 0 0.23 117 756 125 388 151 444 
1460 -0.49003640104453383 -0.4661578853083825 0.9008378387590473 0 0 0 0.26 117 757 125 389 151 445 
1461 -0.48489052999114146 -0.49481387288678935 0.9508341032477436 0 0 0 0.41 117 758 125 390 166 272 202 197 
1462 -0.4762316361234951 -0.4598801338725276 0.9189625666553393 0 0 0 0.47 117 759 125 391 151 446 161 266 
1463 -0.5476020055613947 -0.38922089590700654 0.8764147098579433 0 0 0 0.33 117 760 177 296 193 445 
1464 -0.4723203666676103 -0.47078507620523424 0.9720592800484228 0 0 0 0.46 117 761 144 417 173 232 205 341 211 284 
1465 -0.5361911582264183 -0.43602047324800336 0.9528913183380796 0 0 0 0.21 117 762 125 392 193 446 
1466 -0.5036077167719325 -0.37663575815252437 0.8352550910988906 0 0 0 0.22 117 763 131 182 140 363 144 418 173 233 177 297 189 215 193 447 218 387 
1467 -0.5415486861426319 -0.3769493632340853 0.8618218910626704 0 0 0 0.27 117 764 140 364 143 179 145 227 177 298 193 448 218 388 226 246 
1468 -0.5190958750580316 -0.37444620774583953 0.8483823994954816 0 0 0 0.28 117 765 140 365 193 449 218 389 
1469 -0.5141318323116759 -0.4170231921163584 0.9234037435511295 0 0 0 0.17 117 766 125 393 140 366 151 447 
1470 -0.5109515599221298 -0.45324087508382643 0.9899776194603305 0 0 0 0.19 117 767 125 394 144 419 
1471 -0.47695092663065825 -0.37519130756181096 0.8443697523364171 0 0 0 0.15 117 768 125 395 173 234 193 450 
1472 -0.5233064025125612 -0.35598655836768583 0.8400316778114228 0 0 0 0.68 117 769 140 367 150 198 218 390 
1473 -0.5184085816813851 -0.3590603735573939 0.8459807271119965 0 0 0 0.18 117 770 144 420 226 247 
1474 -0.5223132891062667 -0.3610908333183207 0.8519608070418586 0 0 0 0.15 117 771 144 421 193 451 
1475 -0.46440777351905715 -0.45170151541573467 0.9821465718679266 0 0 0 0.32 117 772 139 253 189 216 193 452 
1476 -0.45924423995468744 -0.4438098534136016 0.9728202031441582 0 0 0 0.24 117 773 125 396 151 448 154 234 205 342 
1477 -0.49241872430975236 -0.38746277913777966 0.9107881172059805 0 0 0 0.24 117 774 145 228 161 267 177 299 193 453 
1478 -0.49594719116275293 -0.32463714680624367 0.8382808281109764 0 0 0 0.12 117 775 150 199 173 235 177 300 218 391 
1479 -0.4966912218194659 -0.3192800511221412 0.8389620649134031 0 0 0 0.3 117 776 145 229 177 301 193 454 205 343 218 392 
1480 -0.473601661192173 -0.35743054291535026 0.8966936974713394 0 0 0 0.28 117 777 149 223 151 449 154 235 161 268 173 236 205 344 
1481 -0.47099849160314555 -0.362682060061372 0.9361717702408275 0 0 0 0.38 117 778 125 397 150 200 161 269 211 285 
1482 -0.46770235400123633 -0.37413300140511996 0.956332731108727 0 0 0 0.47 117 779 137 182 140 368 151 450 193 455 215 64 225 81 
1483 -0.4609272703911502 -0.36459501222694757 0.9857968712791289 0 0 0 0.49 117 780 161 270 211 286 216 324 
1484 -0.49627147348634687 -0.2609314443043056 0.8332151691421383 0 0 0 0.27 117 781 140 369 177 302 193 456 218 393 
1485 -0.4632294562870106 -0.3338643949653822 0.9714283187132792 0 0 0 0.5 117 782 131 183 137 183 140 370 161 271 212 241 226 248 
1486 -0.48796771764061997 -0.25514149146361126 0.8380817186247429 0 0 0 0.15 117 783 193 457 228 252 
