# 3D point list with one line of data per point:
#   POINT3D_ID, X, Y, Z, R, G, B, ERROR, TRACK[] as (IMAGE_ID, POINT2D_IDX)
# Number of points: 380, mean track length: 7.35
1329 0.20273993704299487 0.3500270577165157 0.9841629341201953 0 0 0 0.26 21 264 33 238 77 309 164 250 224 248 
1330 0.16447649535244996 0.3588574454658177 1.0025125139787519 0 0 0 0.15 21 265 71 132 148 352 
1331 0.17377363629413267 0.3616966175407563 0.9959249498792964 0 0 0 0.24 21 266 44 222 50 141 60 132 77 310 224 249 
1332 0.18374251600339467 0.3655050584664608 0.994586820565221 0 0 0 0.21 21 267 44 223 164 251 
1333 0.026755927310444596 0.07424526682880714 0.672682458424632 0 0 0 0.92 21 268 224 250 229 766 
1334 0.02659164059953865 0.07583404696289887 0.6707718495832768 0 0 0 0.61 21 269 224 251 229 767 
1335 0.09028452546463367 0.10627781686722282 0.864335379227719 0 0 0 0.17 21 270 63 139 126 93 
1336 0.30084020299918685 0.15089450557803474 1.0145998159541139 0 0 0 0.22 21 271 52 367 172 53 
1337 0.2230471243186033 0.1588476814945905 1.0459648811172615 0 0 0 0.14 21 272 162 77 164 252 
1338 0.21671395737838575 0.16560306626811877 1.048811026780904 0 0 0 0.14 21 273 32 30 36 17 92 110 
1339 0.22066026717837733 0.1775744318497428 1.0441370564929364 0 0 0 0.27 21 274 44 224 77 311 164 253 
1340 0.22295998800880248 0.18140501847780105 1.0421207697079706 0 0 0 0.37 21 275 96 99 148 353 196 258 224 252 
1341 0.23311893754834656 0.18619051719146618 1.0346913299873737 0 0 0 0.39 21 276 77 312 85 354 103 82 159 200 164 254 172 54 60 133 61 62 111 101 128 64 157 87 176 88 179 32 204 17 209 122 213 142 
1342 0.29640037027449967 0.1988290234613598 0.9977401091969818 0 0 0 0.25 21 277 38 173 85 355 157 88 213 143 44 225 92 111 111 102 126 94 146 136 162 78 179 33 
1343 0.22300964181647456 0.19555442303067816 1.0410437425507681 0 0 0 0.33 21 278 118 91 162 79 60 134 209 123 
1344 0.10486096897516803 0.163880077334544 0.874308323186719 0 0 0 0.67 21 279 142 720 229 768 
1345 0.27253180772846036 0.20051509254283523 1.009428718319168 0 0 0 0.26 21 280 52 368 111 103 162 80 172 55 60 135 209 124 179 34 
1346 0.2619068403914686 0.2050103519958764 1.011915183464139 0 0 0 0.4 21 281 52 369 179 35 
1347 0.04772342318031009 0.13880124624234044 0.691726755375474 0 0 0 0.32 21 282 224 253 229 769 209 125 
1348 0.14763907539114474 0.20252056971525403 1.0723282569914405 0 0 0 0.33 21 283 27 135 43 50 44 226 71 133 77 313 92 112 127 76 148 354 162 81 164 255 221 28 60 136 110 137 111 104 114 19 209 126 
1349 0.14509689070848517 0.20430177656361742 1.0731981551335361 0 0 0 0.31 21 284 27 136 77 314 127 77 164 256 224 254 60 137 110 138 148 355 209 127 
1350 0.23579914972618132 0.2089528689332127 1.023758809617233 0 0 0 0.26 21 285 52 370 71 134 85 356 113 164 162 82 
1351 0.24339316513286322 0.20934176179593403 1.0202657743636665 0 0 0 0.38 21 286 77 315 85 357 96 100 111 105 148 356 158 36 159 201 164 257 196 259 172 56 224 255 
1352 0.15304591899147307 0.20636424617876664 1.0662718915302318 0 0 0 0.25 21 287 52 371 85 358 103 83 196 260 224 256 43 51 96 101 111 106 113 165 148 357 164 258 50 142 65 34 114 20 118 92 209 128 220 66 232 56 
1353 0.1835632257756928 0.20777270459910088 1.0513078229144908 0 0 0 0.2 21 288 110 139 162 83 164 259 
1354 0.25589226233868495 0.21112815985888833 1.0129360817141408 0 0 0 0.29 21 289 44 227 60 138 110 140 113 166 118 93 146 137 213 144 
1355 0.18060032117355918 0.20891204833854668 1.0516332375714184 0 0 0 0.42 21 290 27 137 32 31 36 18 77 316 92 113 
1356 0.21859328035925485 0.21289250725732362 1.0311112638032909 0 0 0 0.32 21 291 85 359 111 107 113 167 148 358 96 102 110 141 114 21 172 57 190 11 209 129 
1357 0.29304034764171777 0.21602877001096035 0.9940405312027578 0 0 0 0.21 21 292 50 143 179 36 213 145 
1358 0.29139151219481535 0.21643413623965604 0.9950047166590357 0 0 0 0.22 21 293 179 37 224 257 
1359 0.1440906503068505 0.21225139028580076 1.0707176474352642 0 0 0 0.27 21 294 27 138 44 228 52 372 77 317 110 142 111 108 127 78 148 359 164 260 
1360 0.2313240725761653 0.2171669237522257 1.0228426899360443 0 0 0 0.25 21 295 27 139 36 19 50 144 60 139 92 114 113 168 146 138 158 37 176 89 219 24 224 258 232 57 
1361 0.29208818929096597 0.22136786159990068 0.9921647551260068 0 0 0 0.23 21 296 38 174 44 229 77 318 127 79 148 360 
1362 0.20261434599946251 0.22071410268216388 1.035694942786384 0 0 0 0.28 21 297 32 32 50 145 110 143 111 109 113 169 146 139 158 38 176 90 213 146 
1363 0.12870202912021095 0.19688658773012882 0.9309647565229509 0 0 0 0.28 21 298 159 202 164 261 229 770 
1364 0.21872925611253138 0.2218128137829531 1.0266126671555806 0 0 0 0.23 21 299 44 230 77 319 148 361 164 262 
1365 0.1485302090731848 0.2228836859877881 1.0616697576678202 0 0 0 0.36 21 300 44 231 92 115 111 110 148 362 159 203 110 144 164 263 209 130 220 67 
1366 0.19031181647731543 0.2260246293034817 1.0396832135107947 0 0 0 0.72 21 301 44 232 60 140 126 95 162 84 164 264 176 91 224 259 25 124 77 320 110 145 148 363 158 39 209 131 213 147 
1367 0.19350255446334141 0.22724582978485003 1.0365854484016372 0 0 0 0.29 21 302 44 233 52 373 60 141 77 321 85 360 103 84 111 111 126 96 159 204 162 85 176 92 219 25 118 94 148 364 164 265 209 132 220 68 
1368 0.1522807219938684 0.22802274592904626 1.0593403442270106 0 0 0 0.35 21 303 27 140 44 234 60 142 77 322 110 146 113 170 164 266 103 85 209 133 
1369 0.18563024641880888 0.2290352256868247 1.0392448518146673 0 0 0 0.26 21 304 32 33 44 235 60 143 67 13 77 323 113 171 146 140 164 267 221 29 50 146 96 103 103 86 111 112 128 65 157 89 176 93 209 134 213 148 219 26 232 58 
1370 0.16845453868674443 0.23082402602398036 1.0508747148858062 0 0 0 0.3 21 305 27 141 43 52 60 144 61 63 92 116 113 172 118 95 157 90 159 205 164 268 176 94 179 38 32 34 44 236 50 147 53 78 96 104 103 87 110 147 111 113 127 80 148 365 162 86 232 59 128 66 209 135 224 260 
1371 0.165012969812609 0.23109892898448647 1.0523044551075624 0 0 0 0.33 21 306 50 148 53 79 60 145 96 105 111 114 128 67 157 91 159 206 162 87 172 58 176 95 179 39 219 27 224 261 44 237 209 136 227 21 
1372 0.16301391742591043 0.23133092142709522 1.0533785168798648 0 0 0 0.22 21 307 60 146 71 135 85 361 126 97 196 261 219 28 127 81 
1373 0.17305470843689957 0.23298317179279876 1.0485955338223287 0 0 0 0.28 21 308 26 212 32 35 44 238 52 374 60 147 92 117 164 269 176 96 224 262 
1374 0.13336735559911672 0.23378191350537852 1.0662668950815282 0 0 0 0.23 21 309 77 324 92 118 164 270 
1375 0.09377960969346365 0.18837668578953973 0.821511318357015 0 0 0 0.1 21 310 63 140 142 721 
1376 0.2179731538065052 0.23554972379730452 1.0261558811942861 0 0 0 0.16 21 311 127 82 162 88 
1377 0.2102712604637427 0.23599996727219472 1.02978718240581 0 0 0 0.2 21 312 71 136 92 119 103 88 
1378 0.13606555133279669 0.21431294212405513 0.9423056606811587 0 0 0 0.23 21 313 110 148 142 722 148 366 164 271 
1379 0.16983994750950446 0.23700218661929368 1.0495463801169196 0 0 0 0.27 21 314 50 149 60 148 103 89 111 115 127 83 157 92 232 60 128 68 176 97 209 137 
1380 0.15194198945753457 0.2386891521407723 1.056503954126002 0 0 0 0.23 21 315 25 125 26 213 44 239 60 149 71 137 164 272 209 138 
1381 0.19790808293767811 0.23850478257270963 1.0347054513788383 0 0 0 0.15 21 316 77 325 111 116 146 141 148 367 224 263 
1382 0.07314416429733395 0.1776331481524562 0.7556253735079587 0 0 0 0.2 21 317 63 141 221 30 229 771 
1383 0.2678824489107647 0.23901891726152966 0.9951888316619639 0 0 0 0.24 21 318 33 239 118 96 148 368 
1384 0.1640409647637254 0.24445254544098338 1.0455902922315061 0 0 0 0.23 21 319 52 375 77 326 85 362 
1385 0.1488705469815246 0.24517850464542212 1.0512596080346337 0 0 0 0.28 21 320 27 142 44 240 60 150 148 369 164 273 196 262 209 139 220 69 
1386 0.19860149666323343 0.24801628137148554 1.0307148428495443 0 0 0 0.17 21 321 60 151 111 117 146 142 148 370 157 93 
1387 0.19656982236013626 0.24841910822642663 1.0297023418422193 0 0 0 0.24 21 322 27 143 33 240 60 152 146 143 148 371 224 264 
1388 0.25480927869867515 0.24883123470891164 0.9995361716210303 0 0 0 0.15 21 323 103 90 111 118 
1389 0.13565902393291976 0.22718913520268127 0.9354089077857428 0 0 0 0.41 21 324 164 274 224 265 229 772 
1390 0.11102377375529834 0.2118681370801695 0.8659874233087052 0 0 0 0.12 21 325 142 723 224 266 
1391 0.293979138500263 0.24918377470417105 0.9794305271454898 0 0 0 0.34 21 326 157 94 164 275 176 98 
1392 0.17913514393972338 0.2538611875652958 1.0368610126335307 0 0 0 0.22 21 327 148 372 164 276 224 267 
1393 0.16996574368456052 0.2571376090788717 1.0427887614948177 0 0 0 0.31 21 328 44 241 77 327 126 98 127 84 148 373 164 277 224 268 
1394 0.15335549461880515 0.25749156135698464 1.0465134356276953 0 0 0 0.1 21 329 148 374 224 269 
1395 0.0757627818546074 0.19031142669092568 0.7510281037928976 0 0 0 0.18 21 330 221 31 229 773 
1396 0.14366145503988784 0.2578969374000252 1.0506117407764697 0 0 0 0.16 21 331 27 144 60 153 148 375 164 278 224 270 
1397 0.16269139091391266 0.25789570586761196 1.0435639576654998 0 0 0 0.35 21 332 164 279 224 271 
1398 0.14449505591974152 0.23820212356096784 0.9491654017819448 0 0 0 0.48 21 333 77 328 85 363 148 376 164 280 196 263 
1399 0.18374751960784969 0.2598786229707654 1.0303459120728995 0 0 0 0.24 21 334 44 242 85 364 110 149 148 377 164 281 77 329 
1400 0.1328394532980489 0.23420508417022984 0.9189530321096626 0 0 0 0.08 21 335 148 378 164 282 
1401 0.14802750438929832 0.263872158997861 1.0447753356503175 0 0 0 0.09 21 336 77 330 224 272 
1402 0.195578027545915 0.2626495074826833 1.0237544971388577 0 0 0 0.32 21 337 114 22 159 207 
1403 0.19779649194606744 0.26588628982802676 1.0219942035369036 0 0 0 0.25 21 338 33 241 50 150 52 376 60 154 77 331 111 119 118 97 127 85 128 69 146 144 148 379 162 89 164 283 196 264 213 149 224 273 209 140 
1404 0.21275729706621213 0.27407974271261765 1.0107505719671257 0 0 0 0.2 21 339 60 155 162 90 
1405 0.13429843714001327 0.28559491547772947 1.0402991592599362 0 0 0 0.06 21 340 44 243 126 99 148 380 
1406 0.15975726298863777 0.29393757548253363 1.0266247889220057 0 0 0 0.55 21 341 44 244 52 377 71 138 85 365 
1407 0.19892430641133566 0.29224615619518785 1.0119954054349645 0 0 0 0.34 21 342 60 156 85 366 162 91 164 284 
1408 0.2009113242889228 0.2928483467702618 1.012355432552676 0 0 0 0.25 21 343 27 145 77 332 221 32 
1409 0.16640694370315867 0.29688807790544997 1.0222740200423082 0 0 0 0.1 21 344 50 151 52 378 118 98 232 61 
1410 0.2280813073607026 0.29924278220123046 0.994242034395223 0 0 0 0.08 21 345 128 70 172 59 232 62 209 141 
1411 0.22599346477259002 0.30091267384526754 0.9931624724103281 0 0 0 0.2 21 346 50 152 118 99 146 145 172 60 176 99 213 150 209 142 
1412 0.22114089051052002 0.3025104635489634 0.9912379418178249 0 0 0 0.15 21 347 44 245 224 274 111 120 209 143 
1413 0.2694690897547281 0.30111500402498786 0.9672054032713916 0 0 0 0.21 21 348 52 379 164 285 172 61 
1414 0.20822020901035235 0.312923080532023 0.9984560616618671 0 0 0 0.24 21 349 44 246 113 173 114 23 162 92 
1415 0.20618253519892413 0.3124098954818258 0.9955139051394762 0 0 0 0.47 21 350 33 242 162 93 
1416 0.2036282314777213 0.313970667593437 1.000371404849922 0 0 0 0.23 21 351 33 243 44 247 50 153 77 333 164 286 172 62 213 151 
1417 0.2009139626051476 0.3139204572905859 0.999501676830104 0 0 0 0.54 21 352 77 334 162 94 164 287 224 275 111 121 209 144 
1418 0.2150241054269414 0.3110299421519496 0.9871816252867205 0 0 0 0.2 21 353 60 157 92 120 
1419 0.20942564861842822 0.3140233396312988 0.9944343088150529 0 0 0 0.1 21 354 60 158 110 150 113 174 
1420 0.10057762762484992 0.2544514837591674 0.8002386239847723 0 0 0 0.33 21 355 126 100 229 774 
1421 0.2006497418090543 0.31826291099460713 0.998275568158469 0 0 0 0.22 21 356 27 146 96 106 209 145 224 276 227 22 
1422 0.08815279264091055 0.23815053731430774 0.7437414212617914 0 0 0 0.13 21 357 224 277 229 775 
1423 0.0896833359505334 0.23974129672748162 0.7444298998579989 0 0 0 0.14 21 358 224 278 229 776 
1424 0.0717504836648839 0.23018940449188233 0.7050607896346043 0 0 0 0.41 21 359 224 279 229 777 
1425 0.2708028712064551 0.3161631873252226 0.9625424055273455 0 0 0 0.18 21 360 33 244 44 248 50 154 61 64 157 95 60 159 77 335 118 100 146 146 148 381 162 95 164 288 176 100 213 152 
1426 0.1680235942422727 0.33087217205819086 1.0061083854781256 0 0 0 0.46 21 361 27 147 50 155 77 336 111 122 118 101 164 289 221 33 224 280 232 63 209 146 
1427 0.18931605464475276 0.3304387330581019 0.9971958151800429 0 0 0 0.4 21 362 27 148 50 156 71 139 77 337 111 123 118 102 146 147 148 382 224 281 43 53 209 147 220 70 
1428 0.2109780499689108 0.3322667898436798 0.987887410447726 0 0 0 0.41 21 363 32 36 33 245 50 157 60 160 61 65 113 175 157 96 162 96 209 148 
1429 0.1689701310920798 0.3375595709694395 1.001851918904175 0 0 0 0.39 21 364 27 149 44 249 77 338 148 383 196 265 
1430 0.21411397373075153 0.3321480938755302 0.9838234332139146 0 0 0 0.29 21 365 25 126 26 214 44 250 60 161 71 140 73 114 92 121 110 151 111 124 113 176 148 384 159 208 162 97 164 290 221 34 224 282 1 45 50 158 81 22 176 101 209 149 227 23 
1431 0.23672729750946772 0.3304608933285045 0.9772424905523726 0 0 0 0.47 21 366 32 37 33 246 44 251 92 122 111 125 220 71 224 283 
1432 0.20425547072980102 0.33454365068719616 0.9913452475860699 0 0 0 0.43 21 367 25 127 50 159 52 380 111 126 146 148 148 385 157 97 162 98 172 63 61 66 118 103 209 150 227 24 
1433 0.2740574013440167 0.3244831434170714 0.9575760379418077 0 0 0 0.44 21 368 52 381 162 99 224 284 
1434 0.18946538212025957 0.3372686551344765 0.9945872211174175 0 0 0 0.19 21 369 43 54 232 64 
1435 0.19358585398489775 0.33857192099879074 0.9926399908684562 0 0 0 0.55 21 370 33 247 61 67 77 339 92 123 148 386 164 291 196 266 213 153 
1436 0.18719880395725955 0.3410926421799097 0.9952815138646622 0 0 0 0.24 21 371 114 24 162 100 224 285 60 162 111 127 113 177 148 387 209 151 172 64 227 25 
1437 0.2165959335736249 0.33659580467154604 0.9806280010156098 0 0 0 0.48 21 372 33 248 50 160 73 115 85 367 113 178 162 101 164 292 224 286 209 152 
1438 0.19558209470594018 0.3422699037551927 0.9900502039958304 0 0 0 0.24 21 373 44 252 196 267 224 287 
1439 0.25926185327906504 0.33400871689631856 0.9549722700821246 0 0 0 0.3 21 374 44 253 77 340 162 102 
1440 0.24578110821561 0.3403981246086933 0.9659040835171161 0 0 0 0.62 21 375 33 249 44 254 111 128 164 293 
1441 0.26682773909531665 0.3363747922483614 0.9557809811074199 0 0 0 0.35 21 376 44 255 52 382 110 152 148 388 164 294 
1442 0.24356676015406964 0.34104284151757475 0.9655780866085049 0 0 0 0.43 21 377 44 256 50 161 61 68 77 341 110 153 111 129 146 149 164 295 176 102 
1443 0.2592419275155571 0.32834750435831345 0.928594255761424 0 0 0 0.31 21 378 33 250 44 257 162 103 
1444 0.18714883382884157 0.35243447046581566 0.9905222427788891 0 0 0 0.23 21 379 44 258 60 163 73 116 111 130 164 296 209 153 217 10 
1445 0.16972448047649225 0.36257184084852834 0.9992707980937622 0 0 0 0.39 21 380 148 389 164 297 
1446 0.17404060823768075 0.3649137091348666 0.9953316490331472 0 0 0 0.4 21 381 44 259 50 162 60 164 164 298 196 268 
1447 0.19169086542432007 0.36348811457614005 0.982392341269308 0 0 0 0.3 21 382 44 260 162 104 164 299 209 154 220 72 
1448 0.19524256271835344 0.369095405975479 0.9819196589690983 0 0 0 0.45 21 383 44 261 92 124 196 269 
1449 0.07474849441910326 0.09097549550876145 0.8133082525640815 0 0 0 0.65 21 384 73 117 142 724 229 778 
1450 0.07354662333030573 0.0924462274985483 0.8053249089733475 0 0 0 0.45 21 385 63 142 142 725 
1451 0.11432192858439369 0.13454527722895027 0.9192901151098117 0 0 0 0.44 21 386 26 215 96 107 148 390 159 209 221 35 
1452 0.2885886881793436 0.16707681166938254 1.0156883804253913 0 0 0 0.33 21 387 67 14 126 101 
1453 0.22433786984035353 0.16092065743319894 1.0467655549803103 0 0 0 0.24 21 388 146 150 148 391 164 300 
1454 0.09365026096376931 0.13282505518034485 0.8552631297739279 0 0 0 0.19 21 389 63 143 142 726 
1455 0.29770450993962505 0.18204686996266198 1.010406944763085 0 0 0 0.45 21 390 77 342 103 91 
1456 0.2283384085777425 0.18312129716345538 1.0390609616524145 0 0 0 0.31 21 391 25 128 33 251 44 262 50 163 77 343 126 102 128 71 146 151 148 392 162 105 176 103 224 288 
1457 0.2251306487091091 0.18317220597865963 1.0390345694858416 0 0 0 0.27 21 392 27 150 33 252 44 263 50 164 77 344 111 131 113 179 146 152 148 393 162 106 164 301 196 270 221 36 224 289 
1458 0.2899142845514005 0.18974912140190436 1.0013917340743221 0 0 0 0.27 21 393 52 383 111 132 179 40 
1459 0.20977037671746684 0.1948893560801403 1.04422723320194 0 0 0 0.12 21 394 43 55 60 165 113 180 
1460 0.18483082910591764 0.1980847956084677 1.0520529626028623 0 0 0 0.42 21 395 113 181 162 107 164 302 
1461 0.260476451898454 0.2123231948305068 1.0107640251165098 0 0 0 0.23 21 396 44 264 162 108 
1462 0.23867840313641916 0.21467605380658802 1.0203316951970174 0 0 0 0.33 21 397 52 384 77 345 85 368 92 125 96 108 110 154 113 182 126 103 146 153 148 394 159 210 164 303 172 65 176 104 
1463 0.1948674524853152 0.21540383592366755 1.0406608094891614 0 0 0 0.16 21 398 113 183 148 395 172 66 
1464 0.1075935883186509 0.1841725154103078 0.87153077715198 0 0 0 0.24 21 399 126 104 229 779 
1465 0.16786977243589435 0.2197727774895773 1.057618584632111 0 0 0 0.31 21 400 43 56 50 165 96 109 111 133 164 304 176 105 219 29 114 25 209 155 227 26 
1466 0.2480310531145995 0.2270758553732581 1.013793649853883 0 0 0 0.22 21 401 44 265 77 346 111 134 148 396 146 154 209 156 
1467 0.144725785559109 0.22673947923798426 1.062810797020876 0 0 0 0.36 21 402 26 216 60 166 73 118 77 347 148 397 164 305 224 290 
1468 0.13556331398113153 0.23149627483938187 1.0674430241207506 0 0 0 0.32 21 403 77 348 148 398 164 306 
1469 0.15167951535139118 0.23189426290618664 1.0589470505461287 0 0 0 0.2 21 404 25 129 44 266 60 167 77 349 148 399 71 141 111 135 126 105 209 157 
1470 0.2459617824984287 0.2358381127857713 1.0113251614215675 0 0 0 0.19 21 405 26 217 33 253 146 155 148 400 158 40 162 109 164 307 224 291 50 166 77 350 128 72 209 158 
1471 0.2842510097591848 0.24075053425047283 0.9894213146034937 0 0 0 0.23 21 406 27 151 38 175 53 80 61 69 85 369 111 136 113 184 148 401 159 211 164 308 176 106 232 65 
1472 0.27712124790753495 0.24217162679258727 0.9928967253362206 0 0 0 0.31 21 407 61 70 110 155 128 73 
1473 0.0850278213181183 0.18366172623193192 0.7675254273088695 0 0 0 0.19 21 408 142 727 224 292 
1474 0.18601370766239975 0.24347905161372582 1.034554337752937 0 0 0 0.09 21 409 52 385 113 185 
1475 0.2025164834327769 0.24962263994803585 1.0303550406292883 0 0 0 0.22 21 410 111 137 157 98 
1476 0.2909754962067911 0.2469231293778832 0.9812167062420436 0 0 0 0.31 21 411 38 176 103 92 110 156 172 67 220 73 
1477 0.17948603256820564 0.2589117241049007 1.0379058202512708 0 0 0 0.59 21 412 92 126 127 86 148 402 164 309 
1478 0.13362867909678708 0.23383781050479355 0.924449633898905 0 0 0 0.34 21 413 142 728 148 403 164 310 
1479 0.15160331462302634 0.26095846770197395 1.0483809081728461 0 0 0 0.25 21 414 77 351 148 404 164 311 224 293 
1480 0.17998256912743987 0.2625448729959563 1.0348273501552003 0 0 0 0.42 21 415 92 127 111 138 164 312 
1481 0.13535297258573223 0.236060697766627 0.9269569891770199 0 0 0 0.34 21 416 110 157 148 405 164 313 
1482 0.18094712845225694 0.2663537395369923 1.0307316010748555 0 0 0 0.36 21 417 44 267 157 99 
1483 0.211778810454163 0.2654856851331147 1.0156322541667586 0 0 0 0.17 21 418 44 268 71 142 113 186 148 406 
1484 0.18302592242837623 0.27507985715578587 1.027730466629468 0 0 0 0.34 21 419 77 352 126 106 148 407 162 110 164 314 
1485 0.1339492177109536 0.24799129151888838 0.919452881143516 0 0 0 0.21 21 420 126 107 142 729 148 408 159 212 
1486 0.18763191038514324 0.27670314015068515 1.0213095576254887 0 0 0 0.44 21 421 26 218 43 57 44 269 60 168 71 143 73 119 77 353 114 26 148 409 164 315 172 68 224 294 
1487 0.1909246473798859 0.284592950409237 1.0164168348840636 0 0 0 0.42 21 422 73 120 114 27 126 108 148 410 221 37 50 167 157 100 209 159 
1488 0.18469176697025413 0.28634124167013675 1.018351566469026 0 0 0 0.15 21 423 114 28 172 69 
1489 0.07841176864189198 0.21431510709446844 0.7409106395595939 0 0 0 0.25 21 424 142 730 229 780 
1490 0.1494234782384719 0.3029175081125183 1.0285296574443747 0 0 0 0.58 21 425 44 270 52 386 60 169 164 316 
1491 0.27059795465405123 0.2919649379518558 0.9722366259603543 0 0 0 0.26 21 426 52 387 127 87 
1492 0.23251074929344273 0.2981928505366837 0.9917936647713095 0 0 0 0.21 21 427 111 139 172 70 50 168 61 71 158 41 204 18 209 160 217 11 
1493 0.21455836237595505 0.30053583215761565 0.9954238716175512 0 0 0 0.19 21 428 50 169 114 29 
1494 0.10812672578686851 0.25021219426047303 0.8239266834923706 0 0 0 0.59 21 429 142 731 224 295 
1495 0.2483338365151165 0.30119366271328735 0.9803451781255552 0 0 0 0.11 21 430 162 111 172 71 
1496 0.2461824475624254 0.30252801799163037 0.9790327549351149 0 0 0 0.24 21 431 52 388 111 140 114 30 209 161 227 27 
1497 0.2753222833945679 0.30121704763475543 0.9672639768360396 0 0 0 0.04 21 432 111 141 162 112 
1498 0.07127678313129854 0.22193829202595264 0.7090698417487669 0 0 0 0.22 21 433 142 732 229 781 
1499 0.13549430761524428 0.2863981956017009 0.9058409228095226 0 0 0 0.16 21 434 164 317 224 296 
1500 0.1413029601073365 0.29244498777445843 0.9133768871086219 0 0 0 0.44 21 435 77 354 110 158 142 733 159 213 196 271 
1501 0.13415799170792211 0.2924179203258163 0.9092314735302222 0 0 0 0.21 21 436 148 411 164 318 
1502 0.21623357788607594 0.31996370435883237 0.9877905807673288 0 0 0 0.3 21 437 26 219 44 271 50 170 60 170 61 72 77 355 85 370 110 159 111 142 157 101 164 319 176 107 224 297 
1503 0.07068335217757958 0.23123291121873618 0.7035718868024007 0 0 0 0.32 21 438 73 121 229 782 209 162 224 298 
1504 0.07098213474565164 0.23523509406832394 0.7017996738778584 0 0 0 0.43 21 439 73 122 224 299 229 783 
1505 0.2322512123259715 0.3279308566800324 0.9793257316388025 0 0 0 0.25 21 440 96 110 162 113 164 320 176 108 224 300 
1506 0.22818582369938742 0.32914162224639565 0.9808874224886105 0 0 0 0.38 21 441 52 389 111 143 162 114 196 272 224 301 146 156 209 163 
1507 0.2168698890899595 0.33198012495326246 0.9821076795623394 0 0 0 0.37 21 442 44 272 50 171 148 412 164 321 
1508 0.2391319653642979 0.3309432402151244 0.9720190711060975 0 0 0 0.37 21 443 25 130 26 220 33 254 44 273 60 171 71 144 92 128 113 187 146 157 148 413 162 115 164 322 220 74 224 302 81 23 176 109 209 164 
1509 0.20432696247378565 0.33917080459869925 0.9905343840458293 0 0 0 0.36 21 444 44 274 52 390 71 145 77 356 118 104 146 158 148 414 162 116 172 72 232 66 
1510 0.21117738645541848 0.3405957651653797 0.9838771161658416 0 0 0 0.5 21 445 33 255 50 172 60 172 73 123 77 357 81 24 111 144 148 415 162 117 164 323 176 110 224 303 92 129 204 19 209 165 217 12 220 75 
1511 0.09009646611193925 0.25458479214155044 0.7311771371736754 0 0 0 0.28 21 446 63 144 142 734 224 304 
1512 0.26381483279710466 0.3339102009315107 0.958298441132737 0 0 0 0.32 21 447 44 275 172 73 220 76 224 305 
1513 0.12393859088641311 0.3001753110232013 0.8514721342621814 0 0 0 0.32 21 448 142 735 229 784 
1514 0.14244387543558978 0.3208551737024619 0.9020811963119634 0 0 0 0.3 21 449 142 736 148 416 164 324 
1515 0.18934954279973557 0.353904434298411 0.9876135497124523 0 0 0 0.4 21 450 60 173 73 124 111 145 164 325 224 306 162 118 209 166 
1516 0.17572518646788923 0.3580040181137807 0.995778469107502 0 0 0 0.14 21 451 60 174 164 326 
1517 0.16730036681544191 0.3600458522010931 0.9990657245958211 0 0 0 0.35 21 452 111 146 148 417 164 327 196 273 224 307 
1518 0.24769894919642388 0.3600926030149487 0.9653328733996359 0 0 0 0.44 21 453 44 276 77 358 92 130 
1519 0.019647599722407455 0.04688589288307839 0.6674094568974143 0 0 0 1.0 21 454 224 308 229 785 73 125 
1520 0.050022295364212 0.06957476520068707 0.7427873861608394 0 0 0 0.16 21 455 63 145 73 126 
1521 0.044449084516998125 0.07697761849926549 0.7202111465380308 0 0 0 0.38 21 456 73 127 96 111 
1522 0.11716929943771613 0.13498262672342418 0.9296756105871553 0 0 0 0.36 21 457 26 221 71 146 73 128 142 737 148 418 221 38 224 309 
1523 0.296422659405299 0.16933865254104166 1.0119475763833001 0 0 0 0.34 21 458 71 147 103 93 
1524 0.2264988051989057 0.17983328619836023 1.0403249720701784 0 0 0 0.21 21 459 44 277 127 88 
1525 0.09177762960807216 0.16275295455998842 0.8309632389719622 0 0 0 0.26 21 460 63 146 142 738 
1526 0.09775762798867162 0.17653833159856128 0.841826687138807 0 0 0 0.22 21 461 73 129 142 739 221 39 
1527 0.23258427194062983 0.2195936224589122 1.0216768584563525 0 0 0 0.45 21 462 60 175 146 159 114 31 179 41 209 167 
1528 0.11086092881494065 0.18894064824524798 0.8783934208151496 0 0 0 0.15 21 463 142 740 196 274 
1529 0.13845197869249842 0.22228937660365408 1.071371841436721 0 0 0 0.3 21 464 92 131 148 419 159 214 164 328 
1530 0.13422151778719268 0.21266668524661628 0.937345395441731 0 0 0 0.52 21 465 26 222 110 160 164 329 
1531 0.18462087215579148 0.2361539181156015 1.0393312889148463 0 0 0 0.38 21 466 50 173 60 176 67 15 81 25 111 147 113 188 118 105 127 89 146 160 157 102 162 119 164 330 172 74 176 111 179 42 181 11 213 154 221 40 232 67 52 391 92 132 65 35 103 94 209 168 
1532 0.16702306757936303 0.24230695449805204 1.0481174855822208 0 0 0 0.25 21 467 43 58 81 26 88 52 92 133 96 112 103 95 113 189 
1533 0.2920370239422491 0.24292227923495288 0.9834683480561901 0 0 0 0.49 21 468 52 392 63 147 126 109 159 215 162 120 38 177 61 73 146 161 157 103 158 42 172 75 221 41 232 68 
1534 0.11253552027010405 0.21064280733340981 0.8688550359168342 0 0 0 0.47 21 469 142 741 196 275 224 310 
1535 0.21087775843376463 0.25255250383250977 1.0202890314430166 0 0 0 0.38 21 470 26 223 27 152 33 256 50 174 60 177 61 74 111 148 113 190 114 32 157 104 162 121 164 331 172 76 1 46 96 113 176 112 204 20 209 169 213 155 232 69 
1536 0.23985278635517793 0.2589329855968382 1.0033278197792967 0 0 0 0.23 21 471 26 224 33 257 71 148 77 359 85 371 111 149 162 122 
1537 0.20524187796983764 0.26702931341735453 1.0189937832523819 0 0 0 0.17 21 472 71 149 110 161 221 42 
1538 0.19992775377849667 0.26859586861065304 1.0209733557209975 0 0 0 0.19 21 473 25 131 26 225 27 153 33 258 50 175 73 130 77 360 96 114 128 74 146 162 148 420 158 43 159 216 162 123 164 332 179 43 196 276 213 156 221 43 224 311 209 170 217 13 
1539 0.05113330111365281 0.18544460485104827 0.6713743812547539 0 0 0 0.2 21 474 73 131 229 786 
1540 0.15857822573068753 0.29118864184487697 1.027051426021155 0 0 0 0.38 21 475 52 393 60 178 224 312 50 176 76 8 96 115 103 96 111 150 209 171 
1541 0.19172292288945184 0.2943035599617358 1.0119088256888265 0 0 0 0.43 21 476 44 278 73 132 96 116 162 124 164 333 176 113 1 47 50 177 61 75 146 163 157 105 172 77 209 172 219 30 227 28 
1542 0.268972286821614 0.2874049005997767 0.9717694022461326 0 0 0 0.15 21 477 114 33 162 125 
1543 0.19860476444543346 0.3118192989300944 1.002533849710932 0 0 0 0.79 21 478 27 154 33 259 73 133 96 117 114 34 146 164 162 126 111 151 209 173 
1544 0.11557996224048693 0.2722108562250989 0.84337200210597 0 0 0 0.23 21 479 142 742 224 313 
1545 0.12175910340073859 0.27906612698374195 0.8607077257971099 0 0 0 0.55 21 480 159 217 224 314 73 134 
1546 0.1343344342449508 0.2923645447511149 0.8930612729981435 0 0 0 0.27 21 481 142 743 159 218 196 277 
1547 0.1513552531030434 0.3335205641484188 1.015299654753165 0 0 0 0.16 21 482 27 155 148 421 164 334 224 315 
1548 0.07263075636218336 0.23335369139281237 0.7039066283995343 0 0 0 0.28 21 483 73 135 142 744 229 787 
1549 0.2616284801532748 0.3212394551861065 0.9668066941873167 0 0 0 0.34 21 484 33 260 71 150 111 152 158 44 190 12 209 174 
1550 0.23601245856798894 0.3348570901226187 0.9745462406264191 0 0 0 0.23 21 485 25 132 26 226 33 261 44 279 60 179 71 151 77 361 111 153 113 191 126 110 148 422 162 127 164 335 213 157 224 316 1 48 50 178 96 118 157 106 176 114 209 175 217 14 232 70 
1551 0.277941382258489 0.3300159101651137 0.9529182648156337 0 0 0 0.23 21 486 111 154 162 128 
1552 0.21431440730994206 0.34197136135252226 0.9794611980688844 0 0 0 0.13 21 487 111 155 162 129 
1553 0.09955005318107725 0.27356153962883184 0.7823168374663805 0 0 0 0.38 21 488 142 745 229 788 
1554 0.26463398136830857 0.3358266252558667 0.9548786664096105 0 0 0 0.39 21 489 33 262 44 280 
1555 0.21800830266200358 0.34972667462784446 0.9750898850837496 0 0 0 0.13 21 490 50 179 111 156 162 130 
1556 0.2281918856121019 0.36235811586073874 0.9621363715378951 0 0 0 0.26 21 491 77 362 162 131 
1557 0.06745962908076623 0.13911743977504873 0.7602547314329107 0 0 0 0.46 21 492 142 746 229 789 
1558 0.06345368692521669 0.13942839408580918 0.7441553894249006 0 0 0 0.42 21 493 26 227 73 136 199 48 229 790 
1559 0.22070374009211619 0.1936168190886847 1.0411090461216566 0 0 0 0.46 21 494 44 281 73 137 96 119 103 97 114 35 127 90 148 423 162 132 164 336 196 278 50 180 71 152 81 27 209 176 227 29 
1560 0.2834842335792217 0.20736690568442814 0.9994649163815449 0 0 0 0.52 21 495 44 282 176 115 232 71 
1561 0.16331511147275324 0.20601019130222664 1.0637854457506595 0 0 0 0.35 21 496 27 156 43 59 71 153 88 53 113 192 25 133 50 181 60 180 73 138 111 157 128 75 164 337 179 44 209 177 
1562 0.25518878203489065 0.2093032371536299 1.0118108627985778 0 0 0 0.42 21 497 71 154 103 98 111 158 114 36 146 165 159 219 164 338 
1563 0.16806281737286485 0.21009647020869532 1.0624123071938796 0 0 0 0.29 21 498 27 157 36 20 113 193 114 37 221 44 232 72 50 182 53 81 65 36 71 155 73 139 81 28 111 159 118 106 128 76 146 166 172 78 176 116 179 45 209 178 219 31 103 99 
1564 0.05452566916172949 0.15100574991354454 0.704547844561164 0 0 0 0.22 21 499 26 228 73 140 224 317 
1565 0.2257284521027819 0.21714990949210197 1.0252679093915429 0 0 0 0.58 21 500 52 394 81 29 96 120 113 194 148 424 162 133 219 32 60 181 73 141 114 38 158 45 204 21 209 179 
1566 0.05661008991175177 0.1529943153262269 0.7102198735963202 0 0 0 0.26 21 501 26 229 73 142 199 49 
1567 0.09058181068686734 0.17386991293799386 0.8215209859933654 0 0 0 0.47 21 502 63 148 142 747 229 791 
1568 0.20143524743597738 0.22182394282715953 1.0359581648869747 0 0 0 0.22 21 503 26 230 27 158 60 182 71 156 88 54 96 121 103 100 110 162 111 160 113 195 114 39 118 107 126 111 146 167 162 134 164 339 172 79 221 45 
1569 0.16887551561728875 0.22366974850458624 1.0531606182208764 0 0 0 0.33 21 504 52 395 88 55 96 122 164 340 
1570 0.1335543988103003 0.22678644544258078 1.0738870971360652 0 0 0 0.17 21 505 44 283 77 363 92 134 
1571 0.17161621262910903 0.22765977220080902 1.0517779155834317 0 0 0 0.47 21 506 52 396 53 82 71 157 81 30 96 123 111 161 113 196 118 108 146 168 164 341 221 46 232 73 1 49 50 183 65 37 103 101 128 77 157 107 172 80 176 117 179 46 190 13 209 180 219 33 227 30 
1572 0.2355058404959595 0.2453808010727578 1.0117041422709452 0 0 0 0.44 21 507 26 231 50 184 81 31 88 56 114 40 118 109 126 112 164 342 172 81 224 318 232 74 
1573 0.2402465602069704 0.2535151208016788 1.0045063578053004 0 0 0 0.33 21 508 26 232 44 284 53 83 60 183 61 76 71 158 81 32 88 57 96 124 111 162 118 110 146 169 157 108 158 46 159 220 172 82 176 118 179 47 219 34 221 47 232 75 
1574 0.16702788418602035 0.26205172269898136 1.039362711708121 0 0 0 0.29 21 509 26 233 71 159 148 425 50 185 113 197 114 41 209 181 
1575 0.09228472009513096 0.20825161765543415 0.8063878174482061 0 0 0 0.45 21 510 26 234 229 792 
1576 0.21129586791601257 0.2715377011759969 1.0155889935796454 0 0 0 0.09 21 511 44 285 164 343 199 50 
1577 0.2122196502399524 0.2777398121988284 1.009530525130062 0 0 0 0.23 21 512 219 35 224 319 
1578 0.1397767942685382 0.2607236069107716 0.9321129603857852 0 0 0 0.43 21 513 26 235 148 426 164 344 142 748 159 221 
1579 0.040456905558735316 0.1826355546220295 0.6375696989528972 0 0 0 0.18 21 514 73 143 199 51 
1580 0.09755889353641851 0.23422659832202325 0.8075225451358342 0 0 0 0.26 21 515 63 149 142 749 
1581 0.15423664416914115 0.30509794657735695 1.0263733310695542 0 0 0 0.36 21 516 26 236 73 144 88 58 199 52 
1582 0.22254116434517277 0.2988917549995338 0.993544782979562 0 0 0 0.44 21 517 27 159 33 263 50 186 73 145 77 364 111 163 118 111 127 91 1 50 172 83 209 182 217 15 227 31 
1583 0.07500572457335267 0.22066038001536425 0.7254759384165015 0 0 0 0.22 21 518 142 750 229 793 
1584 0.19799215823011854 0.3048399060348585 1.0050645397366569 0 0 0 0.35 21 519 73 146 172 84 232 76 
1585 0.09565138155932752 0.24152259249863142 0.7917187285140789 0 0 0 0.47 21 520 142 751 229 794 
1586 0.27331423729920606 0.30534880021135813 0.9662384287497741 0 0 0 0.51 21 521 60 184 114 42 172 85 
1587 0.22997176938828295 0.31125253725849394 0.9868531861471149 0 0 0 0.39 21 522 111 164 162 135 172 86 209 183 227 32 
1588 0.10198065172495972 0.25534489880379285 0.8048447646929375 0 0 0 0.12 21 523 26 237 71 160 
1589 0.09868542184706484 0.2572792687821521 0.7975797358756895 0 0 0 0.43 21 524 26 238 63 150 126 113 142 752 
1590 0.10097840024661117 0.26205766252696305 0.8004640199469363 0 0 0 0.24 21 525 26 239 63 151 142 753 
1591 0.13204884651810084 0.29202078027152667 0.8883164039000249 0 0 0 0.16 21 526 142 754 199 53 
1592 0.04248573389582799 0.06736011004363072 0.7185725203799752 0 0 0 0.15 21 527 73 147 96 125 199 54 
1593 0.04750826684458781 0.11759010231109317 0.701258047087572 0 0 0 0.44 21 528 26 240 199 55 229 795 
1594 0.051811251245162816 0.12195221535073332 0.7158787243472239 0 0 0 0.51 21 529 26 241 63 152 73 148 199 56 224 320 
1595 0.056328310008497064 0.12672454445244616 0.7261861054555054 0 0 0 0.34 21 530 63 153 73 149 
1596 0.2752391348275653 0.20500210442109496 1.0056493838902834 0 0 0 0.18 21 531 44 286 53 84 77 365 96 126 111 165 162 136 128 78 209 184 213 158 
1597 0.11814919591969895 0.17952625602573674 0.9030621818705188 0 0 0 0.69 21 532 126 114 148 427 196 279 224 321 
1598 0.27255904545893345 0.21045012272507724 1.0044054817180084 0 0 0 0.4 21 533 53 85 111 166 162 137 164 345 219 36 
1599 0.2474827955778666 0.21664355508563846 1.0174890262096625 0 0 0 0.33 21 534 27 160 88 59 114 43 126 115 162 138 71 161 81 33 110 163 209 185 227 33 
1600 0.23078941467001096 0.22027669501494296 1.022796755662116 0 0 0 0.35 21 535 26 242 52 397 148 428 164 346 
1601 0.15885516655162069 0.2196772146079549 1.060776053451394 0 0 0 0.36 21 536 43 60 44 287 
1602 0.22271199909673875 0.2222674824666298 1.0269636170087544 0 0 0 0.31 21 537 60 185 81 34 88 60 114 44 148 429 146 170 158 47 179 48 209 186 213 159 219 37 227 34 
1603 0.20548025187107138 0.22621714746693258 1.0343417170251112 0 0 0 0.35 21 538 88 61 111 167 164 347 114 45 176 119 198 30 209 187 217 16 224 322 
1604 0.19758520548239678 0.2277958075515682 1.036388483303517 0 0 0 0.39 21 539 88 62 114 46 73 150 103 102 111 168 118 112 128 79 158 48 162 139 164 348 204 22 209 188 213 160 219 38 
1605 0.15453652693231848 0.22935926953931365 1.0568468912132396 0 0 0 0.57 21 540 25 134 26 243 44 288 60 186 73 151 77 366 88 63 92 135 111 169 148 430 164 349 71 162 76 9 81 35 209 189 
1606 0.08644124028453287 0.18388363589023793 0.802884200463773 0 0 0 0.37 21 541 142 755 224 323 
1607 0.0782630748727262 0.17911103166845632 0.7601375929765236 0 0 0 0.34 21 542 142 756 229 796 
1608 0.17246927149526073 0.25075400932141284 1.0394103677657298 0 0 0 0.45 21 543 26 244 43 61 60 187 71 163 96 127 111 170 148 431 221 48 224 324 77 367 126 116 25 135 50 187 53 86 73 152 76 10 81 36 92 136 113 198 118 113 164 350 176 120 196 280 198 31 199 57 209 190 219 39 220 77 232 77 
1609 0.07237523172952613 0.19380229830739096 0.7448134356990879 0 0 0 0.42 21 544 63 154 142 757 199 58 111 171 209 191 
1610 0.16768469618330323 0.268767906348713 1.0355724154425638 0 0 0 0.21 21 545 26 245 81 37 88 64 110 164 113 199 148 432 60 188 
1611 0.047296884334173714 0.18889442242971835 0.6527497636553237 0 0 0 0.14 21 546 199 59 229 797 
1612 0.10645160371745258 0.24636314659323463 0.8258635670196118 0 0 0 0.23 21 547 142 758 229 798 
1613 0.09127496832309588 0.22371384487236173 0.7369319264346277 0 0 0 0.2 21 548 142 759 224 325 
1614 0.13806120580179962 0.27530665630861323 0.913043136280893 0 0 0 0.58 21 549 88 65 110 165 148 433 224 326 76 11 209 192 
1615 0.14531622670587452 0.28987249228575107 0.9258583172040464 0 0 0 0.18 21 550 26 246 71 164 73 153 181 12 
1616 0.17234216700407773 0.3404337699577585 1.0035686180556196 0 0 0 0.71 21 551 27 161 77 368 148 434 224 327 
1617 0.06909336690404183 0.23870627091818528 0.6981598782972694 0 0 0 0.33 21 552 26 247 73 154 
1618 0.22975525268983593 0.3399166650287146 0.9741365361710644 0 0 0 0.62 21 553 44 289 103 103 111 172 176 121 209 193 157 109 
1619 0.18780086831424034 0.3628738812574882 0.9903788098040397 0 0 0 0.34 21 554 44 290 164 351 
1620 0.21650518915778227 0.18788412352276254 1.0455232355322492 0 0 0 0.42 21 555 32 38 92 137 
1621 0.1207855995889856 0.17222520372962125 0.9159672462228062 0 0 0 0.81 21 556 142 760 148 435 224 328 
1622 0.0939672359154384 0.16166859429186153 0.8404053784079178 0 0 0 0.42 21 557 142 761 229 799 
1623 0.04503725174493584 0.14193837322902197 0.6838463195798489 0 0 0 0.63 21 558 73 155 199 60 221 49 229 800 
1624 0.06333435724336492 0.15978653560017164 0.7329459581204115 0 0 0 0.45 21 559 73 156 88 66 199 61 
1625 0.10507757308009205 0.1861444046206022 0.8625419515506472 0 0 0 0.62 21 560 26 248 73 157 142 762 199 62 
1626 0.10865400374795257 0.19446291313836442 0.8669282006300095 0 0 0 0.41 21 561 26 249 73 158 126 117 142 763 199 63 
1627 0.12407210126495308 0.2041278408192694 0.9157372237070276 0 0 0 0.36 21 562 181 13 199 64 
1628 0.13047293485198752 0.21112234347689152 0.9310393652936743 0 0 0 0.24 21 563 26 250 181 14 73 159 199 65 
1629 0.06723203213789065 0.17206690676278424 0.7349876229544544 0 0 0 0.31 21 564 199 66 229 801 
1630 0.14641310719807205 0.24030914131257214 1.058171090862378 0 0 0 0.33 21 565 52 398 148 436 
1631 0.13080040914318003 0.22166601368641858 0.9277962859539217 0 0 0 0.49 21 566 126 118 148 437 224 329 
1632 0.13186041002971566 0.22916982467733843 0.9219609778470599 0 0 0 0.44 21 567 142 764 224 330 
1633 0.13804253803115302 0.23644426112487768 0.9454204893653538 0 0 0 0.29 21 568 26 251 164 352 181 15 
1634 0.10627582591218541 0.21674622457563963 0.8491745448047916 0 0 0 0.25 21 569 126 119 199 67 
1635 0.11017598813019959 0.2234365477393569 0.854147463431517 0 0 0 0.2 21 570 26 252 126 120 142 765 181 16 
1636 0.12644435585189637 0.2397762633465775 0.9006469084421961 0 0 0 0.39 21 571 73 160 181 17 199 68 
1637 0.14220510268287406 0.2496721921995434 0.926802947857563 0 0 0 0.6 21 572 148 438 224 331 
1638 0.1113838551308281 0.24295830179563255 0.847173582688279 0 0 0 0.44 21 573 26 253 73 161 142 766 181 18 199 69 126 121 76 12 209 194 
1639 0.1333863568797982 0.2625156092523382 0.9104906891464496 0 0 0 0.41 21 574 26 254 148 439 181 19 199 70 
1640 0.13804095734082977 0.26716330121163306 0.9160740526880293 0 0 0 0.17 21 575 159 222 224 332 
1641 0.13978338719418226 0.27584037798275834 0.9284784253517739 0 0 0 0.29 21 576 148 440 164 353 
1642 0.12965936182427168 0.270705628486596 0.883563117698292 0 0 0 0.45 21 577 142 767 159 223 196 281 
1643 0.06839847785719401 0.22358701959880609 0.7033299911712697 0 0 0 0.07 21 578 73 162 199 71 
1644 0.13583077968052265 0.29499750805909114 0.8951548758323584 0 0 0 0.34 21 579 142 768 148 441 
1645 0.25227294558171454 0.3262340468250351 0.9700505801538254 0 0 0 0.57 21 580 60 189 77 369 88 67 111 173 146 171 158 49 162 140 172 87 232 78 81 38 96 128 157 110 44 291 209 195 217 17 
1646 0.1362829494251598 0.3055070547833076 0.8914482435739134 0 0 0 0.35 21 581 142 769 148 442 
1647 0.07263562123184027 0.11988571717275147 0.780450278375345 0 0 0 0.5 21 582 224 333 229 802 
1648 0.0321164535747634 0.10704747077889593 0.6684297993358045 0 0 0 0.33 21 583 73 163 199 72 
1649 0.09002232133576904 0.1401795041492326 0.8176693442949305 0 0 0 0.46 21 584 63 155 142 770 
1650 0.23708065559604774 0.19001623344942217 1.0333827045690636 0 0 0 0.53 21 585 60 190 103 104 172 88 81 39 111 174 179 49 209 196 
1651 0.21522263073080936 0.19327482077631233 1.0406273957131769 0 0 0 0.35 21 586 60 191 162 141 172 89 209 197 
1652 0.0926476341871661 0.15586976466557248 0.8271460643919556 0 0 0 0.58 21 587 26 255 63 156 73 164 199 73 
1653 0.10155904091685265 0.16845536298579353 0.8561562367838392 0 0 0 0.17 21 588 26 256 142 771 
1654 0.09210038443861931 0.16587662324701966 0.8331322776302515 0 0 0 0.19 21 589 142 772 229 803 
1655 0.10791250073638503 0.17497693226464744 0.8723807983613006 0 0 0 0.46 21 590 26 257 126 122 142 773 
1656 0.09697930485064551 0.17176388626700603 0.8484728876850947 0 0 0 0.47 21 591 26 258 142 774 199 74 229 804 
1657 0.1112938539349112 0.1909702959599491 0.882062987453589 0 0 0 0.51 21 592 26 259 126 123 142 775 229 805 
1658 0.0926584286003285 0.1824679558022917 0.8262861590959328 0 0 0 0.35 21 593 142 776 229 806 
1659 0.10049678143598248 0.20196399817140032 0.8349949261426053 0 0 0 0.18 21 594 26 260 73 165 142 777 199 75 
1660 0.11425324754837453 0.2267777685606165 0.8644753980858386 0 0 0 0.7 21 595 26 261 71 165 73 166 126 124 224 334 199 76 
1661 0.10604727374360763 0.2300247319304732 0.8346170714105197 0 0 0 0.38 21 596 26 262 71 166 73 167 126 125 142 778 224 335 
1662 0.11435691838146875 0.2421119791244426 0.8604781651818896 0 0 0 0.47 21 597 26 263 73 168 181 20 199 77 71 167 81 40 198 32 209 198 
1663 0.10907129950790403 0.2475121174059039 0.8358067803307158 0 0 0 0.5 21 598 26 264 142 779 
1664 0.15910336263920388 0.3045930427433487 1.0241946278987015 0 0 0 0.56 21 599 26 265 44 292 92 138 164 354 199 78 
1665 0.2211715779618515 0.3213552550895259 0.985612714857557 0 0 0 0.23 21 600 128 80 148 443 
1666 0.09595948016757251 0.2568808897667939 0.7795888023495559 0 0 0 0.22 21 601 63 157 142 780 
1667 0.20631604841502407 0.3375778984748644 0.9877567926233244 0 0 0 0.78 21 602 27 162 33 264 50 188 77 370 81 41 96 129 111 175 118 114 128 81 146 172 172 90 221 50 209 199 217 18 43 62 224 336 
1668 0.0740929334719852 0.13374929189890816 0.7741214444734565 0 0 0 0.49 21 603 142 781 199 79 229 807 
1669 0.22593020244880532 0.19181696458397926 1.0378249828317747 0 0 0 0.36 21 604 103 105 111 176 164 355 172 91 179 50 209 200 114 47 
1670 0.24181262752458196 0.23406730969990386 1.0134420064248053 0 0 0 0.4 21 605 25 136 43 63 53 87 60 192 67 16 81 42 88 68 96 130 111 177 114 48 118 115 127 92 128 82 146 173 157 111 164 356 181 21 213 161 219 40 220 78 224 337 232 79 26 266 50 189 
1671 0.13634074690494952 0.22207023279776344 0.9397816199935654 0 0 0 0.33 21 606 71 168 164 357 181 22 
1672 0.19237987812631596 0.24585733999720374 1.0330533506069004 0 0 0 0.46 21 607 32 39 44 293 77 371 146 174 148 444 158 50 25 137 26 267 27 163 43 64 50 190 60 193 61 77 67 17 71 169 73 169 81 43 88 69 92 139 96 131 111 178 113 200 118 116 127 93 157 112 164 358 172 92 179 51 181 23 199 80 213 162 219 41 232 80 1 51 65 38 103 106 110 166 126 126 128 83 176 122 190 14 198 33 204 23 209 201 221 51 
1673 0.08690578182179631 0.20292543715281242 0.7577110544199612 0 0 0 0.4 21 608 142 782 224 338 
1674 0.11846456107828442 0.2735504014420423 0.8656912166820574 0 0 0 0.73 21 609 199 81 224 339 
1675 0.24514277016292937 0.317332326796256 0.9762594973892237 0 0 0 0.38 21 610 26 268 60 194 67 18 81 44 103 107 111 179 158 51 162 142 172 93 232 81 71 170 126 127 
1676 0.17519242380263012 0.20316877746638864 1.0558310502065809 0 0 0 0.41 21 611 60 195 73 170 77 372 92 140 103 108 209 202 
1677 0.2548479746439212 0.23633418552650637 1.0048168116122338 0 0 0 0.88 21 612 110 167 114 49 164 359 219 42 232 82 
1678 0.22992505763233295 0.24212517347372509 1.0166315497298328 0 0 0 0.5 21 613 43 65 67 19 88 70 146 175 164 360 181 24 213 163 220 79 224 340 71 171 1 52 65 39 118 117 158 52 190 15 209 203 217 19 
1679 0.20530912663146542 0.24825555678171216 1.0261132493886582 0 0 0 0.71 21 614 26 269 32 40 43 66 71 172 73 171 81 45 88 71 110 168 111 180 113 201 114 50 118 118 127 94 146 176 164 361 199 82 224 341 1 53 25 138 65 40 103 109 126 128 176 123 209 204 217 20 77 373 
1680 0.2431309306742217 0.24953304458286737 1.0061010087327817 0 0 0 0.41 21 615 26 270 43 67 53 88 61 78 67 20 81 46 88 72 96 132 111 181 113 202 114 51 128 84 146 177 172 94 232 83 
1681 0.21770469217095356 0.25721391721685427 1.0161412910482848 0 0 0 0.41 21 616 50 191 67 21 81 47 118 119 146 178 213 164 
1682 0.09410485428823438 0.216327583002362 0.8002920518306285 0 0 0 0.4 21 617 26 271 142 783 
1683 0.2571588809063564 0.2734749680485802 0.9893295094718013 0 0 0 0.32 21 618 88 73 92 141 
1684 0.25768819715189395 0.3137126212492772 0.9704798563537802 0 0 0 0.51 21 619 60 196 111 182 162 143 172 95 92 142 
1685 0.23301883239196375 0.3189788502120823 0.9808039699776812 0 0 0 0.54 21 620 26 272 33 265 60 197 67 22 77 374 81 48 92 143 96 133 111 183 126 129 148 445 162 144 181 25 220 80 43 68 219 43 1 54 146 179 209 205 232 84 
1686 0.24631507197532204 0.32389656744491935 0.9727245280997225 0 0 0 0.69 21 621 26 273 32 41 36 21 44 294 53 89 60 198 81 49 85 372 88 74 111 184 113 203 118 120 128 85 158 53 162 145 164 362 181 26 50 192 213 165 
1687 0.20950370727828196 0.3487502278507871 0.9816283714380212 0 0 0 0.54 21 622 26 274 43 69 44 295 88 75 162 146 164 363 221 52 1 55 209 206 220 81 
1688 0.25324874065773617 0.2219086724378654 1.0127585456574275 0 0 0 0.97 21 623 81 50 181 27 127 95 199 83 
1689 0.06051609722651084 0.16742823852602293 0.7245976776279534 0 0 0 0.33 21 624 73 172 199 84 
1690 0.2230381962349721 0.3321268287894568 0.9808694976184626 0 0 0 0.55 21 625 26 275 43 70 71 173 92 144 96 134 157 113 164 364 199 85 1 56 25 139 50 193 60 199 81 51 111 185 176 124 209 207 220 82 232 85 118 121 
1691 0.2371520966551628 0.18251851337444894 1.0315616590458805 0 0 0 0.46 1 57 111 186 114 52 209 208 
1692 0.2470709331979531 0.2727766289424352 0.9938905102743547 0 0 0 0.37 1 58 50 194 71 174 128 86 209 209 
1693 0.17650540237077839 0.3316731647471998 1.0075423588023307 0 0 0 0.28 1 59 43 71 44 296 71 175 73 173 92 145 96 135 111 187 157 114 162 147 164 365 172 96 209 210 220 83 224 342 
1694 0.1821644020849939 0.32977165548677734 1.001398364905425 0 0 0 0.23 1 60 25 140 60 200 71 176 92 146 96 136 111 188 113 204 162 148 190 16 209 211 
1695 0.26003559198909854 0.1850445592713265 1.0228785004371013 0 0 0 0.39 1 61 60 201 65 41 81 52 111 189 172 97 176 125 179 52 204 24 209 212 219 44 227 35 
1696 0.17902104999184978 0.22479794660530816 1.050811850246685 0 0 0 0.3 1 62 50 195 53 90 65 42 96 137 103 110 111 190 128 87 172 98 209 213 213 166 232 86 179 53 
1697 0.2023047894148012 0.2627918755183104 1.0209373835519562 0 0 0 0.15 1 63 61 79 114 53 209 214 
1698 0.23232414856928357 0.3050567803376909 0.9873473505683741 0 0 0 0.17 1 64 111 191 209 215 
1699 0.2184162835274713 0.34948215624638557 0.9753379891672618 0 0 0 0.19 1 65 209 216 227 36 
1700 0.2172170679695125 0.2416901028336451 1.0234429319227123 0 0 0 0.38 1 66 43 72 53 91 60 202 61 80 65 43 71 177 81 53 92 147 96 138 114 54 118 122 146 180 157 115 158 54 172 99 209 217 213 167 217 21 219 45 227 37 232 87 25 141 50 196 164 366 190 17 
1701 0.23053861819537894 0.2597614882341708 1.0063518030542367 0 0 0 0.62 1 67 111 192 158 55 172 100 209 218 
1702 0.22469293298924442 0.1576583470355209 1.0513006815921109 0 0 0 0.25 21 626 77 375 146 181 164 367 209 219 224 343 
1703 0.25813708012359843 0.20612493724266337 1.0142378043921476 0 0 0 0.04 21 627 158 56 209 220 
1704 0.0255911848106419 0.1379000577174076 0.6285568393243758 0 0 0 0.41 21 628 209 221 224 344 
1705 0.14981314671927015 0.2538598922895496 1.0519458229954324 0 0 0 0.45 21 629 60 203 209 222 
1706 0.2578615435790039 0.25327744410421676 0.9973004644413774 0 0 0 0.19 21 630 50 197 61 81 146 182 157 116 209 223 213 168 
1707 0.24785687483351795 0.25456873010842174 1.0020530529710174 0 0 0 0.11 21 631 50 198 61 82 146 183 209 224 224 345 
1708 0.16626026980527095 0.26004671766351933 1.0400402900398513 0 0 0 0.23 21 632 209 225 221 53 
