# 3D point list with one line of data per point:
#   POINT3D_ID, X, Y, Z, R, G, B, ERROR, TRACK[] as (IMAGE_ID, POINT2D_IDX)
# Number of points: 413, mean track length: 6.43
268 0.09251241157189219 0.0683492350815887 0.5902536680730247 0 0 0 0.39 37 55 45 70 47 8 70 33 90 81 94 49 116 35 122 103 125 43 140 46 144 34 149 67 151 50 166 41 183 22 192 12 193 63 195 31 211 68 230 268 233 70 
269 0.28123185469934153 0.10978956114855136 0.615503672617252 0 0 0 0.33 37 56 46 28 122 104 149 68 151 51 193 64 228 62 230 269 233 71 
270 0.08186581832458226 -0.7129746371342441 0.9101011603257158 0 0 0 0.35 37 57 45 71 46 29 55 27 57 28 86 11 94 50 119 27 139 56 144 35 149 69 151 52 166 42 183 23 191 19 205 27 211 69 212 27 218 29 226 19 230 270 
271 0.07389505407735865 -0.22400054472301165 0.7069623247160565 0 0 0 0.24 37 58 45 72 205 28 230 271 
272 0.41635318027814067 -0.06532129935243781 0.6559778037631516 0 0 0 0.23 37 59 46 30 59 24 140 47 149 70 151 53 211 70 218 30 228 63 230 272 
273 0.27617744495090146 -0.029576504754353004 0.6656709285467848 0 0 0 0.29 37 60 45 73 116 36 140 48 151 54 166 43 230 273 
274 0.4354727803394989 -0.04245934356759978 0.6456533474749344 0 0 0 0.53 37 61 149 71 151 55 211 71 228 64 230 274 
275 0.3991720355174821 0.014356077045313541 0.6451712271750449 0 0 0 0.25 37 62 46 31 55 28 57 29 59 25 94 51 116 37 119 28 125 44 137 16 140 49 143 23 144 36 149 72 151 56 154 17 166 44 177 26 191 20 193 65 210 16 211 72 212 28 215 22 216 34 218 31 226 20 228 65 230 275 233 72 
276 0.014608630780415974 0.0617121789418119 0.5964427018032962 0 0 0 0.28 37 63 151 57 230 276 
277 0.20804554129140873 0.06981220313119746 0.6246926931551399 0 0 0 0.4 37 64 45 74 59 26 125 45 140 50 151 58 166 45 191 21 193 66 205 29 211 73 216 35 218 32 226 21 230 277 
278 -0.16666215875260187 0.08973131790710231 0.6179919053731322 0 0 0 0.28 37 65 45 75 125 46 140 51 143 24 149 73 151 59 154 18 161 32 193 67 210 17 211 74 216 36 228 66 230 278 
279 0.09035340457962149 0.07734357087164491 0.5911177145380314 0 0 0 0.34 37 66 46 32 47 9 90 82 94 52 139 57 144 37 145 21 151 60 161 33 183 24 205 30 216 37 230 279 233 73 
280 0.06156077999516771 0.13626624390217285 0.5720121916863551 0 0 0 0.32 37 67 45 76 55 29 57 30 125 47 139 58 140 52 143 25 149 74 166 46 183 25 191 22 211 75 215 23 216 38 218 33 226 22 230 280 
281 0.18124644685714617 0.15700747133209778 0.565467636285924 0 0 0 0.43 37 68 45 77 59 27 90 83 125 48 132 30 139 59 151 61 230 281 
282 0.019848754763604416 -0.6099100903986552 0.8740147018524271 0 0 0 0.26 37 69 45 78 46 33 90 84 139 60 143 26 149 75 202 16 211 76 230 282 
283 0.31762456913251724 0.05816879266601445 0.6309171818551665 0 0 0 0.27 37 70 57 31 132 31 166 47 191 23 216 39 230 283 233 74 
284 -0.022847248334350374 0.08665415949821773 0.5846921053255515 0 0 0 0.53 37 71 45 79 122 105 139 61 144 38 183 26 202 17 211 77 230 284 
285 0.25285298045306276 0.10661779648102325 0.614786095300703 0 0 0 0.23 37 72 45 80 90 85 132 32 137 17 151 62 230 285 
286 0.140276145026497 0.1641770390676847 0.5592199975417733 0 0 0 0.33 37 73 119 29 125 49 132 33 139 62 140 53 144 39 149 76 151 63 161 34 177 27 193 68 202 18 211 78 212 29 216 40 218 34 228 67 230 286 
287 0.06759160357270803 0.1905941769930904 0.5449339549297618 0 0 0 0.3 37 74 45 81 144 40 183 27 189 15 191 24 193 69 202 19 211 79 228 68 230 287 233 75 
288 0.09360446980901722 0.05587525807805521 0.5980472998993749 0 0 0 0.22 37 75 90 86 122 106 132 34 149 77 154 19 202 20 228 69 230 288 233 76 
289 0.09314969523283224 0.05592900297377368 0.5975822152335929 0 0 0 0.22 37 76 47 10 57 32 59 28 94 53 116 38 122 107 125 50 132 35 140 54 144 41 145 22 149 78 151 64 154 20 161 35 166 48 191 25 193 70 202 21 211 80 212 30 218 35 228 70 230 289 233 77 
290 0.05598614724295251 0.17950456285740488 0.5606143188378969 0 0 0 0.33 37 77 45 82 90 87 132 36 137 18 211 81 228 71 230 290 233 78 
291 0.061090494183565665 0.1798359874333508 0.553212341371235 0 0 0 0.34 37 78 151 65 230 291 
292 0.3408998762094223 -0.03601695608793301 0.666664084942204 0 0 0 0.43 37 79 125 51 177 28 211 82 216 41 228 72 230 292 233 79 
293 0.2159813859000922 0.011165344885783001 0.6490629826449779 0 0 0 0.35 37 80 230 293 233 80 
294 0.08547919615598819 0.10036208399187618 0.5873793875067428 0 0 0 0.65 37 81 45 83 132 37 183 28 189 16 230 294 233 81 
295 0.03736471732934685 0.10131283637535496 0.5835313754917805 0 0 0 0.63 37 82 46 34 55 30 83 9 119 30 125 52 132 38 139 63 140 55 183 29 189 17 192 13 211 83 215 24 226 23 228 73 230 295 233 82 
296 0.02904223182846972 -0.4404457809423904 0.8009249556613148 0 0 0 0.3 45 84 116 39 149 79 151 66 193 71 226 24 230 296 
297 -0.009028269199015096 -0.24731712007650916 0.7086746107207051 0 0 0 0.28 45 85 116 40 122 108 125 53 149 80 230 297 
298 0.08339582280360139 -0.15681999278289913 0.6750903498749707 0 0 0 0.18 45 86 140 56 230 298 
299 0.07688845242477102 -0.14108269931573955 0.6715524245377916 0 0 0 0.29 45 87 90 88 94 54 116 41 125 54 140 57 151 67 161 36 183 30 193 72 205 31 216 42 226 25 228 74 230 299 
300 -0.03170848826269824 -0.07908175906653514 0.6428613322424742 0 0 0 0.21 45 88 139 64 230 300 
301 0.2055747003232481 -0.044686695877641076 0.6725501147349403 0 0 0 0.4 45 89 90 89 166 49 216 43 230 301 
302 0.21501447302346754 -0.04044988787404065 0.6638748558407332 0 0 0 0.22 45 90 90 90 154 21 226 26 228 75 230 302 233 83 
303 0.40772342852561955 -0.04915622228657632 0.6594115989114021 0 0 0 0.28 45 91 125 55 211 84 230 303 
304 0.322930259225046 -0.0400400658733706 0.6637374557478881 0 0 0 0.14 45 92 90 91 94 55 140 58 154 22 216 44 230 304 233 84 
305 0.30154645527326784 -0.02825489043067955 0.6664839847025967 0 0 0 0.13 45 93 122 109 139 65 230 305 
306 0.08537373430839605 0.0028853253041943847 0.6171873156878005 0 0 0 0.35 45 94 116 42 125 56 151 68 228 76 230 306 
307 0.09814723400990288 0.0031129188429409862 0.6139681395825547 0 0 0 0.47 45 95 90 92 122 110 205 32 230 307 233 85 
308 0.0892945659319256 0.004857874018852421 0.6153502134774452 0 0 0 0.16 45 96 90 93 125 57 230 308 
309 0.33202230840389646 0.02942378915372672 0.6419472698682009 0 0 0 0.2 45 97 90 94 230 309 
310 0.02208473870169123 0.05076990908661162 0.597200710701992 0 0 0 0.24 45 98 57 33 90 95 139 66 145 23 151 69 226 27 230 310 
311 0.32167939981535304 0.04783887454929835 0.6324294685718266 0 0 0 0.29 45 99 154 23 230 311 233 86 
312 0.020248812820213076 0.054683593022450745 0.5973171090417173 0 0 0 0.14 45 100 125 58 140 59 145 24 149 81 151 70 193 73 211 85 226 28 228 77 230 312 233 87 
313 0.0878387387204042 0.08925709677723342 0.5875447611590181 0 0 0 0.23 45 101 230 313 233 88 
314 0.03625720872507443 0.14242631390169663 0.5688250818662056 0 0 0 0.26 45 102 122 111 140 60 149 82 151 71 177 29 193 74 211 86 228 78 230 314 
315 0.1918246749434742 0.15637055401716335 0.5620935428645507 0 0 0 0.19 45 103 149 83 230 315 
316 0.1721795837618668 0.1571095232292944 0.5635002173260485 0 0 0 0.18 45 104 230 316 233 89 
317 0.1068639317724816 0.16238189207912962 0.5591044452650532 0 0 0 0.21 45 105 211 87 216 45 228 79 230 317 
318 0.13295458081888714 0.16450093940218388 0.5609665918089237 0 0 0 0.34 45 106 116 43 122 112 125 59 139 67 140 61 143 27 149 84 161 37 216 46 218 36 228 80 230 318 
319 0.026015147482940995 -0.7685440330003632 0.966922128768181 0 0 0 2.01 45 107 83 10 90 96 192 14 
320 0.08010812013040362 -0.6812242949887437 0.8983157661591098 0 0 0 0.39 45 108 46 35 55 31 86 12 90 97 94 56 119 31 139 68 151 72 166 50 189 18 205 33 211 88 212 31 230 319 
321 0.0907127874978654 -0.29054464861748175 0.7122936937242965 0 0 0 0.31 45 109 90 98 230 320 
322 0.07363798441402129 -0.19181636058589493 0.6941465589643078 0 0 0 0.22 45 110 55 32 140 62 205 34 230 321 
323 -0.014878380650507627 -0.1576388879709877 0.6747047367847397 0 0 0 0.2 45 111 90 99 230 322 
324 0.44871791698278335 -0.17444274910359836 0.7873719222613356 0 0 0 0.39 45 112 90 100 211 89 230 323 
325 0.061610856540311565 -0.13040078126898066 0.6719528869758542 0 0 0 0.2 45 113 90 101 230 324 
326 -0.028021297253292412 -0.07662814196430218 0.639602855394542 0 0 0 0.4 45 114 55 33 230 325 
327 -0.2330463333715125 -0.04826490733647854 0.6658621770529933 0 0 0 0.23 45 115 195 32 230 326 
328 -0.016676606516356742 -0.06099441442622185 0.6343267551300733 0 0 0 0.53 45 116 90 102 230 327 
329 -0.015025954669453166 -0.05202847717298822 0.6371538556050466 0 0 0 0.21 45 117 90 103 230 328 
330 0.08250190438934549 -0.043923878448566184 0.6361742580758717 0 0 0 0.24 45 118 90 104 144 42 149 85 154 24 230 329 
331 -0.1317454470883468 -0.008742684555721462 0.6618267371661961 0 0 0 0.27 45 119 90 105 94 57 116 44 149 86 210 18 228 81 230 330 233 90 
332 0.3993205478248895 -0.04202918885215611 0.6654312141444727 0 0 0 0.52 45 120 125 60 216 47 230 331 
333 0.2685509170018185 -0.028992186539635426 0.666807436444269 0 0 0 0.2 45 121 59 29 90 106 116 45 149 87 151 73 191 26 230 332 
334 0.08193891489648708 0.010944662477990459 0.6144932515010134 0 0 0 0.28 45 122 55 34 86 13 166 51 211 90 230 333 
335 0.08263800699409439 0.02083956518614162 0.6116177185487874 0 0 0 0.27 45 123 90 107 94 58 116 46 125 61 132 39 139 69 143 28 149 88 161 38 191 27 193 75 205 35 215 25 216 48 226 29 228 82 230 334 233 91 
336 0.0887989465929724 0.036258375287802874 0.6065687661477405 0 0 0 0.37 45 124 47 11 90 108 122 113 205 36 211 91 226 30 230 335 
337 0.08912168034293806 0.03621582294968623 0.6070466894034301 0 0 0 0.42 45 125 47 12 90 109 122 114 205 37 211 92 215 26 226 31 230 336 233 92 
338 -0.04570167732195322 0.08625893948003753 0.6219169410716627 0 0 0 0.05 45 126 122 115 230 337 
339 0.2949229420193836 0.1022587546688141 0.6202336941632506 0 0 0 0.29 45 127 90 110 161 39 205 38 230 338 
340 -0.05700484566254679 0.15345012050736112 0.5634427951459184 0 0 0 0.41 45 128 55 35 143 29 215 27 230 339 
341 0.1201403941385505 0.1627661526232424 0.5578893103696161 0 0 0 0.32 45 129 90 111 230 340 
342 0.015834729953376484 -0.7475341163983563 0.9307532845297578 0 0 0 0.75 45 130 90 112 151 74 230 341 
343 0.07620681133041184 -0.7468596052214593 0.9276180380720053 0 0 0 0.62 45 131 139 70 230 342 
344 0.03250618646576952 -0.7015524346026579 0.9019686733248279 0 0 0 0.4 45 132 90 113 230 343 
345 0.01195240211504446 -0.4705477119484162 0.8125129558265848 0 0 0 0.35 45 133 139 71 151 75 212 32 230 344 
346 0.10330705017189176 -0.3723588969508564 0.7437872414717092 0 0 0 0.19 45 134 90 114 230 345 
347 0.0009674088211332586 -0.24372622460707807 0.708327178872936 0 0 0 0.55 45 135 122 116 132 40 139 72 149 89 230 346 
348 0.026905877207887195 -0.2231716300407625 0.7054061950291709 0 0 0 0.1 45 136 59 30 230 347 
349 -0.006685165487191451 -0.1570473699828199 0.6739744491890018 0 0 0 0.13 45 137 90 115 230 348 
350 -0.00851878673085654 -0.15011758373833906 0.6724614219627622 0 0 0 0.4 45 138 90 116 230 349 
351 0.07868501505562764 -0.12637417795514883 0.6746761033418934 0 0 0 0.18 45 139 90 117 230 350 
352 0.42145036932758206 -0.15623877599119051 0.689753918300938 0 0 0 0.72 45 140 139 73 230 351 
353 0.06849748981938282 -0.07189714365188542 0.6513888254405508 0 0 0 0.61 45 141 132 41 230 352 
354 -0.06393534713800963 -0.04682899096298511 0.6691299472108552 0 0 0 0.4 45 142 125 62 139 74 161 40 211 93 230 353 
355 -0.0365840383911268 -0.05192714756690404 0.633902503837287 0 0 0 0.54 45 143 122 117 205 39 230 354 
356 0.0608614220813001 -0.042406235176237116 0.6370819173183453 0 0 0 0.19 45 144 90 118 94 59 122 118 125 63 139 75 228 83 230 355 
357 0.2593992674104084 -0.02603963843028194 0.664406150327975 0 0 0 0.44 45 145 132 42 230 356 
358 0.36914168502522915 -0.027112990958183515 0.6661879901384302 0 0 0 0.33 45 146 90 119 116 47 230 357 
359 0.2521472868535114 0.009248543478564545 0.6497719620562216 0 0 0 0.2 45 147 90 120 230 358 
360 0.4020197259870005 0.00743592205570597 0.6499389131083462 0 0 0 0.46 45 148 116 48 125 64 143 30 151 76 166 52 193 76 218 37 230 359 233 93 
361 0.09429793738376821 0.019994036307459453 0.6111454837981849 0 0 0 0.21 45 149 122 119 161 41 230 360 
362 0.0015283974596144163 0.05449243914536993 0.5970728615410018 0 0 0 0.21 45 150 55 36 116 49 119 32 122 120 230 361 
363 -0.05680075081613424 0.06583093343523136 0.6282112782615543 0 0 0 0.24 45 151 166 53 183 31 218 38 230 362 
364 0.16954802642736974 0.059270327824670385 0.6343938670346126 0 0 0 0.14 45 152 139 76 230 363 
365 -0.038332796334423075 0.10024551868458222 0.6100698870489032 0 0 0 0.33 45 153 90 121 116 50 122 121 125 65 139 77 143 31 145 25 154 25 166 54 183 32 189 19 210 19 230 364 
366 -0.004488304382931907 0.12101815929784623 0.5752863030410715 0 0 0 0.48 45 154 70 34 83 11 90 122 122 122 230 365 
367 0.06866285405030488 0.12760931415520202 0.5837510590495876 0 0 0 0.18 45 155 90 123 230 366 
368 0.008591194960164325 0.14141303270588151 0.5691624385269989 0 0 0 0.24 45 156 59 31 116 51 119 33 122 123 132 43 149 90 154 26 177 30 191 28 211 94 212 33 216 49 218 39 228 84 230 367 233 94 
369 0.06978474327893901 -0.2526345705180384 0.7135333245239613 0 0 0 0.34 45 157 90 124 94 60 116 52 132 44 145 26 191 29 193 77 211 95 230 368 
370 0.06954734843532098 -0.2527023372893021 0.7135917284932151 0 0 0 0.24 45 158 125 66 149 91 151 77 211 96 230 369 
371 0.02196279991355631 -0.19810960142864595 0.699476151261669 0 0 0 0.16 45 159 122 124 230 370 
372 0.4523910668478567 -0.22388974150303298 0.8656395455571242 0 0 0 0.67 45 160 57 34 90 125 125 67 132 45 161 42 205 40 212 34 216 50 230 371 
373 0.00717955552433406 -0.06125721691997855 0.645858429439976 0 0 0 0.21 45 161 90 126 230 372 
374 0.08103110872857527 -0.056194848958864244 0.6394215465684703 0 0 0 0.4 45 162 59 32 94 61 116 53 119 34 125 68 139 78 143 32 144 43 149 92 177 31 189 20 193 78 205 41 230 373 
375 0.4189954234255837 -0.04622865474212798 0.6493403677597013 0 0 0 0.42 45 163 125 69 144 44 149 93 151 78 166 55 191 30 212 35 218 40 228 85 230 374 233 95 
376 0.18134607979769682 0.044873003316255954 0.6435476670032186 0 0 0 0.17 45 164 90 127 230 375 
377 0.09127404449134072 0.09395538314709176 0.5876789863977168 0 0 0 0.39 45 165 151 79 189 21 192 15 195 33 205 42 212 36 230 376 
378 0.005310636183606395 0.1256545609319868 0.5788059264740344 0 0 0 0.5 45 166 90 128 145 27 192 16 195 34 230 377 
379 -0.02982427258989432 0.1428851265581939 0.5657903540218947 0 0 0 0.26 45 167 125 70 212 37 228 86 230 378 
380 0.05631086159107169 0.19316622068390785 0.5547428633209637 0 0 0 0.34 45 168 132 46 137 19 211 97 230 379 
381 0.010254833702359918 -0.6342632851559326 0.8867632138593141 0 0 0 0.48 45 169 90 129 139 79 230 380 
382 0.43425657880292384 -0.26493974935599773 0.7551488243626404 0 0 0 0.38 45 170 116 54 125 71 139 80 154 27 166 56 211 98 216 51 230 381 
383 0.43429649762301004 -0.26498036652553775 0.7551778016927354 0 0 0 0.35 45 171 116 55 125 72 151 80 154 28 166 57 211 99 216 52 230 382 
384 0.4525572310631714 -0.2350686072659058 0.8387156336424709 0 0 0 0.25 45 172 90 130 230 383 
385 -0.22593495413614162 -0.033487791058445564 0.6670378175457927 0 0 0 0.29 45 173 90 131 230 384 
386 -0.11306653297343212 -0.03665698935615842 0.6646712332060191 0 0 0 0.41 45 174 90 132 230 385 
387 -0.14786171779509083 -0.02865381050862327 0.6609139580492054 0 0 0 0.38 45 175 90 133 119 35 230 386 
388 0.06013118241570886 -0.018125281272373655 0.6289202079388897 0 0 0 0.19 45 176 90 134 230 387 
389 -0.05682642580975055 0.15934513116470414 0.5618563847429131 0 0 0 0.28 45 177 55 37 230 388 
390 0.023838853160290066 -0.6923479073976483 0.8971056979486738 0 0 0 0.48 45 178 90 135 230 389 
391 0.004011050779998972 -0.584402747079573 0.8729317850767201 0 0 0 0.21 45 179 90 136 230 390 
392 0.4361705100425911 -0.23581869529777813 0.7199615969119504 0 0 0 0.66 45 180 59 33 139 81 212 38 230 391 
393 -0.30810555631996445 -0.03338856101915263 0.6652830405209401 0 0 0 0.53 45 181 90 137 191 31 230 392 
394 0.1554676129517198 -0.03611029136673374 0.6595764180574892 0 0 0 0.31 45 182 90 138 230 393 
395 0.40369431844439413 -0.036849553446073345 0.6662295997019557 0 0 0 0.43 45 183 57 35 59 34 125 73 151 81 193 79 211 100 212 39 228 87 230 394 
396 -0.046501800683351725 0.16513060533386814 0.558440669022399 0 0 0 0.53 45 184 55 38 230 395 
397 0.002156446193582566 -0.24960579548438758 0.7115420928336433 0 0 0 0.28 45 185 90 139 151 82 205 43 230 396 
398 0.4409044368261708 -0.19200837680199853 0.788345229358201 0 0 0 0.29 45 186 90 140 230 397 
399 0.4436717073016505 -0.19263228860388926 0.7916779867807995 0 0 0 0.42 45 187 90 141 139 82 230 398 
400 0.08002180477965536 0.0012409977974036823 0.6200166413790051 0 0 0 0.56 45 188 47 13 59 35 139 83 211 101 216 53 230 399 
401 0.3246917695451005 0.014248901610275788 0.6479498787724166 0 0 0 0.48 45 189 90 142 132 47 139 84 143 33 189 22 193 80 211 102 230 400 
402 -0.03557037633581897 -0.5549364300482446 0.9030659946651808 0 0 0 0.85 45 190 90 143 195 35 230 401 
403 -0.014341793287280743 -0.5921055950745728 0.8846971353216005 0 0 0 0.53 45 191 90 144 230 402 
404 0.013738554997840565 -0.12451748947388291 0.6652333701649396 0 0 0 0.55 45 192 195 36 230 403 
405 -0.015655809743656338 -0.06460324061104089 0.6447026231548698 0 0 0 0.35 45 193 137 20 139 85 161 43 230 404 
406 0.06511093558067199 0.12010550914197782 0.5852744477528368 0 0 0 1.35 45 194 90 145 122 125 139 86 144 45 230 405 
407 0.45157222369345884 -0.17691112191139005 0.6947575300046459 0 0 0 0.69 45 195 139 87 154 29 166 58 215 28 230 406 233 96 
408 0.4358127216319572 -0.20904026101425047 0.7337639684806205 0 0 0 0.46 45 196 122 126 230 407 
409 0.017519172177126657 -0.251291645737675 0.7119041533473852 0 0 0 0.32 46 36 94 62 161 44 230 408 
410 -0.039578138781914754 -0.1553946790109903 0.6757339865704326 0 0 0 0.24 46 37 122 127 228 88 230 409 
411 -0.03941821167262763 -0.15546714376837292 0.6757217629408137 0 0 0 0.16 46 38 94 63 230 410 
412 0.41540883801465583 -0.11341959200966803 0.6891416972834599 0 0 0 0.27 46 39 90 146 94 64 125 74 140 63 149 94 193 81 230 411 
413 0.4312891364960385 -0.10858493619749102 0.6766130051245478 0 0 0 0.22 46 40 94 65 122 128 125 75 139 88 149 95 151 83 166 59 193 82 228 89 230 412 233 97 
414 0.3151198375963778 0.08209888692099358 0.6248106233933692 0 0 0 0.34 46 41 116 56 125 76 140 64 149 96 151 84 154 30 166 60 230 413 
415 0.10086786984724544 0.10143034612092444 0.5852121527689216 0 0 0 0.19 46 42 94 66 116 57 149 97 154 31 193 83 216 54 228 90 230 414 233 98 
416 0.058370275406609794 0.14787121332021677 0.5672963110272693 0 0 0 0.37 46 43 122 129 211 103 228 91 230 415 
417 0.020498837930891616 -0.7596396022154853 0.9318439299428494 0 0 0 0.82 46 44 90 147 230 416 
418 0.07976043040269529 -0.7433476613845149 0.9254146621330657 0 0 0 0.44 46 45 90 148 211 104 230 417 
419 0.08186826732560953 -0.7131408145893989 0.9101438810006435 0 0 0 0.33 46 46 86 14 94 67 139 89 149 98 166 61 205 44 211 105 218 41 226 32 230 418 
420 0.0007131705695320047 -0.26013673029150397 0.7121108070773473 0 0 0 0.3 46 47 55 39 94 68 149 99 183 33 230 419 
421 -0.07867284938947364 -0.18882316016644948 0.8345820788569434 0 0 0 0.45 46 48 119 36 183 34 202 22 211 106 230 420 
422 0.3327072501973261 -0.20053357497510382 0.8461455501466048 0 0 0 0.28 46 49 122 130 125 77 151 85 228 92 230 421 233 99 
423 -0.07520037504875679 -0.037719358482191934 0.6664385736952612 0 0 0 0.32 46 50 125 78 205 45 230 422 
424 0.18579880160715656 -0.029370043423678018 0.6671832198749291 0 0 0 0.4 46 51 90 149 230 423 
425 0.20932750096082153 0.02916900513780133 0.6425683541344928 0 0 0 0.08 46 52 216 55 228 93 230 424 
426 0.09185049443870705 0.1172593760948884 0.5786384115460094 0 0 0 0.41 46 53 122 131 125 79 139 90 230 425 233 100 
427 0.027516273064495056 -0.1992399619207145 0.6961306524946684 0 0 0 0.36 46 54 59 36 119 37 125 80 144 46 161 45 166 62 202 23 212 40 228 94 230 426 
428 -0.15035605889008782 -0.008204219081035477 0.6591790609716373 0 0 0 0.41 46 55 183 35 230 427 
429 0.42879121458420627 -0.26271046830937805 0.7548763493369973 0 0 0 0.21 90 150 94 69 230 428 233 101 
430 0.4274391303701343 -0.2623304512517871 0.753301555848685 0 0 0 0.08 90 151 230 429 233 102 
431 0.024866948920467487 -0.177721731596761 0.688124571730859 0 0 0 0.27 140 65 177 32 193 84 218 42 228 95 230 430 
432 -0.032285979006688025 -0.15712633233122297 0.669107604733605 0 0 0 0.19 116 58 122 132 149 100 154 32 193 85 216 56 228 96 230 431 
433 0.0689364988054274 -0.05048017506687084 0.6402152980281274 0 0 0 0.46 140 66 230 432 233 103 
434 0.43249286958189004 -0.10247893696587237 0.6753049534702477 0 0 0 0.3 122 133 125 81 140 67 149 101 151 86 228 97 230 433 233 104 
435 0.43241831253271173 -0.10246236732723402 0.675231329756363 0 0 0 0.33 122 134 125 82 149 102 193 86 228 98 230 434 233 105 
436 0.07727262709328284 -0.035721755008786445 0.635311687460823 0 0 0 0.28 94 70 122 135 140 68 183 36 193 87 230 435 
437 0.40689066864911594 -0.07101895993149397 0.6685292441347646 0 0 0 0.23 140 69 228 99 230 436 
438 0.08849912217838735 0.040819629530297614 0.6047733256699803 0 0 0 0.38 122 136 125 83 149 103 211 107 226 33 228 100 230 437 233 106 
439 0.09895410589225484 0.05592576851585734 0.5940771636657061 0 0 0 0.21 122 137 140 70 149 104 230 438 
440 0.07796445241551953 0.08013244010395644 0.5899090186515681 0 0 0 0.14 94 71 149 105 216 57 228 101 230 439 233 107 
441 -0.008995909128550717 -0.24748581862938193 0.7088577323809943 0 0 0 0.4 47 14 94 72 116 59 122 138 125 84 132 48 149 106 151 87 177 33 193 88 230 440 
442 0.07392267364578368 -0.20900989420852725 0.7011872946165087 0 0 0 0.38 205 46 228 102 230 441 
443 0.0734513240359786 -0.18052496908562787 0.6902151719699278 0 0 0 0.17 90 152 193 89 230 442 
444 0.4071734823715214 -0.03606031905565886 0.659407486664455 0 0 0 0.36 94 73 122 139 149 107 151 88 211 108 230 443 233 108 
445 0.3282307744950915 0.07387849299920292 0.623291374893857 0 0 0 0.33 94 74 143 34 189 23 211 109 212 41 228 103 230 444 
446 0.021682908630088735 -0.2799910331489638 0.71484146909355 0 0 0 0.43 47 15 149 108 230 445 
447 0.02577124506992634 -0.2693285548601731 0.7102794010171042 0 0 0 0.48 47 16 215 29 230 446 
448 0.08070492161440694 -0.20708252554875686 0.6944105630969761 0 0 0 0.05 55 40 161 46 230 447 
449 0.21482996200680718 -0.031076037335751393 0.6604340310724824 0 0 0 0.4 145 28 151 89 183 37 205 47 230 448 
450 0.372378819670341 -0.0397230709649968 0.670205561479298 0 0 0 0.13 125 85 139 91 230 449 
451 0.027247595498692097 -0.28017804218174064 0.7115278205126192 0 0 0 0.54 47 17 59 37 90 153 132 49 144 47 161 47 202 24 215 30 230 450 
452 0.4099154206620587 -0.11246880839697032 0.6969620056421408 0 0 0 0.46 90 154 125 86 144 48 151 90 212 42 215 31 216 58 230 451 
453 0.0958408409749395 -0.05047049654827461 0.6347589916696753 0 0 0 0.11 161 48 205 48 230 452 
454 0.28225385264532804 -0.03891498409952936 0.6704972326670536 0 0 0 0.24 139 92 151 91 189 24 191 32 211 110 228 104 230 453 
455 0.0221030060234068 -0.27374692546206375 0.7142022134858869 0 0 0 0.37 47 18 144 49 149 109 151 92 166 63 177 34 230 454 
456 0.06364410948793489 -0.030484874981140563 0.6323988098250968 0 0 0 0.21 139 93 177 35 211 111 230 455 
457 0.29787844696927257 -0.0823687844712316 0.7127806147222934 0 0 0 0.53 47 19 57 36 125 87 144 50 145 29 166 64 202 25 218 43 228 105 230 456 
458 0.014930529157339804 -0.23002595523618374 0.7087198014344285 0 0 0 0.33 47 20 139 94 230 457 
459 0.10318672093453621 -0.48514012344998947 0.8035191936853259 0 0 0 0.2 55 41 116 60 216 59 230 458 
460 0.39143649720795637 -0.002764591245073079 0.6569352049521654 0 0 0 0.14 55 42 140 71 193 90 218 44 230 459 233 109 
461 0.2822821505335904 0.0929186632775613 0.6219751409763108 0 0 0 0.36 55 43 140 72 143 35 145 30 166 65 177 36 193 91 215 32 216 60 218 45 228 106 230 460 233 110 
462 0.08110067891737902 -0.05646960558681714 0.6398451095167043 0 0 0 0.31 55 44 137 21 143 36 145 31 215 33 226 34 230 461 
463 -0.07989087373923141 0.04031228430699543 0.639091031611516 0 0 0 0.33 55 45 94 75 119 38 149 110 193 92 230 462 
464 -0.12397800842847158 0.05594233045702374 0.6272098289886271 0 0 0 0.26 55 46 125 88 140 73 144 51 193 93 226 35 230 463 
465 0.05403978070098784 0.13634529251347235 0.5714532183799184 0 0 0 0.19 55 47 132 50 137 22 228 107 230 464 233 111 
466 0.07699785639721032 0.12319842237483253 0.5747003013302547 0 0 0 0.34 55 48 59 38 90 155 119 39 125 89 132 51 139 95 143 37 144 52 149 111 151 93 166 66 212 43 218 46 228 108 230 465 233 112 
467 -0.030475947326393964 0.13529571262602375 0.5707172077639314 0 0 0 0.31 55 49 145 32 230 466 
468 0.07040289947809383 0.14370727251391052 0.5668649320125624 0 0 0 0.26 55 50 119 40 122 140 183 38 230 467 
469 0.06880117189086776 0.17256402823145256 0.5522429487938991 0 0 0 0.35 55 51 59 39 137 23 144 53 151 94 215 34 216 61 230 468 
470 0.05066797833120626 0.14643142161311892 0.5659242029638941 0 0 0 0.54 55 52 57 37 59 40 90 156 122 141 132 52 144 54 145 33 193 94 228 109 230 469 
471 0.44600408481985404 -0.1325210772203984 0.698656691891876 0 0 0 0.96 55 53 86 15 94 76 125 90 144 55 149 112 166 67 211 112 212 44 230 470 233 113 
472 -0.03781194523645774 0.0602221721763955 0.592451804364106 0 0 0 0.3 57 38 90 157 94 77 125 91 145 34 161 49 211 113 215 35 216 62 226 36 228 110 230 471 
473 -0.18041238055620973 -0.03686328580020747 0.6675602898120496 0 0 0 0.34 57 39 116 61 119 41 125 92 139 96 145 35 149 113 183 39 189 25 191 33 212 45 230 472 
474 -0.14672350711694837 0.06521617349128309 0.6277835578642817 0 0 0 0.15 57 40 94 78 183 40 189 26 230 473 
475 -0.003669147297541567 0.059947082857473785 0.5968489791147743 0 0 0 0.2 57 41 94 79 116 62 139 97 189 27 230 474 
476 -0.3543366237653009 -0.17988393086610474 0.8088997793881034 0 0 0 0.23 57 42 59 41 183 41 
477 -0.04955454472388654 0.03960473652465067 0.6462899990932978 0 0 0 0.1 57 43 137 24 205 49 230 475 
478 -0.022381979005702764 0.12983077954002417 0.5702572413258982 0 0 0 0.37 57 44 132 53 137 25 139 98 144 56 149 114 183 42 202 26 212 46 230 476 
479 -0.023445282508418618 0.14187306478140943 0.5652529942732504 0 0 0 0.28 57 45 59 42 90 158 116 63 137 26 143 38 144 57 145 36 212 47 228 111 230 477 
480 -0.037996468007002016 0.10568601059896784 0.608485897864993 0 0 0 0.34 57 46 139 99 205 50 230 478 
481 -0.057484225123222925 -0.02082649686874546 0.6614711274883556 0 0 0 0.54 57 47 122 142 139 100 211 114 230 479 
482 0.21466004498459823 0.04039069074651647 0.6377146145576927 0 0 0 0.33 57 48 116 64 139 101 228 112 230 480 
483 0.21646028627416378 0.08484268616712688 0.6220774718387923 0 0 0 0.31 57 49 122 143 230 481 
484 0.1935196128053203 0.06122376762985126 0.6334528869664185 0 0 0 0.1 59 43 122 144 139 102 230 482 
485 0.18621675748553454 0.06575815198387337 0.6331298090681348 0 0 0 0.25 59 44 139 103 151 95 191 34 202 27 211 115 230 483 
486 0.20727133917980692 0.1277352560046047 0.6133391818842009 0 0 0 0.36 59 45 119 42 125 93 139 104 212 48 230 484 
487 0.10078911241027222 0.15947894123141032 0.5658317748709493 0 0 0 0.4 59 46 122 145 132 54 151 96 193 95 212 49 228 113 230 485 
488 0.03540759579808616 0.1290310531287002 0.5722490891811914 0 0 0 0.18 59 47 132 55 137 27 139 105 144 58 145 37 151 97 215 36 230 486 
489 0.0755866795290594 0.09470522342174172 0.5861487532684654 0 0 0 0.3 70 35 149 115 230 487 
490 0.07828388599955799 -0.0068905342818324005 0.6222484559356479 0 0 0 0.44 70 36 122 146 154 33 205 51 211 116 216 63 228 114 230 488 233 114 
491 -0.07528767144006118 0.03795587741522347 0.6387320214592711 0 0 0 0.22 70 37 122 147 230 489 
492 0.0966309415924889 0.09449916722599674 0.5868156489681374 0 0 0 0.24 70 38 94 80 122 148 140 74 149 116 193 96 230 490 233 115 
493 -0.33757181683585397 -0.04499055312253597 0.6634867831390058 0 0 0 0.45 70 39 94 81 191 35 230 491 
494 -0.07589319681627146 0.12135531742978868 0.6096719685786014 0 0 0 0.22 70 40 116 65 161 50 211 117 230 492 
495 -0.028024884721705678 -0.021950080375092083 0.6174184704644845 0 0 0 0.22 70 41 161 51 230 493 
496 -0.02366133961338162 0.0802192993749303 0.5823297916089762 0 0 0 0.36 70 42 122 149 205 52 230 494 
497 -0.07914910174973078 -0.04726521813595607 0.6676064476819216 0 0 0 0.51 70 43 90 159 230 495 
498 0.16042858523259765 0.16199907033131708 0.5595806482484161 0 0 0 0.25 70 44 122 150 216 64 230 496 
499 -0.06824441156895873 -0.040950187706618055 0.6664944562883409 0 0 0 0.25 70 45 119 43 139 106 149 117 161 52 195 37 205 53 216 65 230 497 
500 -0.14943551327745 -0.04226873878045052 0.6647873177087336 0 0 0 0.14 70 46 139 107 230 498 
501 -0.07571599615311161 0.03772721583116427 0.6414155946175194 0 0 0 0.54 70 47 139 108 195 38 230 499 
502 -0.07718639361998864 -0.02913373148659946 0.6586737205551699 0 0 0 0.9 70 48 205 54 230 500 
503 -0.07913941425006223 0.0774716786566475 0.6134909084088126 0 0 0 0.96 70 49 125 94 140 75 144 59 149 118 151 98 177 37 192 17 193 97 211 118 216 66 228 115 230 501 
504 0.0010454030179877546 0.13237399219967894 0.5714936870349895 0 0 0 0.49 83 12 154 34 195 39 216 67 230 502 
505 -0.011249117201920431 0.13216842638250192 0.5711321752024464 0 0 0 0.22 83 13 149 119 230 503 
506 -0.09398496307112139 0.0655155153079261 0.6268973880364491 0 0 0 0.33 83 14 195 40 230 504 
507 0.1274337744566626 0.15763483365245096 0.5660105419623785 0 0 0 0.41 83 15 116 66 122 151 143 39 144 60 151 99 193 98 218 47 230 505 
508 0.012152319683055714 0.1362159707923973 0.5723329203483088 0 0 0 0.37 83 16 90 160 137 28 139 109 151 100 166 68 183 43 191 36 193 99 211 119 216 68 228 116 230 506 
509 0.14994782185584354 0.16653112908649853 0.561078760579608 0 0 0 0.93 83 17 149 120 230 507 
510 0.19711690440133425 0.11520235247718698 0.6153696625244983 0 0 0 0.3 83 18 90 161 230 508 
511 0.037824539877240944 -0.9614992594816627 1.050194189429646 0 0 0 0.91 83 19 195 41 211 120 230 509 
512 0.037824539877240944 -0.9614992594816627 1.050194189429646 0 0 0 0.91 83 20 195 42 211 121 230 510 
513 0.03792567775531952 0.10100506940600154 0.5816816178169325 0 0 0 0.24 83 21 192 18 230 511 
514 0.08417219278710679 -0.6820375126220962 0.8959248047633437 0 0 0 0.33 86 16 205 55 230 512 
515 0.03067158954901691 -0.2827392616871987 0.7072418581671538 0 0 0 0.24 86 17 90 162 140 76 193 100 230 513 
516 0.38939885822023906 0.015640102378952168 0.6548664214938451 0 0 0 0.17 94 82 166 69 211 122 230 514 233 116 
517 0.454541402607655 -0.18451644072249745 0.8088870283247774 0 0 0 0.57 86 18 90 163 125 95 139 110 205 56 212 50 230 515 
518 0.45142739848289676 -0.19667426107115765 0.8344389504608688 0 0 0 0.54 86 19 94 83 122 152 166 70 230 516 233 117 
519 0.07985186870778217 -0.25353745318712173 0.7113792582798266 0 0 0 0.41 90 164 116 67 140 77 149 121 183 44 216 69 230 517 
520 -0.03846718978237323 -0.23369028149077947 0.7030958608518905 0 0 0 0.28 90 165 125 96 230 518 
521 -0.03942091039288577 -0.21071210084901262 0.849358909401077 0 0 0 0.38 90 166 161 53 205 57 230 519 
522 0.4359944863943467 -0.2701489240660151 0.7525025139776774 0 0 0 0.31 90 167 149 122 193 101 230 520 
523 -0.00476292902953522 -0.203286725143433 0.6921754977338377 0 0 0 0.28 90 168 122 153 230 521 
524 0.07357804719239835 -0.18521613584413124 0.6918235615728359 0 0 0 0.19 90 169 94 84 151 101 205 58 230 522 
525 0.40256752917977867 -0.060369485297755175 0.6701305374808675 0 0 0 0.2 90 170 140 78 193 102 230 523 
526 0.4021719261964987 -0.0518064355456597 0.6663253385108743 0 0 0 0.22 90 171 94 85 122 154 149 123 230 524 
527 -0.009112150326526153 -0.13814872119995467 0.6681144126703462 0 0 0 0.4 90 172 94 86 116 68 122 155 125 97 132 56 211 123 228 117 230 525 
528 0.025316605050754868 -0.0629562418105199 0.6465633774142334 0 0 0 0.42 90 173 125 98 143 40 166 71 230 526 
529 -0.0973402088095254 -0.015181610635286525 0.6627066081411072 0 0 0 0.06 90 174 122 156 230 527 
530 0.09805421928158226 -0.014099649188362581 0.6192833364772724 0 0 0 0.08 90 175 125 99 140 79 230 528 
531 0.09542664680568501 -0.01046887042844262 0.6191748497913144 0 0 0 0.15 90 176 149 124 205 59 230 529 
532 0.1769924416465564 0.06290919451240791 0.6330233013047893 0 0 0 0.22 90 177 94 87 119 44 122 157 125 100 132 57 143 41 202 28 211 124 230 530 233 118 
533 0.17690649743526274 0.0629230058776604 0.6329207491797415 0 0 0 0.23 90 178 94 88 122 158 125 101 132 58 202 29 211 125 230 531 233 119 
534 -0.14711685328521099 0.09045698270654304 0.6175596758480625 0 0 0 0.16 90 179 139 111 230 532 
535 0.020090939037642187 -0.6106315021391622 0.8751434304848568 0 0 0 0.23 90 180 139 112 230 533 
536 0.41417052416162664 -0.07631138520390972 0.6942484935324595 0 0 0 0.25 90 181 137 29 211 126 230 534 
537 -0.12398536335849661 -0.029249476912391756 0.6648390040909188 0 0 0 0.34 90 182 122 159 230 535 
538 0.24557315888227743 0.08761252091402884 0.6277098908002097 0 0 0 0.14 90 183 230 536 233 120 
539 0.15240232935541392 0.12148999983617337 0.6106985501044895 0 0 0 0.29 90 184 230 537 233 121 
540 0.021307417486084328 -0.17891547050365375 0.6916849102097621 0 0 0 0.72 90 185 122 160 230 538 
541 -0.05673440269307792 -0.013882120928921519 0.6628944965939041 0 0 0 0.18 90 186 122 161 230 539 
542 -0.037289776955733926 0.01805527258466573 0.6096223637234891 0 0 0 0.25 90 187 122 162 161 54 205 60 216 70 230 540 
543 0.06464765764089112 0.06271646414137831 0.5982939064995095 0 0 0 0.41 90 188 161 55 230 541 
544 -0.036724880575692086 0.11777806358117263 0.6057744596665537 0 0 0 0.24 90 189 116 69 230 542 
545 -0.029845721907215118 0.14284837875879547 0.5658343335209488 0 0 0 0.23 90 190 125 102 228 118 230 543 
546 0.018893671691966343 0.12718153174046273 0.5807415507386902 0 0 0 0.42 90 191 122 163 183 45 211 127 230 544 
547 0.321528152055458 0.04001252399089781 0.637274673194917 0 0 0 0.07 90 192 230 545 233 122 
548 0.002301762475939264 0.1754530003588945 0.5607197775793816 0 0 0 0.48 90 193 116 70 230 546 
549 0.21416008002977183 0.0115348030067776 0.6469951755012697 0 0 0 0.4 90 194 161 56 230 547 
550 0.025805440860808136 -0.45731107688071426 0.807007530816265 0 0 0 0.29 94 89 149 125 230 548 
551 -0.03579900256726378 -0.07161516698270917 0.6420483934364543 0 0 0 0.14 94 90 230 549 233 123 
552 -0.05018248391906613 -0.03526138758684434 0.6697011137461025 0 0 0 0.28 94 91 122 164 228 119 230 550 
553 0.01337342960197604 -0.040537479235552336 0.6349086581901134 0 0 0 0.28 94 92 122 165 230 551 
554 0.32142318806862136 -0.03230995458399628 0.6611476168354986 0 0 0 0.2 94 93 149 126 230 552 
555 -0.032269169803162766 -0.15716929853792014 0.6690476482232189 0 0 0 0.2 94 94 122 166 140 80 145 38 151 102 154 35 193 103 228 120 230 553 
556 0.420964800407418 -0.12569416634057928 0.6846447571686091 0 0 0 0.23 94 95 149 127 230 554 
557 0.1748253580414497 -0.03315518208732022 0.6693552293428978 0 0 0 0.33 94 96 149 128 193 104 211 128 230 555 
558 0.4209424998645967 -0.04162912121742515 0.642497384857666 0 0 0 0.27 94 97 140 81 216 71 230 556 
559 0.030982354830128563 -0.011721418403021735 0.6173174619143653 0 0 0 0.15 94 98 149 129 154 36 228 121 230 557 
560 0.4082331265509732 -0.035954737933089 0.6604213782763343 0 0 0 0.14 94 99 211 129 230 558 
561 0.2846468457011161 0.10000521243785211 0.6177154372120992 0 0 0 0.12 94 100 116 71 230 559 233 124 
562 0.01823765413919237 -0.15231582030223292 0.6746536334898129 0 0 0 0.34 94 101 140 82 149 130 205 61 230 560 
563 0.2110828222489253 -0.03500053440823949 0.6668090067388839 0 0 0 0.28 94 102 161 57 228 122 230 561 
564 0.41415323184518005 -0.056978570988340256 0.6511686739160802 0 0 0 0.24 94 103 125 103 166 72 210 20 230 562 
565 0.4192495813134831 -0.03684947291785583 0.6452678718544695 0 0 0 0.24 94 104 149 131 166 73 215 37 216 72 230 563 
566 0.41937974053259863 -0.03687402660328266 0.6454773114157003 0 0 0 0.18 94 105 125 104 140 83 151 103 166 74 177 38 211 130 218 48 228 123 230 564 233 125 
567 0.3193152104843598 0.0011449299341472054 0.6521818049120617 0 0 0 0.32 94 106 125 105 139 113 154 37 211 131 228 124 230 565 233 126 
568 0.41057313546266266 -0.005989848123007271 0.6420844721840954 0 0 0 0.19 94 107 211 132 218 49 230 566 
569 -0.13803348530411164 -0.039974086241938524 0.6681119533504534 0 0 0 0.2 94 108 149 132 151 104 228 125 230 567 
570 0.03089949372240344 -1.021510078359935 1.060983838770013 0 0 0 0.9 94 109 149 133 166 75 230 568 
571 0.03089949372240344 -1.021510078359935 1.060983838770013 0 0 0 0.9 94 110 149 134 166 76 230 569 
572 -0.004921312829148048 -0.6430487594551658 0.8946438161813873 0 0 0 0.48 116 72 149 135 230 570 
573 0.023786581688518403 -0.4371842434363402 0.800253389179237 0 0 0 0.12 116 73 149 136 193 105 230 571 
574 0.3605666590812522 0.0465422854989597 0.6374893746138837 0 0 0 0.31 116 74 122 167 230 572 
575 0.0028011476716240293 0.06968542112229767 0.5904704887480977 0 0 0 0.31 116 75 122 168 230 573 
576 0.3215577265714903 -0.1202931977739972 0.7584847104391628 0 0 0 0.15 116 76 228 126 230 574 
577 -0.043112378435564834 0.16153180841636589 0.56035947053674 0 0 0 0.12 116 77 211 133 230 575 
578 0.4337233076680181 -0.27375697882937705 0.7580888855007136 0 0 0 0.16 116 78 125 106 230 576 
579 0.4337233076680181 -0.27375697882937705 0.7580888855007136 0 0 0 0.16 116 79 125 107 230 577 
580 -0.03295590866369286 0.08696885719646157 0.5826844978520496 0 0 0 0.55 116 80 122 169 132 59 149 137 183 46 202 30 211 134 230 578 233 127 
581 0.17688426006152216 0.15427244172449373 0.5651838186738909 0 0 0 0.37 116 81 139 114 230 579 
582 0.02484425963951152 0.15828458250950156 0.5615022791318756 0 0 0 0.56 116 82 132 60 183 47 195 43 202 31 230 580 
583 -0.05631000357727185 -0.04661726099171716 0.6707824621920747 0 0 0 0.14 119 45 216 73 230 581 
584 0.07619489287511441 0.05218659865291198 0.60071917269523 0 0 0 0.36 119 46 154 38 177 39 205 62 230 582 
585 0.24822244256840842 0.08064508127250294 0.6272613784018234 0 0 0 0.24 119 47 211 135 230 583 
586 0.2066221547543787 0.13926200922640286 0.6098966399039242 0 0 0 0.34 119 48 143 42 215 38 230 584 
587 0.06859960598021446 0.17303103831753447 0.5512440312229517 0 0 0 0.17 119 49 211 136 230 585 
588 0.21392119172971538 0.14173978568913528 0.6035763397274408 0 0 0 0.98 119 50 192 19 230 586 
589 0.03371975431428196 -0.46808880451913076 0.786958312452864 0 0 0 0.37 122 170 161 58 216 74 230 587 
590 0.4291961681820567 -0.2587500265688679 0.7406737792779016 0 0 0 0.89 122 171 192 20 211 137 230 588 
591 0.32717826912535103 -0.2046452726304951 0.8465588011575524 0 0 0 0.23 122 172 230 589 233 128 
592 0.21288408123834196 -0.03926660069962113 0.6670920933899647 0 0 0 0.16 122 173 149 138 210 21 230 590 233 129 
593 -0.03956771679961317 -0.34796141893113913 0.7451987575525669 0 0 0 0.19 122 174 149 139 230 591 
594 0.09595758073654669 -0.10442079724071279 0.658011237450593 0 0 0 0.2 122 175 228 127 230 592 
595 0.07934913738400373 -0.05439886703004104 0.6382825509763694 0 0 0 0.43 122 176 161 59 216 75 230 593 233 130 
596 0.043866711975622794 0.0014738035426686822 0.6101966359087871 0 0 0 0.06 122 177 230 594 233 131 
597 -0.03550438305832403 0.04160421773940578 0.5976639486896879 0 0 0 0.35 122 178 149 140 230 595 
598 0.0986257942634292 0.04060895554801404 0.5999691085037436 0 0 0 0.12 122 179 230 596 233 132 
599 0.027454210145931694 -0.02224931916761338 0.6218088238785404 0 0 0 0.32 122 180 205 63 230 597 
600 0.42244331458755036 -0.09334814243849289 0.673899371915714 0 0 0 0.35 122 181 149 141 211 138 230 598 
601 0.030799026464236552 0.022912441576154165 0.6068527263774484 0 0 0 0.06 122 182 230 599 233 133 
602 0.07817651672620664 0.028401592916560376 0.6088918096138448 0 0 0 0.58 122 183 154 39 192 21 230 600 
603 -0.012442573585061152 0.04947223796004604 0.5971037420071917 0 0 0 0.21 122 184 149 142 230 601 
604 0.0961338646540102 0.05493979152465512 0.5958241457935407 0 0 0 0.18 122 185 230 602 233 134 
605 0.028505407126609743 0.12206331685244629 0.572980924167415 0 0 0 0.09 122 186 226 37 230 603 
606 0.05514196203403132 0.15740375711526503 0.5619028160149226 0 0 0 0.32 122 187 149 143 211 139 228 128 230 604 233 135 
607 -0.02990508114532794 0.06800691144096954 0.5867658093974453 0 0 0 0.31 122 188 216 76 230 605 233 136 
608 -0.040832740844013976 0.0732326292887883 0.5926877205133484 0 0 0 0.26 122 189 145 39 177 40 205 64 226 38 228 129 230 606 
609 0.02862872123850305 0.1257674215614329 0.5743642713469009 0 0 0 0.4 122 190 149 144 193 106 211 140 228 130 230 607 233 137 
610 -0.02361340386920224 0.1343658428874038 0.5680929365808592 0 0 0 0.39 122 191 216 77 230 608 
611 0.10314226034363577 0.1593649695744725 0.5615242243770835 0 0 0 0.24 122 192 140 84 149 145 177 41 193 107 216 78 218 50 226 39 230 609 
612 -0.10254772289448935 -0.04735098375771575 0.6678921006393749 0 0 0 0.33 122 193 139 115 230 610 
613 -0.07463420919108993 0.030684779355966564 0.6428606781056211 0 0 0 0.52 122 194 149 146 230 611 
614 0.30238602599825576 -0.018042795922584808 0.6614813080909042 0 0 0 0.25 122 195 149 147 212 51 230 612 
615 0.03268480578385256 0.13964371109656257 0.5696318473842849 0 0 0 0.06 122 196 145 40 230 613 
616 -0.05036467041246876 0.14953400521646018 0.5659033434215862 0 0 0 0.38 122 197 230 614 233 138 
617 -0.07956255845278826 0.1511075878627036 0.5644084582987349 0 0 0 0.21 122 198 125 108 211 141 228 131 230 615 
618 0.058306474891282066 0.15210480075543076 0.5658237470014522 0 0 0 0.33 122 199 149 148 211 142 228 132 230 616 
619 0.02857809088112116 0.024449262575491137 0.6095375247874532 0 0 0 0.13 122 200 151 105 230 617 
620 -0.07496444189463446 0.09673729806645151 0.6169978380430697 0 0 0 0.16 125 109 177 42 183 48 230 618 
621 -0.05025597515031675 0.1536970833316241 0.5633062542147818 0 0 0 0.22 122 201 143 43 218 51 230 619 
622 -0.08809871051277485 -0.0005799521331928997 0.6573970050567552 0 0 0 0.56 122 202 195 44 230 620 
623 -0.00430269909877805 0.06665986076281458 0.5950069381630388 0 0 0 0.37 122 203 139 116 230 621 
624 -0.008584547987203263 0.1412592077313619 0.569911640355695 0 0 0 0.29 122 204 132 61 139 117 149 149 212 52 228 133 230 622 
625 0.07559827986759074 -0.25249026118686996 0.7132867788200276 0 0 0 0.77 122 205 143 44 189 28 218 52 230 623 
626 0.41131470442394175 -0.0544273790561255 0.6587066903342929 0 0 0 0.15 125 110 211 143 228 134 230 624 
627 0.4116655993360403 -0.05443554152270935 0.6591026315509985 0 0 0 0.16 125 111 211 144 230 625 
628 0.41587484531179736 -0.025257779094112295 0.6451729834729947 0 0 0 0.08 125 112 211 145 230 626 233 139 
629 0.0871068970333705 0.015856869755271102 0.6141195685290967 0 0 0 0.23 125 113 193 108 205 65 226 40 230 627 
630 0.42849981271091764 -0.23221499764976136 0.7397170438378998 0 0 0 0.43 125 114 149 150 230 628 
631 0.4278048101006514 -0.04833600101476317 0.6429032957280981 0 0 0 0.27 125 115 137 30 211 146 230 629 
632 -0.14183634546668167 0.07092241011812486 0.6260547484973388 0 0 0 0.37 125 116 144 61 177 43 189 29 191 37 193 109 205 66 230 630 233 140 
633 0.32536523604436035 0.06283006852062512 0.6281175278991604 0 0 0 0.4 125 117 144 62 193 110 211 147 230 631 
634 0.42153345335541664 -0.01826301202914453 0.6332981777361524 0 0 0 0.28 125 118 211 148 230 632 
635 0.34731138938798284 -0.02546953732884986 0.6629530324594377 0 0 0 0.74 132 62 212 53 230 633 
636 -0.026254222583440127 0.1719549605133424 0.5510705492400674 0 0 0 0.61 132 63 144 63 230 634 233 141 
637 0.1779869133594457 0.13840815081795738 0.6097021872157188 0 0 0 0.62 132 64 145 41 183 49 230 635 233 142 
638 0.1974379259214638 0.13578031580242497 0.6115496091425078 0 0 0 0.48 132 65 137 31 230 636 
639 0.024808251506289257 0.15818961743972706 0.5610882564275217 0 0 0 0.47 132 66 183 50 193 111 195 45 230 637 
640 0.11709996894497986 -0.25219078582288257 0.7113073836587355 0 0 0 0.41 137 32 140 85 230 638 
641 0.439168600065476 -0.22237523519004868 0.7129729904728592 0 0 0 0.16 137 33 230 639 233 143 
642 -0.03577859682700545 -0.08033284046167279 0.6450189929230025 0 0 0 0.31 137 34 139 118 205 67 230 640 
643 -0.06862345887109085 -0.04107477290737837 0.6658446263124351 0 0 0 0.23 137 35 139 119 154 40 161 60 183 51 205 68 230 641 
644 -0.022373332164531117 0.12971192465380857 0.5702517858543742 0 0 0 0.21 137 36 139 120 149 151 151 106 230 642 
645 0.079108966422982 0.1581268630174292 0.5601601542494856 0 0 0 0.41 137 37 139 121 211 149 230 643 
646 -0.19629472182718424 0.0702106139632132 0.6192423861358226 0 0 0 0.42 137 38 139 122 183 52 210 22 226 41 230 644 
647 -0.006137236727539748 -0.6564881544113778 0.8898369056563855 0 0 0 0.23 139 123 151 107 205 69 230 645 
648 0.024850794269672676 -0.6234420815593135 0.8694687845903842 0 0 0 0.77 139 124 149 152 166 77 205 70 211 150 226 42 230 646 
649 -0.12110454181744541 -0.035947886678814114 0.6650209635441596 0 0 0 0.29 139 125 211 151 230 647 
650 -0.12110454181744541 -0.035947886678814114 0.6650209635441596 0 0 0 0.29 139 126 211 152 230 648 
651 0.3595014248147547 0.025941312879198545 0.6442174917412101 0 0 0 0.11 139 127 211 153 230 649 
652 0.4089740536616353 -0.08362852218919732 0.6828787653489633 0 0 0 0.13 139 128 228 135 230 650 
653 -0.07670987766915774 -0.02901988044303527 0.6573977972869495 0 0 0 0.53 139 129 183 53 211 154 230 651 
654 -0.11645878198585957 0.10668479589658768 0.6079438537757966 0 0 0 0.55 139 130 145 42 230 652 
655 0.08654000155023776 -0.2616726027333313 0.7130371431703925 0 0 0 0.75 140 86 145 43 149 153 161 61 193 112 230 653 
656 0.1001119488041966 -0.2271696234302028 0.696535732979214 0 0 0 0.23 140 87 151 108 230 654 
657 0.4316090553064028 -0.18808029037401766 0.7116324623078566 0 0 0 0.5 140 88 149 154 211 155 230 655 
658 0.38965461948065516 -0.003432598236038467 0.6623639824733076 0 0 0 0.31 140 89 144 64 177 44 216 79 218 53 230 656 
659 0.20365865837712344 0.06185673961966362 0.63437166418464 0 0 0 0.1 140 90 230 657 233 144 
660 -0.15708790326766486 0.06493592619769871 0.6263745076205481 0 0 0 0.27 140 91 202 32 205 71 228 136 230 658 
661 0.32495522974263336 0.06289638544561614 0.6276753392010074 0 0 0 0.27 140 92 144 65 193 113 230 659 
662 -0.16799003936422585 -0.029603488419698027 0.6630876444301993 0 0 0 0.33 140 93 228 137 230 660 
663 0.28179771697607836 0.029476714390897857 0.6506726037242758 0 0 0 0.3 143 45 193 114 230 661 
664 0.08242938057203146 0.17004607972001756 0.555642813398995 0 0 0 0.25 143 46 151 109 230 662 
665 0.2079680402358533 0.06557567717808628 0.6307344181606213 0 0 0 0.21 144 66 183 54 230 663 
666 0.18589616132006592 0.06598947918434932 0.6327789025977211 0 0 0 0.15 144 67 211 156 230 664 
667 -0.12078065865902864 -0.03070939908017632 0.6656345815043346 0 0 0 0.41 144 68 145 44 183 55 230 665 
668 0.031530347930458384 -0.052530273421101246 0.632818426757178 0 0 0 0.16 145 45 177 45 193 115 228 138 230 666 
669 0.017490019928200623 -0.7643082231636579 0.9282338206063101 0 0 0 0.38 149 155 205 72 230 667 
670 0.0027990584292506148 -0.6023433956674323 0.8728281230702524 0 0 0 0.33 149 156 205 73 230 668 
671 0.024744206920571433 -0.4281749506403449 0.7955490530496959 0 0 0 0.63 149 157 193 116 230 669 
672 0.028744903451225802 -0.2388177889333258 0.7063048083023062 0 0 0 0.21 149 158 226 43 230 670 
673 -0.2886446438661459 -0.03630653089663258 0.6689264341048562 0 0 0 0.78 149 159 230 671 233 145 
674 -0.032832287257097824 0.02361496693976796 0.6054323388680689 0 0 0 0.38 149 160 193 117 230 672 
675 -0.03295002084751768 0.04061665233699106 0.5975792445538464 0 0 0 0.23 149 161 230 673 233 146 
676 -0.06112285326441829 0.07347338626539059 0.6259101351908569 0 0 0 0.31 149 162 210 23 230 674 
677 -0.17974021407554241 0.08290922375737785 0.620121700628542 0 0 0 0.49 149 163 230 675 233 147 
678 -0.03324635390726112 0.08961175254066815 0.5824477860192209 0 0 0 0.14 149 164 230 676 233 148 
679 -0.21403861575790112 -0.037616823073634356 0.6673220741045036 0 0 0 0.44 149 165 205 74 230 677 
680 0.4214250715739381 -0.11577317682845709 0.6843192315779285 0 0 0 0.23 149 166 218 54 228 139 230 678 
