# 3D point list with one line of data per point:
#   POINT3D_ID, X, Y, Z, R, G, B, ERROR, TRACK[] as (IMAGE_ID, POINT2D_IDX)
# Number of points: 286, mean track length: 8.56
1769 -0.44546448213912165 0.3522427869246244 0.9291190031582482 0 0 0 0.23 23 1760 34 205 45 68 46 262 48 18 151 474 153 255 173 608 180 713 216 426 218 544 
1770 -0.36378769360384094 0.33368535903000496 0.8916641863529395 0 0 0 0.23 23 1761 140 667 154 580 173 609 
1771 0.2594593877080324 0.04000536711093656 0.2748034586286971 0 0 0 0.49 23 1762 30 271 55 214 57 186 99 397 140 668 177 538 189 65 
1772 -0.39375657869023944 0.3421093724019765 0.9044285376313534 0 0 0 0.16 23 1763 153 256 173 610 
1773 -0.37915045487491095 0.33889260738646204 0.8973735899308436 0 0 0 0.29 23 1764 46 263 55 215 57 187 72 544 140 669 144 148 151 475 154 581 161 283 171 372 173 611 180 714 193 618 216 427 218 545 228 438 
1774 -0.4587795369351212 0.3567715790976017 0.9327055346920986 0 0 0 0.38 23 1765 34 206 59 71 116 512 154 582 180 715 212 116 228 439 
1775 -0.3751076086287419 0.3376546166678503 0.8937067876627985 0 0 0 0.33 23 1766 30 272 34 207 55 216 72 545 102 247 116 513 140 670 151 476 153 257 154 583 171 373 173 612 180 716 193 619 216 428 218 546 226 370 228 440 
1776 0.4216082896239736 0.16030204357541733 0.5324952277012153 0 0 0 0.34 23 1767 30 273 57 188 59 72 72 546 99 398 102 248 119 106 137 75 139 136 143 145 150 299 154 584 177 539 186 136 189 66 191 102 193 620 216 429 218 547 228 441 233 241 
1777 0.1931675159065703 -0.02932511872528282 0.11611532302470606 0 0 0 0.88 23 1768 72 547 99 399 189 67 191 103 202 80 
1778 -0.43792068013680596 0.35203471447245716 0.9215837518955703 0 0 0 0.07 23 1769 34 208 151 477 180 717 
1779 -0.34453867334580696 0.3319493049470581 0.8799668140383415 0 0 0 0.33 23 1770 99 400 116 514 140 671 144 149 151 478 161 284 166 293 171 374 205 228 211 156 218 548 
1780 -0.39828842666984715 0.345534047684432 0.905929330468687 0 0 0 0.09 23 1771 116 515 218 549 
1781 0.26990905608912574 0.20053176006782475 0.6081081528818363 0 0 0 0.41 23 1772 34 209 37 231 99 401 119 107 139 137 151 479 154 585 166 294 173 613 177 540 186 137 193 621 216 430 218 550 228 442 233 242 
1782 -0.2916695062001387 0.32305687586912457 0.8583078006875546 0 0 0 0.48 23 1773 119 108 140 672 161 285 171 375 180 718 193 622 202 81 205 229 211 157 216 431 218 551 228 443 233 243 
1783 -0.29025701527719855 0.3198961496127766 0.8508660815798583 0 0 0 0.25 23 1774 34 210 72 548 151 480 153 258 173 614 180 719 218 552 
1784 0.27310034467727134 0.20824437264915227 0.6215952291449369 0 0 0 0.91 23 1775 57 189 99 402 151 481 173 615 180 720 228 444 
1785 0.2698249493299247 0.20387245481407537 0.6121342998049554 0 0 0 0.43 23 1776 30 274 34 211 37 232 46 264 57 190 59 73 99 403 102 249 116 516 119 109 137 76 139 138 140 673 143 146 150 300 151 482 154 586 166 295 173 616 177 541 180 721 186 138 189 68 191 104 193 623 211 158 212 117 216 432 218 553 226 371 228 445 233 244 
1786 -0.4725133906560917 0.35999640668248956 0.9334547590197696 0 0 0 0.6 102 250 180 722 228 446 
1787 -0.2765949230360072 0.3191031406344561 0.8489562630884409 0 0 0 0.13 23 1777 140 674 151 483 153 259 193 624 218 554 
1788 -0.26967453763398946 0.317719119955902 0.8465505513600111 0 0 0 0.31 23 1778 55 217 57 191 72 549 137 77 140 675 144 150 151 484 154 587 216 433 228 447 
1789 -0.26513585000180606 0.31630468784895044 0.8430919108176177 0 0 0 0.28 23 1779 30 275 55 218 57 192 72 550 102 251 116 517 119 110 140 676 143 147 144 151 151 485 154 588 161 286 171 376 173 617 177 542 193 625 216 434 228 448 
1790 -0.4629378229438466 0.3603931566896667 0.9338537754833567 0 0 0 0.26 23 1780 72 551 218 555 
1791 -0.25549152421803706 0.3129293197121033 0.8330597617259524 0 0 0 0.28 23 1781 72 552 102 252 154 589 171 377 173 618 
1792 -0.22885238815176848 0.30933881342915676 0.8251438481055353 0 0 0 0.36 23 1782 30 276 34 212 37 233 45 69 72 553 99 404 116 518 131 94 140 677 144 152 151 486 154 590 161 287 166 296 171 378 173 619 177 543 193 626 205 230 211 159 212 118 216 435 228 449 233 245 
1793 -0.29215266506991905 0.3233958008362761 0.8524683303397237 0 0 0 0.31 23 1783 34 213 72 554 102 253 140 678 153 260 154 591 161 288 173 620 177 544 180 723 193 627 216 436 218 556 226 372 
1794 -0.1888237271340073 0.3028342940643203 0.8083762172089269 0 0 0 0.13 23 1784 173 621 218 557 
1795 -0.44606472184388796 0.35932432186475255 0.9258146196488986 0 0 0 0.23 23 1785 34 214 48 19 144 153 151 487 154 592 180 724 218 558 
1796 -0.10991627803760776 0.2832971921424732 0.766621708971914 0 0 0 0.39 23 1786 30 277 34 215 37 234 46 265 57 193 59 74 72 555 90 51 99 405 116 519 119 111 137 78 139 139 140 679 143 148 144 154 151 488 166 297 171 379 173 622 177 545 180 725 183 248 186 139 193 628 211 160 212 119 218 559 228 450 233 246 
1797 -0.1652266582113088 0.29621906334429554 0.792557559573942 0 0 0 0.37 23 1787 59 75 102 254 154 593 161 289 177 546 180 726 193 629 
1798 -0.1564529290506806 0.295314437901361 0.789941135000213 0 0 0 0.39 23 1788 30 278 55 219 57 194 72 556 125 295 140 680 143 149 154 594 161 290 171 380 180 727 193 630 218 560 
1799 -0.14931734167506064 0.2946489282280531 0.7873310580336242 0 0 0 0.46 23 1789 57 195 72 557 102 255 116 520 125 296 137 79 140 681 143 150 144 155 151 489 173 623 177 547 180 728 183 249 193 631 211 161 212 120 218 561 228 451 
1800 0.17694805983194498 0.2188682481763376 0.6258458379006108 0 0 0 0.25 23 1790 140 682 173 624 177 548 180 729 228 452 
1801 0.1777275083003814 0.21882053957559638 0.6259003379362171 0 0 0 0.3 23 1791 140 683 173 625 177 549 180 730 218 562 
1802 -0.3760089775845846 0.3448071022742984 0.8904423284466731 0 0 0 0.36 23 1792 30 279 55 220 72 558 116 521 119 112 151 490 154 595 166 298 171 381 173 626 218 563 226 373 228 453 
1803 -0.15497926806570553 0.2984609261555514 0.7876188582217072 0 0 0 0.25 23 1793 34 216 140 684 144 156 173 627 177 550 180 731 228 454 
1804 -0.45374488866662155 0.36410929280400295 0.926742477010985 0 0 0 0.25 23 1794 37 235 55 221 72 559 154 596 180 732 193 632 218 564 228 455 
1805 -0.3861865624521124 0.3519949800124056 0.8955294983868027 0 0 0 0.32 23 1795 55 222 151 491 180 733 
1806 0.10199207524519005 0.2471607123808206 0.6669082333966707 0 0 0 0.24 23 1796 102 256 173 628 193 633 
1807 -0.23775310376078357 0.32050304546847874 0.823480618046903 0 0 0 0.32 23 1797 72 560 102 257 154 597 173 629 177 551 183 250 205 231 216 437 
1808 -0.39621123835592775 0.3551709503309616 0.8976410204212582 0 0 0 0.3 23 1798 140 685 151 492 154 598 180 734 218 565 
1809 -0.1609964743999463 0.30672123941097107 0.7889228215626648 0 0 0 0.27 23 1799 119 113 154 599 180 735 191 105 
1810 -0.4046880431916826 0.3604847157740824 0.9001996339292793 0 0 0 0.36 23 1800 34 217 151 493 154 600 166 299 180 736 218 566 
1811 -0.18486776780042138 0.31187087325500795 0.7909885440650839 0 0 0 0.23 23 1801 57 196 72 561 144 157 151 494 173 630 212 121 
1812 -0.4244446836529468 0.3655434210411345 0.9105829348011951 0 0 0 0.32 23 1802 37 236 151 495 218 567 
1813 0.2550238391423787 0.22040387450042348 0.5811012072052716 0 0 0 0.18 23 1803 144 158 151 496 154 601 
1814 -0.36461378724835736 0.35171105725341806 0.8758453559985433 0 0 0 0.06 23 1804 55 223 183 251 
1815 -0.36199331775568777 0.35207085635896684 0.8765766077431362 0 0 0 0.2 23 1805 34 218 140 686 151 497 166 300 180 737 193 634 211 162 218 568 228 456 
1816 -0.13894025720657158 0.3060154908078705 0.7707574348608287 0 0 0 0.35 23 1806 46 266 57 197 72 562 102 258 116 522 119 114 131 95 145 192 171 382 173 631 177 552 180 738 183 252 193 635 218 569 228 457 
1817 0.23094266073167088 0.04531397816859329 0.19735169118174914 0 0 0 0.31 23 1807 30 280 57 198 72 563 99 406 177 553 189 69 191 106 
1818 0.20262842191923924 0.23363436560920087 0.6025014961254093 0 0 0 0.22 23 1808 102 259 119 115 131 96 177 554 228 458 
1819 0.23904924087609414 0.043029410332252875 0.18718521036029023 0 0 0 0.35 23 1809 30 281 72 564 140 687 189 70 
1820 -0.1469118695025732 0.3091780673540074 0.769557017391107 0 0 0 0.38 23 1810 37 237 46 267 55 224 72 565 99 407 102 260 116 523 131 97 151 498 166 301 171 383 173 632 177 555 180 739 186 140 189 71 193 636 218 570 228 459 233 247 
1821 0.28602580135354005 0.10762108345516382 0.3179959855255396 0 0 0 0.46 23 1811 30 282 57 199 72 566 99 408 137 80 139 140 140 688 150 301 177 556 180 740 189 72 216 438 233 248 
1822 0.27918532069029756 0.1053963176734272 0.3124996096928227 0 0 0 0.44 23 1812 57 200 72 567 99 409 102 261 137 81 177 557 180 741 216 439 233 249 
1823 0.21059276488661396 0.022868161904438182 0.1355131707232442 0 0 0 0.45 23 1813 30 283 57 201 99 410 202 82 
1824 0.28970186813279897 0.12103498457212752 0.3446253179665281 0 0 0 0.2 23 1814 150 302 180 742 
1825 0.25548605449495576 0.0806663627353236 0.25660296139989053 0 0 0 0.16 23 1815 99 411 177 558 
1826 -0.08410699447048753 0.31234880041710494 0.7630879938018418 0 0 0 0.45 23 1816 72 568 99 412 173 633 180 743 
1827 0.40140498764964855 -0.1080583314939411 -0.1614987777040619 0 0 0 1.75 23 1817 150 303 
1828 -0.13445245061095795 0.30986873613118704 0.7592926094130266 0 0 0 0.32 23 1818 59 76 72 569 99 413 102 262 116 524 177 559 180 744 218 571 
1829 -0.014105820218979652 0.290599089297416 0.7069303400234013 0 0 0 0.41 23 1819 34 219 37 238 55 225 57 202 90 52 99 414 102 263 125 297 143 151 144 159 145 193 151 499 166 302 173 634 177 560 178 22 180 745 183 253 193 637 216 440 228 460 
1830 0.20145511351239556 0.01903266290501248 0.10988585252178308 0 0 0 0.5 23 1820 30 284 57 203 99 415 140 689 
1831 0.20834715267300366 0.018455347329748475 0.10893173791578108 0 0 0 0.28 23 1821 57 204 72 570 140 690 
1832 0.19533843638322373 -0.008782551722558278 0.04772973028454299 0 0 0 0.49 23 1822 30 285 57 205 
1833 -0.1786863264933937 0.32538771871727895 0.7822132503322723 0 0 0 0.27 23 1823 55 226 140 691 
1834 0.2550786231751728 0.10233075522940387 0.27960098170827075 0 0 0 0.31 23 1824 30 286 57 206 143 152 191 107 
1835 0.28265824257981687 0.12389738818554086 0.3221442471048844 0 0 0 0.44 23 1825 30 287 72 571 99 416 102 264 119 116 140 692 150 304 177 561 191 108 216 441 
1836 -0.2920251870234227 0.35681607595639514 0.8396814013470978 0 0 0 0.52 23 1826 30 288 55 227 59 77 72 572 119 117 139 141 140 693 143 153 153 261 166 303 171 384 173 635 180 746 193 638 228 461 233 250 
1837 -0.1862208660325708 0.3382372839764608 0.7844031088057388 0 0 0 0.34 23 1827 30 289 143 154 173 636 177 562 180 747 218 572 
1838 0.2771084131624284 0.24970891625039476 0.5615523942364696 0 0 0 0.31 23 1828 37 239 46 268 140 694 150 305 151 500 216 442 228 462 
1839 -0.3087153289642674 0.37697179079516496 0.8726212314383188 0 0 0 0.21 23 1829 72 573 153 262 173 637 180 748 
1840 -0.3077149245899918 0.37716594584084984 0.8730032584871079 0 0 0 0.19 23 1830 153 263 180 749 
1841 0.36403565288350237 0.19721783522647315 0.43373076740966193 0 0 0 0.42 23 1831 99 417 140 695 143 155 180 750 
1842 -0.14580676244621193 0.332700482505628 0.7614182513592815 0 0 0 0.39 23 1832 72 574 99 418 139 142 143 156 171 385 173 638 180 751 191 109 193 639 211 163 228 463 
1843 -0.14676348841829312 0.33755564612143196 0.759049178328782 0 0 0 0.43 23 1833 30 290 55 228 72 575 99 419 119 118 139 143 171 386 173 639 180 752 193 640 211 164 228 464 
1844 -0.4432818686021507 0.3961966975620675 0.9010010256951717 0 0 0 0.24 23 1834 171 387 180 753 
1845 -0.14765638278554727 0.3433682994171402 0.756009741044641 0 0 0 0.38 23 1835 34 220 72 576 137 82 139 144 144 160 173 640 180 754 
1846 -0.15005464742939498 0.34898856470309764 0.759362099105237 0 0 0 0.17 23 1836 144 161 173 641 180 755 
1847 -0.06919398583366901 -0.2552758339728825 1.0105056949481133 0 0 0 0.53 23 1837 46 269 47 102 86 198 94 364 116 525 125 298 131 98 149 299 151 501 154 602 166 304 173 642 177 563 193 641 212 122 216 443 218 573 
1848 -0.060199960895691254 -0.26761941599397515 0.992326086093246 0 0 0 0.31 23 1838 173 643 177 564 218 574 
1849 -0.05726629067018533 -0.25218630639039313 1.0224369885791162 0 0 0 0.43 23 1839 34 221 47 103 59 78 86 199 116 526 131 99 143 157 144 162 151 502 166 305 173 644 177 565 180 756 189 73 193 642 216 444 218 575 
1850 -0.09810241808620339 -0.19424604149023744 1.0765776331094838 0 0 0 0.42 23 1840 46 270 57 207 58 135 86 200 90 53 94 365 102 265 116 527 125 299 139 145 151 503 154 603 166 306 173 645 186 141 191 110 193 643 216 445 218 576 
1851 -0.07882087502484234 -0.20360741456248288 1.0729383520662148 0 0 0 0.51 23 1841 55 229 151 504 171 388 178 23 180 757 202 83 
1852 -0.09123934015926564 -0.20393206746838896 1.0607685864067167 0 0 0 0.81 23 1842 34 222 47 104 59 79 86 201 116 528 154 604 166 307 177 566 193 644 212 123 
1853 -0.09042903449563908 -0.15320565353326016 1.0732719524854015 0 0 0 1.19 23 1843 173 646 177 567 218 577 
1854 -0.011809017017982757 -0.2331050524858256 0.9761139321382404 0 0 0 0.49 23 1844 34 223 37 240 46 271 55 230 94 366 102 266 116 529 125 300 131 100 144 163 149 300 151 505 154 605 161 291 166 308 173 647 177 568 180 758 186 142 191 111 193 645 205 232 211 165 212 124 216 446 225 17 226 374 
1855 0.007605645891100901 -0.2505576161254909 0.9508570393659507 0 0 0 0.37 23 1845 72 577 116 530 143 158 173 648 180 759 216 447 226 375 
1856 -0.07881640271138152 -0.1614309868154309 1.0533243186158887 0 0 0 0.29 23 1846 154 606 193 646 
1857 -0.05960677236449185 -0.13920857123433097 1.1123381271210968 0 0 0 0.3 23 1847 37 241 58 136 86 202 125 301 144 164 149 301 151 506 161 292 166 309 173 649 177 569 180 760 189 74 193 647 202 84 212 125 
1858 -0.06086876413389379 -0.13407350542785113 1.1190269544979432 0 0 0 0.38 23 1848 34 224 45 70 46 272 58 137 59 80 86 203 94 367 102 267 116 531 125 302 131 101 144 165 154 607 166 310 173 650 177 570 180 761 186 143 212 126 218 578 
1859 -0.07731833248687543 -0.15859173475368574 1.0436115893177489 0 0 0 0.34 23 1849 34 225 37 242 46 273 57 208 59 81 72 578 86 204 94 368 102 268 116 532 125 303 131 102 143 159 144 166 145 194 149 302 151 507 154 608 161 293 171 389 173 651 177 571 178 24 180 762 183 254 186 144 189 75 193 648 205 233 210 171 211 166 212 127 218 579 
1860 -0.07812687274268554 -0.14331432216246276 1.0551568539710743 0 0 0 0.2 23 1850 173 652 180 763 
1861 -0.14115968737494963 -0.1281556522596725 0.9685954438611647 0 0 0 0.23 23 1851 173 653 216 448 
1862 -0.08874936927701592 -0.09579558959897347 1.0587548814649688 0 0 0 0.36 23 1852 153 264 171 390 173 654 180 764 
1863 -0.13953028487811173 -0.10978091087105026 0.9844655391407987 0 0 0 0.44 23 1853 59 82 86 205 131 103 143 160 151 508 171 391 173 655 180 765 193 649 210 172 
1864 -0.10593153671777493 -0.10373045855379111 1.0242052049232222 0 0 0 0.23 23 1854 140 696 144 167 173 656 178 25 180 766 193 650 202 85 
1865 -0.34693457885909595 0.05207974700185745 1.150644799202779 0 0 0 0.33 23 1855 145 195 151 509 193 651 228 465 
1866 -0.31922023892852064 0.04214263990995903 1.1407918098719838 0 0 0 0.24 23 1856 55 231 131 104 145 196 153 265 154 609 173 657 180 767 193 652 202 86 218 580 228 466 
1867 -0.11039819696698376 -0.08467112517469573 1.0414601042453884 0 0 0 0.79 23 1857 86 206 116 533 125 304 151 510 153 266 166 311 173 658 177 572 180 768 218 581 
1868 -0.1272045863220106 -0.11257728285844909 0.9585286495986448 0 0 0 0.47 23 1858 57 209 72 579 94 369 116 534 125 305 137 83 140 697 143 161 145 197 149 303 150 306 161 294 166 312 173 659 177 573 180 769 191 112 
1869 -0.10512242519899345 -0.12200440949146384 0.9539296226895142 0 0 0 0.52 23 1859 46 274 47 105 57 210 72 580 102 269 119 119 139 146 140 698 149 304 151 511 154 610 173 660 177 574 183 255 202 87 211 167 218 582 226 376 
1870 -0.06866747778823497 -0.07785667530376596 1.0778502572928137 0 0 0 0.26 23 1860 173 661 216 449 
1871 -0.06791222357575419 -0.0718375577922193 1.0791122227624785 0 0 0 0.48 23 1861 153 267 161 295 173 662 205 234 
1872 -0.08047484306353035 -0.1330295064670145 0.9327003017296257 0 0 0 0.45 23 1862 30 291 34 226 37 243 59 83 86 207 122 69 131 105 139 147 140 699 149 305 150 307 151 512 154 611 166 313 177 575 180 770 183 256 211 168 212 128 
1873 -0.11379184107718338 -0.08776168324308269 0.9934423993883416 0 0 0 0.55 23 1863 37 244 46 275 47 106 72 581 131 106 140 700 143 162 149 306 150 308 161 296 173 663 193 653 202 88 
1874 -0.11827531579159299 -0.08698788013624824 0.9917732659840837 0 0 0 0.58 23 1864 37 245 46 276 47 107 59 84 72 582 143 163 150 309 151 513 173 664 202 89 
1875 -0.2882777330369322 0.04011883437479964 1.1224462799126826 0 0 0 0.47 23 1865 86 208 183 257 186 145 
1876 -0.04585078174961195 -0.14361379586021275 0.9223454505436082 0 0 0 0.3 23 1866 72 583 173 665 178 26 180 771 
1877 -0.29171781636811334 0.04530322838776095 1.128880836908179 0 0 0 0.42 23 1867 140 701 144 168 173 666 193 654 228 467 
1878 -0.017746542397205044 -0.16139948591764042 0.8978189296845065 0 0 0 0.37 59 85 102 270 218 583 
1879 -0.3856075089158471 0.084832140637653 1.1314597039308503 0 0 0 0.24 23 1868 86 209 125 306 145 198 151 514 153 268 154 612 166 314 173 667 180 772 193 655 218 584 228 468 
1880 -0.13571892323806628 -0.08400280196291486 0.9629099497943191 0 0 0 0.32 23 1869 30 292 34 227 46 277 57 211 94 370 116 535 149 307 150 310 151 515 154 613 161 297 166 315 173 668 180 773 205 235 218 585 
1881 -0.3741068401337021 0.0836432005935635 1.1302469470553789 0 0 0 0.38 23 1870 48 20 59 86 86 210 125 307 131 107 144 169 151 516 153 269 166 316 173 669 202 90 228 469 
1882 -0.3826711311319892 0.09770099756562767 1.1328671623074467 0 0 0 0.58 23 1871 102 271 119 120 173 670 180 774 
1883 -0.10575536075030556 -0.06503535696624771 0.9974226042737093 0 0 0 0.37 23 1872 30 293 34 228 37 246 45 71 46 278 57 212 59 87 72 584 86 211 90 54 94 371 116 536 125 308 131 108 132 6 139 148 145 199 149 308 150 311 151 517 154 614 166 317 171 392 173 671 180 775 186 146 191 113 193 656 202 91 210 173 211 169 212 129 216 450 225 18 226 377 228 470 
1884 -0.10690779567636294 -0.06484799789782608 0.9969614420716939 0 0 0 0.36 23 1873 34 229 37 247 46 279 59 88 72 585 131 109 132 7 140 702 143 164 144 170 149 309 151 518 154 615 171 393 180 776 191 114 193 657 202 92 210 174 212 130 228 471 
1885 -0.24539843616535215 0.03478803798667371 1.1000679074365876 0 0 0 0.32 23 1874 55 232 58 138 102 272 116 537 119 121 140 703 145 200 150 312 153 270 161 298 173 672 193 658 205 236 218 586 228 472 
1886 -0.11060154393073394 -0.06302254218228817 0.9888009787234916 0 0 0 0.47 23 1875 30 294 34 230 37 248 59 89 72 586 94 372 116 538 125 309 131 110 132 8 139 149 140 704 143 165 144 171 145 201 149 310 150 313 151 519 161 299 166 318 171 394 180 777 186 147 191 115 202 93 210 175 212 131 226 378 228 473 
1887 -0.21055994425484587 0.02050740950529834 1.0879661261890174 0 0 0 0.3 23 1876 140 705 177 576 
1888 -0.07106440161426562 -0.04694835127228714 1.0454928521295008 0 0 0 0.37 23 1877 30 295 34 231 37 249 46 280 57 213 58 139 59 90 94 373 116 539 125 310 144 172 145 202 151 520 154 616 166 319 171 395 189 76 191 116 212 132 226 379 228 474 
1889 -0.06809929735048684 -0.10200580077453236 0.9203064193725058 0 0 0 0.51 23 1878 166 320 173 673 177 577 193 659 212 133 
1890 -0.17889976133518787 0.013061491067282917 1.0753979466655745 0 0 0 0.33 23 1879 140 706 218 587 
1891 -0.17791016114671562 0.021846099549632306 1.0801438534205703 0 0 0 0.61 23 1880 140 707 151 521 154 617 193 660 
1892 -0.07614344655561432 -0.07438372601926073 0.9249994416956893 0 0 0 0.46 23 1881 30 296 34 232 37 250 45 72 46 281 47 108 55 233 59 91 72 587 86 212 90 55 94 374 102 273 116 540 119 122 125 311 137 84 139 150 140 708 143 166 144 173 145 203 149 311 150 314 151 522 154 618 161 300 166 321 171 396 173 674 177 578 180 778 183 258 189 77 191 117 202 94 205 237 211 170 212 134 215 14 218 588 226 380 
1893 -0.13982104945805263 -0.038009050059723784 0.9396372895696614 0 0 0 0.35 23 1882 34 233 59 92 86 213 202 95 
1894 -0.07173830835110463 -0.010026634768958702 1.038324898326451 0 0 0 0.4 23 1883 37 251 46 282 86 214 94 375 125 312 149 312 150 315 151 523 154 619 161 301 180 779 186 148 193 661 211 171 228 475 
1895 -0.13355321093739286 -0.03677241903654781 0.9341217199463162 0 0 0 0.37 23 1884 30 297 34 234 59 93 86 215 94 376 122 70 125 313 149 313 150 316 151 524 154 620 166 322 171 397 178 27 180 780 186 149 191 118 202 96 205 238 211 172 
1896 -0.0704803603617088 -0.07139877078972896 0.8981832902704424 0 0 0 0.26 23 1885 173 675 178 28 
1897 -0.02944424458902498 -0.08053661535221625 0.8942388101830331 0 0 0 0.36 23 1886 30 298 34 235 37 252 46 283 47 109 55 234 59 94 72 588 86 216 90 56 94 377 116 541 119 123 122 71 125 314 137 85 139 151 140 709 144 174 145 204 149 314 150 317 151 525 154 621 161 302 166 323 171 398 173 676 177 579 178 29 180 781 183 259 191 119 193 662 202 97 205 239 210 176 211 173 212 135 216 451 218 589 226 381 228 476 
1898 -0.4554585364889957 0.14658127357445286 1.065334543595351 0 0 0 0.63 23 1887 57 214 173 677 
1899 -0.444619672523682 0.14319223575092319 1.0642514683380906 0 0 0 0.9 23 1888 173 678 180 782 202 98 211 174 225 19 
1900 -0.44203918768643996 0.1529316521894737 1.0620217699309675 0 0 0 0.26 23 1889 102 274 151 526 154 622 173 679 193 663 
1901 -0.4467399174073818 0.15692467519176947 1.0611982595057756 0 0 0 0.28 23 1890 154 623 173 680 
1902 -0.39713115934092935 0.13730958230551898 1.0504384444362447 0 0 0 0.2 23 1891 153 271 173 681 
1903 -0.036209320091227105 -0.0387687126286512 0.8885726665617524 0 0 0 0.48 23 1892 59 95 72 589 102 275 131 111 173 682 177 580 178 30 180 783 218 590 225 20 
1904 -0.4482365799111514 0.16109212196159906 1.062403272176093 0 0 0 0.38 23 1893 37 253 57 215 58 140 59 96 72 590 86 217 94 378 116 542 125 315 132 9 151 527 154 624 166 324 193 664 211 175 218 591 226 382 
1905 -0.37194132348094733 0.13158007269785685 1.042431509406717 0 0 0 0.14 23 1894 48 21 153 272 173 683 
1906 -0.09152050504954527 -0.011006365617700142 0.8993587202203052 0 0 0 0.3 23 1895 30 299 34 236 45 73 47 110 57 216 59 97 86 218 94 379 102 276 116 543 125 316 131 112 139 152 140 710 143 167 144 175 145 205 149 315 150 318 151 528 154 625 161 303 166 325 173 684 180 784 183 260 193 665 202 99 205 240 210 177 212 136 215 15 216 452 226 383 228 477 233 251 
1907 -0.40429697758321415 0.14635152607807508 1.0430969444557947 0 0 0 0.37 23 1896 55 235 119 124 137 86 154 626 173 685 193 666 205 241 216 453 218 592 228 478 
1908 -0.4402963599453369 0.16228656083381654 1.054985234347082 0 0 0 0.33 23 1897 55 236 72 591 153 273 173 686 183 261 226 384 
1909 -0.42112396577463324 0.15486563044820567 1.0495319037036326 0 0 0 0.36 23 1898 34 237 37 254 48 22 59 98 72 592 86 219 119 125 125 317 131 113 137 87 144 176 151 529 153 274 154 627 173 687 193 667 212 137 218 593 226 385 
1910 -0.015455048414868243 -0.039057723323866735 0.8676510041666471 0 0 0 0.36 23 1899 59 99 94 380 116 544 119 126 166 326 177 581 193 668 216 454 218 594 228 479 
1911 -0.4166761293527597 0.15251970054965294 1.0440611811214362 0 0 0 0.22 23 1900 58 141 94 381 171 399 180 785 218 595 228 480 
1912 -0.04318496744442806 -0.02351193917498679 0.8756646709760836 0 0 0 0.43 23 1901 102 277 173 688 177 582 178 31 
1913 -0.4053698618528377 0.15178327876882855 1.040085005273136 0 0 0 0.3 23 1902 58 142 94 382 116 545 119 127 125 318 137 88 145 206 153 275 161 304 173 689 193 669 205 242 216 455 218 596 228 481 
1914 -0.21169938243882494 0.0847475766772266 1.0066902697940483 0 0 0 0.23 23 1903 140 711 173 690 193 670 202 100 
1915 -0.3976180912981318 0.14991590072084196 1.0372651167689926 0 0 0 0.24 23 1904 145 207 154 628 166 327 180 786 186 150 212 138 
1916 -0.37706426524374076 0.14095357966969155 1.02953439913933 0 0 0 0.3 23 1905 57 217 151 530 154 629 205 243 
1917 -0.37533468964357075 0.14086311062727547 1.0305697682208512 0 0 0 0.39 23 1906 57 218 102 278 119 128 137 89 140 712 151 531 153 276 154 630 166 328 173 691 193 671 
1918 -0.1559246979047839 0.050194568758641 0.952437930450242 0 0 0 0.36 23 1907 72 593 173 692 
1919 -0.018960140305362062 -0.027518425014575885 0.8621472820995677 0 0 0 0.55 23 1908 34 238 47 111 59 100 72 594 86 220 94 383 102 279 116 546 125 319 131 114 139 153 140 713 144 177 149 316 150 319 151 532 166 329 173 693 177 583 178 32 180 787 193 672 211 176 212 139 218 597 228 482 233 252 
1920 -0.09103281942215566 0.007174998400662236 0.8951201877644527 0 0 0 0.35 23 1909 55 237 72 595 102 280 119 129 131 115 140 714 143 168 145 208 173 694 177 584 178 33 180 788 191 120 193 673 202 101 210 178 216 456 218 598 225 21 
1921 -0.40267412516928724 0.15460279678968572 1.0358061313492282 0 0 0 0.25 23 1910 55 238 166 330 193 674 216 457 
1922 0.3730289033895499 -0.12905675566173574 0.8465277830838118 0 0 0 0.47 23 1911 46 284 171 400 218 599 233 253 
1923 -0.33484516476299353 0.1297776793633492 1.0078472407954175 0 0 0 0.45 23 1912 59 101 102 281 144 178 154 631 171 401 180 789 202 102 
1924 0.23040045507127227 -0.07231096643288712 0.8808509490863926 0 0 0 0.41 23 1913 59 102 131 116 140 715 144 179 151 533 166 331 173 695 193 675 202 103 216 458 228 483 
1925 -0.0545224343808138 -0.0005352428468627657 0.8754526092703402 0 0 0 0.62 23 1914 173 696 178 34 180 790 
1926 0.31529435432742636 -0.13264576252581134 0.7968184429843057 0 0 0 0.55 23 1915 116 547 173 697 180 791 216 459 
1927 -0.37296108720506166 0.14912337179512666 1.023590758280733 0 0 0 0.28 23 1916 102 282 119 130 154 632 171 402 191 121 212 140 
1928 -0.37654378244755393 0.14934234103472566 1.0218767176962094 0 0 0 0.11 23 1917 153 277 154 633 
1929 -0.3668769108331884 0.1479835623717002 1.01993349168611 0 0 0 0.41 23 1918 140 716 154 634 173 698 183 262 
1930 -0.366850602287652 0.14792438605421862 1.0201497134206912 0 0 0 0.21 23 1919 153 278 173 699 183 263 
1931 -0.44477475954157825 0.18214562810505225 1.0498613424588126 0 0 0 0.62 23 1920 51 33 55 239 59 103 86 221 102 283 119 131 131 117 139 154 143 169 153 279 173 700 178 35 183 264 202 104 225 22 226 386 
1932 0.22355719173378322 -0.06596810190883054 0.8744363954084956 0 0 0 0.39 23 1921 30 300 34 239 46 285 59 104 86 222 116 548 125 320 131 118 140 717 144 180 145 209 150 320 151 534 166 332 173 701 177 585 180 792 186 151 193 676 205 244 216 460 218 600 228 484 233 254 
1933 -0.13894785570399248 0.0653583593126902 0.9623432855452401 0 0 0 0.39 23 1922 131 119 173 702 177 586 218 601 
1934 -0.39992038149151665 0.16514317594826997 1.0327016509926072 0 0 0 0.36 23 1923 55 240 72 596 131 120 143 170 153 280 173 703 226 387 
1935 -0.018153944390570706 -0.010277638033225154 0.8522226436727034 0 0 0 0.22 23 1924 59 105 72 597 86 223 94 384 99 420 102 284 116 549 143 171 154 635 166 333 173 704 177 587 210 179 228 485 
1936 -0.41640135569547737 0.1718943640493263 1.0297057661968028 0 0 0 0.09 23 1925 34 240 178 36 228 486 
1937 -0.3812669820279752 0.16047661425812448 1.0231107916356685 0 0 0 0.1 23 1926 145 210 193 677 
1938 -0.14659499588444722 0.04794651395778286 0.8927233020635051 0 0 0 1.01 23 1927 59 106 144 181 225 23 233 255 
1939 -0.3655602158444318 0.15848528716778099 1.0172600483895993 0 0 0 0.19 23 1928 183 265 193 678 216 461 
1940 -0.19828189051853146 0.08761132898107518 0.9465328796071069 0 0 0 0.37 23 1929 46 286 55 241 57 219 59 107 86 224 116 550 140 718 151 535 154 636 161 305 173 705 180 793 186 152 193 679 205 245 216 462 218 602 228 487 
1941 -0.031201968282870887 0.00748937188693232 0.8534289424630706 0 0 0 0.5 23 1930 94 385 99 421 137 90 140 719 151 536 173 706 180 794 
1942 -0.28738476243459393 0.13197692787761697 0.9825216377009806 0 0 0 0.36 23 1931 34 241 37 255 46 287 59 108 116 551 125 321 131 121 140 720 144 182 153 281 173 707 177 588 183 266 193 680 218 603 225 24 228 488 
1943 -0.3086623771924045 0.1388846016073116 0.9858840754251341 0 0 0 0.47 23 1932 59 109 86 225 140 721 145 211 150 321 166 334 173 708 177 589 228 489 
1944 -0.4337769728995744 0.19908087623166962 1.0431551409784405 0 0 0 0.38 23 1933 51 34 86 226 102 285 153 282 173 709 180 795 226 388 
1945 0.18591773867950082 -0.030697126797374217 0.8516016894667418 0 0 0 0.22 23 1934 59 110 140 722 
1946 -0.25581525661213594 0.12569557287426314 0.968829481483354 0 0 0 0.32 23 1935 145 212 153 283 173 710 183 267 186 153 193 681 216 463 
1947 -0.42285164792783836 0.19740351036831982 1.039629256236431 0 0 0 0.49 23 1936 34 242 58 143 72 598 102 286 119 132 125 322 143 172 153 284 154 637 166 335 173 711 180 796 226 389 
1948 -0.33283284587846484 0.15620340949482875 0.9936959649512094 0 0 0 0.41 23 1937 37 256 55 242 57 220 59 111 72 599 86 227 94 386 102 287 116 552 132 10 140 723 143 173 144 183 145 213 150 322 153 285 154 638 173 712 178 37 180 797 202 105 218 604 225 25 226 390 228 490 233 256 
1949 -0.13898027132461319 0.06534385793693172 0.8860302810996266 0 0 0 0.29 23 1938 34 243 55 243 57 221 59 112 94 387 116 553 119 133 125 323 131 122 137 91 140 724 145 214 151 537 154 639 161 306 171 403 173 713 178 38 180 798 186 154 193 682 202 106 211 177 212 141 228 491 
1950 -0.45114940238545176 0.20583415294495916 1.0367338162301505 0 0 0 0.24 23 1939 72 600 137 92 144 184 151 538 153 286 173 714 193 683 218 605 226 391 
1951 -0.21586788720804498 0.11755337524264156 0.9477854946720008 0 0 0 0.23 23 1940 30 301 34 244 37 257 45 74 46 288 57 222 58 144 86 228 94 388 99 422 116 554 125 324 139 155 140 725 144 185 145 215 149 317 150 323 151 539 154 640 161 307 166 336 177 590 180 799 183 268 186 155 193 684 202 107 205 246 211 178 212 142 218 606 228 492 233 257 
1952 -0.21491809330047923 0.11757002112488694 0.9482430853286685 0 0 0 0.19 23 1941 153 287 173 715 183 269 193 685 228 493 
1953 -0.03621221185991848 0.038255331887725536 0.8475811447492331 0 0 0 0.44 23 1942 34 245 47 112 59 113 72 601 140 726 144 186 145 216 149 318 154 641 173 716 177 591 178 39 180 800 193 686 202 108 212 143 218 607 226 392 
1954 -0.24793377405504122 0.1372578702227849 0.9602565168912637 0 0 0 0.26 23 1943 30 302 55 244 57 223 59 114 72 602 94 389 99 423 102 288 116 555 119 134 131 123 140 727 143 174 145 217 149 319 153 288 154 642 166 337 173 717 178 40 180 801 183 270 189 78 191 122 193 687 205 247 210 180 216 464 226 393 
1955 -0.20493658611565235 0.11962999308086454 0.9399324625026696 0 0 0 0.78 23 1944 34 246 57 224 58 145 119 135 153 289 161 308 180 802 205 248 212 144 225 26 
1956 -0.36178028748946617 0.18444017103955748 1.0073910478692658 0 0 0 0.41 23 1945 34 247 48 23 55 245 72 603 102 289 153 290 166 338 173 718 180 803 193 688 205 249 218 608 226 394 228 494 
1957 -0.4198488206042236 0.19961502987388133 1.0121040753197244 0 0 0 0.24 23 1946 34 248 57 225 72 604 102 290 125 325 145 218 153 291 180 804 218 609 226 395 
1958 -0.1724311441996723 0.10886758867966362 0.9249810663516355 0 0 0 0.34 23 1947 30 303 37 258 46 289 57 226 59 115 86 229 116 556 140 728 144 187 145 219 151 540 177 592 183 271 186 156 193 689 212 145 218 610 228 495 233 258 
1959 -0.4296512636126655 0.21378740669627846 1.034620481916397 0 0 0 0.25 23 1948 48 24 72 605 153 292 171 404 180 805 218 611 
1960 -0.17431031027727445 0.1141003409380294 0.9293703720982326 0 0 0 0.3 23 1949 140 729 183 272 218 612 
1961 -0.1762492619184869 0.12281593018360937 0.9254772441261917 0 0 0 0.16 23 1950 151 541 173 719 
1962 -0.38160552382768864 0.2038372531783495 1.0105286206863249 0 0 0 0.35 23 1951 57 227 72 606 
1963 -0.1419216255669828 0.09276060675124598 0.8724612172609868 0 0 0 0.43 23 1952 34 249 46 290 47 113 55 246 57 228 59 116 86 230 90 57 94 390 102 291 116 557 121 9 122 72 125 326 131 124 132 11 139 156 140 730 144 188 145 220 149 320 151 542 154 643 161 309 171 405 173 720 177 593 178 41 186 157 191 123 193 690 202 109 205 250 211 179 212 146 216 465 218 613 228 496 233 259 
1964 -0.35049286878080754 0.18788505458757584 0.9850069228355008 0 0 0 0.23 23 1953 34 250 94 391 119 136 140 731 150 324 154 644 180 806 193 691 211 180 226 396 228 497 233 260 
1965 0.1817647243200779 -0.3028428575137015 0.13125537972181606 0 0 0 0.3 23 1954 150 325 177 594 
1966 -0.21328122259686247 0.14882217312579019 0.9387980386901235 0 0 0 0.35 23 1955 30 304 34 251 37 259 46 291 55 247 57 229 58 146 59 117 72 607 86 231 94 392 99 424 102 292 116 558 119 137 121 10 125 327 131 125 139 157 140 732 143 175 144 189 145 221 149 321 150 326 151 543 153 293 154 645 161 310 177 595 178 42 180 807 183 273 189 79 191 124 193 692 202 110 205 251 210 181 211 181 218 614 226 397 228 498 233 261 
1967 -0.03881675491782832 0.06544483882861961 0.8320927678064335 0 0 0 0.48 23 1956 34 252 37 260 47 114 55 248 59 118 72 608 86 232 94 393 116 559 143 176 144 190 149 322 150 327 151 544 161 311 173 721 177 596 180 808 193 693 205 252 211 182 216 466 218 615 226 398 228 499 233 262 
1968 0.37051041686250613 -0.13315607729746268 0.5654194485846428 0 0 0 0.49 23 1957 57 230 59 119 99 425 116 560 122 73 131 126 137 93 140 733 144 191 150 328 154 646 161 312 177 597 178 43 180 809 189 80 191 125 202 111 205 253 212 147 216 467 225 27 228 500 233 263 
1969 -0.3476543778791545 0.20501287751504185 0.9909370028113236 0 0 0 0.37 23 1958 46 292 51 35 58 147 59 120 72 609 86 233 94 394 102 293 116 561 121 11 125 328 140 734 143 177 144 192 151 545 153 294 154 647 161 313 166 339 171 406 173 722 180 810 186 158 189 81 191 126 193 694 205 254 212 148 216 468 218 616 226 399 228 501 
1970 -0.13278056989366974 0.11836871856741862 0.885400154517556 0 0 0 0.66 23 1959 47 115 99 426 102 294 121 12 145 222 171 407 173 723 178 44 212 149 
1971 -0.30663218503903084 0.18787200199728113 0.9645837045475661 0 0 0 0.25 23 1960 34 253 37 261 58 148 59 121 72 610 86 234 94 395 99 427 102 295 116 562 131 127 137 94 140 735 143 178 144 193 145 223 150 329 153 295 166 340 171 408 173 724 177 598 178 45 180 811 189 82 193 695 202 112 211 183 218 617 225 28 226 400 228 502 
1972 -0.04269897373131911 0.07883879506116716 0.8284583780047329 0 0 0 0.43 23 1961 30 305 59 122 94 396 99 428 125 329 137 95 154 648 177 599 180 812 191 127 193 696 
1973 -0.022782115644040174 0.06916950649394572 0.8142437068498404 0 0 0 0.48 23 1962 30 306 34 254 37 262 45 75 46 293 47 116 55 249 57 231 59 123 72 611 86 235 94 397 99 429 102 296 116 563 119 138 125 330 137 96 139 158 140 736 143 179 144 194 145 224 149 323 150 330 151 546 154 649 161 314 166 341 171 409 173 725 177 600 178 46 180 813 183 274 186 159 189 83 191 128 193 697 202 113 205 255 210 182 211 184 212 150 216 469 218 618 226 401 228 503 233 264 
1974 0.17985813310631957 -0.29575845925046274 0.10204898995020732 0 0 0 0.85 23 1963 30 307 55 250 57 232 72 612 150 331 177 601 189 84 191 129 
1975 -0.3802501213317396 0.21583320554735624 0.991748846673537 0 0 0 0.37 23 1964 48 25 59 124 72 613 86 236 125 331 131 128 144 195 153 296 171 410 173 726 178 47 180 814 202 114 212 151 218 619 226 402 
1976 0.17696410903336862 -0.28733892706430786 0.11406883547075014 0 0 0 0.65 23 1965 55 251 57 233 72 614 150 332 177 602 189 85 191 130 
1977 -0.3822328844183941 0.22162856359394445 1.002432743844943 0 0 0 0.29 23 1966 48 26 144 196 218 620 
1978 0.1924654569452843 -0.27563935967977704 0.13560484473947942 0 0 0 0.53 23 1967 55 252 140 737 150 333 177 603 191 131 
1979 -0.022728272603587795 0.0765552517862336 0.8133997468585363 0 0 0 0.55 23 1968 30 308 34 255 47 117 59 125 72 615 94 398 99 430 116 564 119 139 122 74 131 129 140 738 143 180 144 197 149 324 151 547 154 650 171 411 177 604 178 48 193 698 202 115 210 183 211 185 216 470 218 621 226 403 233 265 
1980 -0.4331635427001389 0.24298650065515853 1.0192087623961263 0 0 0 0.4 23 1969 48 27 59 126 72 616 143 181 166 342 171 412 173 727 180 815 212 152 
1981 0.3095876149204698 -0.1394933704996418 0.462511849763617 0 0 0 0.51 23 1970 59 127 72 617 144 198 150 334 180 816 233 266 
1982 -0.34988519175110433 0.21542885831269357 0.9855948143924421 0 0 0 0.16 23 1971 180 817 193 699 218 622 
1983 0.2162588510583309 -0.21864314692158776 0.24911711090065167 0 0 0 0.46 23 1972 102 297 150 335 177 605 189 86 202 116 
1984 0.265447980209701 -0.17564877557524297 0.359021641211251 0 0 0 0.12 23 1973 55 253 99 431 150 336 
1985 -0.419679727991234 0.23785232664795242 1.0031125405070167 0 0 0 0.21 23 1974 37 263 46 294 51 36 72 618 86 237 94 399 102 298 116 565 125 332 153 297 166 343 171 413 173 728 180 818 186 160 189 87 193 700 202 117 212 153 
1986 -0.42018419317832484 0.2378167649237457 1.002754666785607 0 0 0 0.21 23 1975 34 256 37 264 46 295 48 28 51 37 55 254 57 234 58 149 72 619 86 238 90 58 94 400 102 299 116 566 119 140 125 333 131 130 143 182 144 199 145 225 149 325 151 548 154 651 166 344 171 414 173 729 178 49 186 161 189 88 193 701 202 118 211 186 212 154 216 471 218 623 226 404 228 504 
1987 0.24993237736290308 -0.24805462932327815 0.18694230271040987 0 0 0 0.38 23 1976 55 255 57 235 140 739 150 337 177 606 189 89 191 132 
1988 -0.3097524480071342 0.2098518856852056 0.9663972164891594 0 0 0 0.44 23 1977 46 296 58 150 59 128 72 620 86 239 99 432 143 183 149 326 150 338 166 345 171 415 180 819 183 275 193 702 211 187 218 624 226 405 
1989 0.15681178894179001 0.042565833366000075 0.7656093662009313 0 0 0 0.53 23 1978 37 265 86 240 131 131 140 740 144 200 150 339 193 703 
1990 -0.14442235543718623 0.1362444581884394 0.8627017047133037 0 0 0 0.24 23 1979 34 257 46 297 47 118 59 129 116 567 125 334 131 132 144 201 145 226 149 327 151 549 171 416 173 730 178 50 180 820 202 119 211 188 216 472 228 505 
1991 -0.36814350553781405 0.2310768976101073 0.9889105167277953 0 0 0 0.6 23 1980 48 29 55 256 59 130 72 621 86 241 94 401 102 300 119 141 125 335 131 133 143 184 151 550 153 298 166 346 178 51 180 821 183 276 191 133 193 704 202 120 212 155 218 625 226 406 
1992 -0.34830984360886286 0.2243813418324347 0.9820246664235203 0 0 0 0.37 23 1981 59 131 72 622 102 301 116 568 143 185 171 417 173 731 216 473 218 626 
1993 0.08634891393037325 0.07692068840000044 0.8061196395101624 0 0 0 0.17 23 1982 72 623 173 732 
1994 -0.16103544001027448 0.1590612779569792 0.895175079389766 0 0 0 0.42 23 1983 30 309 72 624 86 242 94 402 99 433 102 302 125 336 131 134 143 186 149 328 154 652 166 347 210 184 216 474 218 627 225 29 
1995 -0.34725318414125916 0.22376705687599854 0.9674749068400832 0 0 0 0.2 23 1984 34 258 45 76 59 132 72 625 86 243 94 403 102 303 125 337 131 135 140 741 143 187 149 329 151 551 153 299 154 653 166 348 171 418 173 733 178 52 180 822 191 134 193 705 202 121 212 156 216 475 218 628 225 30 226 407 
1996 -0.347316963165198 0.22372077668275106 0.9674536335504265 0 0 0 0.17 23 1985 34 259 59 133 102 304 140 742 143 188 151 552 154 654 180 823 193 706 225 31 226 408 
1997 0.25636776122486404 -0.15271452645786204 0.3486770799509498 0 0 0 0.45 23 1986 55 257 150 340 189 90 202 122 
1998 -0.40129191059675323 0.24634026769024628 0.9927684501371028 0 0 0 0.31 23 1987 48 30 51 38 55 258 58 151 59 134 86 244 116 569 131 136 139 159 143 189 144 202 145 227 151 553 153 300 154 655 161 315 171 419 173 734 178 53 180 824 193 707 205 256 212 157 218 629 226 409 228 506 
1999 0.29071677670767565 -0.005305285018146056 0.6706422393042284 0 0 0 0.42 23 1988 34 260 94 404 99 434 122 75 131 137 143 190 144 203 149 330 150 341 151 554 166 349 171 420 173 735 177 607 178 54 180 825 210 185 212 158 218 630 
2000 0.22514900434057883 -0.18971907704807037 0.24712685186371303 0 0 0 0.55 23 1989 55 259 99 435 150 342 202 123 
2001 0.2253293654468433 -0.18997794319877134 0.24715792782652235 0 0 0 0.36 23 1990 57 236 99 436 
2002 -0.37849037453638446 0.240781918204465 0.9833822494282961 0 0 0 0.47 23 1991 37 266 46 298 48 31 55 260 57 237 58 152 59 135 72 626 94 405 116 570 121 13 125 338 137 97 139 160 143 191 144 204 149 331 151 555 153 301 154 656 171 421 173 736 180 826 183 277 189 91 191 135 193 708 202 124 212 159 216 476 218 631 225 32 226 410 228 507 
2003 0.22398527390927772 -0.19226328924401692 0.24060199440243096 0 0 0 0.47 23 1992 72 627 150 343 189 92 202 125 
2004 0.21457071939717917 -0.19017987307568987 0.24226114012446312 0 0 0 0.2 23 1993 72 628 150 344 177 608 189 93 191 136 
2005 0.22284766406836942 0.03309626602521314 0.726281986722122 0 0 0 0.44 23 1994 46 299 47 119 57 238 86 245 94 406 140 743 145 228 149 332 151 556 173 737 177 609 178 55 216 477 218 632 228 508 233 267 
2006 0.2136310189139769 -0.1959947158400114 0.22178631807511065 0 0 0 0.23 23 1995 55 261 57 239 177 610 
2007 -0.20475377597581707 0.1859192415059409 0.9149232139777276 0 0 0 0.38 23 1996 30 310 34 261 46 300 58 153 59 136 72 629 94 407 99 437 102 305 116 571 119 142 125 339 137 98 154 657 161 316 166 350 171 422 193 709 205 257 210 186 211 189 212 160 216 478 228 509 233 268 
2008 0.26938404594869764 -0.14919828377517924 0.33200243251834327 0 0 0 0.19 23 1997 55 262 189 94 
2009 0.2321417180715301 -0.17508952485724272 0.26328495728232165 0 0 0 0.22 23 1998 55 263 99 438 102 306 177 611 
2010 0.2667899504072076 -0.1414085874509817 0.34544608188933795 0 0 0 0.37 23 1999 55 264 57 240 72 630 99 439 102 307 137 99 140 744 150 345 177 612 189 95 191 137 202 126 
2011 -0.41913547793371425 0.2549724020214733 0.9896934015461161 0 0 0 0.4 23 2000 55 265 72 631 94 408 116 572 119 143 125 340 144 205 151 557 166 351 171 423 173 738 183 278 189 96 191 138 202 127 211 190 218 633 225 33 226 411 228 510 
2012 0.37597592093040944 -0.06612976734484304 0.5378655373050497 0 0 0 0.3 23 2001 55 266 57 241 59 137 72 632 86 246 99 440 102 308 119 144 131 138 137 100 139 161 140 745 143 192 144 206 150 346 161 317 171 424 177 613 178 56 180 827 189 97 202 128 205 258 212 161 216 479 225 34 228 511 233 269 
2013 0.20017638989658082 -0.188366844712629 0.21607241753341816 0 0 0 0.25 23 2002 150 347 189 98 
2014 0.3852008783109992 -0.058866470184345404 0.5476424792795105 0 0 0 0.3 23 2003 55 267 59 138 72 633 86 247 99 441 102 309 119 145 131 139 137 101 139 162 140 746 143 193 144 207 150 348 161 318 166 352 171 425 177 614 178 57 180 828 189 99 191 139 193 710 202 129 205 259 212 162 216 480 225 35 228 512 233 270 
2015 -0.45280873495699125 0.27299033493008773 1.010375495458712 0 0 0 0.51 23 2004 48 32 72 634 144 208 145 229 153 302 154 658 171 426 178 58 
2016 0.23404591974819325 -0.16423943972300148 0.27127366921295754 0 0 0 0.4 23 2005 99 442 102 310 
2017 -0.3076564827692123 0.22599731154920394 0.948658560411036 0 0 0 0.61 23 2006 57 242 58 154 59 139 72 635 99 443 119 146 125 341 137 102 140 747 144 209 149 333 150 349 151 558 153 303 154 659 161 319 166 353 171 427 173 739 180 829 189 100 202 130 210 187 211 191 212 163 228 513 233 271 
2018 0.3374344825993218 -0.07562991394021472 0.48811348587019804 0 0 0 0.27 23 2007 30 311 57 243 59 140 72 636 131 140 137 103 140 748 143 194 144 210 145 230 150 350 161 320 177 615 189 101 191 140 202 131 205 260 212 164 216 481 228 514 233 272 
2019 -0.20336555486493174 0.19234518858497546 0.9013214377603023 0 0 0 0.05 23 2008 140 749 193 711 
2020 -0.4292402348278274 0.26819335808962846 0.9977570088443304 0 0 0 0.16 23 2009 48 33 116 573 125 342 166 354 171 428 211 192 
2021 -0.44745406230557444 0.27793903084560506 1.0062248469616133 0 0 0 0.5 23 2010 55 268 58 155 94 409 119 147 154 660 178 59 189 102 218 634 226 412 
2022 -0.3463185269701431 0.2408547235853546 0.9549980419916306 0 0 0 0.22 23 2011 59 141 154 661 
2023 -0.4245806637300296 0.2699625027886051 0.9916338777132939 0 0 0 0.25 23 2012 57 244 58 156 125 343 193 712 211 193 218 635 228 515 
2024 -0.38121335285398966 0.25858144786132237 0.9748146444042256 0 0 0 0.27 23 2013 58 157 59 142 72 637 116 574 119 148 153 304 166 355 171 429 173 740 218 636 
2025 -0.3815700955452701 0.25843724544374685 0.9745398857549895 0 0 0 0.24 23 2014 55 269 57 245 59 143 72 638 102 311 153 305 173 741 218 637 
2026 -0.4360935425694455 0.2755430218677297 0.9956685740156204 0 0 0 0.31 23 2015 48 34 59 144 72 639 102 312 137 104 153 306 173 742 218 638 
2027 0.2507194104929978 -0.1333948577876122 0.2986755616343177 0 0 0 0.37 23 2016 57 246 140 750 150 351 177 616 202 132 
2028 -0.3086080199937409 0.2353703141451131 0.9424771896730929 0 0 0 0.29 23 2017 30 312 37 267 57 247 58 158 59 145 86 248 94 410 116 575 125 344 131 141 144 211 149 334 151 559 154 662 166 356 189 103 191 141 202 133 210 188 211 194 212 165 226 413 228 516 
2029 -0.20048034432562334 0.20111765467111353 0.8956324868757465 0 0 0 0.44 23 2018 37 268 57 248 59 146 72 640 86 249 99 444 121 14 131 142 137 105 140 751 143 195 149 335 153 307 154 663 161 321 173 743 177 617 180 830 193 713 202 134 211 195 212 166 225 36 226 414 228 517 233 273 
2030 -0.3558126429981953 0.2536549096912601 0.9619833882493024 0 0 0 0.35 23 2019 34 262 55 270 59 147 86 250 119 149 125 345 131 143 144 212 151 560 171 430 173 744 189 104 191 142 212 167 216 482 218 639 226 415 
2031 0.16669596354561605 -0.1929497398661903 0.12335599193240074 0 0 0 0.23 23 2020 150 352 189 105 
2032 -0.3266976949469072 0.2474321771223714 0.9473243520153534 0 0 0 0.24 23 2021 30 313 58 159 59 148 116 576 125 346 173 745 193 714 212 168 218 640 225 37 
2033 -0.3514456731375091 0.2554682830582099 0.9576558757416463 0 0 0 0.21 23 2022 193 715 228 518 
2034 -0.34408021325634214 0.25623142128251947 0.9603676448334234 0 0 0 0.17 23 2023 72 641 102 313 
2035 -0.4099533578219049 0.27449019176462025 0.9818241153588136 0 0 0 0.19 23 2024 58 160 125 347 154 664 
2036 0.2343644769651548 -0.1327786168946682 0.2549642849418781 0 0 0 0.26 23 2025 72 642 99 445 177 618 189 106 191 143 202 135 
2037 -0.40891482749763713 0.2776772243108294 0.9808067312177283 0 0 0 0.29 23 2026 55 271 58 161 86 251 125 348 151 561 154 665 202 136 212 169 218 641 
2038 -0.4074846665175588 0.27518790107873065 0.9781377074740214 0 0 0 0.48 23 2027 34 263 46 301 48 35 51 39 55 272 58 162 59 149 72 643 125 349 131 144 137 106 143 196 144 213 149 336 151 562 153 308 154 666 171 431 173 746 178 60 183 279 189 107 193 716 202 137 205 261 211 196 212 170 216 483 218 642 226 416 228 519 
2039 -0.3321137170963466 0.25369982804691565 0.9469230697317563 0 0 0 0.34 23 2028 59 150 171 432 180 831 218 643 225 38 
2040 0.15797491148360893 -0.23538816296900017 0.011064971614597224 0 0 0 0.71 23 2029 30 314 177 619 
2041 0.12015575480017794 -0.21241065185327085 0.04830401806075438 0 0 0 0.58 23 2030 150 353 177 620 189 108 
2042 0.1263853583592966 -0.218450493243284 0.03705719580402147 0 0 0 0.45 23 2031 55 273 57 249 177 621 
2043 0.13549479113750207 -0.20026686011087133 0.07496016217137134 0 0 0 0.17 23 2032 150 354 177 622 
2044 0.25602180398743934 -0.10793600053452204 0.29613195593710534 0 0 0 0.38 23 2033 102 314 140 752 177 623 202 138 
2045 -0.3898601131469102 0.2752391776636809 0.9693492920371383 0 0 0 0.21 23 2034 72 644 119 150 153 309 173 747 226 417 
2046 -0.2962666455045552 0.24840593760132507 0.932122702996617 0 0 0 0.29 23 2035 72 645 153 310 173 748 180 832 
2047 0.14004863466052508 -0.20911611043063627 0.045339148451792016 0 0 0 0.59 23 2036 55 274 57 250 150 355 189 109 
2048 0.2158527681811298 -0.16772367482965422 0.15128818633672583 0 0 0 0.36 23 2037 72 646 202 139 
2049 -0.39903295878009404 0.2810474350849595 0.9739874215142367 0 0 0 0.51 23 2038 34 264 46 302 131 145 173 749 180 833 205 262 218 644 226 418 
2050 -0.36396048884990984 0.26907380584164253 0.9579646346274676 0 0 0 0.44 23 2039 46 303 58 163 59 151 72 647 102 315 137 107 140 753 153 311 173 750 180 834 218 645 226 419 
2051 -0.3655127825828335 0.268980740787328 0.9574364758355798 0 0 0 0.39 23 2040 46 304 58 164 131 146 180 835 218 646 
2052 -0.38476451491178426 0.2748030921240677 0.9635025715716694 0 0 0 0.38 23 2041 102 316 173 751 180 836 183 280 
2053 0.19579496828021395 -0.1635428973237021 0.14168904207864 0 0 0 0.73 23 2042 30 315 55 275 57 251 189 110 
2054 0.21306089779029952 -0.16186353652175064 0.14714883273841686 0 0 0 0.64 23 2043 30 316 55 276 57 252 177 624 189 111 202 140 
