# 3D point list with one line of data per point:
#   POINT3D_ID, X, Y, Z, R, G, B, ERROR, TRACK[] as (IMAGE_ID, POINT2D_IDX)
# Number of points: 413, mean track length: 6.74
716 0.38826280680195746 0.029907733097230344 0.9712791989569298 0 0 0 0.28 4 163 17 12 53 47 92 148 110 103 172 33 201 145 204 59 213 135 
717 0.0906876600189423 0.05407976903344442 0.9619299804031962 0 0 0 0.32 4 164 17 13 118 57 176 144 
718 0.3361355746712245 0.058719808684057885 0.9514371513410385 0 0 0 0.26 4 165 11 89 15 11 17 14 28 180 53 48 77 101 85 94 91 17 92 149 118 58 128 9 146 220 148 74 165 2 176 145 187 130 194 66 197 23 201 146 204 60 213 136 232 44 234 41 235 3 
719 0.20514869338569405 0.05731659116516046 0.9551822171953663 0 0 0 0.18 4 166 11 90 17 15 28 181 77 102 92 150 146 221 187 131 201 147 204 61 213 137 214 187 232 45 234 42 53 49 85 95 91 18 110 104 118 59 148 75 164 92 176 146 194 67 
720 0.3733577971267482 0.0661963484821328 0.9558476165896396 0 0 0 0.41 4 167 11 91 44 120 50 101 53 50 61 65 77 103 118 60 128 10 158 55 201 148 
721 0.0661941393364584 0.06588579850741764 0.960172020825236 0 0 0 0.24 4 168 11 92 15 12 16 105 17 16 28 182 53 51 77 104 85 96 118 61 146 222 148 76 164 93 176 147 194 68 201 149 213 138 214 188 223 12 232 46 
722 0.2609107892246391 -0.0841074635726205 0.9813183692064827 0 0 0 0.44 4 169 11 93 15 13 61 66 98 136 146 223 148 77 201 150 
723 0.08378713143651734 0.04574850641397773 0.9664283491329255 0 0 0 0.2 4 170 15 14 16 106 17 17 50 102 61 67 77 105 85 97 109 86 110 105 112 144 118 62 128 11 146 224 152 6 158 56 176 148 194 69 201 151 204 62 213 139 232 47 234 43 175 82 
724 0.20532027050551543 0.06414909024898428 0.9554200830919864 0 0 0 0.3 4 171 11 94 15 15 28 183 53 52 77 106 118 63 146 225 187 132 194 70 201 152 204 63 213 140 214 189 234 44 
725 0.27032464507399606 0.08133422024157257 0.9510657657038877 0 0 0 0.28 4 172 11 95 53 53 77 107 85 98 172 34 197 24 201 153 213 141 234 45 
726 0.03767178040211722 -0.08790460055484262 0.9892212465590146 0 0 0 0.28 9 120 13 135 201 154 
727 0.08594457932107852 -0.08507556826755856 0.9864265802448824 0 0 0 0.26 9 121 13 136 16 107 44 121 50 103 92 151 98 137 124 382 146 226 175 83 176 149 187 133 201 155 214 190 112 145 
728 0.10123033187648364 -0.08241805366733351 0.9838635081894268 0 0 0 0.52 9 122 13 137 92 152 93 93 135 61 201 156 109 87 
729 0.06736899056487049 -0.08013935583624635 0.9852868173183998 0 0 0 0.12 9 123 13 138 201 157 
730 0.15791904085569528 -0.0194432163941807 0.9742988341075884 0 0 0 0.24 9 124 201 158 214 191 
731 0.2469939770444738 0.032047148788367695 0.9594677267407977 0 0 0 0.19 9 125 175 84 201 159 
732 0.0371773047267134 0.03164730798096619 0.9674269364987318 0 0 0 0.2 9 126 109 88 176 150 231 61 
733 0.23788025510970962 0.04764589997067154 0.9545708809329176 0 0 0 0.24 9 127 112 146 146 227 175 85 176 151 187 134 201 160 213 142 
734 0.308479189567189 0.06398643379092499 0.951791606849874 0 0 0 0.4 13 139 124 383 201 161 
735 0.19107583112896812 -0.14409549635890048 0.9911612443196558 0 0 0 0.13 9 128 13 140 92 153 201 162 
736 0.373599986012742 -0.1010415143583493 0.9796712118430974 0 0 0 0.37 9 129 92 154 201 163 
737 0.042185094360108866 -0.08575984380911124 0.9885343687417956 0 0 0 0.37 9 130 13 141 16 108 50 104 53 54 92 155 93 94 124 384 135 62 201 164 
738 0.16490651464469977 -0.07448812145442385 0.9827684050797997 0 0 0 0.24 9 131 28 184 36 90 124 385 187 135 197 25 201 165 213 143 
739 0.14457207652527676 0.07772596208042008 0.9516242459670862 0 0 0 0.39 9 132 38 87 234 46 
740 0.3470677921919161 -0.13657923350080128 1.0133756170487753 0 0 0 0.33 44 122 61 68 92 156 118 64 124 386 201 166 
741 0.08686712964228634 -0.13438853311872784 0.9844365386393233 0 0 0 0.21 9 133 135 63 201 167 
742 0.07289105676479528 -0.11849741562026969 0.9913192554275156 0 0 0 0.39 9 134 109 89 201 168 
743 0.13979768122680317 -0.07972589362896498 0.9826848077348302 0 0 0 0.18 9 135 13 142 61 69 92 157 124 387 146 228 201 169 
744 0.33351194182826016 0.04549253407871114 0.9549854793111204 0 0 0 0.27 17 18 44 123 50 105 77 108 146 229 176 152 197 26 201 170 232 48 
745 0.23006236010414893 -0.08423461503186855 0.9812956267500861 0 0 0 0.42 9 136 13 143 50 106 53 55 92 158 201 171 232 49 
746 0.23121812931942082 0.05896126661419608 0.9587519548964499 0 0 0 0.14 92 159 118 65 146 230 164 94 176 153 204 64 232 50 
747 0.22243453332630322 0.057404662317253705 0.9570503184753503 0 0 0 0.29 9 137 53 56 201 172 204 65 232 51 
748 0.05325280191253726 -0.08035213606393057 0.9864729818011524 0 0 0 0.3 11 96 77 109 148 78 201 173 
749 0.07661659367953352 0.04564741962755493 0.9635539621112211 0 0 0 0.28 11 97 13 144 16 109 28 185 50 107 98 138 124 388 146 231 157 151 175 86 176 154 187 136 197 27 213 144 231 62 
750 0.05729580977692713 0.049665910662776695 0.9686855913464106 0 0 0 0.14 11 98 146 232 201 174 175 87 
751 0.05896051241048841 0.05055055567355239 0.9678888166059502 0 0 0 0.13 11 99 157 152 201 175 16 110 124 389 146 233 175 88 187 137 213 145 231 63 
752 0.06929685198288167 0.05086988098729522 0.9594504358591346 0 0 0 0.29 11 100 13 145 16 111 38 88 92 160 112 147 146 234 187 138 201 176 214 192 
753 0.061805839294134676 0.05891618932941655 0.96111091765281 0 0 0 0.14 11 101 98 139 188 7 231 64 
754 0.035388305096727746 0.06335187039570275 0.9629321248691971 0 0 0 0.11 11 102 16 112 124 390 157 153 175 89 213 146 214 193 231 65 
755 0.07003981761478305 0.07608646574950967 0.9582859573803413 0 0 0 0.3 11 103 38 89 85 99 194 71 201 177 214 194 
756 0.2668737854567894 0.07860304854569142 0.9515800977359378 0 0 0 0.33 11 104 146 235 148 79 201 178 
757 0.27425902380250267 0.08466253032127195 0.9504371914916411 0 0 0 0.39 11 105 28 186 77 110 187 139 201 179 213 147 
758 0.036178395690867386 0.08941946015256748 0.9585079614629897 0 0 0 0.2 11 106 16 113 28 187 38 90 93 95 146 236 175 90 187 140 201 180 213 148 214 195 
759 0.20445557833974853 0.09039504380664865 0.9513368328352534 0 0 0 0.28 11 107 13 146 28 188 93 96 146 237 187 141 201 181 213 149 
760 0.06512143290386077 0.09260492748523884 0.9560712454914508 0 0 0 0.09 11 108 16 114 187 142 188 8 201 182 213 150 
761 0.2572485389306049 0.09234350046621946 0.9527519600164145 0 0 0 0.08 11 109 91 19 201 183 
762 0.13841931377438557 0.09239538188692815 0.9510064009554623 0 0 0 0.28 11 110 28 189 38 91 77 111 109 90 110 106 187 143 194 72 201 184 213 151 214 196 223 13 
763 0.14025820354990992 0.09365961047690517 0.9504709371168693 0 0 0 0.17 11 111 38 92 91 20 110 107 187 144 194 73 213 152 214 197 234 47 
764 0.17648418109240585 0.09556067185534947 0.9503049420288909 0 0 0 0.23 11 112 91 21 201 185 
765 0.1999591426854119 0.04704632896636404 0.9585738234977 0 0 0 0.27 11 113 28 190 44 124 50 108 61 70 77 112 112 148 118 66 146 238 157 154 158 57 176 155 187 145 197 28 201 186 213 153 
766 0.03545946497618138 0.055961058461995034 0.9622909574185093 0 0 0 0.21 11 114 16 115 17 19 28 191 50 109 53 57 61 71 92 161 118 67 124 391 146 239 157 155 175 91 187 146 188 9 204 66 213 154 214 198 231 66 
767 0.36075976505165136 0.05533250712563429 0.9569415194994308 0 0 0 0.23 28 192 50 110 176 156 201 187 
768 0.15475438011514275 0.057348025369025384 0.9596647463661675 0 0 0 0.12 11 115 28 193 176 157 201 188 232 52 234 48 
769 0.13084062354595943 0.05953581397438266 0.9577859276278694 0 0 0 0.18 11 116 15 16 16 116 61 72 128 12 176 158 201 189 204 67 
770 0.09959433512968768 0.06936545732415 0.9579752393482228 0 0 0 0.4 11 117 13 147 92 162 201 190 213 155 
771 0.25136835190476003 0.08668150780441514 0.9534833033453866 0 0 0 0.32 11 118 17 20 28 194 98 140 124 392 175 92 187 147 213 156 234 49 
772 0.13010844366447166 0.08967097309104538 0.9518041671434453 0 0 0 0.32 11 119 28 195 36 91 110 108 146 240 172 35 187 148 197 29 201 191 213 157 232 53 234 50 
773 0.23311220925184745 -0.0778439582698222 0.9801476566469002 0 0 0 0.31 11 120 91 22 112 149 157 156 201 192 118 68 172 36 187 149 
774 0.07806535079298221 -0.014114225957539948 0.97815714011704 0 0 0 0.36 11 121 13 148 50 111 118 69 124 393 146 241 157 157 201 193 213 158 231 67 
775 0.18644990307545833 0.04145423618433407 0.962468124665958 0 0 0 0.12 11 122 112 150 146 242 201 194 213 159 
776 0.06258342861862315 0.04969444258077953 0.9641932180800692 0 0 0 0.31 11 123 16 117 17 21 44 125 53 58 157 158 201 195 213 160 
777 0.2000907720232667 0.05111965814804368 0.9583386140288735 0 0 0 0.31 11 124 17 22 77 113 93 97 118 70 146 243 201 196 213 161 
778 0.12943240997452776 0.05803339242948456 0.9613133640083176 0 0 0 0.38 11 125 201 197 213 162 
779 0.1641715814758069 0.057980472007023415 0.9588379916167026 0 0 0 0.3 11 126 176 159 201 198 
780 0.32787185198993396 0.059452877645657154 0.9544994591027718 0 0 0 0.29 11 127 28 196 53 59 91 23 118 71 146 244 176 160 201 199 204 68 213 163 235 4 
781 0.3601890679348361 0.060014664500173946 0.9550999891157779 0 0 0 0.36 11 128 15 17 17 23 44 126 50 112 98 141 164 95 165 3 176 161 187 150 197 30 201 200 204 69 213 164 234 51 235 5 
782 0.06784343232665659 0.08675514780397643 0.9567092987553125 0 0 0 0.18 11 129 38 93 53 60 148 80 234 52 
783 0.05809672227920275 0.0896453562441461 0.9599795412370858 0 0 0 0.33 11 130 15 18 17 24 44 127 53 61 118 72 124 394 146 245 188 10 
784 0.1714575637307573 0.06922155743824146 0.9556116819171124 0 0 0 0.34 11 131 13 149 109 91 201 201 234 53 
785 0.2859082167186125 -0.13962382701583514 0.9906443275087453 0 0 0 0.45 13 150 124 395 201 202 
786 0.11188205281964668 -0.0849323997562239 0.9855911648901675 0 0 0 0.36 13 151 124 396 175 93 201 203 
787 0.06812935043918689 -0.0780434364810785 0.9840253656279023 0 0 0 0.17 13 152 124 397 201 204 
788 0.2319161049183512 0.03289493942881774 0.9666517363459104 0 0 0 0.16 13 153 112 151 146 246 157 159 175 94 201 205 
789 0.27857852873238353 0.03223141102811044 0.9583653737338264 0 0 0 0.15 13 154 93 98 175 95 201 206 
790 0.06718205943267723 0.039583291779442295 0.9611969403817348 0 0 0 0.31 13 155 28 197 98 142 112 152 146 247 175 96 201 207 213 165 
791 0.23271502095907445 0.03422353868019006 0.9649724461781639 0 0 0 0.16 13 156 112 153 201 208 
792 0.19987435907383436 0.03670192399034689 0.965715207778036 0 0 0 0.22 13 157 112 154 187 151 201 209 
793 0.08688258032585491 0.0419834957367992 0.9660735284974202 0 0 0 0.39 13 158 28 198 93 99 124 398 175 97 187 152 201 210 231 68 
794 0.2318891340609187 0.03784191796201208 0.9626988968707264 0 0 0 0.12 13 159 112 155 124 399 201 211 
795 0.06887976208564034 0.045095648138371934 0.9600594309370459 0 0 0 0.32 13 160 16 118 28 199 112 156 201 212 
796 0.21923185501688683 0.04159902834977329 0.9625196570946918 0 0 0 0.22 13 161 112 157 124 400 201 213 
797 0.11339215535618366 0.046203687531742796 0.957429681232493 0 0 0 0.48 13 162 91 24 124 401 176 162 231 69 
798 0.17592080019578282 0.04478383707508268 0.9568244246498971 0 0 0 0.45 13 163 112 158 201 214 
799 0.30105403898216854 0.04108128234613501 0.9559352312374986 0 0 0 0.17 13 164 28 200 93 100 201 215 
800 0.08749164300408295 0.04754509805595266 0.9647561692327342 0 0 0 0.28 13 165 28 201 98 143 112 159 124 402 175 98 187 153 201 216 
801 0.2688456929647335 0.04229127617704574 0.9562060098237137 0 0 0 0.41 13 166 28 202 112 160 146 248 201 217 
802 0.1905206343061539 0.044905321092327845 0.9610942013912569 0 0 0 0.24 13 167 91 25 157 160 201 218 213 166 214 199 124 403 
803 0.14955579608726344 0.04740229512219947 0.9621883264177246 0 0 0 0.18 13 168 175 99 201 219 
804 0.1561357560894514 0.04748617999400752 0.9626922719448128 0 0 0 0.11 13 169 175 100 201 220 187 154 
805 0.3016470592642142 0.04363235230456156 0.9538329659125309 0 0 0 0.56 13 170 187 155 201 221 
806 0.07413233321474458 0.05062821843446381 0.9615153023466357 0 0 0 0.27 13 171 175 101 176 163 187 156 201 222 
807 0.23927494815868686 0.0461045655063566 0.95459587422582 0 0 0 0.18 13 172 112 161 124 404 175 102 201 223 
808 0.3060949907799214 0.04434806975055087 0.9562026615156141 0 0 0 0.26 13 173 124 405 201 224 
809 0.1289842036717517 0.04998115854906618 0.9637230809337842 0 0 0 0.2 13 174 124 406 201 225 175 103 
810 0.18557986710803206 0.04917773555963696 0.9622091676570736 0 0 0 0.3 13 175 91 26 112 162 201 226 213 167 
811 0.3055867057862395 0.04598194689943995 0.953466742689719 0 0 0 0.21 13 176 124 407 175 104 201 227 
812 0.1273113547399959 0.05121968012303356 0.9629144786581328 0 0 0 0.17 13 177 124 408 146 249 201 228 
813 0.14005878314051257 0.053101312062272525 0.9547200188188594 0 0 0 0.27 13 178 93 101 112 163 201 229 
814 0.1902458992874118 0.05287139260058997 0.9607466632870035 0 0 0 0.17 13 179 93 102 201 230 
815 0.20824283926069145 0.05400425414132693 0.953855578426827 0 0 0 0.17 13 180 112 164 201 231 
816 0.18189480257114463 0.05542760202560336 0.9569541381992107 0 0 0 0.38 13 181 112 165 176 164 201 232 
817 0.2077055545207914 0.05525557057708775 0.9545834477744712 0 0 0 0.27 13 182 28 203 93 103 112 166 146 250 187 157 201 233 213 168 
818 0.1038178023406398 0.060689827262577434 0.9581401766180647 0 0 0 0.18 13 183 28 204 38 94 109 92 146 251 201 234 213 169 214 200 
819 0.06937843053923508 0.061834856502278115 0.9603584629911258 0 0 0 0.19 13 184 28 205 93 104 98 144 187 158 231 70 
820 0.1664627521918727 0.06098545850480657 0.9552261947405836 0 0 0 0.14 13 185 187 159 201 235 124 409 175 105 
821 0.24115458866807993 0.060632906615463 0.9548710349902403 0 0 0 0.27 13 186 28 206 38 95 85 100 93 105 124 410 175 106 187 160 201 236 214 201 
822 0.13671380621959126 0.06428361451348191 0.9561443854099003 0 0 0 0.17 13 187 124 411 201 237 109 93 187 161 
823 0.24015685123348957 0.062142100825041645 0.9549683916130649 0 0 0 0.2 13 188 28 207 93 106 124 412 146 252 175 107 187 162 201 238 
824 0.24164441949749144 0.06371784026513617 0.9552913627536825 0 0 0 0.31 13 189 28 208 91 27 124 413 187 163 201 239 
825 0.2750946219698983 0.06606563149843521 0.9509434537352655 0 0 0 0.21 13 190 124 414 201 240 
826 0.036325990101497715 0.07979264749662267 0.9596551700612407 0 0 0 0.28 13 191 28 209 187 164 201 241 214 202 
827 0.21049454855818375 0.07838009865915815 0.9530937404592608 0 0 0 0.33 13 192 93 107 124 415 146 253 175 108 201 242 
828 0.09512500724396025 0.08182150927812105 0.957931808791074 0 0 0 0.29 13 193 28 210 187 165 201 243 
829 0.09794863672386173 0.0867396075240261 0.9549136254510913 0 0 0 0.35 13 194 38 96 110 109 146 254 148 81 164 96 187 166 201 244 214 203 
830 0.22200086301806193 0.08582959080236904 0.956707800503611 0 0 0 0.43 13 195 124 416 146 255 175 109 187 167 201 245 
831 0.2594535140182763 0.08503572833614045 0.9542024410040836 0 0 0 0.2 13 196 93 108 124 417 175 110 201 246 
832 0.25772061599286994 0.08628262232315136 0.9541545088820372 0 0 0 0.32 13 197 38 97 164 97 175 111 187 168 201 247 213 170 
833 0.20946077458477458 0.091148303961232 0.9502306971385259 0 0 0 0.31 13 198 44 128 175 112 201 248 213 171 
834 0.2064112518381421 0.09155779719666013 0.9515608685684449 0 0 0 0.31 13 199 93 109 175 113 187 169 201 249 
835 0.20069745619550322 0.09635306898887258 0.9498861909310896 0 0 0 0.36 13 200 28 211 146 256 175 114 187 170 201 250 
836 0.08216032325639964 -0.08954446434199906 0.9874205632200781 0 0 0 0.13 13 201 124 418 201 251 
837 0.03257736638263446 -0.08049283407874688 0.986534716106495 0 0 0 0.29 13 202 124 419 201 252 
838 0.12466577393803058 -0.08388345211758177 0.9828256994265944 0 0 0 0.16 13 203 98 145 201 253 
839 0.22985580180988324 -0.06295469604172725 0.9835444724684936 0 0 0 0.38 13 204 39 635 201 254 
840 0.033862170912351726 0.03151753837407819 0.9672419696246489 0 0 0 0.21 13 205 28 212 93 110 176 165 188 11 
841 0.2323013889859467 0.029921810530507006 0.9644588155228848 0 0 0 0.19 13 206 112 167 124 420 201 255 
842 0.13767082821967652 0.03543731014476272 0.9578680951888568 0 0 0 0.27 13 207 28 213 112 168 128 13 146 257 175 115 176 166 197 31 201 256 231 71 234 54 
843 0.15693413271027584 0.03663170144325909 0.9673334200007948 0 0 0 0.35 13 208 201 257 234 55 
844 0.24793237620623765 0.035376018685662994 0.9604256574863346 0 0 0 0.26 13 209 112 169 201 258 
845 0.1335862563141716 0.039989224376837176 0.9591968872033214 0 0 0 0.2 13 210 28 214 98 146 112 170 201 259 
846 0.10212360330692957 0.04405593169032281 0.9579192524002884 0 0 0 0.24 13 211 146 258 201 260 213 172 231 72 
847 0.10234828942917963 0.04581849205050082 0.9571027719383315 0 0 0 0.34 13 212 16 119 112 171 146 259 176 167 187 171 201 261 
848 0.17943429131490693 0.04466872544126997 0.9596802979023832 0 0 0 0.23 13 213 175 116 176 168 201 262 
849 0.18635854579440317 0.04482264222625088 0.9619004673799125 0 0 0 0.2 13 214 92 163 135 64 175 117 201 263 112 172 124 421 146 260 164 98 213 173 214 204 234 56 
850 0.2794885558705237 0.042371361110777626 0.9558746943537912 0 0 0 0.24 13 215 175 118 201 264 
851 0.1289292731087151 0.04802385326239123 0.9636391541958607 0 0 0 0.14 13 216 124 422 201 265 146 261 175 119 176 169 
852 0.2358353997901428 0.051872108229706816 0.9547904793584645 0 0 0 0.22 13 217 28 215 112 173 157 161 175 120 201 266 
853 0.23654587634051757 0.055842641434547514 0.9540542324426943 0 0 0 0.35 13 218 38 98 85 101 91 28 92 164 93 111 112 174 157 162 187 172 194 74 201 267 213 174 214 205 
854 0.22782312948175512 0.06088738582177873 0.9597859840884686 0 0 0 0.35 13 219 38 99 175 121 187 173 201 268 
855 0.20475985316216053 0.06146577553890864 0.954443298252559 0 0 0 0.29 13 220 28 216 201 269 
856 0.27462433271194153 0.06033979170825058 0.9546014218210487 0 0 0 0.11 13 221 28 217 201 270 
857 0.23776134435943433 0.06371474098344972 0.9550344684743972 0 0 0 0.19 13 222 28 218 93 112 98 147 124 423 146 262 157 163 175 122 187 174 194 75 201 271 213 175 214 206 
858 0.30682602787927116 0.06717658704843472 0.9534497294217096 0 0 0 0.45 13 223 124 424 146 263 158 58 201 272 213 176 
859 0.036312961989557566 0.08235493341302033 0.959971905800747 0 0 0 0.42 13 224 28 219 146 264 187 175 201 273 214 207 
860 0.21019909833005745 0.08127513859452141 0.9521685826041089 0 0 0 0.32 13 225 124 425 175 123 187 176 201 274 
861 0.21894850259792145 0.08129859128830763 0.9592952073978348 0 0 0 0.58 13 226 158 59 201 275 
862 0.29504804423868486 0.08008652059613976 0.9562139079718819 0 0 0 0.24 13 227 124 426 201 276 28 220 
863 0.2126074824835459 0.08268213182501623 0.9528341435922285 0 0 0 0.27 13 228 28 221 124 427 135 65 146 265 175 124 187 177 201 277 
864 0.09628806219493677 0.08486219772986027 0.9557590911412134 0 0 0 0.27 13 229 28 222 201 278 
865 0.07779536347984446 0.09418437047680854 0.9571625510371853 0 0 0 0.46 13 230 176 170 187 178 
866 0.04068263525815245 -0.08768184584338252 0.9870447467897415 0 0 0 0.15 13 231 92 165 201 279 
867 0.03446030856157932 -0.08562895568208227 0.9886941976487295 0 0 0 0.32 13 232 36 92 61 73 110 110 201 280 
868 0.05192138051889562 -0.08540039108681179 0.9869877677671036 0 0 0 0.05 13 233 124 428 201 281 
869 0.06973361820753193 -0.08243009552227722 0.9854975830335486 0 0 0 0.42 13 234 187 179 201 282 213 177 
870 0.08871942191242636 -0.08044515732440145 0.9853421325641796 0 0 0 0.2 13 235 16 120 77 114 110 111 112 175 118 73 124 429 148 82 176 171 187 180 194 76 201 283 
871 0.14798550700618904 -0.07917362785969756 0.9836282605238897 0 0 0 0.1 13 236 92 166 201 284 
872 0.19645709893938698 -0.07784094682582234 0.9802820452036304 0 0 0 0.34 13 237 93 113 187 181 201 285 
873 0.26711872254880376 -0.08009826616178024 0.9794482515403009 0 0 0 0.23 13 238 28 223 112 176 201 286 
874 0.2810566799016631 -0.08024606680728234 0.9805963359246473 0 0 0 0.1 13 239 92 167 112 177 201 287 
875 0.286350688452388 -0.0799211881220276 0.9792083846819661 0 0 0 0.2 13 240 92 168 146 266 176 172 201 288 213 178 
876 0.29826160500335014 -0.07987485819774728 0.9785639410588116 0 0 0 0.2 13 241 201 289 232 54 234 57 
877 0.23378189777771538 0.02593148039885337 0.966509708268317 0 0 0 0.33 13 242 28 224 98 148 112 178 146 267 157 164 175 125 201 290 
878 0.1548183584208923 0.038452872693009524 0.9676166775773806 0 0 0 0.16 13 243 17 25 28 225 172 37 176 173 201 291 231 73 234 58 
879 0.2378267817066713 0.03772504670926611 0.9579800010114893 0 0 0 0.15 13 244 61 74 146 268 175 126 176 174 201 292 112 179 
880 0.14984866907213745 0.040992737232545776 0.9628252961205591 0 0 0 0.1 13 245 175 127 176 175 201 293 
881 0.15330531731180685 0.040970441563127555 0.9636160514941735 0 0 0 0.12 13 246 28 226 201 294 234 59 
882 0.23156807266653365 0.039857918579319224 0.9655155012827713 0 0 0 0.25 13 247 112 180 146 269 201 295 234 60 
883 0.29145835068244624 0.04198068367413184 0.9636085933644413 0 0 0 0.56 13 248 112 181 201 296 
884 0.1282884273184372 0.05273939793895596 0.960044827748755 0 0 0 0.29 13 249 50 113 61 75 146 270 176 176 201 297 
885 0.17930882722855976 0.0530454750177831 0.9577732623362326 0 0 0 0.33 13 250 112 182 146 271 176 177 201 298 
886 0.13041950336685212 0.06533524931014212 0.9562126477317069 0 0 0 0.36 13 251 201 299 204 70 223 14 
887 0.3156307966438272 0.061245200594904854 0.9535036139755216 0 0 0 0.36 13 252 124 430 201 300 234 61 
888 0.233476033895387 0.06686486954550099 0.9552705076931503 0 0 0 0.13 13 253 175 128 201 301 
889 0.2646618866372701 0.06937389795389051 0.956000230794734 0 0 0 0.38 13 254 93 114 124 431 187 182 201 302 
890 0.0723291739361561 -0.08601962600454022 0.9885893740391712 0 0 0 0.63 13 255 53 62 146 272 201 303 
891 0.1375158492547912 -0.08550629207345707 0.983484328613233 0 0 0 0.33 13 256 197 32 201 304 
892 0.1461233838173129 -0.08556743116431946 0.9840526280249597 0 0 0 0.28 13 257 197 33 201 305 
893 0.340782993908082 -0.08262238934058283 0.9779522768934802 0 0 0 0.48 13 258 92 169 176 178 197 34 201 306 
894 0.16981613249994126 0.04762255217893009 0.9552834650769677 0 0 0 0.41 13 259 50 114 98 149 112 183 124 432 152 7 201 307 
895 0.19284892651263472 0.05015346561450475 0.9598768778673323 0 0 0 0.33 13 260 15 19 28 227 50 115 53 63 112 184 152 8 158 60 175 129 187 183 201 308 204 71 234 62 124 433 
896 0.23312635417975758 0.05108823401324907 0.9569095001596586 0 0 0 0.31 13 261 17 26 146 273 157 165 201 309 
897 0.2115236030165021 0.05756202185490949 0.9557274889985413 0 0 0 0.18 13 262 17 27 28 228 118 74 201 310 
898 0.2473523582885474 0.0635955444509319 0.9545827975683109 0 0 0 0.14 13 263 146 274 158 61 201 311 
899 0.3121472543795028 0.08418516213919941 0.9489395694165991 0 0 0 0.31 13 264 50 116 61 76 172 38 201 312 234 63 
900 0.09139902174945576 0.0941060497639664 0.9570331183965036 0 0 0 0.51 13 265 28 229 92 170 110 112 234 64 
901 0.2521860722777789 -0.08421038372404013 0.9819397240062328 0 0 0 0.3 13 266 53 64 201 313 
902 0.2719395507122697 -0.08379944092692372 0.9803767288148846 0 0 0 0.23 13 267 38 100 61 77 92 171 93 115 124 434 146 275 176 179 201 314 
903 0.2831211349584069 -0.08398737309585995 0.9816324049000812 0 0 0 0.44 13 268 44 129 61 78 85 102 92 172 93 116 112 185 146 276 164 99 197 35 201 315 214 208 
904 0.29808970628130466 -0.08399958156662662 0.9806504394835979 0 0 0 0.25 13 269 28 230 53 65 85 103 91 29 92 173 112 186 146 277 164 100 176 180 197 36 201 316 204 72 213 179 234 65 77 115 187 184 
905 0.3041676172580935 -0.0836938520789378 0.9803889572873536 0 0 0 0.28 13 270 28 231 187 185 197 37 201 317 234 66 
906 0.16342800679444475 0.03784797468054008 0.9665200203394576 0 0 0 0.39 13 271 16 121 118 75 128 14 201 318 204 73 
907 0.20936123710304186 0.08554423905958582 0.9522119332975214 0 0 0 0.27 13 272 175 130 201 319 232 55 
908 0.21206733334802666 0.0925825937554008 0.9493714798170159 0 0 0 0.45 13 273 118 76 172 39 175 131 201 320 
909 0.23403863815640177 0.03888721501686749 0.960444443119121 0 0 0 0.41 13 274 17 28 50 117 61 79 128 15 146 278 158 62 175 132 201 321 
910 0.12689179079130936 0.07658832776825567 0.9553082591783851 0 0 0 0.47 13 275 28 232 187 186 194 77 231 74 
911 0.20517295943789288 -0.09529697666048696 0.9883710911390585 0 0 0 0.25 13 276 92 174 201 322 
912 0.13768555802744345 0.06956095871646618 0.9576895214853036 0 0 0 0.43 13 277 53 66 172 40 201 323 
913 0.27043166507298955 0.07184532834126402 0.9533744930133589 0 0 0 0.2 13 278 53 67 201 324 
914 0.2554021446485687 0.07008414524239899 0.9554951938806717 0 0 0 0.27 13 279 17 29 50 118 61 80 128 16 146 279 201 325 
915 0.45271932385297753 -0.0573842525622116 0.8859572505752717 0 0 0 0.23 17 30 53 68 77 116 118 77 158 63 201 326 232 56 
916 0.45176443528278165 -0.057656953399599024 0.8961445413671026 0 0 0 0.18 53 69 201 327 232 57 17 31 118 78 197 38 
917 0.18073211136573036 0.0094415529727217 0.9699111257771297 0 0 0 0.32 15 20 28 233 53 70 118 79 146 280 152 9 158 64 172 41 175 133 201 328 213 180 
918 0.23294851831405367 0.06059420083354673 0.9555397564195516 0 0 0 0.26 15 21 92 175 128 17 146 281 176 181 201 329 234 67 
919 0.29463803151215895 0.04575662100367919 0.9602129990234541 0 0 0 0.4 15 22 175 134 176 182 201 330 213 181 234 68 
920 0.4497006473252532 -0.05310723930413231 0.8877530655991293 0 0 0 0.16 158 65 201 331 234 69 
921 0.42087334265650556 -0.04479861686966643 0.8718566189236554 0 0 0 0.74 15 23 201 332 234 70 
922 0.18025156574139953 0.06333789143123578 0.9557535313200478 0 0 0 0.33 15 24 53 71 201 333 
923 0.1762957218980067 0.01046679802947562 0.9680626928386871 0 0 0 0.27 15 25 53 72 61 81 172 42 201 334 
924 0.24358409496513841 0.03272829471768269 0.9605102253787776 0 0 0 0.61 15 26 175 135 201 335 
925 0.07391808534373422 -0.08012759085464191 0.9852284202032727 0 0 0 0.31 16 122 38 101 98 150 124 435 146 282 201 336 213 182 214 209 
926 0.05718917983281368 0.04431494458336927 0.9694317617978213 0 0 0 0.2 16 123 146 283 157 166 201 337 
927 0.05536322795048037 0.0454131008815653 0.9693762196307582 0 0 0 0.08 16 124 28 234 146 284 201 338 213 183 
928 0.19652222302484487 0.044734038898425976 0.9611146971501169 0 0 0 0.16 28 235 112 187 124 436 175 136 187 187 201 339 
929 0.055198885910038416 0.05052058841423468 0.9678685959557771 0 0 0 0.06 16 125 146 285 201 340 213 184 
930 0.12566454293339224 0.05034712259124191 0.9636114647676348 0 0 0 0.17 16 126 201 341 213 185 
931 0.19831417416865665 0.05021263297265344 0.9610460794317442 0 0 0 0.39 28 236 91 30 112 188 201 342 
932 0.17002517441197587 0.05196941053531658 0.9547524237261179 0 0 0 0.16 28 237 146 286 175 137 201 343 214 210 109 94 
933 0.2378473664867446 0.052896442811964144 0.9538471487039549 0 0 0 0.19 28 238 38 102 146 287 157 167 187 188 194 78 201 344 214 211 
934 0.23216261419978967 0.05630276854410798 0.9588952788149063 0 0 0 0.44 112 189 124 437 146 288 176 183 201 345 
935 0.030971574798735895 0.05846735090841944 0.9633815184510787 0 0 0 0.12 16 127 146 289 187 189 194 79 
936 0.04855680535587572 0.05901299602459386 0.9666538700307301 0 0 0 0.21 16 128 146 290 187 190 188 12 201 346 214 212 
937 0.07437782845072895 0.05872301175209625 0.9616597408045147 0 0 0 0.2 16 129 85 104 146 291 176 184 188 13 201 347 
938 0.16869543655866517 0.05960289941611482 0.956107046320003 0 0 0 0.21 28 239 85 105 91 31 109 95 146 292 176 185 194 80 201 348 213 186 
939 0.20734977759834322 0.06001019029850927 0.9543671194325576 0 0 0 0.28 146 293 164 101 201 349 
940 0.10726138489131785 0.060654702450471304 0.9580503041684177 0 0 0 0.16 16 130 28 240 91 32 146 294 187 191 201 350 
941 0.3305574008221379 0.062478316192255044 0.9509739486072095 0 0 0 0.17 28 241 93 117 201 351 
942 0.034903417473195024 0.0742426668236694 0.9608956562093276 0 0 0 0.13 16 131 28 242 187 192 
943 0.0652861367535966 0.08483721508595729 0.9574901633997969 0 0 0 0.24 16 132 28 243 38 103 201 352 
944 0.12905275651413892 0.08467871414388825 0.9546837226173793 0 0 0 0.11 28 244 146 295 187 193 234 71 
945 0.13620594569604844 0.09514896130270928 0.9506735730754072 0 0 0 0.3 28 245 109 96 110 113 201 353 214 213 
946 0.045486474326931536 -0.01252116045792764 0.9802537725981622 0 0 0 0.03 16 133 176 186 201 354 
947 0.1675146010273677 0.043125962258689685 0.9578207797674003 0 0 0 0.26 28 246 112 190 146 296 175 138 176 187 187 194 201 355 
948 0.049661549749670617 0.04955242049807288 0.9686995032865364 0 0 0 0.1 16 134 188 14 201 356 
949 0.10765779277316764 0.05632774465172108 0.9585312291531438 0 0 0 0.21 16 135 38 104 77 117 146 297 176 188 197 39 201 357 213 187 214 214 234 72 
950 0.26944980134532603 0.07955967900640327 0.9517452351095934 0 0 0 0.32 38 105 85 106 187 195 194 81 201 358 
951 0.2741954267410575 0.08001511573242587 0.9514523319657204 0 0 0 0.36 28 247 91 33 148 83 201 359 213 188 
952 0.33371071128928387 0.08422380708734599 0.9492518872133529 0 0 0 0.19 91 34 146 298 201 360 
953 0.13031687562023758 0.0853061918188734 0.9525327864118927 0 0 0 0.22 28 248 53 73 110 114 128 18 172 43 187 196 197 40 201 361 214 215 232 58 234 73 
954 0.09598153081592413 0.08658750429179268 0.9548277187251283 0 0 0 0.2 16 136 28 249 146 299 187 197 201 362 175 139 
955 0.3211073755699374 0.08670261263859025 0.9531972001748824 0 0 0 0.37 146 300 148 84 194 82 201 363 
956 0.36791607873180215 0.0005553268906843742 0.9660825289692827 0 0 0 0.4 44 130 92 176 176 189 201 364 
957 0.09760291036543718 0.03695073038118976 0.963343878377768 0 0 0 0.24 16 137 118 80 146 301 176 190 201 365 204 74 
958 0.06337237167339506 0.03760125530249324 0.9656265661227889 0 0 0 0.35 16 138 50 119 61 82 98 151 128 19 146 302 152 10 175 140 201 366 
959 0.055547433570313665 0.05280164184638019 0.967190307464593 0 0 0 0.31 16 139 118 81 146 303 188 15 201 367 204 75 
960 0.19751573054422414 0.05707496294122366 0.9564348678975761 0 0 0 0.34 146 304 201 368 204 76 213 189 28 250 
961 0.4546671033012805 -0.06289542260937575 0.8754081340011776 0 0 0 0.29 17 32 61 83 77 118 91 35 165 4 235 6 
962 0.1636694966796043 0.053207507228428076 0.9582813533027036 0 0 0 0.16 17 33 146 305 175 141 176 191 201 369 
963 0.10178493942443403 0.04735784204296271 0.9589316390174083 0 0 0 0.38 17 34 28 251 50 120 92 177 112 191 124 438 135 66 146 306 152 11 157 168 176 192 201 370 204 77 213 190 231 75 232 59 
964 0.45522866842535326 -0.06890362513030814 0.8784488154173639 0 0 0 0.23 17 35 53 74 61 84 91 36 118 82 165 5 197 41 232 60 234 74 235 7 
965 0.22655386362147617 0.011459254009064496 0.9706175497907854 0 0 0 0.42 17 36 53 75 201 371 234 75 
966 0.17116274610692447 0.049916067700043386 0.9538088407925721 0 0 0 0.33 17 37 28 252 44 131 53 76 61 85 92 178 118 83 128 20 152 12 176 193 187 198 201 372 213 191 
967 0.23252268642203586 0.05753290013837365 0.9584114333690995 0 0 0 0.14 17 38 146 307 201 373 
968 0.2889693624460394 -0.07775765638943949 0.9794684302613221 0 0 0 0.23 85 107 91 37 92 179 112 192 146 308 148 85 197 42 201 374 204 78 235 8 
969 0.09531722528283357 -0.013943544317795932 0.9762105545537414 0 0 0 0.25 61 86 124 439 158 66 175 142 176 194 201 375 231 76 
970 0.2981889684535849 0.057967461353296126 0.9524205194325898 0 0 0 0.24 28 253 118 84 197 43 201 376 
971 0.09249874620669701 0.04794277014092896 0.9611055572401149 0 0 0 0.48 53 77 112 193 152 13 158 67 201 377 
972 0.08003215472292262 -0.1284794083725391 0.9901981804184563 0 0 0 0.12 28 254 124 440 201 378 
973 0.11849356392526979 -0.1082468130972104 0.9853364023835159 0 0 0 0.29 28 255 39 636 124 441 146 309 201 379 
974 0.03892771406558622 -0.0897876519407659 0.9882035681783168 0 0 0 0.64 28 256 109 97 201 380 
975 0.0830275515544435 -0.0852111128748983 0.9869711188842507 0 0 0 0.28 28 257 92 180 112 194 124 442 146 310 187 199 201 381 
976 0.10668571205704695 -0.07810915877457845 0.9838851106459007 0 0 0 0.15 28 258 39 637 201 382 
977 0.03172613129467339 -0.0077379831353900095 0.9766752410981288 0 0 0 0.19 28 259 112 195 187 200 201 383 
978 0.03362450217725728 -0.008069621946155426 0.9769055000093357 0 0 0 0.32 28 260 109 98 112 196 175 143 176 195 187 201 201 384 214 216 231 77 
979 0.03726292680417139 -0.008294051106333898 0.9773063469741173 0 0 0 0.19 28 261 187 202 201 385 
980 0.06360522797110431 -0.004931403151547196 0.974888058861483 0 0 0 0.21 28 262 124 443 175 144 187 203 201 386 
981 0.1024090120500977 -0.007110645301474707 0.9735211968059827 0 0 0 0.27 28 263 175 145 176 196 201 387 231 78 
982 0.3001006216207707 0.021958651211556667 0.9623353472099964 0 0 0 0.21 28 264 187 204 201 388 
983 0.2987081056523435 0.023855795327481766 0.9628188426290866 0 0 0 0.32 28 265 93 118 187 205 201 389 
984 0.16539661805168834 0.03153303250879596 0.9675856582557948 0 0 0 0.25 28 266 187 206 201 390 
985 0.03526325906422508 0.04217379701579345 0.9615223749658891 0 0 0 0.14 28 267 112 197 175 146 201 391 
986 0.04804546691770324 0.04095250682033098 0.9702561021037702 0 0 0 0.12 28 268 175 147 187 207 201 392 
987 0.05888851136251623 0.04098899931105918 0.9688150664792238 0 0 0 0.2 28 269 98 152 112 198 146 311 175 148 187 208 201 393 
988 0.06747007724865653 0.04257422121856534 0.9615056728776004 0 0 0 0.2 28 270 187 209 201 394 
989 0.16707983189865372 0.04146071293334656 0.9566320800514906 0 0 0 0.04 28 271 112 199 201 395 
990 0.16824820317274597 0.042952972804778965 0.955142076095603 0 0 0 0.29 28 272 112 200 201 396 
991 0.20139617440878727 0.042136696587201476 0.9563500660947387 0 0 0 0.17 28 273 175 149 201 397 
992 0.061918045569543716 0.05232246064619649 0.9600065819145985 0 0 0 0.23 28 274 112 201 187 210 201 398 
993 0.030822550310451585 0.05345566086136306 0.9605676514806164 0 0 0 0.14 28 275 112 202 187 211 201 399 
994 0.06678168503340942 0.052368075771663844 0.9595586298616147 0 0 0 0.13 28 276 112 203 201 400 
995 0.06900119460789321 0.05246935754933578 0.9591651716879315 0 0 0 0.22 28 277 112 204 187 212 201 401 
996 0.13387135077960385 0.05080867643572062 0.9571758680012502 0 0 0 0.27 28 278 124 444 187 213 201 402 
997 0.20514237840194216 0.05148925151414404 0.9544887752999066 0 0 0 0.23 28 279 93 119 146 312 201 403 214 217 
998 0.16245820452467974 0.05488957615475501 0.9550595266932671 0 0 0 0.25 28 280 187 214 201 404 
999 0.03571694317081902 0.06021691121354004 0.9624385684867366 0 0 0 0.19 28 281 124 445 146 313 175 150 
1000 0.06249715381856979 0.060325822784465605 0.9609699291481559 0 0 0 0.08 28 282 175 151 187 215 201 405 
1001 0.06429193652810075 0.060343648088346205 0.9604106860596994 0 0 0 0.27 28 283 187 216 201 406 
1002 0.06032273738877326 0.06083116453441657 0.9614300067234046 0 0 0 0.18 28 284 187 217 201 407 
1003 0.10019997019732405 0.06070918551967251 0.9584029032987142 0 0 0 0.19 28 285 187 218 201 408 214 218 
1004 0.06147450925710044 0.061910105708217 0.9611727426686492 0 0 0 0.27 28 286 175 152 187 219 234 76 
1005 0.07135446770015406 0.061829287014951696 0.9588534364512631 0 0 0 0.15 28 287 187 220 201 409 
1006 0.13375723786468757 0.06130156643521588 0.9567940660761457 0 0 0 0.21 28 288 91 38 187 221 201 410 
1007 0.10547425917865298 0.062320234776798066 0.9584180906825789 0 0 0 0.16 28 289 91 39 109 99 201 411 214 219 
1008 0.13237211432514465 0.06257434550202187 0.956364012026074 0 0 0 0.2 28 290 109 100 187 222 201 412 
1009 0.10363861798830334 0.06363898571285705 0.9582159416748501 0 0 0 0.07 28 291 187 223 201 413 
1010 0.26901493252893977 0.06046539680586627 0.9544584532098903 0 0 0 0.34 28 292 38 106 91 40 110 115 146 314 201 414 
1011 0.30082255925154655 0.060541496484730124 0.953331801655735 0 0 0 0.23 28 293 91 41 201 415 
1012 0.035308811174969916 0.06688287415924096 0.9623410579028842 0 0 0 0.09 28 294 124 446 175 153 187 224 
1013 0.3060011328954108 0.06077719104468873 0.9530744279626819 0 0 0 0.28 28 295 85 108 194 83 201 416 
1014 0.10392260765010673 0.06616637898673879 0.9584396161485634 0 0 0 0.19 28 296 109 101 187 225 201 417 
1015 0.061594089935145445 0.06787702433979781 0.9605042832688083 0 0 0 0.19 28 297 187 226 201 418 
1016 0.20255599554942658 0.06589199992594577 0.9559706160862337 0 0 0 0.31 28 298 187 227 201 419 
1017 0.23859307530817683 0.06510058104532347 0.9542725754479822 0 0 0 0.09 28 299 187 228 201 420 
1018 0.06569792388534892 0.06954745738722337 0.9601757048761855 0 0 0 0.12 28 300 187 229 201 421 
1019 0.1037615500220713 0.07283558930939095 0.9571961555435285 0 0 0 0.16 28 301 201 422 213 192 214 220 
1020 0.06566425779451356 0.07364033088987877 0.9596727992374724 0 0 0 0.06 28 302 187 230 201 423 
1021 0.2668020309747376 0.07345733705310899 0.9524305652883264 0 0 0 0.26 28 303 187 231 201 424 
1022 0.05708627595555195 0.07936605919933577 0.9624615867512762 0 0 0 0.2 28 304 187 232 201 425 213 193 
1023 0.09194133562357329 0.07972276786590608 0.9585519848371684 0 0 0 0.19 28 305 187 233 231 79 
1024 0.2078009858665794 0.07868239198022055 0.9531755780168908 0 0 0 0.13 28 306 187 234 201 426 
1025 0.1635832417159728 0.08147398612462832 0.9580613749912703 0 0 0 0.04 28 307 187 235 201 427 
1026 0.13688958909037716 0.08319546686464792 0.9529201894582756 0 0 0 0.15 28 308 109 102 194 84 
1027 0.034647207031415855 0.08485090570242569 0.9585707004143514 0 0 0 0.13 28 309 175 154 187 236 
1028 0.13689894906875308 0.08606090812839329 0.9524880090247302 0 0 0 0.16 28 310 187 237 201 428 214 221 
1029 0.06524616565534 0.08828262180606132 0.9567330414482792 0 0 0 0.25 28 311 187 238 201 429 
1030 0.13651256178935384 0.0893607093981309 0.9516598050588114 0 0 0 0.1 28 312 187 239 201 430 
1031 0.10484398487458624 0.0896467733881239 0.9543400254773637 0 0 0 0.13 28 313 187 240 201 431 
1032 0.20252099517122754 0.08983056182346709 0.9519974801632676 0 0 0 0.2 28 314 187 241 201 432 
1033 0.2733408759195204 0.08986308378775315 0.9494714485396912 0 0 0 0.13 28 315 146 315 201 433 213 194 
1034 0.14258404504459807 0.09057158726997244 0.9505353934132231 0 0 0 0.26 28 316 201 434 214 222 
1035 0.1348811778427617 0.09173314382191829 0.9511828038299671 0 0 0 0.23 28 317 109 103 187 242 201 435 
1036 0.2080485629271899 0.09183132922123469 0.9511309695884982 0 0 0 0.34 28 318 93 120 124 447 187 243 201 436 
1037 0.13024315082519816 0.09270590614064252 0.9516253882722971 0 0 0 0.07 28 319 187 244 201 437 
1038 0.1421008402511828 0.09275765415886784 0.9496946695405473 0 0 0 0.15 28 320 124 448 175 155 187 245 
1039 0.2649549416342061 -0.07768971756816534 0.9795791285921688 0 0 0 0.29 28 321 91 42 201 438 61 87 
1040 0.30142261272615684 -0.07724784529760985 0.9774242489571627 0 0 0 0.43 28 322 112 205 118 85 201 439 232 61 
1041 0.11182352322447471 -0.0175150677911937 0.9757639871236009 0 0 0 0.27 28 323 175 156 201 440 
1042 0.1808496835032357 0.02263384650808231 0.9685392102451413 0 0 0 0.25 28 324 124 449 172 44 175 157 201 441 234 77 
1043 0.09680736651988725 0.03399832133383464 0.9637877845842544 0 0 0 0.33 28 325 39 638 201 442 
1044 0.06724803211544096 0.03721622529215553 0.9634900285631756 0 0 0 0.14 28 326 98 153 112 206 146 316 175 158 187 246 201 443 234 78 
1045 0.13104855444308877 0.03506861009409798 0.9611052826843107 0 0 0 0.12 28 327 112 207 124 450 201 444 
1046 0.07510464877528464 0.03932283993357832 0.9646120929644216 0 0 0 0.29 28 328 112 208 146 317 187 247 201 445 
1047 0.09521492415701181 0.039243263699184475 0.9632692251265071 0 0 0 0.26 28 329 175 159 187 248 201 446 
1048 0.047950347992961655 0.04549518786782016 0.9697329134261341 0 0 0 0.14 28 330 175 160 187 249 201 447 176 197 
1049 0.16052116201944805 0.04116024408916423 0.9647295837831693 0 0 0 0.38 28 331 39 639 175 161 201 448 234 79 
1050 0.053504829532208364 0.047413777587877695 0.9692939094407964 0 0 0 0.21 28 332 50 121 146 318 201 449 
1051 0.16870322340465632 0.05114477297956369 0.9567223704010369 0 0 0 0.12 28 333 91 43 112 209 146 319 201 450 
1052 0.03712137969553537 0.058765034791814295 0.9630853809061527 0 0 0 0.29 28 334 38 107 146 320 175 162 187 250 188 16 201 451 214 223 
1053 0.1592972746798754 0.057378794486129134 0.9592887860745315 0 0 0 0.17 28 335 201 452 234 80 
1054 0.12669796178574833 0.060012191328862555 0.9602998659579778 0 0 0 0.27 28 336 187 251 201 453 
1055 0.1718860671853374 0.05957454102741504 0.9554747454116091 0 0 0 0.19 28 337 91 44 109 104 201 454 
1056 0.15687828720488373 0.06017303695609616 0.9597427183033838 0 0 0 0.09 28 338 109 105 201 455 234 81 
1057 0.10230945204482489 0.062203198188669075 0.9582869975670001 0 0 0 0.32 28 339 146 321 187 252 201 456 
1058 0.20199982999935162 0.05992858510429568 0.9562114888700739 0 0 0 0.2 28 340 38 108 176 198 197 44 201 457 213 195 234 82 
1059 0.13541349801552532 0.06275327720239453 0.9563068665478173 0 0 0 0.12 28 341 91 45 109 106 187 253 201 458 214 224 
1060 0.32943065786131354 0.06093404245467462 0.952033290518297 0 0 0 0.18 28 342 146 322 187 254 201 459 
1061 0.32590130013363117 0.06126886340596469 0.9566945003745132 0 0 0 0.19 28 343 91 46 187 255 201 460 
1062 0.3537685498815141 0.061978009965385696 0.9540521369201016 0 0 0 0.17 28 344 201 461 234 83 
1063 0.03524699200567269 0.07068670670787951 0.9618871545212524 0 0 0 0.14 28 345 124 451 175 163 187 256 
1064 0.1373313376914012 0.07058899953568393 0.9551390918936443 0 0 0 0.15 28 346 38 109 85 109 109 107 110 116 194 85 201 462 
1065 0.09587302476354002 0.07850611798616718 0.9560960425556181 0 0 0 0.05 28 347 187 257 201 463 
1066 0.09110539201162186 0.07968797701496048 0.9599673261516796 0 0 0 0.12 28 348 175 164 201 464 
1067 0.06057194721453796 0.08506208432018375 0.95919405483028 0 0 0 0.19 28 349 187 258 201 465 
1068 0.06492187917957684 0.09033559117529695 0.9564931086646421 0 0 0 0.31 28 350 38 110 201 466 214 225 
1069 0.03311802429593628 0.0908288620166795 0.9586689471083214 0 0 0 0.23 28 351 146 323 187 259 
1070 0.034615556743126774 0.09243581672682417 0.9580410881836382 0 0 0 0.19 28 352 187 260 214 226 
1071 0.2228521297477427 0.0928927940417444 0.9538672518708257 0 0 0 0.27 28 353 146 324 201 467 
1072 0.0957371219846166 0.09379176057709704 0.9534123348720625 0 0 0 0.15 28 354 175 165 187 261 201 468 
1073 0.11623730044425025 0.04019801980442943 0.9647945093773949 0 0 0 0.2 28 355 112 210 157 169 175 166 201 469 234 84 
1074 0.12387353008446916 0.040332066340443146 0.9646635059323329 0 0 0 0.31 28 356 112 211 157 170 175 167 201 470 
1075 0.19803394275182054 0.039170027311940685 0.9662446686939891 0 0 0 0.35 28 357 112 212 146 325 175 168 201 471 
1076 0.057955203507656095 0.05270077458991205 0.9612566576267005 0 0 0 0.18 28 358 124 452 157 171 175 169 187 262 201 472 
1077 0.08658353065205061 0.05462355781027493 0.9628725559207378 0 0 0 0.28 28 359 38 111 92 181 201 473 213 196 214 227 231 80 234 85 
1078 0.09697709210850579 0.056236747188743205 0.9591260029370986 0 0 0 0.43 28 360 197 45 201 474 
1079 0.12517155597575694 0.056713705395264796 0.9607069962080422 0 0 0 0.11 28 361 176 199 201 475 
1080 0.1225588145315756 0.05973677992010699 0.9611062472259873 0 0 0 0.31 28 362 187 263 201 476 234 86 
1081 0.16189264271010115 0.059833044374869325 0.9606896435136862 0 0 0 0.29 28 363 146 326 201 477 234 87 
1082 0.35825205770018087 0.06470389732471345 0.955362727604431 0 0 0 0.55 28 364 53 78 158 68 201 478 234 88 
1083 0.0725444459661655 0.0822269892122056 0.9579510725802142 0 0 0 0.39 28 365 38 112 110 117 201 479 214 228 
1084 0.09403066857989333 0.08376777246579836 0.9558562624584315 0 0 0 0.23 28 366 164 102 187 264 231 81 
1085 0.07021407878086998 0.08437908992416464 0.9570676607557544 0 0 0 0.27 28 367 38 113 77 119 110 118 146 327 148 86 188 17 201 480 213 197 214 229 223 15 
1086 0.22607903125566006 0.08366292237024381 0.9566610876660347 0 0 0 0.36 28 368 38 114 148 87 194 86 201 481 213 198 234 89 
1087 0.3277768777250697 0.08701180424087616 0.9493040566473218 0 0 0 0.06 28 369 165 6 201 482 235 9 
1088 0.2701485618733151 0.08877963332995918 0.949884513848736 0 0 0 0.23 28 370 118 86 128 21 201 483 234 90 187 265 
1089 0.2278087729299708 0.09389275840550255 0.9468222251517728 0 0 0 0.19 28 371 187 266 234 91 
1090 0.07481589091312416 -0.010612766940911194 0.9770546834174656 0 0 0 0.22 28 372 187 267 201 484 
1091 0.14538452494352475 -0.016673751326396567 0.9746657724335002 0 0 0 0.53 28 373 36 93 53 79 124 453 146 328 157 172 187 268 197 46 201 485 
1092 0.17351718928594298 0.02781487574189105 0.96527701126217 0 0 0 0.33 28 374 201 486 204 79 
1093 0.13653012283534283 0.04003506432762572 0.9568554475377102 0 0 0 0.31 28 375 50 122 98 154 112 213 146 329 152 14 176 200 201 487 204 80 187 269 234 92 
1094 0.17784828332255195 0.05703465214711391 0.9563027531465053 0 0 0 0.37 28 376 176 201 187 270 201 488 232 62 234 93 
1095 0.19977720784480926 0.057355056307929475 0.9570384824041144 0 0 0 0.16 28 377 201 489 213 199 234 94 
1096 0.14092240318830934 -0.16898699439702491 0.9981382839892551 0 0 0 0.33 28 378 124 454 187 271 201 490 
1097 0.19438156159718833 -0.006226363275626082 0.9745379602589656 0 0 0 0.3 28 379 112 214 201 491 
1098 0.20977940128306583 0.04843063459169866 0.9593388002288529 0 0 0 0.52 28 380 77 120 112 215 175 170 201 492 234 95 
1099 0.20931322275026687 0.0818402896317156 0.9522218372634439 0 0 0 0.69 28 381 175 171 201 493 214 230 
1100 0.33125536369535596 0.0893020864838882 0.9480785355429318 0 0 0 0.27 28 382 50 123 61 88 187 272 201 494 
1101 0.3399780121420271 0.08996539071236477 0.9469103021850925 0 0 0 0.07 28 383 158 69 201 495 
1102 0.12365235934863567 0.09344385596952326 0.9551304008372361 0 0 0 0.11 28 384 92 182 172 45 
1103 0.16410782657535064 0.04476589867319037 0.9670912159273533 0 0 0 0.56 28 385 112 216 201 496 
1104 0.07752203441152207 0.07626796005343874 0.9580757593194279 0 0 0 0.62 28 386 187 273 201 497 
1105 0.33496490960751263 0.07234420997944384 0.9518029661685217 0 0 0 0.32 28 387 50 124 118 87 201 498 
1106 0.20459016657095788 0.07060925943382006 0.9552436174925082 0 0 0 0.84 28 388 98 155 118 88 124 455 187 274 201 499 232 63 234 96 50 125 231 82 
1107 0.09426198097477698 -0.01788344258331202 0.9777651326968413 0 0 0 0.27 36 94 109 108 112 217 157 173 175 172 201 500 231 83 
1108 0.11862156503033605 -0.11140092835249125 0.9847810441426883 0 0 0 0.26 36 95 124 456 187 275 201 501 112 218 
1109 0.1244210688616029 -0.10708668100369384 0.9837550015158487 0 0 0 0.24 36 96 124 457 201 502 157 174 
1110 0.08125234678287337 -0.09085689623139499 0.9907908671159817 0 0 0 0.47 36 97 92 183 124 458 201 503 
1111 0.1602800666748881 -0.07462679856038089 0.9830766242974579 0 0 0 0.56 36 98 91 47 109 109 118 89 148 88 201 504 
1112 0.16564107971489783 0.06340311057833359 0.9557319447333329 0 0 0 0.18 36 99 128 22 146 330 201 505 213 200 
1113 0.33640060686563145 0.08727676586764534 0.9484094593233837 0 0 0 0.31 146 331 187 276 201 506 
1114 0.09337579712247196 -0.12958794021444253 0.9856951480338396 0 0 0 0.16 36 100 77 121 85 110 176 202 201 507 
1115 0.11389178726174716 -0.013608881130933373 0.9771256786625472 0 0 0 0.5 36 101 172 46 175 173 201 508 204 81 
1116 0.1994571290095196 -0.13892334330245124 0.9920949239729523 0 0 0 0.41 38 115 157 175 201 509 
1117 0.2047502895160685 0.03674695338178142 0.9580705542382055 0 0 0 0.28 38 116 112 219 135 67 146 332 175 174 187 277 201 510 234 97 
1118 0.18671438321643677 0.050356632240645724 0.9610055440013117 0 0 0 0.11 38 117 124 459 201 511 
1119 0.25842133518385146 0.05824651141693927 0.9575658163090939 0 0 0 0.55 38 118 91 48 110 119 201 512 213 201 
1120 0.0670164995124041 0.05862861893209244 0.9613679311228337 0 0 0 0.12 38 119 110 120 201 513 214 231 234 98 
1121 0.2074127233220615 0.07593086037223266 0.9533953459812846 0 0 0 0.19 38 120 201 514 214 232 
1122 0.11765852682307956 -0.10398075689562325 0.9880204296279652 0 0 0 0.42 38 121 44 132 77 122 85 111 93 121 124 460 146 333 164 103 176 203 194 87 201 515 204 82 
1123 0.06779898917385278 0.0910198702677621 0.9559239054070486 0 0 0 0.12 38 122 223 16 234 99 
1124 0.08139942160071598 -0.13112035597409563 0.987772564217628 0 0 0 0.45 39 640 187 278 201 516 
1125 0.17437806401913528 -0.11847522803283664 0.9874415230146465 0 0 0 0.3 39 641 112 220 201 517 
1126 0.1332159214675475 -0.10349962853561527 0.9804293146754127 0 0 0 0.29 39 642 109 110 201 518 
1127 0.13336522980295978 -0.10176251370873426 0.9803945784846169 0 0 0 0.26 39 643 112 221 201 519 
1128 0.15657260164224898 -0.07788061228833636 0.9828247439137617 0 0 0 0.13 39 644 112 222 201 520 
