# 3D point list with one line of data per point:
#   POINT3D_ID, X, Y, Z, R, G, B, ERROR, TRACK[] as (IMAGE_ID, POINT2D_IDX)
# Number of points: 291, mean track length: 13.42
286 -0.22087279387897052 -0.13096366591932979 0.6088930754516955 72 78 83 0.37 18 283 19 282 20 270 21 268 22 260 23 218 24 234 26 206 38 130 
287 0.575365035443346 0.11322313396498004 0.9551615260325149 68 62 62 0.75 18 284 19 283 20 271 21 269 22 261 23 219 24 235 26 207 35 29 38 131 
288 -0.2086990303789788 0.10872447009217197 0.5463697797489405 108 95 91 0.53 18 285 19 284 20 272 21 270 22 262 23 220 24 236 26 208 36 135 38 132 
289 -0.1874998829721332 0.06019774223970787 0.5982276252694056 129 135 140 0.6 18 286 19 285 20 273 21 271 22 263 23 221 24 237 26 209 39 83 40 76 
290 -0.18067642316261648 -0.08440991548988429 0.651339374995998 172 191 203 0.59 18 287 19 286 20 274 21 272 22 264 23 222 24 238 26 210 40 77 
291 -0.1000658407962765 0.03933658211260374 0.652793347969788 132 127 121 0.43 18 288 19 287 20 275 21 273 22 265 23 223 24 239 26 211 36 136 38 133 
292 0.28823622874455 0.20401750376449276 0.669000871481407 99 92 93 0.76 18 289 19 288 20 276 21 274 22 266 23 224 24 240 
293 -0.268484712867588 0.08575163829911378 0.5077876802531421 120 116 109 0.6 18 290 19 289 20 277 21 275 22 267 24 241 26 212 36 137 38 134 
294 -0.24640048873860582 -0.1366548547913734 0.5924942723993871 152 145 135 0.41 18 291 19 290 20 278 21 276 22 268 23 225 24 242 26 213 38 135 
295 -0.21407053273753268 -0.13472127845078882 0.617744476692883 131 120 111 0.34 18 292 19 291 20 279 21 277 22 269 23 226 24 243 26 214 
296 0.04283623577792026 -0.03797849093788545 0.764501582731581 98 82 76 0.8 18 293 19 292 20 280 21 278 22 270 23 227 26 215 35 30 36 138 40 78 
297 -0.18890546502507258 -0.09529464551868692 0.6486305153610443 12 14 13 0.22 18 294 19 293 20 281 21 279 22 271 23 228 24 244 26 216 
298 -0.11365717926102942 0.1354016634104677 0.6095829071933732 135 127 116 0.7 18 295 19 294 20 282 21 280 22 272 23 229 24 245 26 217 36 139 39 84 
299 0.39489426035241154 0.22915459201614125 0.6130261601047893 21 24 29 0.96 36 140 38 136 39 85 40 79 42 60 43 45 
300 0.6298200881961675 0.28542708064808653 0.799538003062753 25 22 23 0.77 19 295 20 283 22 273 23 230 35 31 36 141 38 137 39 86 40 80 42 61 43 46 
301 0.6142375998485365 -0.11179296369065712 1.0113646063011763 63 56 54 0.8 18 296 19 296 20 284 21 281 22 274 23 231 24 246 26 218 35 32 36 142 37 70 38 138 39 87 40 81 42 62 43 47 7 7 8 7 9 7 10 7 11 6 12 6 13 6 14 6 15 7 16 7 17 6 41 5 46 3 47 2 48 5 49 2 
302 0.6428549203972961 -0.03681387706978312 1.2656932607186049 116 108 99 0.65 19 297 20 285 21 282 23 232 24 247 35 33 36 143 37 71 38 139 39 88 40 82 42 63 43 48 
303 0.5296599633958702 0.03687630662925834 1.1615991063712292 143 159 174 0.53 18 297 19 298 21 283 22 275 23 233 24 248 26 219 35 34 36 144 37 72 38 140 39 89 40 83 42 64 43 49 
304 0.5255096649513924 -0.013055519853557601 1.1711761062787356 115 122 134 0.8 18 298 19 299 21 284 22 276 23 234 24 249 26 220 35 35 36 145 37 73 38 141 39 90 40 84 42 65 43 50 6 4 7 8 8 8 9 8 10 8 11 7 41 6 46 4 47 3 48 6 49 3 
305 0.134943272430685 0.1902950210586386 0.8087947257842804 113 105 100 1.13 18 299 22 277 23 235 24 250 26 221 35 36 36 146 37 74 38 142 39 91 42 66 43 51 
306 0.6251213062078725 0.02946042674462374 1.231813252477327 122 112 102 0.52 20 286 21 285 24 251 26 222 35 37 36 147 37 75 38 143 39 92 40 85 42 67 43 52 
307 0.7369924731655709 0.1451664177590816 1.2921982473604552 117 89 86 0.53 21 286 22 278 23 236 35 38 37 76 38 144 39 93 40 86 42 68 43 53 
308 0.5312845543112319 0.2290982553603624 1.1090568213515353 140 152 164 0.82 18 300 19 300 21 287 22 279 23 237 24 252 26 223 35 39 36 148 37 77 38 145 39 94 40 87 42 69 43 54 6 5 7 9 8 9 9 9 10 9 41 7 46 5 47 4 48 7 49 4 15 8 
309 0.4892216594144164 0.03247002377880955 1.1010852147388048 72 62 56 0.32 18 301 19 301 22 280 23 238 24 253 26 224 36 149 37 78 38 146 39 95 40 88 42 70 43 55 
310 0.7129917901229191 0.04463057383362098 1.3192800099153061 138 154 167 0.6 19 302 21 288 22 281 23 239 35 40 37 79 38 147 39 96 40 89 42 71 43 56 
311 0.3384713899582249 0.23753672650495142 0.5748641788753875 28 18 19 1.11 36 150 38 148 39 97 40 90 42 72 43 57 
312 0.6793554505053612 0.0560348860627 1.2882452238504178 214 230 229 0.7 19 303 20 287 22 282 23 240 24 254 35 41 36 151 37 80 38 149 39 98 40 91 42 73 43 58 
313 0.4609366872537712 0.2506390396946147 0.6910112178904532 21 19 21 0.63 35 42 36 152 38 150 39 99 40 92 42 74 43 59 
314 0.1004452223642652 -0.1559835748159047 0.858813876188498 21 14 12 1.22 18 302 19 304 20 288 22 283 23 241 24 255 26 225 36 153 37 81 38 151 39 100 40 93 43 60 
315 0.4168709249442033 0.2291380184046273 0.6980393685215621 17 19 23 0.7 35 43 36 154 38 152 39 101 40 94 42 75 43 61 
316 0.7662201675521164 0.274933987720588 1.277772144271095 123 115 111 0.67 21 289 22 284 23 242 35 44 37 82 38 153 39 102 40 95 42 76 43 62 
317 0.5017591880153335 0.1761957350110545 1.0669715230003216 64 54 51 0.45 18 303 19 305 22 285 23 243 24 256 26 226 35 45 36 155 37 83 38 154 39 103 40 96 42 77 43 63 
318 0.6253618734814903 0.25677041384485627 0.8957712198045955 92 106 103 0.97 18 304 19 306 20 289 21 290 22 286 23 244 24 257 26 227 35 46 36 156 37 84 38 155 39 104 40 97 42 78 43 64 
319 0.37795670977381784 0.22878276765050873 0.6412497094934488 65 55 55 0.46 36 157 38 156 39 105 40 98 42 79 43 65 
320 0.14992029754799407 0.060937985986781726 0.8373157324743001 15 8 6 0.62 18 305 21 291 22 287 23 245 24 258 26 228 35 47 36 158 37 85 38 157 39 106 42 80 43 66 
321 0.1597602520108168 0.1808477087807785 0.8256878551269542 114 101 87 0.89 18 306 23 246 24 259 35 48 36 159 37 86 38 158 42 81 43 67 
322 0.5408717299821452 0.039669247315621284 1.1800398379972308 122 137 153 0.74 18 307 19 307 21 292 22 288 23 247 24 260 26 229 35 49 36 160 37 87 38 159 39 107 40 99 42 82 43 68 
323 0.7924510686509904 0.0007665099771342461 1.382198308486629 129 121 115 0.54 20 290 21 293 22 289 23 248 35 50 37 88 38 160 39 108 40 100 42 83 43 69 
324 0.7914973598782686 0.11044062043789067 1.3472250586207368 115 105 102 0.45 20 291 21 294 22 290 23 249 35 51 37 89 38 161 39 109 40 101 42 84 43 70 
325 0.7075265981030897 0.284361931084747 1.245657107323846 124 133 146 0.57 19 308 22 291 23 250 35 52 37 90 38 162 39 110 40 102 42 85 43 71 
326 0.4976333885845332 0.25046191611572 0.628384683206598 75 63 60 0.45 35 53 36 161 38 163 39 111 40 103 
327 0.6748219183745005 -0.06654633334463109 1.2989582998869593 68 48 47 0.75 20 292 22 292 23 251 24 261 35 54 36 162 37 91 38 164 39 112 40 104 42 86 43 72 19 309 
328 -0.03988411496783833 0.14934241210326918 0.6330957519268474 133 118 105 0.53 24 262 26 230 36 163 38 165 39 113 
329 0.5269486317111371 0.12801391305745916 1.12486879669688 97 94 91 0.96 18 308 19 310 21 295 22 293 23 252 24 263 26 231 35 55 36 164 37 92 38 166 39 114 40 105 42 87 43 73 6 6 7 10 8 10 9 10 10 10 11 8 46 6 47 5 48 8 49 5 15 9 
330 0.5584567564393436 0.18958484149791463 1.1566127352075415 88 94 106 0.52 18 309 19 311 21 296 22 294 23 253 24 264 35 56 36 165 37 93 38 167 39 115 40 106 42 88 43 74 
331 0.7299058284627049 -0.03828309563993883 1.3444272769298746 132 130 129 0.53 21 297 22 295 23 254 35 57 37 94 38 168 39 116 40 107 42 89 43 75 
332 0.5327981150725442 0.25560655829858603 1.1052172806740752 119 135 151 0.63 18 310 19 312 21 298 22 296 23 255 24 265 26 232 35 58 36 166 37 95 38 169 39 117 40 108 42 90 43 76 
333 0.6289339900612881 -0.18612931983551154 1.0293295922158716 106 114 120 0.55 18 311 19 313 20 293 21 299 22 297 23 256 24 266 35 59 37 96 38 170 39 118 40 109 42 91 43 77 
334 0.1265694913125258 0.11483232305529005 0.8258262570326622 62 66 65 0.96 18 312 19 314 22 298 23 257 24 267 26 233 35 60 36 167 37 97 38 171 39 119 42 92 43 78 
335 0.4337743771783239 -0.12345940086575052 0.8684801530701477 135 137 138 0.32 18 313 19 315 20 294 21 300 22 299 23 258 24 268 26 234 35 61 36 168 37 98 38 172 39 120 40 110 42 93 43 79 
336 0.5259453725323441 0.02312985079732396 1.1542912228447482 82 76 73 0.4 18 314 19 316 21 301 22 300 23 259 24 269 26 235 35 62 36 169 37 99 38 173 39 121 40 111 42 94 43 80 
337 0.5306250247452317 0.1016020996177877 1.1373577154374908 76 73 71 0.49 18 315 19 317 21 302 22 301 23 260 24 270 26 236 35 63 36 170 37 100 38 174 39 122 40 112 42 95 43 81 
338 0.6486558198148448 0.20882344037018763 1.1972476788975783 92 84 84 0.7 19 318 20 295 21 303 23 261 24 271 35 64 36 171 37 101 38 175 39 123 40 113 42 96 43 82 
339 0.5383772657140963 0.027823383242828216 1.1852573708981515 88 105 119 0.6 19 319 21 304 22 302 23 262 24 272 26 237 35 65 36 172 37 102 38 176 39 124 40 114 42 97 43 83 18 316 
340 0.6566741820236647 0.22413996530451955 1.2021600066857665 106 104 107 0.6 19 320 20 296 23 263 35 66 36 173 37 103 38 177 39 125 40 115 42 98 43 84 
341 0.5539481567211946 0.03154515309198726 1.1952893559109223 63 89 98 0.6 18 317 21 305 22 303 23 264 24 273 35 67 36 174 37 104 38 178 39 126 40 116 42 99 43 85 11 9 
342 0.5530467404960526 0.017014535995799458 1.1975903541430448 68 78 90 0.78 18 318 21 306 22 304 23 265 24 274 35 68 36 175 37 105 38 179 39 127 40 117 42 100 43 86 6 7 7 11 8 11 9 11 10 11 11 10 41 8 46 7 47 6 48 9 49 6 
343 0.6052504714846594 0.1974599674335544 1.1628501444006538 108 101 100 0.34 20 297 21 307 22 305 26 238 35 69 36 176 37 106 38 180 39 128 40 118 42 101 43 87 
344 0.7479942479766655 0.09021655378787513 1.3161216145586587 140 135 132 0.56 21 308 22 306 23 266 35 70 37 107 38 181 39 129 40 119 42 102 43 88 6 8 8 12 9 12 41 9 46 8 47 7 48 10 49 7 
345 0.3020063567578324 0.22144005948959172 0.9145409026280247 31 17 14 1.82 26 239 36 177 37 108 38 182 39 130 
346 0.7443934931614733 0.0326423164920391 1.3362284919842564 133 127 122 0.67 18 319 21 309 22 307 23 267 35 71 37 109 38 183 39 131 40 120 42 103 43 89 
347 0.812164039414432 -0.08750867877725894 1.4037075587282999 106 122 131 0.72 20 298 21 310 22 308 23 268 35 72 37 110 38 184 39 132 40 121 42 104 43 90 
348 0.5137611279891158 0.21144200075840244 1.0695555233293659 99 94 88 0.71 18 320 19 321 21 311 22 309 23 269 24 275 26 240 35 73 36 178 37 111 38 185 39 133 40 122 42 105 43 91 
349 0.6099084684440707 -0.014126999866695715 1.2250512070087776 142 133 123 0.87 19 322 20 299 21 312 24 276 35 74 36 179 37 112 38 186 39 134 40 123 42 106 43 92 
350 0.34918665465413856 0.022672219174111857 1.0049951481174133 56 46 39 0.38 18 321 21 313 22 310 23 270 24 277 26 241 35 75 36 180 37 113 38 187 39 135 42 107 43 93 
351 0.7069973445828924 0.2606699948834651 1.2544556368629887 124 131 144 0.36 19 323 22 311 23 271 35 76 37 114 38 188 39 136 40 124 42 108 43 94 
352 0.303442969707133 0.016781310097633163 0.9662036114417656 36 27 23 0.56 18 322 19 324 20 300 22 312 23 272 24 278 26 242 36 181 37 115 38 189 39 137 40 125 43 95 
353 0.7957428033899636 0.08841934241368639 1.3626720166167337 79 65 64 0.57 20 301 21 314 22 313 23 273 35 77 37 116 38 190 39 138 40 126 42 109 43 96 
354 0.6488197840262495 0.021772005472169384 1.2554297100107148 132 127 121 0.57 20 302 21 315 23 274 24 279 35 78 36 182 37 117 38 191 39 139 40 127 42 110 43 97 
355 0.4832456902091849 0.11359174786868889 1.072191165589723 77 69 63 0.46 18 323 19 325 20 303 22 314 23 275 24 280 26 243 36 183 37 118 38 192 39 140 40 128 42 111 43 98 
356 0.7752413129829571 0.2771745652226355 1.2834003754183707 129 117 109 0.58 21 316 22 315 23 276 35 79 37 119 38 193 39 141 40 129 42 112 43 99 41 10 46 9 47 8 48 11 49 8 
357 0.4489129959795124 -0.11204545175943705 0.8821036623718908 92 90 89 0.42 18 324 19 326 20 304 21 317 22 316 23 277 24 281 26 244 35 80 36 184 37 120 38 194 39 142 40 130 42 113 43 100 
358 0.7840468718626021 0.26776503295214704 1.294711896057414 56 60 60 0.6 20 305 21 318 22 317 23 278 35 81 37 121 38 195 39 143 40 131 42 114 43 101 
359 0.5062534794439865 -0.07003408498037153 1.1449331561190184 89 93 99 0.9 18 325 19 327 21 319 22 318 23 279 24 282 26 245 35 82 36 185 37 122 38 196 39 144 40 132 42 115 43 102 5 5 7 12 9 13 10 12 11 11 41 11 46 10 47 9 48 12 49 9 
360 0.4166431968964568 -0.13880318243396503 0.8614079254553534 72 61 52 0.53 18 326 19 328 20 306 21 320 22 319 23 280 24 283 26 246 36 186 37 123 38 197 39 145 40 133 42 116 43 103 
361 0.10557284680377488 -0.10953591731845638 0.863537770909639 33 27 22 1.01 18 327 19 329 22 320 23 281 24 284 26 247 36 187 37 124 38 198 39 146 40 134 42 117 43 104 35 83 6 9 7 13 8 13 9 14 10 13 11 12 12 7 13 7 14 7 15 10 16 8 17 7 47 10 48 13 49 10 
362 0.7010316571439841 -0.09041357597606368 1.3322372604102846 65 50 44 0.75 19 330 21 321 22 321 23 282 35 84 36 188 37 125 38 199 39 147 40 135 42 118 43 105 
363 0.37857384183294357 0.23061391605419201 0.647771956858158 48 45 45 0.44 35 85 36 189 38 200 39 148 40 136 42 119 43 106 
364 0.38175990008612065 0.23495768320953214 0.662151139956002 66 66 72 0.57 35 86 36 190 38 201 39 149 40 137 42 120 43 107 
365 0.7730981722507702 0.14253050267317668 1.3236580910650786 138 131 125 0.43 20 307 21 322 22 322 23 283 35 87 37 126 38 202 39 150 40 138 42 121 43 108 
366 -0.05841646748158503 -0.049159871587463294 0.702278993014689 89 78 70 0.93 18 328 19 331 20 308 21 323 22 323 23 284 24 285 26 248 36 191 37 127 38 203 39 151 42 122 43 109 
367 0.7185193171961372 0.06779682164961713 1.308672880889677 169 185 188 1.1 21 324 22 324 23 285 35 88 37 128 38 204 39 152 40 139 42 123 43 110 6 10 8 14 41 12 46 11 47 11 48 14 49 11 
368 0.5566944906469816 0.2385994558325171 1.141876107034954 53 60 64 0.55 18 329 19 332 21 325 22 325 23 286 24 286 35 89 36 192 37 129 38 205 39 153 40 140 42 124 43 111 
369 0.6594017884673061 0.13514981794917913 1.2312928417277906 134 125 119 0.37 19 333 20 309 23 287 24 287 35 90 36 193 37 130 38 206 39 154 40 141 42 125 43 112 
370 0.86188433194819 0.32760053011885915 1.0563404142904378 69 83 40 0.35 35 91 38 207 39 155 40 142 42 126 
371 0.7878030753413524 0.17593430233330126 1.3266708722460427 125 113 108 0.65 20 310 21 326 22 326 23 288 35 92 37 131 38 208 39 156 40 143 42 127 43 113 6 11 
372 0.7497714786468225 0.07996314703123743 1.3248430509878133 147 140 137 0.32 21 327 22 327 23 289 35 93 37 132 38 209 39 157 40 144 42 128 43 114 
373 0.7307814831464089 0.08354154347371141 1.302534923934203 87 75 74 0.58 18 330 21 328 22 328 23 290 35 94 37 133 38 210 39 158 40 145 42 129 43 115 
374 0.7442355123241687 0.3056928276198046 1.2451362846634448 60 56 51 0.35 21 329 22 329 23 291 35 95 37 134 38 211 39 159 40 146 42 130 43 116 
375 0.09073874530037801 0.08176499602002303 0.8005386412844622 50 49 50 0.81 18 331 19 334 20 311 23 292 24 288 26 249 36 194 37 135 38 212 39 160 40 147 42 131 43 117 
376 0.24121736200448127 0.20859199491404093 0.5530662452917261 36 34 33 0.52 36 195 38 213 39 161 40 148 42 132 43 118 
377 0.0758927660752455 -0.02985302870641085 0.796490471514859 51 33 23 1.0 18 332 19 335 20 312 21 330 24 289 26 250 38 214 39 162 40 149 
378 0.5880412082538659 -0.10651877889679734 0.9842854309071032 136 140 142 0.58 18 333 19 336 20 313 21 331 22 330 23 293 24 290 26 251 35 96 36 196 37 136 38 215 39 163 40 150 42 133 43 119 
379 0.7954703529617925 0.1856591192615257 1.331745588979896 117 104 97 0.62 20 314 21 332 22 331 23 294 35 97 37 137 38 216 39 164 40 151 42 134 43 120 
380 0.46774805464326974 0.07770167212881214 0.8641994613388274 100 99 104 1.08 18 334 19 337 20 315 21 333 22 332 23 295 24 291 26 252 35 98 36 197 37 138 38 217 39 165 40 152 42 135 43 121 
381 0.7745823634749582 0.3077996388765049 1.2702173628735194 109 102 97 0.64 21 334 22 333 23 296 35 99 37 139 38 218 39 166 40 153 42 136 43 122 41 13 46 12 47 12 48 15 49 12 
382 0.6998771209652473 0.30250820162260844 0.8948515142322979 14 14 16 0.66 19 338 35 100 36 198 38 219 39 167 40 154 42 137 43 123 
383 0.570267971429154 0.26713795224471315 0.8057497535880493 55 54 57 0.42 35 101 36 199 38 220 39 168 40 155 
384 0.8164900685661669 0.3197229327977046 1.042555485554724 53 52 34 0.6 35 102 38 221 39 169 40 156 42 138 43 124 
385 0.46233855996117523 -0.09411580822718431 0.9091200955352787 64 63 62 0.54 18 335 19 339 20 316 21 335 22 334 23 297 24 292 26 253 35 103 36 200 37 140 38 222 39 170 40 157 42 139 43 125 
386 0.8512387919956629 0.32776131813168735 1.0656068576588225 72 83 42 0.38 35 104 38 223 39 171 40 158 42 140 
387 0.4809592895894954 0.23497631268360022 0.7926090852466289 66 67 67 0.64 18 336 19 340 20 317 21 336 22 335 23 298 24 293 26 254 35 105 36 201 37 141 38 224 39 172 40 159 42 141 43 126 
388 0.8353288709877 0.3225607816224655 1.0195029128723583 31 35 17 0.55 35 106 38 225 39 173 40 160 42 142 
389 0.730933302339816 0.07605643413432144 1.3026758008570702 146 138 141 1.37 21 337 22 336 23 299 35 107 37 142 38 226 39 174 40 161 42 143 43 127 47 13 48 16 49 13 
390 0.6129850093201284 0.2770048905143282 1.143590629870775 109 99 92 0.63 20 318 21 338 26 255 35 108 36 202 37 143 38 227 39 175 40 162 42 144 43 128 
391 0.5384091936807527 -0.009533931059001974 1.1916941984900389 53 57 65 0.78 18 337 19 341 21 339 22 337 23 300 24 294 26 256 35 109 36 203 37 144 38 228 39 176 40 163 42 145 43 129 6 12 7 14 8 15 9 15 10 14 11 13 41 14 46 13 47 14 48 17 49 14 
392 0.6420491579057092 -0.19816957812989724 1.0389231158127379 59 81 108 0.59 18 338 19 342 20 319 21 340 22 338 23 301 24 295 35 110 37 145 38 229 39 177 40 164 42 146 43 130 
393 0.717321064929467 0.27497505094267627 1.1096544881501014 55 48 48 0.71 21 341 22 339 23 302 35 111 36 204 37 146 38 230 39 178 40 165 42 147 43 131 
394 0.6423643136948891 0.29541807801341147 0.921372533468285 25 24 25 0.95 18 339 20 320 21 342 22 340 23 303 35 112 36 205 38 231 39 179 40 166 
395 -0.03327179597911374 0.034703689647147026 0.7162967702733863 20 14 12 0.7 18 340 19 343 20 321 21 343 22 341 23 304 24 296 26 257 36 206 37 147 38 232 42 148 
396 0.7061044850070901 0.16542027271505955 1.277237501742957 41 37 36 0.46 19 344 22 342 23 305 35 113 37 148 38 233 39 180 40 167 42 149 43 132 
397 0.523969333032002 0.13730061734364477 1.12045849748518 86 82 79 0.39 18 341 19 345 21 344 22 343 23 306 24 297 26 258 35 114 36 207 37 149 38 234 39 181 40 168 42 150 43 133 
398 0.6764297181928537 0.20097559580435792 1.228712746542871 43 33 36 0.51 19 346 20 322 22 344 23 307 35 115 36 208 37 150 38 235 39 182 40 169 42 151 43 134 
399 0.3190034592037608 0.18828892206187822 0.6797808165599387 147 154 152 0.69 19 347 20 323 21 345 22 345 23 308 24 298 26 259 35 116 36 209 37 151 38 236 39 183 40 170 42 152 43 135 
400 0.6178323918025963 -0.19869672835838886 1.021115407653372 145 165 175 0.54 18 342 19 348 20 324 21 346 22 346 23 309 24 299 35 117 37 152 38 237 39 184 40 171 42 153 43 136 
401 0.6691736887930635 0.0134756476303291 1.2811775469389162 57 57 68 0.44 19 349 20 325 22 347 23 310 24 300 35 118 36 210 37 153 38 238 39 185 40 172 42 154 43 137 
402 0.26313245949251696 0.21397336238115924 0.5727606244332988 21 27 29 0.48 36 211 38 239 39 186 40 173 42 155 43 138 
403 0.5647117841206799 -0.11532431973123466 0.9730109349967531 72 62 56 0.43 18 343 19 350 20 326 21 347 22 348 23 311 24 301 35 119 36 212 37 154 38 240 39 187 40 174 42 156 43 139 
404 -0.019952160648774944 0.06345183788217743 0.7150860834481666 105 101 99 0.7 36 213 37 155 38 241 40 175 42 157 
405 0.15523267748644132 0.04344501695114339 0.8426126439434193 74 51 41 0.65 18 344 21 348 22 349 23 312 24 302 26 260 35 120 36 214 37 156 38 242 39 188 42 158 43 140 
406 0.6909567610299923 0.004749200471685353 1.3146141292949354 223 236 239 0.34 19 351 22 350 23 313 35 121 36 215 37 157 38 243 39 189 40 176 42 159 43 141 
407 0.5451962063270657 0.25793784429704525 1.1215703058024584 117 132 148 0.72 18 345 19 352 21 349 22 351 23 314 24 303 26 261 35 122 36 216 37 158 38 244 39 190 40 177 42 160 43 142 
408 0.7411063634249206 0.014909202423234385 1.3366286910903464 70 66 71 0.59 18 346 21 350 22 352 23 315 35 123 37 159 38 245 39 191 40 178 42 161 43 143 
409 0.46689260725175763 0.22981778210803447 0.7834110899199884 175 172 168 0.68 18 347 19 353 20 327 21 351 22 353 23 316 24 304 26 262 35 124 36 217 37 160 38 246 39 192 40 179 42 162 43 144 
410 0.7697501767552046 0.10039167255691202 1.3323171866330494 55 55 59 0.53 20 328 21 352 22 354 23 317 35 125 37 161 38 247 39 193 40 180 42 163 43 145 
411 0.7899916433799732 0.2852092142616102 1.2929913733393852 102 94 92 0.53 21 353 22 355 23 318 35 126 37 162 38 248 39 194 40 181 42 164 43 146 41 15 46 14 47 15 48 18 49 15 
412 0.579816219113191 0.24876934766500491 0.9782915588041767 22 20 22 0.35 35 127 36 218 37 163 38 249 
413 0.7936735739236602 -0.0662828035444841 1.4108828370875806 85 73 71 0.95 20 329 21 354 22 356 23 319 35 128 37 164 38 250 39 195 40 182 42 165 
414 0.6052462506454227 0.14031243853142286 1.1848875320241408 117 111 109 0.46 20 330 21 355 22 357 26 263 35 129 36 219 37 165 38 251 39 196 40 183 42 166 43 147 
415 0.5939207450605409 0.2821854868840661 0.7780059351488969 44 37 34 0.74 19 354 20 331 21 356 22 358 23 320 24 305 26 264 35 130 36 220 38 252 39 197 40 184 42 167 43 148 
416 0.4798008951114717 0.19579147492316343 0.8321381689025308 93 95 101 0.7 18 348 19 355 20 332 21 357 22 359 23 321 24 306 26 265 35 131 36 221 37 166 38 253 39 198 40 185 42 168 43 149 
417 0.3698531655979701 -0.12609241869233428 1.076218248585201 24 15 11 0.81 18 349 21 358 22 360 23 322 24 307 35 132 36 222 37 167 38 254 40 186 42 169 43 150 
418 0.5270457062917118 -0.1247575862789795 1.17645388813714 17 15 16 0.84 18 350 21 359 22 361 23 323 24 308 35 133 36 223 37 168 38 255 39 199 40 187 42 170 43 151 10 15 41 16 46 15 47 16 48 19 49 16 
419 0.5330385713281917 0.12710240862969696 1.1282576550066137 12 8 8 0.46 18 351 19 356 21 360 22 362 23 324 24 309 26 266 35 134 36 224 37 169 38 256 39 200 40 188 42 171 43 152 
420 0.6174307029503686 0.28121002733988115 0.8125871770577789 44 39 42 1.06 19 357 20 333 22 363 23 325 35 135 36 225 38 257 39 201 40 189 42 172 43 153 
421 0.5384185431265709 0.26639034491073993 0.7512931008229488 98 79 75 0.59 20 334 21 361 22 364 23 326 35 136 36 226 38 258 39 202 40 190 42 173 43 154 
422 0.4824699897784269 -0.04371452283188937 1.121181679830931 46 35 33 0.42 18 352 19 358 20 335 22 365 23 327 24 310 26 267 36 227 37 170 38 259 39 203 40 191 42 174 43 155 
423 0.7694278112158396 0.25269664229736805 1.2875474590425597 125 112 103 0.85 18 353 20 336 21 362 22 366 23 328 35 137 37 171 38 260 39 204 40 192 42 175 43 156 
424 0.6193810780750162 0.221857045879259 0.942931919436454 44 32 32 1.41 18 354 19 359 20 337 21 363 22 367 23 329 24 311 26 268 35 138 36 228 37 172 38 261 39 205 40 193 42 176 43 157 
425 0.6124958134638682 -0.15168112132952122 1.0270093835103127 141 151 159 0.64 18 355 19 360 20 338 21 364 22 368 23 330 24 312 35 139 36 229 37 173 38 262 39 206 40 194 42 177 43 158 
426 0.6914038201483143 0.28256406174064885 1.2333358457135435 125 135 153 0.36 19 361 22 369 23 331 35 140 37 174 38 263 39 207 40 195 42 178 43 159 
427 0.7304959859770058 0.21527160862531042 1.275485639909124 95 83 86 0.88 18 356 19 362 21 365 22 370 23 332 35 141 37 175 38 264 39 208 40 196 42 179 43 160 
428 0.3888886744191244 0.10144925358077274 1.0162759017298693 31 21 18 1.04 18 357 20 339 21 366 22 371 23 333 24 313 35 142 36 230 37 176 38 265 40 197 42 180 43 161 5 6 6 13 7 15 8 16 9 16 10 16 11 14 12 8 13 8 14 8 17 8 41 17 46 16 47 17 48 20 49 17 
429 0.5634507050186983 0.21265040496008442 1.1462315131061467 109 115 128 1.24 18 358 19 363 21 367 22 372 23 334 24 314 35 143 36 231 37 177 38 266 39 209 40 198 42 181 43 162 6 14 7 16 8 17 10 17 11 15 15 11 41 18 46 17 47 18 48 21 49 18 
430 0.28860189290339056 0.2195508621876049 0.5547984081341969 25 20 22 1.17 36 232 38 267 39 210 40 199 42 182 43 163 
431 0.5153738048959395 0.2540975579543121 1.0608402806869264 86 81 77 0.9 18 359 19 364 22 373 23 335 24 315 26 269 35 144 36 233 37 178 38 268 39 211 40 200 42 183 43 164 20 340 
432 0.7098052873847757 -0.014991405805566169 1.3349534770107905 225 234 238 0.53 19 365 21 368 22 374 23 336 35 145 36 234 37 179 38 269 39 212 40 201 42 184 43 165 
433 0.6526099828573675 0.054653463594357674 1.2463135864651527 108 103 99 1.05 19 366 20 341 21 369 23 337 24 316 35 146 36 235 37 180 38 270 39 213 40 202 42 185 43 166 6 15 7 17 9 17 41 19 46 18 47 19 48 22 49 19 
434 0.8697578713062367 0.31345795206899724 1.1236724507766551 79 72 80 0.79 35 147 37 181 38 271 39 214 40 203 42 186 43 167 
435 0.5630479452649509 0.2597574167524749 1.1356602069073223 99 113 127 0.55 18 360 19 367 21 370 22 375 23 338 24 317 35 148 36 236 37 182 38 272 39 215 40 204 42 187 43 168 
436 0.5045496572732523 0.062064322152429165 1.1076787301318238 92 83 76 0.42 18 361 19 368 21 371 22 376 23 339 24 318 26 270 35 149 36 237 37 183 38 273 39 216 40 205 42 188 43 169 
437 0.7498084232380553 0.25502891094120655 0.9983691416740326 40 44 36 0.33 37 184 38 274 39 217 
438 0.4950138087611321 0.24766233528720363 0.8172468903881686 55 52 53 0.61 18 362 19 369 20 342 21 372 22 377 35 150 36 238 38 275 39 218 40 206 42 189 43 170 
439 0.6298053316612431 -0.1877211721634125 1.0293631231118574 158 170 178 0.52 18 363 19 370 20 343 21 373 22 378 23 340 24 319 35 151 37 185 38 276 39 219 40 207 42 190 43 171 
440 0.10020571535633446 0.10923870733805847 0.80897743919675 70 68 68 0.91 18 364 19 371 20 344 23 341 24 320 26 271 35 152 36 239 37 186 38 277 39 220 42 191 43 172 
441 0.59226580266258 0.215388748854796 1.1516341981380194 63 57 57 1.04 18 365 20 345 21 374 22 379 23 342 26 272 35 153 36 240 37 187 38 278 39 221 40 208 42 192 43 173 6 16 7 18 8 18 10 18 17 9 41 20 46 19 47 20 48 23 49 20 
442 0.6794587469316589 0.15516617291645562 1.2439366671669507 16 13 14 0.49 19 372 20 346 22 380 23 343 35 154 36 241 37 188 38 279 39 222 40 209 42 193 43 174 
443 0.785844207433935 0.1357561182684376 1.3358717136209586 52 47 51 0.48 20 347 21 375 22 381 23 344 35 155 37 189 38 280 39 223 40 210 42 194 43 175 6 17 8 19 41 21 46 20 47 21 48 24 49 21 9 18 
444 0.45485596116916344 0.14739981569282834 0.8067446400835797 121 115 110 1.15 18 366 19 373 21 376 22 382 23 345 24 321 26 273 35 156 36 242 37 190 38 281 39 224 40 211 42 195 43 176 7 19 8 20 9 19 10 19 12 9 13 9 14 9 16 9 17 10 41 22 46 21 47 22 48 25 49 22 
445 0.4174272379148126 0.24597076871108817 0.6091170919779828 105 71 69 1.63 21 377 22 383 36 243 38 282 39 225 40 212 42 196 43 177 23 346 24 322 26 274 
446 0.461896087564781 0.2160512231290926 0.7834852043161812 88 88 93 0.6 18 367 19 374 20 348 21 378 22 384 23 347 24 323 26 275 35 157 36 244 37 191 38 283 39 226 40 213 42 197 43 178 
447 0.6492864768945649 -0.005935986409123444 1.2625125367102399 126 116 110 0.59 19 375 20 349 23 348 24 324 35 158 36 245 37 192 38 284 39 227 40 214 42 198 43 179 
448 0.8279422907560468 -0.10152141238216084 1.4042614069667578 17 20 27 0.94 21 379 22 385 23 349 35 159 37 193 38 285 39 228 40 215 42 199 43 180 
449 0.6411097895076052 0.11182363312299068 1.2251567629872266 63 54 53 0.76 19 376 20 350 21 380 23 350 24 325 26 276 35 160 36 246 37 194 38 286 39 229 40 216 42 200 43 181 
450 0.4817795782655548 -0.12815794019472476 0.9151921735110751 53 46 40 0.47 18 368 19 377 20 351 21 381 22 386 23 351 24 326 26 277 35 161 36 247 37 195 38 287 39 230 40 217 42 201 43 182 
451 0.6902234882848333 0.2961260680728595 1.1807563952805553 77 67 62 0.64 35 162 36 248 37 196 38 288 39 231 40 218 42 202 43 183 41 23 
452 0.7888688638839917 0.11519063309116172 1.3458100323445115 147 131 119 0.44 20 352 21 382 22 387 23 352 35 163 37 197 38 289 39 232 40 219 42 203 43 184 
453 0.3195009732325949 -0.12031464217410878 1.0255703811455592 29 18 14 0.86 18 369 19 378 21 383 22 388 23 353 24 327 26 278 35 164 36 249 37 198 38 290 39 233 40 220 42 204 43 185 
454 0.46497062946903556 -0.01387725916983669 0.8875266361518445 93 96 102 1.18 18 370 19 379 20 353 21 384 22 389 23 354 24 328 26 279 35 165 36 250 37 199 38 291 39 234 40 221 42 205 43 186 7 20 8 21 9 20 10 20 11 16 12 10 13 10 14 10 15 12 16 10 17 11 41 24 47 23 48 26 49 23 
455 0.6508023054474632 0.16087058615863353 1.2133579349136436 120 110 102 0.61 19 380 20 354 21 385 23 355 24 329 35 166 36 251 37 200 38 292 39 235 40 222 42 206 43 187 
456 0.6366841076927289 0.2879244282665278 0.8374983274605367 88 82 82 1.13 19 381 20 355 21 386 22 390 23 356 35 167 36 252 38 293 39 236 40 223 42 207 43 188 
457 0.5529276707691803 -0.03109904077293628 1.2080083883081763 66 77 83 0.61 18 371 21 387 22 391 23 357 24 330 35 168 36 253 37 201 38 294 39 237 40 224 42 208 43 189 19 382 
458 0.5076042789686063 0.21963892345816474 1.0612598404977716 83 78 71 0.52 18 372 19 383 22 392 23 358 24 331 26 280 35 169 36 254 37 202 38 295 39 238 40 225 42 209 43 190 
459 0.6072524428046379 -0.1001469844138214 1.00337448836158 100 106 116 1.17 18 373 19 384 20 356 21 388 22 393 23 359 24 332 26 281 35 170 36 255 37 203 38 296 39 239 40 226 42 210 43 191 7 21 8 22 9 21 10 21 11 17 12 11 13 11 14 11 15 13 16 11 17 12 41 25 46 22 47 24 48 27 49 24 
460 0.4714489561964959 0.15676875220640885 0.8442521116549118 95 99 102 1.15 18 374 19 385 20 357 21 389 22 394 23 360 24 333 26 282 35 171 36 256 37 204 38 297 39 240 40 227 42 211 43 192 
461 0.8119377837748457 0.3162507348718182 0.9694837400380547 42 51 30 0.92 35 172 36 257 38 298 39 241 40 228 
462 0.5912487529256487 0.2433208068505249 0.8943856966340528 116 112 109 0.95 18 375 19 386 20 358 21 390 22 395 23 361 24 334 26 283 35 173 36 258 37 205 38 299 39 242 40 229 42 212 43 193 11 18 12 12 13 12 17 13 41 26 
463 0.4760040522636751 -0.13510645002975963 0.902813745161988 101 97 97 0.44 18 376 19 387 20 359 21 391 22 396 23 362 24 335 26 284 35 174 36 259 37 206 38 300 39 243 40 230 42 213 43 194 
464 0.7058629051295603 0.2619775211092902 1.2524915324727337 96 105 116 0.29 19 388 22 397 23 363 35 175 37 207 38 301 39 244 40 231 42 214 43 195 
465 0.4635745617784153 -0.04869602361686507 0.8975499218814846 80 85 91 0.95 18 377 19 389 20 360 21 392 22 398 23 364 24 336 26 285 36 260 37 208 38 302 39 245 40 232 42 215 43 196 
466 0.43840738796026013 0.24832077364872976 0.6723123031647211 83 74 76 0.83 35 176 36 261 38 303 39 246 40 233 42 216 43 197 
467 0.6916159243985184 0.16466337131951983 1.2634852697939525 73 96 108 0.5 19 390 22 399 23 365 35 177 36 262 37 209 38 304 39 247 40 234 42 217 43 198 
468 0.5881788564044048 0.04180010449691594 1.203840212655336 108 103 98 0.6 18 378 20 361 21 393 22 400 23 366 26 286 35 178 36 263 37 210 38 305 39 248 40 235 42 218 43 199 
469 0.3124765578312069 0.2238811164774353 0.9185490714984036 98 92 88 0.83 18 379 19 391 20 362 23 367 24 337 26 287 35 179 36 264 37 211 38 306 39 249 40 236 43 200 
470 0.8127588700462116 0.3142086339513285 0.995092193127873 32 42 21 0.67 35 180 38 307 39 250 40 237 42 219 
471 0.29047301544926213 -0.16751579052134716 0.7621529598267228 82 96 104 0.63 18 380 19 392 20 363 21 394 22 401 23 368 24 338 26 288 36 265 37 212 38 308 39 251 40 238 42 220 43 201 
472 0.1674605467469838 -0.08754921023277877 0.6778357326578912 81 80 78 1.23 19 393 20 364 21 395 22 402 23 369 24 339 26 289 36 266 38 309 39 252 40 239 42 221 43 202 
473 0.7235567161235216 0.024045913754354 1.3234527168582797 127 135 140 1.12 21 396 22 403 23 370 35 181 37 213 38 310 39 253 40 240 42 222 43 203 47 25 48 28 49 25 
474 0.604367199482502 -0.033564230460552485 1.2326481883175715 128 122 114 0.46 20 365 21 397 22 404 35 182 36 267 37 214 38 311 39 254 40 241 42 223 43 204 
475 0.7016277019461238 0.2965460753152282 1.177116144707825 53 34 32 0.39 22 405 23 371 35 183 36 268 37 215 38 312 39 255 40 242 42 224 43 205 
476 0.3863066431301813 0.01716175619334531 1.044939323332315 95 96 96 1.11 22 406 23 372 35 184 36 269 37 216 38 313 40 243 42 225 43 206 
477 0.58724319719016 0.17151718617879483 1.1661100904585155 42 37 39 0.73 18 381 20 366 21 398 22 407 23 373 26 290 35 185 36 270 37 217 38 314 39 256 40 244 42 226 43 207 
478 0.32076422445436287 0.02046750203203988 0.9809577775341816 30 26 24 0.56 18 382 19 394 21 399 22 408 23 374 24 340 26 291 35 186 36 271 37 218 38 315 39 257 40 245 43 208 
479 0.7609183717361921 0.15839024591513923 1.3089556157807076 128 122 121 0.57 20 367 21 400 22 409 23 375 35 187 37 219 38 316 39 258 40 246 42 227 43 209 
480 0.7514723880943334 0.30353621725168606 1.0244521112160883 25 22 23 0.79 35 188 36 272 38 317 39 259 40 247 42 228 43 210 
481 0.12325177952355346 -0.12887501957543895 0.8831208656498533 33 28 23 0.67 18 383 19 395 22 410 23 376 24 341 26 292 36 273 37 220 38 318 39 260 42 229 43 211 
482 0.5201009862532507 0.2445072381425577 0.732782154020637 18 21 25 0.5 36 274 38 319 39 261 40 248 
483 0.5603414668752693 0.2505557786488896 0.7255475919264827 21 26 30 1.06 22 411 26 293 35 189 36 275 38 320 39 262 40 249 42 230 43 212 20 368 21 401 23 377 24 342 
484 0.46082719307947656 0.2277142321732745 0.7743409980693936 179 173 168 0.39 19 396 35 190 36 276 37 221 38 321 39 263 40 250 42 231 43 213 
485 0.6945708348945091 0.133286030693398 1.2606424071199616 118 102 93 0.71 19 397 22 412 23 378 35 191 36 277 37 222 38 322 39 264 40 251 42 232 43 214 
486 -0.026716932753931458 0.029681750680049423 0.722098526281348 105 85 72 1.05 22 413 23 379 24 343 26 294 36 278 37 223 38 323 42 233 
487 0.7207294430257964 0.0001011088408512227 1.3327149110365673 163 169 175 0.61 18 384 19 398 21 402 22 414 23 380 35 192 37 224 38 324 39 265 40 252 42 234 43 215 
488 0.7803130614194438 0.21064407490677503 1.3134507184080602 131 122 120 0.56 20 369 21 403 22 415 23 381 35 193 37 225 38 325 39 266 40 253 42 235 43 216 
489 0.2997161099673496 0.0016600129963375084 0.9732206178870275 42 31 24 0.54 18 385 19 399 20 370 22 416 23 382 24 344 26 295 36 279 37 226 38 326 39 267 40 254 43 217 
490 0.5455440265680518 0.26137566680932783 0.812619718733855 39 38 40 0.38 35 194 36 280 38 327 39 268 40 255 42 236 43 218 
491 0.7648559662847505 -0.08191111492413565 1.377579242955945 81 84 88 0.66 20 371 21 404 22 417 23 383 35 195 37 227 38 328 39 269 40 256 42 237 43 219 
492 0.6776744219218163 0.26427150680782213 0.9217650588431668 74 69 71 1.03 35 196 36 281 37 228 38 329 39 270 
493 0.7842568707887104 0.16605669963911515 1.3276301205882606 116 108 105 0.45 20 372 21 405 22 418 23 384 35 197 37 229 38 330 39 271 40 257 42 238 43 220 
494 0.731085573166309 0.2814044770768801 0.9053420446530388 43 42 45 0.85 36 282 38 331 39 272 40 258 42 239 
495 0.44103048453274035 -0.13907867179858419 0.8767008093257226 57 51 46 0.81 18 386 19 400 20 373 21 406 22 419 23 385 24 345 26 296 35 198 36 283 37 230 38 332 39 273 40 259 42 240 43 221 7 22 8 23 9 22 10 22 11 19 12 13 13 13 14 12 15 14 16 12 17 14 41 27 46 23 47 26 48 29 49 26 
496 0.6722753427794634 0.015439746735216172 1.289144161252167 41 42 47 0.5 20 374 22 420 23 386 24 346 35 199 36 284 37 231 38 333 39 274 40 260 42 241 43 222 
497 0.46814618391617036 0.09310763833642854 0.8608482061613214 58 57 60 1.24 18 387 19 401 20 375 21 407 22 421 23 387 24 347 26 297 35 200 36 285 37 232 38 334 39 275 40 261 42 242 43 223 
498 0.7960171923461533 0.29507347949907775 1.2931443335245947 117 111 109 0.6 21 408 22 422 23 388 35 201 37 233 38 335 39 276 40 262 42 243 43 224 
499 0.5921164954285911 0.26867899392409145 1.1391573696905302 39 25 24 0.49 20 376 21 409 22 423 23 389 35 202 36 286 37 234 38 336 39 277 40 263 42 244 43 225 
500 0.307781225386586 -0.1340642567760572 0.7715128152034701 86 78 73 0.7 18 388 19 402 20 377 21 410 22 424 23 390 24 348 26 298 36 287 37 235 38 337 39 278 40 264 42 245 43 226 
501 0.49496021214159763 0.03916677950036131 1.1065083706578405 76 67 63 0.37 18 389 19 403 22 425 23 391 24 349 26 299 35 203 36 288 37 236 38 338 39 279 40 265 42 246 43 227 
502 0.3134269613774539 0.0887500255298699 0.955169174973075 50 34 29 0.44 18 390 19 404 22 426 23 392 24 350 26 300 35 204 36 289 37 237 38 339 39 280 40 266 43 228 
503 0.7666799977977709 0.1495827292044787 1.3174663514457954 121 109 106 0.44 20 378 21 411 22 427 23 393 35 205 37 238 38 340 39 281 40 267 42 247 43 229 
504 0.5617265981070857 0.1629734124822186 1.1704637500316666 107 123 122 0.54 18 391 21 412 22 428 23 394 24 351 35 206 36 290 37 239 38 341 39 282 40 268 42 248 43 230 
505 0.5334064252903318 -0.1036712266591581 1.1135934579443458 170 180 188 0.58 21 413 22 429 23 395 24 352 35 207 36 291 37 240 38 342 39 283 40 269 42 249 43 231 
506 0.49227728726176906 0.06865611447731848 1.09498060073474 97 90 84 0.69 18 392 19 405 20 379 22 430 23 396 24 353 26 301 35 208 36 292 37 241 38 343 39 284 40 270 42 250 43 232 6 18 8 24 9 23 10 23 11 20 15 15 41 28 46 24 47 27 48 30 49 27 
507 0.7172752203311826 -0.024599909431060815 1.3381967011938805 157 171 184 0.55 19 406 21 414 22 431 23 397 35 209 36 293 37 242 38 344 39 285 40 271 42 251 43 233 
508 0.7001491753984803 0.018628064360987382 1.3163936095146578 118 126 137 0.26 19 407 22 432 23 398 35 210 36 294 37 243 38 345 39 286 40 272 42 252 43 234 
509 0.47202886168245956 0.17000735179236642 0.8124455049714396 123 127 135 0.52 18 393 19 408 20 380 21 415 22 433 23 399 24 354 26 302 35 211 36 295 37 244 38 346 39 287 40 273 42 253 43 235 
510 0.8253572008255117 -0.09879842530185445 1.4012534368216545 19 18 24 0.97 20 381 21 416 22 434 23 400 35 212 37 245 38 347 39 288 40 274 42 254 43 236 
511 0.2909228346578335 -0.053804204014339274 0.9876576748014566 36 26 20 0.79 18 394 19 409 20 382 22 435 23 401 24 355 26 303 36 296 37 246 38 348 39 289 40 275 43 237 6 19 7 23 8 25 9 24 10 24 11 21 12 14 13 14 14 13 15 16 46 25 47 28 48 31 49 28 
512 0.6968220046116279 -0.02954368997679885 1.3292782119252993 118 142 157 0.46 22 436 23 402 35 213 36 297 37 247 38 349 39 290 40 276 42 255 43 238 41 29 46 26 47 29 48 32 49 29 
513 0.4251554442921719 -0.12120407927239894 0.8631375566554764 77 67 63 0.84 18 395 19 410 20 383 21 417 22 437 23 403 24 356 26 304 36 298 37 248 38 350 39 291 40 277 42 256 43 239 7 24 8 26 9 25 10 25 11 22 12 15 13 15 14 14 15 17 16 13 17 15 41 30 46 27 47 30 48 33 49 30 
514 0.6928090918926075 0.27231840651529216 0.9158451056249496 25 28 27 1.16 36 299 38 351 39 292 
515 0.8548242786667715 0.3197086196032768 1.1085177138296725 66 63 70 0.88 35 214 37 249 38 352 39 293 40 278 42 257 43 240 
516 0.6836325652728857 0.1698821714998716 1.2562125955055996 112 128 133 0.69 19 411 20 384 22 438 23 404 35 215 36 300 37 250 38 353 39 294 40 279 42 258 43 241 
517 0.49646516118801104 -0.014991015806704764 1.1212362659355382 71 64 61 0.31 18 396 19 412 22 439 23 405 24 357 26 305 35 216 36 301 37 251 38 354 39 295 40 280 42 259 43 242 
518 0.26128281909980633 -0.03339089094944062 0.9786214772130113 31 28 24 0.82 19 413 20 385 21 418 23 406 24 358 26 306 36 302 37 252 38 355 39 296 40 281 43 243 
519 0.3046328057285251 -0.11987785578970013 0.7715105691603573 144 148 152 0.83 18 397 19 414 20 386 21 419 22 440 23 407 24 359 26 307 36 303 37 253 38 356 39 297 40 282 42 260 43 244 
520 0.6285503880091312 -0.07045006827842686 1.2603326859037909 112 101 91 0.8 19 415 20 387 21 420 23 408 24 360 26 308 35 217 36 304 37 254 38 357 39 298 40 283 42 261 43 245 
521 0.5481399395293409 -0.11216452366168214 1.2089352761911898 56 44 41 0.66 18 398 21 421 35 218 36 305 37 255 38 358 39 299 40 284 42 262 43 246 
522 0.5399874934210863 0.1868867086229264 1.141931792742044 90 103 114 0.49 18 399 19 416 21 422 22 441 23 409 24 361 26 309 35 219 36 306 37 256 38 359 39 300 40 285 42 263 43 247 
523 0.6378931533190916 0.28012787906910025 0.9277489716072681 24 23 23 0.7 18 400 19 417 20 388 21 423 22 442 23 410 35 220 36 307 38 360 39 301 
524 0.6979012058645817 -0.00714189462715101 1.3237251315167113 165 179 192 0.42 19 418 22 443 23 411 35 221 36 308 37 257 38 361 39 302 40 286 42 264 43 248 
525 0.31381580282746163 -0.09390864973338832 0.7743449817062061 124 128 133 1.11 18 401 19 419 20 389 21 424 22 444 23 412 24 362 26 310 35 222 36 309 37 258 38 362 39 303 40 287 42 265 43 249 6 20 7 25 8 27 9 26 10 26 11 23 12 16 13 16 15 18 16 14 17 16 41 31 46 28 47 31 48 34 49 31 
526 0.721393445686946 0.11338838953555862 1.2894923320076939 124 115 109 0.52 18 402 21 425 22 445 23 413 35 223 37 259 38 363 39 304 40 288 42 266 43 250 
527 0.7113573680617931 0.010689899143924653 1.3270031103842805 211 226 231 0.52 19 420 21 426 22 446 23 414 35 224 36 310 37 260 38 364 39 305 40 289 42 267 43 251 
528 0.7353210782081724 0.2924898525796638 1.1600043734346195 40 36 37 0.49 35 225 37 261 38 365 39 306 40 290 42 268 43 252 
529 -0.043878982116099585 -0.10622467894011539 0.7407110300711085 154 160 163 1.48 19 421 20 390 21 427 22 447 23 415 24 363 26 311 36 311 5 7 6 21 7 26 8 28 9 27 10 27 11 24 12 17 13 17 14 15 15 19 16 15 17 17 48 35 
530 0.7807259959674657 0.07990206446948309 1.3477695129156815 86 76 77 0.54 20 391 21 428 22 448 23 416 35 226 37 262 38 366 39 307 40 291 42 269 43 253 
531 0.2457437388748785 -0.03625586582200987 0.9630830627230007 35 32 28 0.91 19 422 20 392 21 429 24 364 26 312 38 367 39 308 40 292 
532 0.8128465348043089 -0.09727294667476201 1.3939067129403901 29 24 27 0.74 20 393 21 430 22 449 23 417 35 227 37 263 38 368 39 309 40 293 42 270 43 254 
533 0.47368457260881985 0.24661540318362773 0.721667637053005 70 61 61 0.42 35 228 36 312 38 369 39 310 40 294 42 271 43 255 
534 0.5580982647148893 -0.07876198474857157 1.2193443995750313 59 54 51 0.58 18 403 21 431 22 450 23 418 24 365 35 229 36 313 37 264 38 370 39 311 40 295 42 272 43 256 
535 0.6434224042634785 0.2860376017750864 0.876820188878367 81 84 85 0.81 19 423 20 394 21 432 22 451 23 419 35 230 36 314 38 371 39 312 40 296 42 273 43 257 41 32 
536 0.7841862247020608 0.04513843462479763 1.3606609228352424 127 128 124 0.58 20 395 21 433 22 452 23 420 35 231 37 265 38 372 39 313 40 297 42 274 43 258 
537 0.5660546865834525 0.1777628861115241 1.1671845057047003 89 103 111 0.58 18 404 21 434 22 453 23 421 24 366 35 232 36 315 37 266 38 373 39 314 40 298 42 275 43 259 
538 0.6247645381691626 0.27297926498436154 1.1014458949831096 16 17 19 0.71 35 233 36 316 37 267 38 374 39 315 40 299 
539 0.6022980569996705 0.036580083358532856 1.2123424064043866 123 112 103 1.06 18 405 20 396 21 435 22 454 26 313 35 234 36 317 37 268 38 375 39 316 40 300 42 276 43 260 6 22 7 27 8 29 9 28 10 28 41 33 46 29 47 32 48 36 49 32 
540 0.7473474816213945 -0.0007340857555110193 1.3450380696526927 143 138 135 0.5 20 397 21 436 22 455 23 422 35 235 37 269 38 376 39 317 40 301 42 277 43 261 
541 0.8055996126885124 0.3029502304191504 1.3005831920275104 100 82 77 0.79 21 437 22 456 35 236 37 270 38 377 39 318 40 302 42 278 43 262 41 34 46 30 47 33 48 37 49 33 
542 0.5517119427228869 0.1310862209217607 1.1476993142992855 14 11 10 0.4 18 406 19 424 21 438 22 457 23 423 24 367 35 237 36 318 37 271 38 378 39 319 40 303 42 279 43 263 
543 0.77041280406602 0.2937388916816594 1.1637515070010227 40 37 39 0.45 35 238 37 272 38 379 39 320 40 304 42 280 43 264 
544 0.5971726002985037 0.2557235586997278 0.8798154591477326 80 70 68 0.63 18 407 19 425 20 398 21 439 22 458 23 424 24 368 26 314 35 239 36 319 37 273 38 380 39 321 40 305 42 281 43 265 
545 0.6714094010469672 0.1745036025462374 1.2277095976651025 118 109 102 0.64 19 426 20 399 22 459 23 425 35 240 36 320 37 274 38 381 39 322 40 306 42 282 43 266 6 23 7 28 8 30 9 29 10 29 41 35 46 31 47 34 48 38 49 34 
546 0.1521707205651554 -0.022060224483619908 0.8625086011591572 32 23 18 0.86 18 408 21 440 22 460 23 426 24 369 26 315 36 321 37 275 38 382 39 323 42 283 43 267 35 241 5 8 6 24 7 29 8 31 9 30 10 30 11 25 12 18 13 18 14 16 15 20 16 16 17 18 41 36 46 32 47 35 48 39 49 35 
547 0.6073372525190357 0.27432780275048235 0.7951513746949301 34 35 39 0.57 35 242 36 322 38 383 39 324 40 307 42 284 
548 -0.0558649775268783 -0.0844330218785267 0.7299933151127088 66 71 80 0.89 18 409 19 427 20 400 21 441 22 461 23 427 24 370 26 316 36 323 37 276 38 384 
549 0.8562951797058004 0.32828815933614797 1.0768448272958935 48 50 32 0.5 35 243 38 385 39 325 40 308 42 285 
550 0.5387465072792348 0.16224013228753564 1.1478809459147454 82 88 94 0.55 18 410 19 428 21 442 22 462 23 428 24 371 26 317 35 244 36 324 37 277 38 386 39 326 40 309 42 286 43 268 
551 0.5205261935064837 0.06555019362039496 1.1361988135985863 92 87 83 0.47 18 411 19 429 21 443 22 463 23 429 24 372 26 318 35 245 36 325 37 278 38 387 39 327 40 310 42 287 43 269 
552 0.7741859756128151 -0.0028849932264922123 1.3656256254717511 158 149 139 0.65 20 401 21 444 22 464 23 430 35 246 37 279 38 388 39 328 40 311 42 288 43 270 
553 0.6034348000105408 -0.040246510163274934 0.9899483508096517 151 161 171 0.39 18 412 19 430 20 402 21 445 22 465 23 431 24 373 26 319 35 247 36 326 37 280 38 389 39 329 40 312 42 289 43 271 
554 0.7649765900600503 0.18608031418759127 1.304583834818473 124 113 106 0.49 20 403 21 446 22 466 23 432 35 248 37 281 38 390 39 330 40 313 42 290 43 272 
555 0.5478117215318058 0.25852516729420477 0.8147163509090527 16 18 24 0.15 36 327 38 391 39 331 
556 0.8309219305549145 0.3221258633541016 1.0423756759536826 52 51 43 0.43 35 249 38 392 39 332 40 314 42 291 43 273 
557 0.1875316572259798 0.1765267318266142 0.5598189267747705 136 128 126 0.46 36 328 38 393 39 333 40 315 42 292 43 274 
558 0.7972717152762555 0.16885675498721184 1.3376029708599928 135 123 117 0.53 20 404 21 447 22 467 23 433 35 250 37 282 38 394 39 334 40 316 42 293 43 275 
559 0.649147086052609 0.25781697889934696 1.1839318537383563 65 54 52 0.91 19 431 20 405 21 448 23 434 24 374 35 251 36 329 37 283 38 395 39 335 40 317 42 294 43 276 
560 0.7724414443518958 0.3105907901562059 1.0166560193522038 36 46 26 0.84 35 252 36 330 38 396 39 336 40 318 42 295 43 277 
561 0.7533127735829428 0.20195900133559902 1.2869522296831934 120 114 114 0.63 20 406 21 449 22 468 23 435 35 253 37 284 38 397 39 337 40 319 42 296 43 278 
562 0.8822752751415132 0.3314410934417407 1.0700355906317551 46 55 31 0.78 35 254 38 398 39 338 40 320 
563 0.5074479101206391 0.2565172351102891 0.7947699705533413 30 23 23 0.74 18 413 19 432 20 407 21 450 22 469 23 436 24 375 26 320 35 255 36 331 38 399 39 339 40 321 42 297 43 279 
564 0.6149964898296062 0.28145999222232854 0.8164786871264585 88 81 80 0.88 19 433 20 408 21 451 22 470 23 437 35 256 36 332 38 400 39 340 40 322 42 298 43 280 26 321 
565 0.3783621108347841 0.22711834585605653 0.6364066138811676 47 43 45 0.46 36 333 38 401 39 341 40 323 42 299 43 281 
566 0.7324640052088197 0.16036069221644514 1.2856622649513167 23 16 15 0.48 21 452 22 471 23 438 35 257 37 285 38 402 39 342 40 324 42 300 43 282 
567 0.7024859168943927 0.2985312651431088 0.8819616311632099 88 85 87 0.63 19 434 35 258 36 334 38 403 39 343 40 325 42 301 43 283 
568 0.5775138757449324 0.07800060916865599 1.17921564187964 114 106 100 0.87 20 409 21 453 22 472 23 439 35 259 36 335 37 286 38 404 39 344 40 326 42 302 43 284 6 25 7 30 8 32 9 31 10 31 11 26 17 19 41 37 46 33 47 36 48 40 49 36 
569 0.4346207607182924 -0.1449135285170229 0.8719719959208684 94 107 117 0.43 18 414 19 435 20 410 21 454 22 473 23 440 24 376 26 322 36 336 37 287 38 405 39 345 40 327 42 303 43 285 
570 0.1871087418325296 -0.18404329436696387 0.6889578734299641 136 137 136 0.66 18 415 19 436 20 411 21 455 22 474 23 441 24 377 26 323 38 406 39 346 40 328 42 304 43 286 
571 0.7274835150272274 0.25815583104608175 0.9077537927010945 23 26 21 0.82 19 437 35 260 36 337 37 288 38 407 39 347 40 329 42 305 43 287 
572 0.529404537500098 0.26509119728558683 0.7868884006328777 93 81 79 0.67 18 416 20 412 35 261 36 338 38 408 39 348 40 330 42 306 43 288 
573 0.7773118584572448 -0.056362092832137896 1.38282168937328 105 99 100 0.54 20 413 21 456 22 475 23 442 35 262 37 289 38 409 39 349 40 331 42 307 43 289 
574 0.5757577518645517 0.24755992659569126 1.0119950106518742 27 26 30 0.83 35 263 36 339 37 290 38 410 39 350 40 332 42 308 43 290 
575 0.5103564079073297 -0.12849328889934006 1.1590919707500655 39 35 31 0.53 18 417 22 476 23 443 24 378 35 264 36 340 37 291 38 411 39 351 40 333 42 309 43 291 
576 0.37852367810650395 -0.35662473947426115 0.8786371044866023 96 99 101 0.73 18 418 19 438 20 414 21 457 22 477 23 444 37 292 38 412 39 352 40 334 42 310 43 292 
