# 3D point list with one line of data per point:
#   POINT3D_ID, X, Y, Z, R, G, B, ERROR, TRACK[] as (IMAGE_ID, POINT2D_IDX)
# Number of points: 405, mean track length: 7.37
6210 0.41781877845630194 0.2414891262204564 1.1819013358738466 0 0 0 0.22 11 2447 28 602 33 1965 52 548 109 850 112 11 136 592 
6211 0.421388707600081 0.24082367549037215 1.1808723695610337 0 0 0 0.14 11 2448 109 851 146 1568 
6212 0.5263428958619563 0.22078555842289874 1.154114796384319 0 0 0 0.28 11 2449 50 2205 124 656 
6213 0.26046480098736435 0.2793549841131731 1.2491091484469274 0 0 0 0.12 11 2450 33 1966 146 1569 
6214 0.5053448669961018 0.22681097046158905 1.1569666917718453 0 0 0 0.22 11 2451 16 954 28 603 33 1967 38 702 
6215 0.6196875001134294 0.2059634618181812 1.1300276437799615 0 0 0 0.3 11 2452 50 2206 91 496 146 1570 
6216 0.5898661716601555 0.2121120890062754 1.1329010137551736 0 0 0 0.18 11 2453 16 955 28 604 
6217 0.3245592984078309 0.26856834159530263 1.2208170161901444 0 0 0 0.13 11 2454 28 605 33 1968 148 1199 
6218 0.4217979354004686 0.24543648170764368 1.179268912440061 0 0 0 0.28 11 2455 33 1969 112 12 
6219 0.6505291178279632 0.2023562011065468 1.1180199076436472 0 0 0 0.25 11 2456 33 1970 50 2207 91 497 136 593 146 1571 
6220 0.6249169568313079 0.20914248016039588 1.1240732743614672 0 0 0 0.16 11 2457 38 703 41 408 148 1200 
6221 0.6851935399918998 0.19755839043683338 1.1082441787012285 0 0 0 0.33 11 2458 27 1554 52 549 91 498 92 1499 109 852 
6222 0.6816996889179789 0.19810034315151906 1.1089703889506952 0 0 0 0.3 11 2459 33 1971 85 1113 91 499 93 613 105 380 146 1572 
6223 0.6365391187597261 0.2090432104518743 1.1265552054718049 0 0 0 0.13 11 2460 44 2267 77 1864 
6224 0.6487982814851543 0.20587140568507767 1.118658870311084 0 0 0 0.14 11 2461 41 409 50 2208 
6225 0.8611674737525645 0.17307282448329717 1.0931189504305978 0 0 0 0.55 4 3296 11 2462 29 343 32 888 35 69 50 2209 61 1289 77 1865 91 500 111 813 
6226 0.888239870321843 0.17117516528137708 1.1001544393317453 0 0 0 0.54 11 2463 36 762 77 1866 85 1114 
6227 0.766132147130726 0.18413756077060922 1.0860748454047828 0 0 0 0.35 11 2464 27 1555 33 1972 52 550 91 501 146 1573 148 1201 
6228 0.2649415975212464 0.29410898040691136 1.240989500174418 0 0 0 0.51 4 3297 11 2465 44 2268 50 2210 146 1574 
6229 0.4460200619849653 0.2530551085601077 1.1677811397060036 0 0 0 0.54 11 2466 28 606 50 2211 
6230 0.8242922582191041 0.18367293070872623 1.0800535560348457 0 0 0 0.45 11 2467 44 2269 82 123 85 1115 91 502 
6231 0.5331182547633624 0.24020821516515964 1.1420983183884148 0 0 0 0.41 11 2468 16 956 19 935 50 2212 52 551 
6232 0.2984567904688558 0.2926320759995896 1.2286550567714143 0 0 0 0.33 11 2469 33 1973 44 2270 50 2213 107 479 124 657 146 1575 
6233 0.534898933286705 0.2405935528099246 1.1414334972089253 0 0 0 0.07 11 2470 28 607 38 704 
6234 0.31862681708578516 0.2876955614611156 1.2146004535534451 0 0 0 0.57 11 2471 33 1974 41 410 53 871 
6235 0.25844636569614104 0.3035243533760397 1.2407188815420427 0 0 0 0.44 11 2472 50 2214 146 1576 
6236 0.4501627165068022 0.2601992013264064 1.1646689721636765 0 0 0 0.26 11 2473 33 1975 38 705 44 2271 50 2215 
6237 0.3860991593907993 0.2742858582535986 1.1871531887161235 0 0 0 0.21 11 2474 16 957 146 1577 
6238 0.4986105153157126 0.25176758807567157 1.152637929994895 0 0 0 0.31 2 2797 4 3298 11 2475 16 958 19 936 27 1556 44 2272 61 1290 77 1867 93 614 
6239 0.8442032289075411 0.19162784156069695 1.0822084004042019 0 0 0 0.23 11 2476 19 937 110 664 
6240 0.2863115515724941 0.2990228130212163 1.2302870961784773 0 0 0 0.6 3 1174 4 3299 11 2477 41 411 50 2216 53 872 92 1500 97 374 103 536 113 244 128 739 146 1578 
6241 0.3452175594758167 0.2849469024003549 1.2059433954200518 0 0 0 0.18 11 2478 33 1976 146 1579 
6242 0.41128487568021976 0.26987407103203104 1.1775087489347345 0 0 0 0.09 11 2479 33 1977 38 706 
6243 0.45675516931268045 0.2625191003764632 1.1637257333817794 0 0 0 0.09 11 2480 41 412 92 1501 
6244 0.4621307427482983 0.2609459815514579 1.1603038788858837 0 0 0 0.13 11 2481 41 413 124 658 
6245 0.2612860218067956 0.3075477418852051 1.2416143116072709 0 0 0 0.13 4 3300 11 2482 50 2217 
6246 0.2612860218067956 0.3075477418852051 1.2416143116072709 0 0 0 0.13 4 3301 11 2483 50 2218 
6247 0.43880925693439876 0.2667175188218617 1.1653506975157408 0 0 0 0.3 11 2484 16 959 28 608 
6248 0.5455221441823511 0.2472074764213389 1.1366946122644037 0 0 0 0.33 11 2485 16 960 112 13 
6249 0.380934586985141 0.2818056332555946 1.1905346693380416 0 0 0 0.09 11 2486 28 609 124 659 146 1580 
6250 0.5520296093420768 0.2459621011359062 1.1348749176625237 0 0 0 0.34 11 2487 16 961 38 707 
6251 0.2585773913845218 0.3088080637989271 1.2370012495816232 0 0 0 0.31 9 2117 11 2488 50 2219 61 1291 146 1581 
6252 0.39614601680091943 0.27829325782650227 1.1833415225588033 0 0 0 0.15 11 2489 16 962 27 1557 41 414 
6253 0.42829455487385376 0.2709871844792771 1.167992410175911 0 0 0 0.47 11 2490 33 1978 38 708 127 556 146 1582 
6254 0.49760220016417317 0.25754015897064675 1.1485144234314948 0 0 0 0.11 11 2491 16 963 28 610 50 2220 146 1583 
6255 0.5775081632884952 0.24168584153157766 1.1258378629556058 0 0 0 0.13 11 2492 16 964 28 611 33 1979 38 709 146 1584 
6256 0.5776497334029151 0.24177524158040287 1.1260717123807098 0 0 0 0.13 11 2493 16 965 33 1980 38 710 41 415 91 503 146 1585 
6257 0.4164479449366224 0.27415014545311345 1.17080241254295 0 0 0 0.31 11 2494 16 966 50 2221 61 1292 
6258 0.41939904752724605 0.2746631291349976 1.1731030484593434 0 0 0 0.45 11 2495 16 967 50 2222 
6259 0.4718572618961195 0.26483730426952967 1.1571423769195548 0 0 0 0.38 11 2496 16 968 33 1981 92 1502 93 615 136 594 146 1586 
6260 0.3607124059879459 0.28895800634931884 1.1968184687679395 0 0 0 0.34 11 2497 28 612 33 1982 60 646 136 595 
6261 0.4599051906248459 0.26695488600568723 1.160407127765852 0 0 0 0.18 11 2498 28 613 38 711 
6262 0.6076752674158424 0.2375857193148627 1.117238660234509 0 0 0 0.17 11 2499 16 969 112 14 
6263 0.3032517287694814 0.30211953410168596 1.2198043804742382 0 0 0 0.38 11 2500 28 614 33 1983 
6264 0.45691234982532825 0.26733326543068936 1.1608259498610343 0 0 0 0.26 11 2501 16 970 28 615 38 712 44 2273 92 1503 146 1587 
6265 0.32887813736435284 0.296821206992386 1.2094724208804197 0 0 0 0.31 11 2502 33 1984 44 2274 52 552 127 557 146 1588 148 1202 
6266 0.41675906271809526 0.27684591361371474 1.1755267064681147 0 0 0 0.28 11 2503 16 971 61 1293 
6267 0.25639459893764477 0.31333137611116474 1.2382363690052904 0 0 0 0.25 11 2504 50 2223 61 1294 
6268 0.5087047654703395 0.25748590224055184 1.1428277000634532 0 0 0 0.51 11 2505 27 1558 38 713 44 2275 93 616 148 1203 
6269 0.3331372882594476 0.2964363114269843 1.2072915413432093 0 0 0 0.31 11 2506 33 1985 77 1868 128 740 
6270 0.3809304008279605 0.2855248347914835 1.1883231925431257 0 0 0 0.12 11 2507 16 972 28 616 
6271 0.244026396632738 0.31732030864587146 1.2436893338760342 0 0 0 0.29 11 2508 33 1986 50 2224 146 1589 
6272 0.3196599672277714 0.2999133495966949 1.2121779539791486 0 0 0 0.31 11 2509 50 2225 146 1590 
6273 0.3992233295625203 0.28151228269951983 1.179137963216 0 0 0 0.29 11 2510 16 973 146 1591 
6274 0.4570252038033015 0.26923009364930645 1.1600645104039458 0 0 0 0.27 11 2511 16 974 44 2276 92 1504 93 617 
6275 0.393173581140989 0.28316900662876643 1.1811234883939548 0 0 0 0.38 11 2512 16 975 28 617 44 2277 146 1592 
6276 0.5525811727013212 0.2512134733619202 1.1335812935213094 0 0 0 0.11 4 3302 11 2513 52 553 109 853 
6277 0.40272775285838036 0.28186524764930065 1.1777340087571337 0 0 0 0.5 9 2118 11 2514 33 1987 36 763 50 2226 92 1505 109 854 124 660 
6278 0.2685394420254296 0.31371343324667467 1.2333950176954052 0 0 0 0.17 11 2515 33 1988 50 2227 146 1593 
6279 0.32878953585374615 0.300291508323966 1.2078528279865846 0 0 0 0.18 11 2516 33 1989 41 416 146 1594 
6280 0.4878247878432733 0.2661100799700362 1.1498954763326155 0 0 0 0.25 9 2119 11 2517 27 1559 33 1990 44 2278 60 647 92 1506 93 618 124 661 
6281 0.6727556030815279 0.23081838491098255 1.1002649444968613 0 0 0 0.34 9 2120 11 2518 19 938 33 1991 40 745 52 554 77 1869 85 1116 91 504 92 1507 93 619 105 381 109 855 127 558 136 596 146 1595 148 1204 
6282 0.26872635195175565 0.3163494730424685 1.2325933918816927 0 0 0 0.37 11 2519 33 1992 50 2228 52 555 77 1870 
6283 0.5053672547748529 0.2639165377490463 1.1419205748099743 0 0 0 0.27 11 2520 16 976 28 618 33 1993 52 556 136 597 148 1205 
6284 0.2796659809417471 0.31526466184305824 1.2313953565548412 0 0 0 0.14 11 2521 44 2279 50 2229 146 1596 
6285 0.8635760667207804 0.20624305039497545 1.0814589779689645 0 0 0 0.09 11 2522 44 2280 92 1508 
6286 0.45991876862600645 0.27545539126424257 1.1600034500216743 0 0 0 0.42 11 2523 32 889 124 662 
6287 0.2707901361735905 0.3181690222167498 1.2327577413625288 0 0 0 0.14 11 2524 50 2230 146 1597 148 1206 
6288 0.6789839983140467 0.23333521185355297 1.0972765155519537 0 0 0 0.44 11 2525 27 1560 28 619 41 417 50 2231 91 505 146 1598 
6289 0.5045888546947063 0.2664949973244587 1.141655714561741 0 0 0 0.42 11 2526 16 977 28 620 33 1994 38 714 93 620 109 856 146 1599 
6290 0.49850184355330557 0.26870340889197447 1.1466783019212508 0 0 0 0.18 11 2527 16 978 36 764 146 1600 
6291 0.5907745459044609 0.2514426489287284 1.1196581847582552 0 0 0 0.53 11 2528 29 344 41 418 44 2281 50 2232 69 316 91 506 109 857 127 559 
6292 0.6847810102282512 0.23372252442006397 1.0933149900666703 0 0 0 0.08 11 2529 40 746 50 2233 77 1871 
6293 0.4773652071968899 0.27493187893931603 1.1485332776650072 0 0 0 0.21 11 2530 16 979 28 621 93 621 136 598 146 1601 
6294 0.7366670956863096 0.22753082350583295 1.0803272236168002 0 0 0 0.28 11 2531 50 2234 91 507 105 382 
6295 0.5010331142283304 0.27402822654411046 1.1458546989985905 0 0 0 0.37 11 2532 38 715 44 2282 
6296 0.7935420084987339 0.21878057535726222 1.0658997093614604 0 0 0 0.52 4 3303 11 2533 19 939 77 1872 
6297 0.8246762974710877 0.21722574086459343 1.069514741216711 0 0 0 0.51 11 2534 52 557 85 1117 136 599 148 1207 
6298 0.7921566900593999 0.22161973577683872 1.0661876831288593 0 0 0 0.25 11 2535 44 2283 52 558 61 1295 77 1873 
6299 0.827386288526669 0.22037697043054882 1.0688694391712639 0 0 0 0.31 11 2536 50 2235 77 1874 
6300 0.8079714126162248 0.23349643396377207 1.0598700610039118 0 0 0 0.35 11 2537 33 1995 40 747 91 508 107 480 136 600 
6301 0.8349501985913077 0.23557118341852737 1.0612912358374953 0 0 0 0.43 11 2538 19 940 40 748 44 2284 50 2236 62 151 85 1118 91 509 105 383 110 665 136 601 
6302 0.879928030560879 0.23900953555233964 1.067816271016574 0 0 0 0.42 11 2539 32 890 50 2237 61 1296 77 1875 92 1509 107 481 111 814 
6303 0.8883119217072467 0.23911913902529539 1.069387602341845 0 0 0 0.48 11 2540 32 891 44 2285 92 1510 
6304 0.3511316604075434 0.3370674658214645 1.179317836269346 0 0 0 0.29 11 2541 27 1561 127 560 146 1602 
6305 0.48046315630447 0.3088406885227749 1.1320198152398664 0 0 0 0.33 11 2542 15 545 16 980 44 2286 61 1297 77 1876 
6306 0.3266991276010326 0.34391444318099257 1.1880819270202332 0 0 0 0.12 11 2543 33 1996 146 1603 
6307 0.3923018111347833 0.3286442124078686 1.1583476209220511 0 0 0 0.07 11 2544 16 981 28 622 
6308 0.5341481204245447 0.30007454649074916 1.1095027773312076 0 0 0 0.21 11 2545 16 982 146 1604 
6309 0.5356901924267689 0.3007680508376606 1.1124455167543894 0 0 0 0.24 11 2546 16 983 136 602 
6310 0.8578149602910325 0.2528078063520809 1.0598189266413651 0 0 0 0.31 11 2547 19 941 40 749 105 384 107 482 110 666 136 603 
6311 0.595355126259688 0.2898674376030091 1.0923976125584718 0 0 0 0.19 11 2548 33 1997 38 716 91 510 148 1208 
6312 0.8544670297110943 0.25372946257238194 1.058344526797104 0 0 0 0.53 4 3304 11 2549 40 750 44 2287 50 2238 92 1511 105 385 107 483 110 667 118 1447 136 604 
6313 0.41680011620069773 0.32588389279323915 1.1486189613109101 0 0 0 0.15 11 2550 50 2239 128 741 146 1605 
6314 0.5458715651821487 0.3027113620035816 1.1138446604993848 0 0 0 0.25 11 2551 16 984 146 1606 
6315 0.5760261483036146 0.29762953426801103 1.1055412509314801 0 0 0 0.2 11 2552 16 985 146 1607 
6316 0.5650564406304494 0.2981363138551338 1.1018572998315588 0 0 0 0.16 11 2553 16 986 28 623 50 2240 93 622 109 858 146 1608 
6317 0.6272518930430565 0.28841528314612974 1.0868938481183055 0 0 0 0.33 11 2554 44 2288 127 561 136 605 
6318 0.5973546225520768 0.2933788135446189 1.0919964115309138 0 0 0 0.34 11 2555 19 942 33 1998 93 623 109 859 136 606 148 1209 
6319 0.3547510178414532 0.3428382829765774 1.1700602410577123 0 0 0 0.13 11 2556 28 624 146 1609 
6320 0.3998125862446056 0.335454626683504 1.1581534991553437 0 0 0 0.22 11 2557 16 987 28 625 33 1999 124 663 
6321 0.42227785194063727 0.32684012842092386 1.1380839688000084 0 0 0 0.23 11 2558 16 988 28 626 146 1610 
6322 0.42230142810498705 0.326869770206844 1.1380843548789286 0 0 0 0.22 11 2559 16 989 28 627 33 2000 60 648 136 607 
6323 0.7937716267111624 0.26249035659953407 1.0490334959975247 0 0 0 0.34 2 2798 9 2121 11 2560 32 892 36 765 40 751 44 2289 52 559 85 1119 92 1512 107 484 
6324 0.45002412060198455 0.32231808671188 1.1306114191533465 0 0 0 0.4 11 2561 16 990 38 717 146 1611 
6325 0.389707502186863 0.3363034746864167 1.154449621808552 0 0 0 0.33 11 2562 16 991 28 628 50 2241 
6326 0.6073252432579962 0.29584147496919944 1.0936915250546226 0 0 0 0.22 11 2563 16 992 135 133 
6327 0.558047567592741 0.30503156993550984 1.1066278145544182 0 0 0 0.29 11 2564 16 993 33 2001 93 624 124 664 136 608 
6328 0.33281916261683875 0.3530793853557734 1.185179062401711 0 0 0 0.25 11 2565 124 665 146 1612 
6329 0.4287270630850665 0.3289684137479611 1.139444136751444 0 0 0 0.18 11 2566 16 994 28 629 146 1613 
6330 0.45183165394847485 0.3240639164809402 1.1312878626811642 0 0 0 0.23 2 2799 11 2567 16 995 19 943 28 630 33 2002 77 1877 93 625 146 1614 148 1210 
6331 0.4013345842403125 0.3378034585755736 1.1565613383885545 0 0 0 0.24 11 2568 16 996 124 666 
6332 0.40516369250352213 0.34066019240001305 1.1690690486383548 0 0 0 1.05 11 2569 16 997 
6333 0.5846388408619306 0.30185480530488074 1.099480911984867 0 0 0 0.1 11 2570 38 718 85 1120 
6334 0.5833661712507241 0.3029452000798954 1.1006121056258034 0 0 0 0.07 11 2571 16 998 91 511 109 860 
6335 0.41716604225887693 0.33242577570057114 1.1403830434066713 0 0 0 0.31 11 2572 16 999 33 2003 50 2242 77 1878 128 742 
6336 0.7130843776831951 0.27832567589249574 1.058867784349267 0 0 0 0.17 2 2800 4 3305 11 2573 19 944 33 2004 40 752 44 2290 50 2243 77 1879 91 512 105 386 146 1615 148 1211 
6337 0.775669809564022 0.26825980888218465 1.045293650050062 0 0 0 0.41 9 2122 11 2574 27 1562 77 1880 105 387 
6338 0.3895325666774339 0.34090270318156485 1.1524539986945428 0 0 0 0.12 11 2575 28 631 33 2005 93 626 146 1616 
6339 0.5305876488846691 0.3164223404615128 1.1142309512036352 0 0 0 0.07 11 2576 16 1000 124 667 146 1617 
6340 0.5307114854337579 0.31648542989176504 1.1145377241325158 0 0 0 0.03 11 2577 16 1001 146 1618 
6341 0.25880814287784243 0.3726688171402592 1.2060553527082267 0 0 0 0.07 11 2578 50 2244 146 1619 
6342 0.2739627306622883 0.3707509993307957 1.2036391387545657 0 0 0 0.31 9 2123 11 2579 44 2291 50 2245 61 1298 92 1513 93 627 109 861 
6343 0.3043050887048661 0.36420044331225354 1.1914605009875086 0 0 0 0.27 4 3306 11 2580 33 2006 44 2292 146 1620 
6344 0.5377113972637134 0.31361849031636946 1.1048108654486704 0 0 0 0.2 11 2581 16 1002 38 719 92 1514 124 668 146 1621 
6345 0.5834135101712831 0.3072935610099458 1.0982055535754491 0 0 0 0.12 11 2582 16 1003 33 2007 91 513 109 862 124 669 
6346 0.5833106942367763 0.30726074519141466 1.0980727956668104 0 0 0 0.08 11 2583 16 1004 33 2008 124 670 
6347 0.588852374913556 0.3065103717983262 1.0914707108550505 0 0 0 0.15 11 2584 50 2246 61 1299 146 1622 
6348 0.49364174354434803 0.325822351048286 1.1215967318308206 0 0 0 0.41 11 2585 16 1005 28 632 33 2009 38 720 44 2293 77 1881 93 628 109 863 146 1623 
6349 0.5212476241391394 0.3202400518485859 1.1118145730181863 0 0 0 0.23 11 2586 16 1006 27 1563 38 721 85 1121 146 1624 
6350 0.2916532013894929 0.3700758052081769 1.1935782020430725 0 0 0 0.21 11 2587 33 2010 44 2294 50 2247 61 1300 93 629 
6351 0.29156597884895646 0.3700130117673059 1.1931453071213056 0 0 0 0.16 11 2588 33 2011 44 2295 50 2248 61 1301 146 1625 
6352 0.3243357129928624 0.36325740142933927 1.1802225269311324 0 0 0 0.26 11 2589 28 633 146 1626 
6353 0.35702498390105103 0.3555780120980144 1.1671533275409536 0 0 0 0.34 11 2590 28 634 36 766 92 1515 110 668 
6354 0.376246738243853 0.35253529302538045 1.1612026251249028 0 0 0 0.1 11 2591 16 1007 28 635 
6355 0.389974219379832 0.34805476259839446 1.151958444351895 0 0 0 0.12 11 2592 16 1008 146 1627 
6356 0.6382238729996328 0.3011848210935426 1.0809320512015201 0 0 0 0.2 11 2593 38 722 44 2296 92 1516 146 1628 
6357 0.5627819859387234 0.3142145562606215 1.0976055294291132 0 0 0 0.22 2 2801 9 2124 11 2594 16 1009 27 1564 28 636 33 2012 44 2297 50 2249 77 1882 91 514 
6358 0.6750820444465315 0.29592022481183977 1.0717715750689778 0 0 0 0.23 11 2595 38 723 92 1517 
6359 0.35311006545247847 0.357833114439295 1.167591016281823 0 0 0 0.17 11 2596 109 864 124 671 146 1629 
6360 0.6168347801855273 0.306219159982198 1.084530032094393 0 0 0 0.1 11 2597 28 637 38 724 146 1630 
6361 0.4189981307400275 0.3421382960660727 1.13688467315909 0 0 0 0.22 11 2598 28 638 38 725 
6362 0.31987610932421023 0.3671279351058195 1.179902553770201 0 0 0 0.18 11 2599 44 2298 50 2250 92 1518 124 672 146 1631 
6363 0.3517292517754398 0.360188954494102 1.1680319775750083 0 0 0 0.33 11 2600 33 2013 36 767 92 1519 109 865 146 1632 
6364 0.7051327925841389 0.2929535748395031 1.0650043525662634 0 0 0 0.65 11 2601 33 2014 91 515 105 388 110 669 
6365 0.5043581356606354 0.3281535700232699 1.1134736200457567 0 0 0 0.17 11 2602 16 1010 93 630 
6366 0.5043876875954129 0.3282871481745056 1.1136603381411008 0 0 0 0.09 11 2603 16 1011 146 1633 
6367 0.6225609427525282 0.30655465357218725 1.0804889403484093 0 0 0 0.21 11 2604 16 1012 28 639 38 726 85 1122 91 516 109 866 
6368 0.6327450707044888 0.3053250557397851 1.0786929943758767 0 0 0 0.14 11 2605 16 1013 109 867 
6369 0.28935283763209574 0.37535444394651896 1.1923592765571922 0 0 0 0.08 11 2606 41 419 50 2251 146 1634 
6370 0.4265076528486101 0.3430865170240402 1.132987901854942 0 0 0 0.21 11 2607 16 1014 146 1635 
6371 0.6673281626678521 0.30028690362478444 1.071130868938562 0 0 0 0.44 4 3307 11 2608 27 1565 29 345 32 893 41 420 44 2299 50 2252 61 1302 92 1520 96 762 146 1636 
6372 0.5940784358745743 0.3130378825876338 1.0867890534450546 0 0 0 0.24 11 2609 19 945 33 2015 44 2300 50 2253 60 649 61 1303 93 631 107 485 124 673 135 134 
6373 0.71820943757308 0.28792877313883664 1.044936896663856 0 0 0 0.65 11 2610 50 2254 61 1304 92 1521 
6374 0.2923609701488676 0.37600221804423106 1.1917393538340575 0 0 0 0.37 11 2611 33 2016 44 2301 92 1522 93 632 
6375 0.2923483180813364 0.375899930772604 1.1915293125163062 0 0 0 0.33 9 2125 11 2612 27 1566 44 2302 50 2255 92 1523 109 868 128 743 
6376 0.4802614104581383 0.33503793796620773 1.119876938493935 0 0 0 0.26 11 2613 16 1015 28 640 109 869 146 1637 
6377 0.5096951498879781 0.33014598243224397 1.1114410667777443 0 0 0 0.17 11 2614 16 1016 28 641 44 2303 124 674 
6378 0.5657208291684259 0.32063401469994024 1.0955855712217566 0 0 0 0.18 11 2615 16 1017 28 642 
6379 0.5937407539038736 0.31552219514230234 1.0856919576197892 0 0 0 0.2 11 2616 85 1123 91 517 
6380 0.3580453408651209 0.3640525305255972 1.1635672749214976 0 0 0 0.37 11 2617 93 633 146 1638 
6381 0.3580453408651209 0.3640525305255972 1.1635672749214976 0 0 0 0.37 11 2618 93 634 146 1639 
6382 0.4209025118457453 0.34835923438788463 1.1332999075786372 0 0 0 0.43 11 2619 17 1555 44 2304 77 1883 92 1524 
6383 0.6591835616811008 0.30497223287498393 1.0700234482860835 0 0 0 0.12 11 2620 91 518 110 670 
6384 0.5766280365423497 0.32143054592428005 1.0943506285952929 0 0 0 0.19 11 2621 16 1018 146 1640 
6385 0.3521202367826412 0.3657839885309917 1.1652777370138945 0 0 0 0.13 11 2622 50 2256 113 245 
6386 0.35395158286401407 0.3671531671796263 1.164545081975279 0 0 0 0.71 11 2623 92 1525 148 1212 
6387 0.327954680089045 0.3740312277694166 1.1738820924919946 0 0 0 0.24 11 2624 28 643 33 2017 50 2257 92 1526 146 1641 
6388 0.7124797646691311 0.30170778306576035 1.0547623457155313 0 0 0 0.5 11 2625 77 1884 110 671 
6389 0.600043089165737 0.3211462941527717 1.0820757984310885 0 0 0 0.05 11 2626 16 1019 91 519 
6390 0.3315479370515149 0.37724874844464706 1.1734849693211227 0 0 0 0.45 2 2802 11 2627 28 644 50 2258 61 1305 92 1527 128 744 146 1642 
6391 0.3855065703789725 0.36675555518858416 1.152300245263182 0 0 0 0.31 11 2628 118 1448 146 1643 
6392 0.4198394613097939 0.3595690698661996 1.1401377329486198 0 0 0 0.05 11 2629 16 1020 146 1644 
6393 0.6441632930378091 0.31795606705259416 1.0752492076133018 0 0 0 0.19 11 2630 44 2305 61 1306 92 1528 
6394 0.29931114206857085 0.38659212859069686 1.1837880182270473 0 0 0 0.4 11 2631 50 2259 77 1885 92 1529 
6395 0.5405520400500197 0.3355430975867117 1.0981430141178066 0 0 0 0.44 11 2632 38 727 77 1886 85 1124 136 609 
6396 0.45271179235454206 0.3542251327711926 1.1221881963785507 0 0 0 0.38 11 2633 52 560 146 1645 
6397 0.4911243384423694 0.34775732724993097 1.1144524181297253 0 0 0 0.37 11 2634 16 1021 38 728 52 561 93 635 109 870 127 562 
6398 0.49118720752914163 0.3478490129804815 1.1148315545575054 0 0 0 0.4 11 2635 16 1022 27 1567 38 729 52 562 93 636 127 563 
6399 0.5021086618329441 0.3463011550687276 1.1123248933081458 0 0 0 0.08 11 2636 16 1023 28 645 146 1646 
6400 0.3950120178679306 0.36672709991087077 1.1421599734021548 0 0 0 0.23 11 2637 16 1024 135 135 146 1647 
6401 0.394998325400753 0.3666774738882201 1.1421012232177488 0 0 0 0.25 11 2638 16 1025 135 136 
6402 0.8040714037007081 0.29194270576757386 1.0257064459147174 0 0 0 0.33 11 2639 17 1556 27 1568 
6403 0.8069267663123835 0.2944691862448603 1.032251019083053 0 0 0 0.38 11 2640 40 753 107 486 
6404 0.5035511796979733 0.34645028584572735 1.1065767157543926 0 0 0 0.1 11 2641 16 1026 50 2260 146 1648 
6405 0.37995113082918525 0.3735873905679788 1.1518979399781528 0 0 0 0.2 11 2642 28 646 124 675 146 1649 
6406 0.38219849539639483 0.37305239647963967 1.1507384632386886 0 0 0 0.18 11 2643 16 1027 28 647 33 2018 146 1650 
6407 0.34331152280133187 0.3841433337492261 1.171358761885732 0 0 0 0.16 11 2644 50 2261 61 1307 
6408 0.5021371707301028 0.35048044257094463 1.1121247861077619 0 0 0 0.17 4 3308 11 2645 16 1028 28 648 38 730 50 2262 61 1308 69 317 92 1530 124 676 146 1651 
6409 0.3523975121008048 0.38227829226731014 1.1626672440385402 0 0 0 0.36 11 2646 28 649 50 2263 53 873 146 1652 
6410 0.7189328866147353 0.31188721589516827 1.0475807915448483 0 0 0 0.17 11 2647 27 1569 28 650 77 1887 
6411 0.6781748596728261 0.3212956198737306 1.0625643581294668 0 0 0 0.16 11 2648 33 2019 105 389 109 871 
6412 0.712315406057753 0.31384346988470707 1.0482056017406007 0 0 0 0.49 11 2649 77 1888 136 610 
6413 0.447233665799481 0.36156485192922183 1.1215209156915449 0 0 0 0.38 11 2650 28 651 38 731 
6414 0.7749683208724921 0.30251969293448305 1.0317404767020324 0 0 0 0.43 11 2651 33 2020 85 1125 
6415 0.2582594773953421 0.40317027236480774 1.192920622229393 0 0 0 0.53 11 2652 17 1557 27 1570 50 2264 113 246 
6416 0.7391637523408944 0.3093580029292518 1.0419855773741618 0 0 0 0.51 2 2803 11 2653 19 946 27 1571 33 2021 36 768 40 754 44 2306 50 2265 52 563 85 1126 105 390 107 487 110 672 124 677 136 611 
6417 0.5915922440037726 0.33616318187151045 1.0792289398867736 0 0 0 0.42 11 2654 38 732 136 612 146 1653 
6418 0.6333699369468935 0.32834284911180134 1.0682062438817421 0 0 0 0.3 11 2655 16 1029 38 733 85 1127 91 520 92 1531 109 872 136 613 146 1654 
6419 0.5121484688933398 0.3521358299245752 1.102218276548492 0 0 0 0.26 9 2126 11 2656 16 1030 28 652 33 2022 38 734 93 637 136 614 146 1655 
6420 0.5243657079360952 0.35187163877896904 1.1026613482912857 0 0 0 0.43 2 2804 11 2657 16 1031 33 2023 50 2266 52 564 92 1532 96 763 124 678 
6421 0.7677457626796279 0.3077885208682436 1.0334885984165496 0 0 0 0.25 11 2658 52 565 148 1213 
6422 0.4529294838697734 0.3640667354089286 1.1180732061536458 0 0 0 0.16 11 2659 16 1032 28 653 38 735 146 1656 
6423 0.8003872239735804 0.3035407915306143 1.0276287564087305 0 0 0 0.33 11 2660 33 2024 44 2307 77 1889 91 521 105 391 107 488 110 673 148 1214 
6424 0.29304028077511834 0.40040345561712787 1.1813475092088186 0 0 0 0.38 4 3309 11 2661 27 1572 33 2025 44 2308 50 2267 61 1309 77 1890 113 247 
6425 0.39111634241429083 0.3781038871600306 1.1417949149239903 0 0 0 0.23 11 2662 16 1033 110 674 146 1657 
6426 0.6629050609628611 0.327241804936398 1.0596544572966533 0 0 0 0.59 9 2127 11 2663 19 947 33 2026 38 736 44 2309 60 650 85 1128 91 522 107 489 109 873 110 675 124 679 146 1658 148 1215 
6427 0.6333147827600886 0.33187761707916247 1.0663002829428978 0 0 0 0.3 11 2664 16 1034 85 1129 109 874 
6428 0.5333690091292089 0.34801280760896125 1.0864498435742675 0 0 0 0.31 11 2665 16 1035 146 1659 
6429 0.6928679783325349 0.3231628590571722 1.0517990616965438 0 0 0 0.51 11 2666 27 1573 33 2027 40 755 50 2268 52 566 77 1891 85 1130 96 764 105 392 109 875 110 676 
6430 0.3563089811458098 0.38691953296484033 1.1538473503652142 0 0 0 0.86 11 2667 17 1558 19 948 28 654 33 2028 92 1533 93 638 118 1449 124 680 136 615 146 1660 148 1216 
6431 0.6004298362334395 0.3386616342004443 1.0743489510885782 0 0 0 0.46 2 2805 11 2668 16 1036 28 655 38 737 50 2269 52 567 77 1892 92 1534 93 639 109 876 110 677 146 1661 
6432 0.6003254121222459 0.3385544056257832 1.0742816761095877 0 0 0 0.3 11 2669 16 1037 93 640 
6433 0.41966695218539046 0.3706490070625174 1.1213948664819853 0 0 0 0.1 11 2670 16 1038 146 1662 
6434 0.5146545446130752 0.35512052960426355 1.0983656629823477 0 0 0 0.5 11 2671 15 546 27 1574 44 2310 53 874 61 1310 96 765 118 1450 
6435 0.830618147262596 0.3054869780390249 1.0315473837516917 0 0 0 0.65 11 2672 44 2311 77 1893 136 616 
6436 0.29714792332909823 0.40053550575792707 1.1747907555472261 0 0 0 0.15 11 2673 50 2270 146 1663 
6437 0.3277335175227111 0.39395985740896333 1.161512162763249 0 0 0 0.42 11 2674 17 1559 28 656 50 2271 61 1311 146 1664 
6438 0.539948351745805 0.3518203949392649 1.0917027392798138 0 0 0 0.36 11 2675 16 1039 85 1131 146 1665 
6439 0.5369854413605759 0.35337510608289674 1.091196594165968 0 0 0 0.45 11 2676 27 1575 36 769 92 1535 
6440 0.6727101129560878 0.3298755303769102 1.05670917757922 0 0 0 0.17 11 2677 77 1894 118 1451 
6441 0.4793831608507711 0.364199965838548 1.1085117877194852 0 0 0 0.21 11 2678 33 2029 50 2272 
6442 0.5683901133146768 0.34811990468045667 1.0828721791751956 0 0 0 0.13 11 2679 28 657 109 877 
6443 0.452992298131072 0.36946134017808396 1.1160219242066607 0 0 0 0.09 11 2680 16 1040 28 658 38 738 110 678 146 1666 
6444 0.5990064865803468 0.34355578308287343 1.0730180792355264 0 0 0 0.42 11 2681 16 1041 28 659 85 1132 92 1536 109 878 
6445 0.5360401918528774 0.35592163100954954 1.0925584665546062 0 0 0 0.11 11 2682 16 1042 146 1667 
6446 0.710431638797659 0.32466127865551303 1.0439406330758605 0 0 0 0.38 11 2683 60 651 85 1133 109 879 
6447 0.7866377354041233 0.303358090561891 0.9991748516159085 0 0 0 0.28 11 2684 27 1576 77 1895 
6448 0.6561316180323907 0.3423312474243255 1.0732894783081448 0 0 0 0.41 11 2685 32 894 44 2312 
6449 0.45623491559682144 0.3730719096506865 1.1131793840727575 0 0 0 0.23 11 2686 17 1560 27 1577 52 568 118 1452 
6450 0.8876840654315145 0.31214269810743944 1.0369218416068444 0 0 0 0.34 11 2687 44 2313 50 2273 77 1896 85 1134 
6451 0.7177665855250815 0.3294188074257651 1.0399668308487287 0 0 0 0.33 11 2688 33 2030 105 393 
6452 0.5245575881680845 0.36358425451593623 1.0915847819511517 0 0 0 0.2 11 2689 38 739 110 679 
6453 0.8656820117776444 0.31518777144669846 1.0313839210887084 0 0 0 0.71 11 2690 44 2314 50 2274 82 124 107 490 
6454 0.601187646270323 0.3510820325084141 1.069137391838734 0 0 0 0.28 11 2691 16 1043 28 660 52 569 85 1135 109 880 110 680 146 1668 148 1217 
6455 0.8653732648550275 0.31746568838667527 1.0325518588670506 0 0 0 0.39 11 2692 44 2315 105 394 107 491 
6456 0.5020390935043623 0.3694160989901106 1.095251587072866 0 0 0 0.34 11 2693 17 1561 28 661 38 740 50 2275 61 1312 124 681 146 1669 
6457 0.6287957982037664 0.34739696760466937 1.0622527710558123 0 0 0 0.41 9 2128 11 2694 27 1578 38 741 44 2316 52 570 60 652 77 1897 85 1136 91 523 93 641 96 766 107 492 109 881 110 681 146 1670 
6458 0.45184376281188293 0.37972997343770953 1.1121942539714256 0 0 0 0.31 11 2695 16 1044 28 662 50 2276 52 571 77 1898 92 1537 93 642 110 682 146 1671 
6459 0.4535624116804522 0.3802088275520123 1.1110892541222324 0 0 0 0.43 11 2696 16 1045 28 663 33 2031 36 770 41 421 52 572 92 1538 93 643 110 683 146 1672 
6460 0.5413187746866113 0.36496699599761384 1.0871004892424774 0 0 0 0.29 11 2697 92 1539 93 644 
6461 0.39590930272610053 0.39295798749333666 1.1307808216995257 0 0 0 1.04 4 3310 11 2698 16 1046 27 1579 28 664 92 1540 110 684 
6462 0.7186447092987318 0.33441475528915193 1.0378149218057555 0 0 0 0.45 11 2699 33 2032 40 756 44 2317 50 2277 107 493 
6463 0.36085920518222436 0.403699184436049 1.1464651977538154 0 0 0 0.23 2 2806 11 2700 33 2033 41 422 50 2278 61 1313 93 645 146 1673 
6464 0.5403573998172501 0.3707281424013214 1.0842593955967872 0 0 0 0.46 11 2701 28 665 33 2034 38 742 52 573 60 653 85 1137 93 646 
6465 0.3587394440828137 0.4083051130993405 1.1438616323324533 0 0 0 0.34 11 2702 92 1541 146 1674 
6466 0.7815349151471909 0.3296666663013775 1.016848259812106 0 0 0 0.56 11 2703 40 757 85 1138 105 395 
6467 0.5989636733525241 0.3611594859476449 1.0639632724535604 0 0 0 0.12 11 2704 16 1047 146 1675 
6468 0.7813061053943269 0.33084955366314717 1.0147609009751781 0 0 0 0.19 11 2705 33 2035 107 494 
6469 0.45192517775017793 0.3904837417593337 1.106946419452443 0 0 0 0.59 11 2706 16 1048 92 1542 
6470 0.8338247001865398 0.3318973582969417 1.0208426283652223 0 0 0 0.51 11 2707 36 771 77 1899 
6471 0.6285858033014184 0.36231051609740667 1.0578724386213023 0 0 0 0.22 11 2708 77 1900 146 1676 
6472 0.3968549578900913 0.4052764751917609 1.1261868794935408 0 0 0 0.11 11 2709 41 423 92 1543 146 1677 
6473 0.6291891349623653 0.36280191620507285 1.0553847142369974 0 0 0 0.58 11 2710 85 1139 109 882 146 1678 
6474 0.45243988013755626 0.3960265198031686 1.1041757859325314 0 0 0 0.34 11 2711 44 2318 60 654 77 1901 
6475 0.39916250979395806 0.4100249615408892 1.1241969275004666 0 0 0 0.28 11 2712 33 2036 77 1902 124 682 146 1679 148 1218 
6476 0.4136697900178848 0.16212430514582854 1.2191150358660667 0 0 0 0.27 11 2713 16 1049 33 2037 61 1314 
6477 0.37752019063041914 0.172146902318237 1.2322871848198385 0 0 0 0.25 11 2714 16 1050 61 1315 118 1453 
6478 0.48112188722693494 0.15266026158438792 1.1969359924137621 0 0 0 0.27 11 2715 44 2319 50 2279 110 685 148 1219 
6479 0.6244574774291787 0.13336362630458093 1.1557237792627062 0 0 0 0.49 11 2716 17 1562 29 346 33 2038 103 537 118 1454 
6480 0.7128459140674053 0.11710751431948244 1.1332618489430015 0 0 0 0.31 11 2717 15 547 32 895 50 2280 77 1903 
6481 0.383942840720934 0.18660381607266807 1.2253316225913244 0 0 0 0.28 11 2718 27 1580 41 424 77 1904 
6482 0.29288496299419303 0.21287729061255747 1.2656153319889878 0 0 0 0.46 11 2719 27 1581 50 2281 61 1316 
6483 0.535640180163222 0.1603979299803096 1.1705027560062413 0 0 0 0.41 9 2129 11 2720 16 1051 19 949 27 1582 33 2039 41 425 60 655 109 883 110 686 124 683 136 617 146 1680 
6484 0.5450535807629383 0.15981668163793483 1.1659270163814435 0 0 0 0.43 11 2721 44 2320 50 2282 61 1317 146 1681 
6485 0.2258481684629023 0.2328780132733569 1.288667882726441 0 0 0 0.21 11 2722 17 1563 53 875 118 1455 
6486 0.27658932088932875 0.22239682912944633 1.267587215881775 0 0 0 0.25 4 3311 11 2723 17 1564 27 1583 33 2040 41 426 50 2283 61 1318 77 1905 103 538 118 1456 
6487 0.5043578458631005 0.17152475293651676 1.1801273615761547 0 0 0 0.87 3 1175 9 2130 11 2724 12 463 16 1052 38 743 53 876 61 1319 85 1140 92 1544 93 647 96 767 109 884 110 687 127 564 
6488 0.5391786675912306 0.16303384085337683 1.1680250631131157 0 0 0 0.61 9 2131 11 2725 14 168 77 1906 85 1141 110 688 118 1457 
6489 0.7366342419246169 0.12514683265325066 1.1198696754437518 0 0 0 0.36 11 2726 50 2284 92 1545 
6490 0.737068584525884 0.12507369113481795 1.1204664934891442 0 0 0 0.29 11 2727 50 2285 92 1546 127 565 136 618 
6491 0.6823885434672489 0.1399577815714639 1.1337783174088556 0 0 0 0.38 9 2132 11 2728 15 548 33 2041 40 758 44 2321 50 2286 77 1907 85 1142 92 1547 105 396 127 566 
6492 0.5055361405636735 0.1753725624075036 1.1770490292907183 0 0 0 0.44 11 2729 16 1053 19 950 28 666 33 2042 127 567 146 1682 
6493 0.5096075195172999 0.174936774583119 1.1767484392102923 0 0 0 0.31 11 2730 27 1584 77 1908 
6494 0.4968851416233756 0.18103690667646086 1.1770365649833878 0 0 0 0.26 11 2731 16 1054 44 2322 77 1909 127 568 
6495 0.32007023172070975 0.22334996792640155 1.2395058349230705 0 0 0 0.51 2 2807 11 2732 27 1585 33 2043 92 1548 127 569 146 1683 
6496 0.5640232585135543 0.17153215371204866 1.159262126059269 0 0 0 0.15 11 2733 33 2044 148 1220 
6497 0.3253066886462583 0.22491954419150867 1.23759859581733 0 0 0 0.3 2 2808 4 3312 11 2734 50 2287 61 1320 
6498 0.5752161344790319 0.17196993348095133 1.1517481265148524 0 0 0 0.54 11 2735 27 1586 33 2045 44 2323 60 656 124 684 
6499 0.5568762885869181 0.17719389695484994 1.160379130360484 0 0 0 0.17 11 2736 25 603 111 815 
6500 0.5733685300469132 0.17324444015370666 1.1537519101427058 0 0 0 0.36 11 2737 27 1587 32 896 77 1910 110 689 
6501 0.3904200395017677 0.21096484598600693 1.2036097678335513 0 0 0 0.15 11 2738 97 375 118 1458 128 745 
6502 0.32740402567234655 0.22789742839589874 1.229407233468806 0 0 0 0.22 11 2739 27 1588 36 772 77 1911 
6503 0.6746773618510593 0.1588243335303947 1.129146382886546 0 0 0 0.43 11 2740 27 1589 50 2288 146 1684 
6504 0.7305600246286511 0.1481397651367188 1.1134586244018287 0 0 0 0.55 2 2809 4 3313 16 1055 52 574 60 657 77 1912 103 539 127 570 148 1221 
6505 0.3835757355156726 0.21758972691471906 1.2075325354820203 0 0 0 0.42 11 2741 27 1590 32 897 50 2289 77 1913 85 1143 110 690 
6506 0.6479822456730341 0.1646656468725334 1.1308679521631595 0 0 0 0.14 11 2742 36 773 50 2290 146 1685 
6507 0.5847519180204942 0.17768672088585538 1.1452441318069273 0 0 0 0.39 11 2743 27 1591 38 744 77 1914 109 885 128 746 
6508 0.429250366105019 0.21138803619340504 1.1899734208588664 0 0 0 0.14 11 2744 28 667 77 1915 93 648 
6509 0.500930645365309 0.19713862070779364 1.1701883086896558 0 0 0 0.32 11 2745 16 1056 27 1592 28 668 50 2291 124 685 146 1686 
6510 0.7682726101138428 0.1448593167436922 1.0977867392737974 0 0 0 0.47 11 2746 27 1593 50 2292 91 524 
6511 0.5804374383778751 0.18337019708913982 1.1473849373308649 0 0 0 0.44 11 2747 16 1057 27 1594 85 1144 109 886 
6512 0.49096305231995396 0.20154920700360163 1.1703333603793826 0 0 0 0.19 11 2748 50 2293 85 1145 118 1459 
6513 0.41286711178178465 0.21889303014924064 1.198243313041354 0 0 0 0.43 11 2749 16 1058 28 669 53 877 61 1321 96 768 
6514 0.5041664217667893 0.19960681435397562 1.1680514066385612 0 0 0 0.43 11 2750 16 1059 33 2046 50 2294 109 887 124 686 148 1222 
6515 0.43393908725095975 0.21473326517897023 1.1861802158606962 0 0 0 0.82 2 2810 11 2751 19 951 28 670 52 575 60 658 93 649 124 687 
6516 0.6028871504530965 0.181406253503777 1.1433631095830794 0 0 0 0.37 11 2752 27 1595 77 1916 96 769 
6517 0.5095632162706447 0.2004638686454111 1.1649617996832784 0 0 0 0.51 9 2133 11 2753 16 1060 17 1565 19 952 27 1596 33 2047 38 745 44 2324 50 2295 85 1146 92 1549 93 650 109 888 127 571 148 1223 
6518 0.2270285073267417 0.2641341657868545 1.2710990415583145 0 0 0 0.31 11 2754 17 1566 32 898 50 2296 146 1687 
6519 0.26978153318888887 0.2540634863952185 1.2528312546017744 0 0 0 0.08 11 2755 44 2325 50 2297 146 1688 
6520 0.3156705912949557 0.24374365482285193 1.2359531499350063 0 0 0 0.49 11 2756 32 899 128 747 
6521 0.5620662430601049 0.19188692527765025 1.1511246477892974 0 0 0 0.41 11 2757 27 1597 33 2048 36 774 40 759 77 1917 146 1689 148 1224 
6522 0.5623914248407096 0.19186541029279836 1.1512122088279095 0 0 0 0.66 9 2134 11 2758 27 1598 33 2049 36 775 41 427 60 659 77 1918 85 1147 93 651 109 889 127 572 146 1690 148 1225 
6523 0.5512216925411134 0.19550005415757116 1.1533211167179247 0 0 0 0.3 11 2759 16 1061 19 953 33 2050 50 2298 77 1919 85 1148 109 890 124 688 148 1226 
6524 0.7374945570668063 0.1585715984576095 1.10357640932014 0 0 0 0.28 2 2811 11 2760 19 954 36 776 77 1920 
6525 0.6985317725653365 0.16709156212672135 1.1142341083900604 0 0 0 0.12 11 2761 50 2299 77 1921 
6526 0.8340979609930239 0.14608852108612258 1.1026943528577107 0 0 0 0.66 9 2135 11 2762 17 1567 50 2300 77 1922 85 1149 89 349 105 397 128 748 
6527 0.4942265908303997 0.20673941408882038 1.1625770027858182 0 0 0 0.43 11 2763 15 549 27 1599 60 660 
6528 0.4465576179283222 0.21750136153693933 1.1804885220903218 0 0 0 0.43 4 3314 11 2764 16 1062 32 900 33 2051 77 1923 92 1550 93 652 109 891 128 749 146 1691 148 1227 
6529 0.42049300449308663 0.22418015338130376 1.1882646787410953 0 0 0 0.45 11 2765 17 1568 38 746 53 878 77 1924 96 770 103 540 118 1460 148 1228 
6530 0.49698616875500196 0.20932460268394285 1.1675736067612827 0 0 0 0.28 11 2766 16 1063 44 2326 
6531 0.5881971385207134 0.19127594031907974 1.1408099063006925 0 0 0 0.25 2 2812 4 3315 9 2136 11 2767 16 1064 17 1569 19 955 27 1600 29 347 32 901 33 2052 38 747 40 760 44 2327 50 2301 60 661 61 1322 77 1925 85 1150 91 525 92 1551 93 653 96 771 107 495 109 892 110 691 118 1461 124 689 127 573 128 750 146 1692 148 1229 
6532 0.6315359844362253 0.18442567823492756 1.1294105274935962 0 0 0 0.2 11 2768 52 576 91 526 
6533 0.4656755862103622 0.21754983547078888 1.172756484706093 0 0 0 0.37 11 2769 15 550 16 1065 27 1601 41 428 52 577 60 662 61 1323 69 318 77 1926 92 1552 96 772 109 893 110 692 111 816 118 1462 136 619 148 1230 
6534 0.5354193287513543 0.20435050551912037 1.1552975810375243 0 0 0 0.33 11 2770 14 169 15 551 17 1570 29 348 96 773 103 541 148 1231 
6535 0.4136896310073123 0.22920355735481293 1.1868725264250517 0 0 0 0.4 4 3316 9 2137 11 2771 12 464 16 1066 17 1571 27 1602 28 671 32 902 33 2053 36 777 41 429 43 709 44 2328 50 2302 52 578 53 879 60 663 61 1324 67 312 77 1927 85 1151 89 350 92 1553 93 654 96 774 100 67 107 496 109 894 111 817 112 15 118 1463 136 620 146 1693 
6536 0.4236224378188333 0.2273388745256679 1.1832180508240429 0 0 0 0.34 4 3317 11 2772 16 1067 71 784 118 1464 128 751 
6537 0.5148504887424005 0.20997207670823598 1.160319120542964 0 0 0 0.5 11 2773 27 1603 61 1325 77 1928 96 775 111 818 
6538 0.6518918556194705 0.18384208328517568 1.1252165827818605 0 0 0 0.59 11 2774 50 2303 60 664 77 1929 127 574 
6539 0.6201039639172009 0.1913779806047889 1.1341388533329393 0 0 0 0.5 11 2775 27 1604 54 331 77 1930 96 776 
6540 0.6878646117176571 0.17794021764959359 1.1156914953090113 0 0 0 0.64 11 2776 41 430 44 2329 91 527 136 621 
6541 0.6285183736515069 0.18982624077083074 1.1314112002480823 0 0 0 0.24 11 2777 27 1605 54 332 96 777 
6542 0.4002188412615964 0.23847348623083023 1.2042755468052084 0 0 0 0.14 11 2778 16 1068 118 1465 
6543 0.6778189662548679 0.1814326370693805 1.1160097559177093 0 0 0 0.55 11 2779 15 552 27 1606 40 761 52 579 60 665 77 1931 96 778 148 1232 
6544 0.488732505616882 0.22073917363972292 1.1717580848765066 0 0 0 0.19 11 2780 14 170 17 1572 50 2304 69 319 
6545 0.6444391291437862 0.1886123990951022 1.1251172733689319 0 0 0 0.6 11 2781 19 956 27 1607 29 349 33 2054 77 1932 85 1152 96 779 118 1466 148 1233 
6546 0.7926300868827737 0.1613986250766951 1.0890585365213339 0 0 0 0.35 2 2813 9 2138 11 2782 32 903 36 778 44 2330 52 580 85 1153 92 1554 127 575 136 622 146 1694 
6547 0.6796700748259761 0.1832555419084931 1.1142084975249391 0 0 0 0.94 2 2814 4 3318 11 2783 27 1608 50 2305 77 1933 91 528 
6548 0.5141565208277876 0.21762234353818224 1.164654015941619 0 0 0 0.42 2 2815 11 2784 15 553 16 1069 27 1609 38 748 96 780 103 542 
6549 0.482795781459391 0.22331027598197614 1.1698708887386082 0 0 0 0.02 11 2785 16 1070 146 1695 
6550 0.5067084990023587 0.21762482161010038 1.1597861278763422 0 0 0 0.31 11 2786 16 1071 44 2331 146 1696 
6551 0.7535559320429766 0.17068547013215365 1.0959752740014599 0 0 0 0.37 11 2787 27 1610 36 779 40 762 44 2332 77 1934 
6552 0.5755529813399574 0.20599699859018844 1.1431662311218997 0 0 0 0.15 11 2788 16 1072 17 1573 50 2306 61 1326 118 1467 
6553 0.4886374432612892 0.22416393148041514 1.1692793747081751 0 0 0 0.26 11 2789 50 2307 61 1327 
6554 0.5228831016381577 0.21760636037022882 1.1526773894805944 0 0 0 0.21 11 2790 16 1073 17 1574 53 880 
6555 0.5337404369821804 0.21782523095787762 1.1521260766948926 0 0 0 0.23 11 2791 27 1611 33 2055 50 2308 
6556 0.5584342401186246 0.21496037811733626 1.1503816631058135 0 0 0 0.41 11 2792 15 554 17 1575 50 2309 146 1697 
6557 0.5584048092058089 0.21449098113399107 1.1499896637442908 0 0 0 0.63 11 2793 15 555 16 1074 17 1576 27 1612 43 710 50 2310 91 529 96 781 
6558 0.23328647619147913 0.2845947162066102 1.2593732462782707 0 0 0 0.16 11 2794 50 2311 128 752 
6559 0.3537632405241559 0.2590476262162302 1.210415287293628 0 0 0 0.29 11 2795 17 1577 28 672 33 2056 41 431 44 2333 50 2312 93 655 146 1698 
6560 0.5763082296402774 0.21122143575840543 1.130799222595231 0 0 0 0.1 11 2796 17 1578 118 1468 
6561 0.4282367298569726 0.24463778242785292 1.180697496771395 0 0 0 0.32 11 2797 44 2334 77 1935 
6562 0.3867250077236591 0.25584483493256105 1.1952056909991506 0 0 0 0.34 11 2798 17 1579 44 2335 93 656 
6563 0.42012664950717654 0.2482002510453027 1.1781811001286704 0 0 0 0.31 11 2799 28 673 50 2313 52 581 93 657 146 1699 
6564 0.5440088096256713 0.23364391729899409 1.147055808404715 0 0 0 0.19 3 1176 11 2800 15 556 17 1580 89 351 
6565 0.8676897670255923 0.18175546627265773 1.0865775425892015 0 0 0 0.24 11 2801 40 763 61 1328 118 1469 
6566 0.31029302627354827 0.2916894682466706 1.2313295174311272 0 0 0 0.27 11 2802 50 2314 118 1470 
6567 0.27627984379531445 0.2991732974182707 1.2352891303006448 0 0 0 0.09 2 2816 4 3319 11 2803 17 1581 33 2057 44 2336 50 2315 118 1471 146 1700 
6568 0.28195969980797864 0.2980518277149253 1.2337659284075677 0 0 0 0.18 11 2804 17 1582 27 1613 33 2058 50 2316 113 248 127 576 146 1701 
6569 0.2845927440359142 0.2971106681172353 1.2317046462226313 0 0 0 0.21 2 2817 9 2139 11 2805 17 1583 27 1614 33 2059 92 1555 127 577 146 1702 
6570 0.6250880453353387 0.22556873763866173 1.1169480762850912 0 0 0 0.25 2 2818 11 2806 17 1584 33 2060 38 749 118 1472 148 1234 
6571 0.30212083302970644 0.29373584168976036 1.2236119311605798 0 0 0 0.27 9 2140 11 2807 32 904 33 2061 50 2317 61 1329 113 249 118 1473 127 578 128 753 146 1703 
6572 0.736016212241012 0.20535273153981917 1.090756092771541 0 0 0 0.2 11 2808 60 666 77 1936 146 1704 
6573 0.8771091627264037 0.1880479797220308 1.0882876790623135 0 0 0 0.29 11 2809 17 1585 29 350 61 1330 
6574 0.38057317336170254 0.27617085465434305 1.1921761388675367 0 0 0 0.19 11 2810 33 2062 127 579 
6575 0.5646322904508702 0.23618237940778553 1.1233149287006865 0 0 0 0.16 11 2811 16 1075 41 432 
6576 0.8653025163690347 0.19045622200238002 1.0876368843355093 0 0 0 0.25 11 2812 71 785 85 1154 91 530 
6577 0.26128922865887244 0.3045070364571048 1.2378673785616472 0 0 0 0.57 11 2813 33 2063 44 2337 50 2318 
6578 0.4666389027286211 0.2587654696629216 1.159227688547506 0 0 0 0.47 11 2814 27 1615 77 1937 
6579 0.30611394660681507 0.29482268705806747 1.2215829552448034 0 0 0 0.21 4 3320 11 2815 17 1586 27 1616 33 2064 77 1938 113 250 118 1474 127 580 128 754 
6580 0.33128744236410107 0.29013886487744384 1.2111527744582828 0 0 0 0.32 11 2816 17 1587 19 957 44 2338 50 2319 113 251 128 755 146 1705 
6581 0.45059958705378966 0.2630618495721375 1.1616841500620658 0 0 0 0.3 11 2817 44 2339 85 1155 
6582 0.6334735397933072 0.23112658487951862 1.1128050083257226 0 0 0 0.4 9 2141 11 2818 19 958 27 1617 33 2065 44 2340 92 1556 
6583 0.5201446470454673 0.2525719511859566 1.1412778800573977 0 0 0 0.25 11 2819 33 2066 38 750 44 2341 109 895 127 581 148 1235 
6584 0.35513090370787664 0.29013173228900946 1.1971938918065361 0 0 0 0.4 11 2820 33 2067 50 2320 93 658 118 1475 136 623 146 1706 148 1236 
6585 0.7845639820980153 0.2066348448188169 1.0726590782303445 0 0 0 0.2 11 2821 35 70 36 780 43 711 50 2321 61 1331 82 125 
6586 0.7872842674076479 0.20606442325168542 1.071696685626234 0 0 0 0.23 11 2822 17 1588 50 2322 61 1332 
6587 0.4437807893379849 0.2727534724644232 1.1624469842283613 0 0 0 0.27 2 2819 11 2823 33 2068 38 751 41 433 44 2342 50 2323 61 1333 124 690 
6588 0.616991504834179 0.23932556836569388 1.1143815308444962 0 0 0 0.16 11 2824 33 2069 50 2324 146 1707 
6589 0.5159134505470422 0.2592654227242537 1.1421273184660903 0 0 0 0.16 11 2825 33 2070 127 582 
6590 0.35498850035636775 0.29397644245380083 1.1958698375084054 0 0 0 0.31 11 2826 28 674 33 2071 41 434 52 582 136 624 
6591 0.8248410087251624 0.20557133736829178 1.074368684796277 0 0 0 0.32 11 2827 19 959 77 1939 92 1557 
6592 0.3605757143359155 0.29366833827334354 1.1947896717984337 0 0 0 0.29 9 2142 11 2828 27 1618 28 675 33 2072 50 2325 52 583 61 1334 85 1156 93 659 96 782 109 896 113 252 128 756 136 625 146 1708 
6593 0.5726087541045791 0.25037806948792385 1.1252117840687736 0 0 0 0.38 9 2143 11 2829 16 1076 19 960 27 1619 33 2073 36 781 38 752 40 764 41 435 44 2343 50 2326 52 584 60 667 61 1335 77 1940 91 531 92 1558 93 660 96 783 109 897 111 819 136 626 
6594 0.3942345367844556 0.28693803285728886 1.1801768809671487 0 0 0 0.34 9 2144 11 2830 17 1589 19 961 27 1620 43 712 53 881 60 668 85 1157 92 1559 93 661 96 784 103 543 109 898 110 693 124 691 146 1709 
6595 0.4637716304260782 0.27547611608721284 1.1604099927411724 0 0 0 0.24 11 2831 16 1077 27 1621 
6596 0.6353457574863137 0.24052339065969666 1.1067147912364346 0 0 0 0.08 11 2832 50 2327 61 1336 
6597 0.5294135223326334 0.2642791189151727 1.1373200365782037 0 0 0 0.26 11 2833 38 753 111 820 118 1476 
6598 0.48563737018526104 0.27313001266552567 1.1498719977901368 0 0 0 0.21 11 2834 32 905 38 754 44 2344 93 662 118 1477 128 757 
6599 0.6518753400232772 0.24231595205332623 1.1045037552119596 0 0 0 0.62 2 2820 3 1177 11 2835 15 557 27 1622 29 351 50 2328 54 333 71 786 77 1941 103 544 111 821 127 583 136 627 146 1710 
6600 0.7795301184103817 0.21778983034196137 1.06998300361745 0 0 0 0.16 11 2836 17 1590 61 1337 92 1560 
6601 0.5200124619108414 0.2683485277801437 1.140699640356189 0 0 0 0.24 4 3321 11 2837 16 1078 17 1591 32 906 110 694 
6602 0.5246595354236164 0.26747594389442003 1.1390047674478376 0 0 0 0.2 11 2838 29 352 32 907 50 2329 61 1338 103 545 
6603 0.5550396616498344 0.26310198651341654 1.131673888689209 0 0 0 0.35 11 2839 27 1623 77 1942 
6604 0.5878558127427548 0.25659973069925784 1.120591889840656 0 0 0 0.26 11 2840 38 755 50 2330 77 1943 
6605 0.7499535685593428 0.22522851908746538 1.0712838682233063 0 0 0 0.61 11 2841 19 962 60 669 77 1944 
6606 0.559215786044696 0.2627237136094506 1.1261664031896252 0 0 0 0.12 11 2842 16 1079 17 1592 146 1711 
6607 0.5741705279165472 0.2607782472855708 1.12311873542934 0 0 0 0.2 11 2843 15 558 17 1593 
6608 0.4788296152920367 0.27887265631988445 1.145009839894079 0 0 0 0.19 11 2844 33 2074 44 2345 118 1478 
6609 0.4061790344219574 0.2979528125264895 1.1713471132946887 0 0 0 0.46 4 3322 11 2845 16 1080 17 1594 
6610 0.4999861103265101 0.27968459738575147 1.1439511640437343 0 0 0 0.07 11 2846 16 1081 146 1712 
6611 0.4301759634178742 0.292366863261611 1.1582789042058015 0 0 0 0.14 4 3323 11 2847 16 1082 50 2331 146 1713 
6612 0.4576670434424575 0.28776991216531705 1.150499351740769 0 0 0 0.17 11 2848 16 1083 17 1595 50 2332 
6613 0.4828850100219455 0.28381530668655536 1.142534335026852 0 0 0 0.19 11 2849 50 2333 146 1714 
6614 0.5446921123640129 0.27362860735117234 1.1281449128449665 0 0 0 0.21 11 2850 16 1084 17 1596 44 2346 
