# 3D point list with one line of data per point:
#   POINT3D_ID, X, Y, Z, R, G, B, ERROR, TRACK[] as (IMAGE_ID, POINT2D_IDX)
# Number of points: 426, mean track length: 5.62
47 0.4514918605526401 0.1667414291126576 1.1750795799347797 0 0 0 0.24 2 24 3 10 4 18 11 14 15 15 16 7 17 17 19 13 25 11 26 24 27 13 29 14 33 14 38 11 40 10 43 3 50 9 53 7 63 11 71 18 77 18 96 20 97 10 103 6 111 6 142 46 
48 0.4875118586758544 0.16508704500048577 1.1682457873783272 0 0 0 0.58 2 25 3 11 4 19 17 18 27 14 33 15 40 11 42 11 44 9 50 10 53 8 54 5 61 6 71 19 77 19 85 15 93 5 142 47 
49 0.433040340567716 0.17877681966672293 1.1784257951632657 0 0 0 0.38 2 26 3 12 4 20 17 19 25 12 38 12 40 12 50 11 61 7 71 20 142 48 
50 0.17005380347076796 0.24078354426065765 1.2925828788349405 0 0 0 0.28 2 27 26 25 40 13 71 21 73 9 85 16 110 3 142 49 
51 0.5767571268273369 0.18081433636448396 1.1327506018127296 0 0 0 0.07 2 28 4 21 40 14 73 10 142 50 
52 0.4924327080917745 0.19709753530492638 1.1566829629819038 0 0 0 0.34 2 29 4 22 11 15 15 16 16 8 17 20 19 14 26 26 27 15 29 15 33 16 38 13 40 15 42 12 50 12 52 15 53 9 54 6 60 3 63 12 71 22 77 20 85 17 96 21 97 11 103 7 109 4 142 51 
53 0.5416737739140494 0.1896664398903411 1.1440279362581196 0 0 0 0.21 2 30 11 16 27 16 40 16 142 52 
54 0.5850115082950083 0.18240558219643585 1.1281681098856369 0 0 0 0.33 2 31 4 23 11 17 16 9 17 21 25 13 26 27 38 14 40 17 50 13 54 7 71 23 73 11 77 21 85 18 103 8 142 53 
55 0.6369488282548275 0.1778029344054674 1.1159003566928827 0 0 0 0.28 2 32 26 28 42 13 53 10 60 4 61 8 63 13 71 24 73 12 85 19 92 8 142 54 
56 0.6535681313885479 0.174821178283183 1.1108788697149894 0 0 0 0.31 2 33 3 13 11 18 15 17 17 22 19 15 25 14 26 29 27 17 29 16 33 17 42 14 43 4 44 10 50 14 53 11 54 8 61 9 63 14 71 25 73 13 77 22 85 20 91 3 96 22 97 12 111 7 142 55 
57 0.30581694797218784 0.23918777779338776 1.223905669034112 0 0 0 0.31 2 34 19 16 26 30 33 18 40 18 42 15 53 12 71 26 85 21 109 5 110 4 142 56 
58 0.24578853750082524 0.25243304193355565 1.2486471098980716 0 0 0 0.24 2 35 3 14 9 5 27 18 33 19 44 11 96 23 110 5 111 8 142 57 
59 0.22349150451611316 0.25760280943461045 1.2591548452003885 0 0 0 0.39 2 36 19 17 27 19 40 19 44 12 71 27 73 14 77 23 92 9 142 58 
60 0.5726635605390128 0.24102483741703723 1.1117589509860222 0 0 0 0.17 2 37 3 15 15 18 19 18 42 16 77 24 103 9 111 9 142 59 
61 0.1967849285936379 0.3500334350730586 1.2328840884702366 0 0 0 0.37 2 38 25 15 26 31 40 20 44 13 73 15 77 25 85 22 109 6 142 60 
62 0.13723253460467075 0.13657619902629334 1.1311648912946448 0 0 0 0.18 2 39 17 23 43 5 73 16 142 61 
63 0.1372578247798389 0.13671498015457753 1.130906400914141 0 0 0 0.36 2 40 17 24 73 17 111 10 142 62 
64 0.40966293897467954 0.1434485606865262 1.2113767197775063 0 0 0 0.19 2 41 19 19 50 15 142 63 
65 0.4097780548745735 0.1432972153065608 1.2114947553545372 0 0 0 0.19 2 42 27 20 50 16 142 64 
66 0.17234169076136321 0.24397493189642125 1.2899153548973212 0 0 0 0.19 2 43 26 32 40 21 142 65 
67 0.422832249112206 0.2044981340727962 1.1778464804523374 0 0 0 0.38 2 44 3 16 4 24 9 6 11 19 16 10 17 25 19 20 25 16 26 33 27 21 29 17 33 20 38 15 40 22 44 14 50 17 52 16 53 13 60 5 61 10 63 15 71 28 77 26 85 23 92 10 93 6 96 24 109 7 142 66 
68 0.1764037579497144 0.2915572833156553 1.2668145883207007 0 0 0 0.42 2 45 26 34 27 22 44 15 142 67 
69 0.5966900306120589 0.2299883393767519 1.1102345522946386 0 0 0 0.26 2 46 50 18 111 11 142 68 
70 0.17544370851404076 0.3382499388774873 1.249537414322135 0 0 0 0.26 2 47 27 23 40 23 73 18 142 69 
71 0.22246176899160902 0.34034451507214847 1.2270545271330324 0 0 0 0.35 2 48 9 7 19 21 21 2 26 35 27 24 40 24 73 19 85 24 142 70 
72 0.6483974583500546 0.2802846542494042 1.0668197992860533 0 0 0 0.31 2 49 4 25 19 22 25 17 26 36 33 21 71 29 73 20 77 27 88 6 111 12 142 71 
73 0.3294173047365429 0.38543805873916204 1.1506119145258007 0 0 0 0.32 2 50 26 37 44 16 77 28 142 72 
74 0.678105581327255 0.32728460775188356 1.0366856327251297 0 0 0 0.41 2 51 4 26 19 23 25 18 27 25 33 22 40 25 43 6 52 17 63 16 71 30 88 7 91 4 110 6 111 13 142 73 
75 0.4092774117752282 0.15134221517589455 1.2086659982825128 0 0 0 0.21 2 52 50 19 142 74 
76 0.6181438479787402 0.13656261321560048 1.1405734875279554 0 0 0 0.29 2 53 4 27 15 19 26 38 50 20 54 9 71 31 73 21 88 8 142 75 
77 0.18792368832454562 0.3432606788227141 1.2384625780542469 0 0 0 0.27 2 54 25 19 26 39 27 26 109 8 142 76 
78 0.5161376548667533 0.18244083912095288 1.1545809169076138 0 0 0 0.61 2 55 4 28 19 24 27 27 38 16 40 26 42 17 44 17 61 11 63 17 77 29 111 14 142 77 
79 0.2966343166226604 0.3936604343458476 1.1635219914408887 0 0 0 0.54 2 56 25 20 52 18 65 6 142 78 
80 0.4095414564847784 0.13906717363177346 1.2123296948368694 0 0 0 0.38 2 57 17 26 111 15 142 79 
81 0.16467739770723097 0.28460055152861025 1.1287911486827533 0 0 0 0.23 2 58 26 40 77 30 142 80 
82 0.20662259458992432 0.3951493012937562 1.2111640100688408 0 0 0 0.56 2 59 19 25 25 21 26 41 71 32 77 31 109 9 142 81 
83 0.2572951125463579 0.2407906560025288 1.2467927903475073 0 0 0 0.28 2 60 9 8 40 27 44 18 77 32 142 82 
84 0.5153084062095792 0.14292658589531118 1.1729430966834542 0 0 0 0.43 2 61 40 28 63 18 142 83 
85 0.4177956271019528 0.21689057448488286 1.1768372791850807 0 0 0 0.82 2 62 3 17 4 29 11 20 19 26 25 22 26 42 29 18 33 23 38 17 40 29 50 21 52 19 63 19 65 7 71 33 85 25 88 9 103 10 109 10 111 16 142 84 
86 0.24617605719091723 0.36382020510565505 1.2046082991455973 0 0 0 0.47 2 63 26 43 40 30 142 85 
87 0.23212947667516032 0.3885476574279535 1.1999225523109063 0 0 0 0.54 2 64 4 30 9 9 17 27 19 27 25 23 26 44 27 28 65 8 71 34 73 22 77 33 85 26 88 10 103 11 109 11 142 86 
88 0.573635811088892 0.1858968514580694 1.1305937518952551 0 0 0 1.01 2 65 17 28 61 12 65 9 73 23 142 87 
89 0.630675127179284 0.19765662954388294 1.110096049458101 0 0 0 0.32 2 66 4 31 15 20 17 29 53 14 142 88 
90 0.6308769152925809 0.19771734035022343 1.1104921059939643 0 0 0 0.38 2 67 4 32 16 11 19 28 50 22 52 20 53 15 61 13 65 10 97 13 103 12 111 17 142 89 
91 0.2165602008296226 0.4040801272817251 1.2013419632079196 0 0 0 0.64 2 68 9 10 19 29 21 3 25 24 44 19 85 27 142 90 
92 0.22879502723091966 0.3088668895780904 1.2361092776424405 0 0 0 0.46 2 69 4 33 17 30 19 30 21 4 26 45 27 29 50 23 52 21 65 11 71 35 73 24 77 34 142 91 
93 0.4548771738053776 0.16213733610309392 1.1761381764806877 0 0 0 0.36 3 18 17 31 19 31 53 16 63 20 142 92 
94 0.5351184529447147 0.1742699957935613 1.1514835532749728 0 0 0 0.31 3 19 25 25 26 46 27 30 40 31 42 18 52 22 77 35 142 93 
95 0.4813185251230435 0.18713297509229326 1.1644572604866978 0 0 0 0.28 3 20 4 34 11 21 15 21 19 32 25 26 27 31 38 18 40 32 42 19 44 20 52 23 53 17 77 36 111 18 142 94 
96 0.46653243660898325 0.20606826818133878 1.1608532073614266 0 0 0 0.27 3 21 11 22 19 33 27 32 29 19 38 19 40 33 52 24 96 25 103 13 142 95 
97 0.4893586425070523 0.20244152267238363 1.1545765195884752 0 0 0 0.27 3 22 4 35 16 12 27 33 38 20 60 6 142 96 
98 0.5098262021634524 0.19904045082322253 1.149939604460036 0 0 0 0.26 3 23 17 32 29 20 52 25 60 7 142 97 
99 0.5145090271959534 0.19836320167138075 1.1480018324753214 0 0 0 0.23 3 24 11 23 43 7 52 26 60 8 142 98 
100 0.5271105652630943 0.1957300059688672 1.1442088315857255 0 0 0 0.35 3 25 4 36 9 11 17 33 19 34 25 27 27 34 29 21 33 24 40 34 42 20 43 8 52 27 53 18 60 9 85 28 96 26 109 12 111 19 142 99 
101 0.5990086175938188 0.18358286792448614 1.1238831709577484 0 0 0 0.29 3 26 52 28 142 100 
102 0.6172214276535194 0.18091595376448785 1.1212673787872676 0 0 0 0.29 3 27 11 24 15 22 26 47 73 25 77 37 85 29 96 27 142 101 
103 0.5077994229210677 0.20171420697269105 1.148299803085498 0 0 0 0.49 3 28 27 35 29 22 142 102 
104 0.5985633766062164 0.18634676878987225 1.1236710783942425 0 0 0 0.19 3 29 11 25 17 34 27 36 29 23 91 5 142 103 
105 0.6041553439357195 0.18567471620764628 1.1238421494761175 0 0 0 0.23 3 30 17 35 29 24 54 10 96 28 142 104 
106 0.4809287135415001 0.20858646850757384 1.1553229741052198 0 0 0 0.35 3 31 17 36 27 37 54 11 61 14 96 29 142 105 
107 0.38312269445579733 0.22897452118894737 1.1880319524475107 0 0 0 0.31 3 32 16 13 17 37 27 38 29 25 50 24 77 38 96 30 142 106 
108 0.6278965528761922 0.18416427735998528 1.1151782555726846 0 0 0 0.27 3 33 11 26 29 26 38 21 42 21 54 12 77 39 85 30 142 107 
109 0.6318754589209996 0.1837297595947874 1.115228499763804 0 0 0 0.2 3 34 4 37 52 29 77 40 142 108 
110 0.201939713885315 0.29462971813388195 1.2579299803623776 0 0 0 0.24 3 35 4 38 40 35 77 41 85 31 111 20 142 109 
111 0.6696687789274477 0.2201698754135103 1.090418195961295 0 0 0 0.29 3 36 33 25 40 36 54 13 71 36 142 110 
112 0.5794158004629034 0.24015845980680303 1.110377604768271 0 0 0 0.36 3 37 15 23 16 14 40 37 63 21 103 14 142 111 
113 0.48042680387644143 0.16745074268889287 1.1699300927063179 0 0 0 0.56 3 38 4 39 27 39 52 30 53 19 54 14 77 42 92 11 96 31 109 13 142 112 
114 0.5464387532156109 0.16744753921557443 1.149581191844851 0 0 0 0.46 3 39 4 40 25 28 38 22 52 31 63 22 73 26 77 43 85 32 96 32 97 14 111 21 142 113 
115 0.4665103824045812 0.19122486025450358 1.1673651244399412 0 0 0 0.43 3 40 4 41 54 15 142 114 
116 0.4079797258493062 0.21251714119132314 1.1809130146148037 0 0 0 0.31 3 41 44 21 63 23 96 33 142 115 
117 0.41298896617462616 0.21454776009080667 1.177467949030995 0 0 0 0.27 3 42 4 42 17 38 19 35 33 26 40 38 42 22 44 22 52 32 63 24 71 37 77 44 85 33 93 7 97 15 103 15 111 22 142 116 
118 0.2457138318894279 0.252687448039263 1.2488487070268373 0 0 0 0.28 3 43 21 5 85 34 142 117 
119 0.6260707815380863 0.23173670466932872 1.100078613470611 0 0 0 0.25 3 44 4 43 11 27 19 36 26 48 27 40 33 27 38 23 42 23 52 33 54 16 63 25 71 38 73 27 77 45 85 35 111 23 142 118 
120 0.2971818324660408 0.30312442170274756 1.2068066883746984 0 0 0 0.24 3 45 4 44 11 28 17 39 19 37 27 41 29 27 33 28 40 39 44 23 71 39 77 46 85 36 96 34 111 24 142 119 
121 0.6213484923949533 0.14020617922472406 1.1356945923786557 0 0 0 0.36 3 46 25 29 29 28 40 40 63 26 142 120 
122 0.5375071684485494 0.35116961342906805 1.079128430886608 0 0 0 0.51 3 47 15 24 25 30 26 49 27 42 52 34 65 12 142 121 
123 0.5928283132908079 0.16331428587910463 1.1375727789244032 0 0 0 0.51 3 48 15 25 19 38 25 31 26 50 33 29 40 41 42 24 63 27 65 13 71 40 73 28 77 47 85 37 88 11 103 16 111 25 142 122 
124 0.4300601249468945 0.1979984411719063 1.1784041763293467 0 0 0 0.74 3 49 29 29 40 42 44 24 88 12 96 35 111 26 142 123 
125 0.35124881774862265 0.21996711864935506 1.2072126150227913 0 0 0 0.6 3 50 26 51 44 25 63 28 77 48 85 38 109 14 142 124 
126 0.4813963460249306 0.20034421592758916 1.1579541775686348 0 0 0 0.25 3 51 63 29 97 16 142 125 
127 0.45557386674418965 0.22439916697885828 1.159440919468362 0 0 0 0.69 3 52 26 52 29 30 33 30 52 35 85 39 142 126 
128 0.5494649775399896 0.18918403144168972 1.1407650997862178 0 0 0 1.33 3 53 40 43 52 36 97 17 142 127 
129 0.5295047249789544 0.1474640740671764 1.1612130545031434 0 0 0 0.42 4 45 25 32 27 43 38 24 42 25 52 37 54 17 77 49 103 17 142 128 
130 0.48439507941941545 0.20338888416189252 1.1566819390158651 0 0 0 0.27 4 46 27 44 38 25 40 44 52 38 85 40 96 36 142 129 
131 0.6612794818063413 0.17664044564281847 1.107306878704621 0 0 0 0.19 4 47 9 12 11 29 40 45 42 26 52 39 85 41 91 6 92 12 142 130 
132 0.6648662494215222 0.17595825138524296 1.1061287075750126 0 0 0 0.25 4 48 42 27 53 20 85 42 91 7 142 131 
133 0.6696274745344682 0.17518970224696204 1.1048178564506803 0 0 0 0.35 4 49 11 30 42 28 53 21 61 15 63 30 85 43 92 13 96 37 142 132 
134 0.6352822032510517 0.18294040186039237 1.11328326479803 0 0 0 0.33 4 50 42 29 85 44 109 15 110 7 142 133 
135 0.6564472270868269 0.17953394041294515 1.1072840979620104 0 0 0 0.3 4 51 9 13 11 31 43 9 44 26 60 10 61 16 91 8 92 14 142 134 
136 0.6663072410592046 0.17798357026659056 1.1046389265847896 0 0 0 0.46 4 52 19 39 27 45 29 31 77 50 85 45 91 9 103 18 142 135 
137 0.622830807244735 0.18488015931293642 1.1160423803559727 0 0 0 0.26 4 53 38 26 52 40 142 136 
138 0.6547942311864614 0.22821101019925397 1.0904822557216036 0 0 0 0.33 4 54 15 26 19 40 33 31 85 46 96 38 142 137 
139 0.6315367106702938 0.29403575220841627 1.0700183423278962 0 0 0 0.16 4 55 26 53 63 31 142 138 
140 0.5975707016588337 0.30458326192904317 1.0742137602235668 0 0 0 0.24 4 56 11 32 16 15 38 27 77 51 142 139 
141 0.6465802081381125 0.2984388036341558 1.0613167149177352 0 0 0 0.22 4 57 42 30 85 47 91 10 142 140 
142 0.3929111165644438 0.3408910065108889 1.138881814063074 0 0 0 0.33 4 58 17 40 27 46 52 41 93 8 96 39 142 141 
143 0.4800293917078198 0.3323080048380599 1.1076077702430838 0 0 0 0.23 4 59 29 32 53 22 142 142 
144 0.48315866766384463 0.34631341351939254 1.1028696250196792 0 0 0 0.38 4 60 15 27 19 41 25 33 27 47 29 33 33 32 38 28 44 27 52 42 77 52 85 48 96 40 142 143 
145 0.5299786737454124 0.36145826693579597 1.074516316447661 0 0 0 0.37 4 61 38 29 52 43 109 16 142 144 
146 0.6219067720489964 0.34799535524483155 1.0493287123093338 0 0 0 0.29 4 62 77 53 85 49 110 8 142 145 
147 0.6344725146035618 0.12153979775411275 1.1359294435647278 0 0 0 0.18 4 63 11 33 17 41 26 54 29 34 54 18 71 41 142 146 
148 0.6141196253679868 0.18128670197410446 1.12254017704383 0 0 0 0.28 4 64 11 34 27 48 42 31 71 42 77 54 85 50 109 17 142 147 
149 0.6433617573120065 0.17670326729019056 1.1141962546254927 0 0 0 0.21 4 65 11 35 19 42 26 55 42 32 44 28 53 23 60 11 63 32 71 43 73 29 77 55 85 51 91 11 96 41 142 148 
150 0.6117344225793279 0.18436887584400832 1.1216007998965978 0 0 0 0.29 4 66 11 36 26 56 27 49 29 35 53 24 63 33 77 56 91 12 142 149 
151 0.46636481997249524 0.21300057119452154 1.1584657970401173 0 0 0 0.22 4 67 17 42 25 34 27 50 42 33 52 44 71 44 96 42 109 18 142 150 
152 0.3754825666035085 0.23021703013761977 1.1895085366133464 0 0 0 0.58 4 68 61 17 63 34 110 9 111 27 142 151 
153 0.6490721365695383 0.2955579641762982 1.0604479082488156 0 0 0 0.29 4 69 11 37 27 51 29 36 42 34 52 45 53 25 54 19 63 35 71 45 77 57 85 52 91 13 103 19 109 19 110 10 142 152 
154 0.650312526108628 0.3064583434834138 1.0580085149127445 0 0 0 0.28 4 70 42 35 43 10 52 46 53 26 54 20 71 46 77 58 85 53 91 14 92 15 96 43 97 18 103 20 109 20 110 11 142 153 
155 0.6502979974442494 0.31031712521149685 1.0561235469655712 0 0 0 0.25 4 71 25 35 27 52 43 11 52 47 53 27 54 21 63 36 71 47 91 15 92 16 96 44 103 21 110 12 142 154 
156 0.40213013992201957 0.3612590656969544 1.1281233754293585 0 0 0 0.22 4 72 11 38 52 48 77 59 85 54 142 155 
157 0.5632883685723248 0.3531797093839783 1.0669356051399135 0 0 0 0.32 4 73 11 39 85 55 142 156 
158 0.4926892860349451 0.16392463660897494 1.1687094723472053 0 0 0 0.62 4 74 25 36 27 53 77 60 96 45 142 157 
159 0.1927007828470102 0.2643983379353286 1.2725287091508033 0 0 0 0.25 4 75 25 37 26 57 40 46 44 29 71 48 142 158 
160 0.23296693160266396 0.2998099484207365 1.2384734304357934 0 0 0 0.39 4 76 21 6 44 30 50 25 52 49 142 159 
161 0.4961125467363201 0.2568280982833819 1.1297122148629448 0 0 0 0.41 4 77 29 37 88 13 142 160 
162 0.5447423610315802 0.30498129040303923 1.0967972358984888 0 0 0 0.37 4 78 25 38 33 33 40 47 42 36 52 50 85 56 109 21 142 161 
163 0.47193159205780666 0.36036934205148885 1.0978019032304007 0 0 0 0.46 4 79 15 28 25 39 27 54 42 37 52 51 85 57 92 17 93 9 109 22 110 13 111 28 142 162 
164 0.6382808764097685 0.13290449884914485 1.135157324775012 0 0 0 0.3 4 80 15 29 54 22 71 49 88 14 142 163 
165 0.2834712301055512 0.39878824253929523 1.1700099848272074 0 0 0 0.5 4 81 44 31 85 58 96 46 142 164 
166 0.5135082397476826 0.35463068337332393 1.0873596116669866 0 0 0 0.29 4 82 11 40 15 30 38 30 52 52 53 28 103 22 142 165 
167 0.557962626704679 0.19636379704064885 1.132053904592833 0 0 0 0.62 4 83 33 34 38 31 65 14 142 166 
168 0.5897289394307741 0.17985717004910573 1.1295221155506363 0 0 0 0.59 4 84 15 31 19 43 25 40 26 58 27 55 38 32 40 48 44 32 50 26 54 23 63 37 71 50 73 30 77 61 142 167 
169 0.6186993827493563 0.2480492184892171 1.0948405635697598 0 0 0 0.45 4 85 15 32 17 43 25 41 27 56 33 35 65 15 77 62 88 15 103 23 142 168 
170 0.6186117604236574 0.24782888071783576 1.094759355735396 0 0 0 0.4 4 86 15 33 17 44 27 57 33 36 88 16 142 169 
171 0.5611666196969076 0.32063055985669386 1.0821329156515314 0 0 0 0.13 4 87 42 38 142 170 
172 0.502486109099474 0.33337946143300845 1.0985673949466481 0 0 0 0.25 4 88 15 34 16 16 19 44 25 42 42 39 52 53 65 16 85 59 142 171 
173 0.6324694990079124 0.2164272428444367 1.1030864741680624 0 0 0 0.69 4 89 15 35 27 58 77 63 142 172 
174 0.6349531621926419 0.3080763302773672 1.060594514170581 0 0 0 0.36 4 90 43 12 53 29 65 17 96 47 103 24 142 173 
175 0.6637687923814592 0.30430999261177266 1.0541746196725805 0 0 0 0.5 4 91 11 41 25 43 40 49 43 13 44 33 53 30 54 24 65 18 71 51 88 17 96 48 111 29 142 174 
176 0.6061919925395819 0.31349850893246994 1.0682976093709926 0 0 0 0.82 4 92 109 23 142 175 
177 0.33825256395479397 0.3635717720798976 1.1586070979400662 0 0 0 0.29 4 93 25 44 26 59 77 64 142 176 
178 0.44280035568408266 0.16870868586070029 1.1844252995601432 0 0 0 0.66 9 14 19 45 52 54 92 18 142 177 
179 0.19291843885601562 0.2642840055000296 1.2717788866212127 0 0 0 0.33 9 15 19 46 25 45 26 60 40 50 44 34 71 52 73 31 96 49 142 178 
180 0.49948874633556317 0.16284584543580033 1.1674924393176713 0 0 0 0.5 9 16 19 47 38 33 42 40 43 14 53 31 54 25 71 53 73 32 85 60 111 30 142 179 
181 0.17614249816463076 0.27826282182266415 1.276762311179424 0 0 0 0.33 9 17 19 48 21 7 40 51 85 61 109 24 142 180 
182 0.6840295167896234 0.22251774758307397 1.0836586250260254 0 0 0 0.19 9 18 52 55 54 26 142 181 
183 0.44073597931949515 0.2677185741663256 1.1455561864337616 0 0 0 0.26 9 19 52 56 63 38 77 65 85 62 109 25 142 182 
184 0.37610907189826076 0.28570513828254235 1.1719196083408685 0 0 0 0.32 9 20 40 52 63 39 77 66 85 63 109 26 142 183 
185 0.4227647978717901 0.32418222655771073 1.1278076845279383 0 0 0 0.46 9 21 44 35 52 57 63 40 92 19 142 184 
186 0.1577500614224037 0.3759918984621137 1.2511529415991625 0 0 0 0.4 9 22 109 27 142 185 
187 0.21932695661968538 0.3871400926773133 1.206817192156906 0 0 0 0.34 9 23 40 53 44 36 52 58 85 64 109 28 142 186 
188 0.1898281204943096 0.2684868983161257 1.2728023554370265 0 0 0 0.35 9 24 26 61 40 54 44 37 77 67 85 65 109 29 142 187 
189 0.4128580536121993 0.2755511151406114 1.1532195382942692 0 0 0 0.63 9 25 85 66 103 25 109 30 142 188 
190 0.14637959882777107 0.320564586551645 1.275662950583 0 0 0 0.28 9 26 44 38 85 67 142 189 
191 0.15180130871182415 0.34754087225953045 1.2585702801499776 0 0 0 0.07 9 27 40 55 85 68 142 190 
192 0.4226788701403621 0.3171584773423283 1.1299284952520525 0 0 0 0.27 9 28 26 62 52 59 142 191 
193 0.2146644931225172 0.27237513193756485 1.2580832908137807 0 0 0 0.33 9 29 19 49 26 63 27 59 40 56 44 39 52 60 71 54 73 33 77 68 85 69 109 31 142 192 
194 0.15498758377380503 0.3166236392854285 1.273089061603324 0 0 0 0.26 9 30 85 70 142 193 
195 0.6600237971214825 0.17710058023883488 1.1058268774950648 0 0 0 0.35 9 31 44 40 53 32 61 18 85 71 92 20 142 194 
196 0.6604507050231011 0.17030098154670037 1.1088177446938472 0 0 0 0.41 11 42 19 50 42 41 50 27 53 33 111 31 142 195 
197 0.6239786916355773 0.18240258189500796 1.1167852193844663 0 0 0 0.21 11 43 52 61 91 16 96 50 142 196 
198 0.5284259766590704 0.20175199146758838 1.141123535371035 0 0 0 0.33 11 44 15 36 96 51 103 26 142 197 
199 0.6727551566953852 0.3148694945351149 1.0486038230258363 0 0 0 0.45 11 45 40 57 142 198 
200 0.6866058027768412 0.3118730549965209 1.0436790017560291 0 0 0 0.37 11 46 27 60 142 199 
201 0.5895748480207856 0.3363874635223777 1.0638249668180446 0 0 0 0.27 11 47 38 34 52 62 109 32 110 14 142 200 
202 0.4165652560672459 0.16734970924419254 1.1963457087498555 0 0 0 0.34 11 48 27 61 50 28 60 12 61 19 71 55 103 27 142 201 
203 0.5223257523459408 0.15075972973178134 1.1562728909621278 0 0 0 0.63 11 49 33 37 109 33 142 202 
204 0.5058843079692408 0.19959930452376473 1.150302147690086 0 0 0 0.3 11 50 17 45 25 46 52 63 60 13 85 72 103 28 142 203 
205 0.5523743621746516 0.3005359799879546 1.092069525135665 0 0 0 0.16 11 51 15 37 142 204 
206 0.6478409884214007 0.31307148491949627 1.0555216755430983 0 0 0 0.33 11 52 17 46 71 56 77 69 142 205 
207 0.40204445520746673 0.3613680101387185 1.1279119129315183 0 0 0 0.15 11 53 26 64 63 41 142 206 
208 0.6461284577785608 0.3319488929700854 1.0487161265128238 0 0 0 0.18 11 54 17 47 40 58 50 29 142 207 
209 0.5344341597573437 0.36942283771797735 1.0718999994383798 0 0 0 0.62 11 55 25 47 27 62 38 35 77 70 142 208 
210 0.26761253609459984 0.2475347345297905 1.2384405725101457 0 0 0 0.19 11 56 27 63 33 38 40 59 44 41 61 20 96 52 142 209 
211 0.6397482399742036 0.22950719026484584 1.0959324853695998 0 0 0 0.28 11 57 15 38 27 64 29 38 43 15 53 34 54 27 85 73 91 17 111 32 142 210 
212 0.3586693845762456 0.28974245844737084 1.1803310739975645 0 0 0 0.33 11 58 26 65 109 34 142 211 
213 0.6189946923265434 0.283289668526174 1.07523677415795 0 0 0 0.44 11 59 26 66 27 65 33 39 44 42 96 53 142 212 
214 0.6873756010893787 0.31723854526380585 1.0417436740380617 0 0 0 0.39 11 60 17 48 19 51 27 66 33 40 40 60 42 42 43 16 54 28 63 42 71 57 73 34 77 71 85 74 91 18 110 15 142 213 
215 0.4654014761215514 0.13280493755268896 1.1925351703766662 0 0 0 0.16 11 61 15 39 142 214 
216 0.6528598647231298 0.16056599642463423 1.1190511963393026 0 0 0 0.66 15 40 25 48 26 67 27 67 50 30 53 35 54 29 63 43 77 72 142 215 
217 0.6161419417418811 0.15883974320124275 1.1303735824813985 0 0 0 0.41 11 62 50 31 53 36 61 21 63 44 96 54 142 216 
218 0.6276346875658754 0.15483837116385005 1.1267100686571723 0 0 0 0.84 11 63 50 32 61 22 71 58 96 55 142 217 
219 0.6207002027012576 0.310668548608826 1.0649743932028921 0 0 0 0.31 11 64 27 68 38 36 53 37 96 56 142 218 
220 0.6147785703981978 0.18714023199634927 1.1146616463372288 0 0 0 0.54 11 65 26 68 29 39 38 37 54 30 63 45 65 19 71 59 97 19 142 219 
221 0.6148193190334498 0.18722159325401244 1.115893477512431 0 0 0 0.58 11 66 25 49 26 69 29 40 53 38 63 46 71 60 97 20 142 220 
222 0.6436132872626932 0.18287129762044232 1.108094345999492 0 0 0 0.21 11 67 42 43 53 39 142 221 
223 0.447647994995011 0.35362935675131507 1.1080656366209372 0 0 0 0.47 11 68 16 17 19 52 43 17 65 20 97 21 142 222 
224 0.46028651991511865 0.18511617779723197 1.1721568177890371 0 0 0 0.27 15 41 40 61 77 73 85 75 109 35 142 223 
225 0.4759945461104984 0.20705581695822894 1.1570903078423618 0 0 0 0.4 15 42 27 69 42 44 77 74 142 224 
226 0.6428434955639617 0.17956235852559857 1.1124617959998413 0 0 0 0.24 15 43 19 53 33 41 42 45 91 19 92 21 142 225 
227 0.5573312504204461 0.25341409943619303 1.1114549362812267 0 0 0 0.21 15 44 63 47 91 20 142 226 
228 0.5747983426750337 0.14385397931359042 1.1517798021429497 0 0 0 0.64 15 45 26 70 54 31 63 48 73 35 142 227 
229 0.6324413869341113 0.14606156573372872 1.128269278215997 0 0 0 0.3 15 46 19 54 33 42 40 62 73 36 103 29 142 228 
230 0.4803954514979158 0.18370866122619509 1.1651252659391458 0 0 0 0.37 15 47 38 38 42 46 52 64 142 229 
231 0.42455280244526483 0.2744613265045564 1.1518759054684162 0 0 0 0.38 15 48 25 50 27 70 77 75 142 230 
232 0.5024913524393376 0.36607397641303957 1.0823974196488295 0 0 0 0.49 15 49 19 55 42 47 52 65 85 76 92 22 142 231 
233 0.5980683339610748 0.24577969588228812 1.101826979603709 0 0 0 0.18 15 50 65 21 142 232 
234 0.5043261538874255 0.3596000617098716 1.085677724976033 0 0 0 0.45 15 51 52 66 103 30 142 233 
235 0.6432217721648685 0.18266614280181898 1.107033105780217 0 0 0 0.4 15 52 17 49 19 56 44 43 54 32 60 14 63 49 71 61 92 23 111 33 142 234 
236 0.6469510112276373 0.2097949261425958 1.1020334548387374 0 0 0 0.59 15 53 52 67 109 36 142 235 
237 0.4475250826965026 0.32192722627144454 1.1206515657316962 0 0 0 0.24 15 54 25 51 38 39 142 236 
238 0.6326011168881437 0.21628384931950584 1.1027851647760536 0 0 0 0.38 15 55 27 71 142 237 
239 0.5530423646720115 0.18316680798550922 1.1408026072866568 0 0 0 0.25 16 18 27 72 33 43 38 40 44 44 52 68 77 76 85 77 142 238 
240 0.2563923937404187 0.26413644483500925 1.2359584662971685 0 0 0 0.41 73 37 77 77 142 239 
241 0.6202808850902866 0.1907691951587747 1.1151441568462281 0 0 0 0.35 26 71 27 73 29 41 40 63 50 33 54 33 61 23 63 50 71 62 91 21 103 31 142 240 
242 0.6507850851837482 0.3320354994772393 1.0482881434370654 0 0 0 0.48 17 50 27 74 40 64 77 78 88 18 142 241 
243 0.22069145014583336 0.2955049742899781 1.2434982599890523 0 0 0 0.4 17 51 19 57 26 72 27 75 29 42 53 40 96 57 142 242 
244 0.613954833532721 0.23960963423969212 1.0993046184056547 0 0 0 0.25 16 19 26 73 38 41 40 65 42 48 52 69 71 63 73 38 77 79 142 243 
245 0.6316375472002617 0.29928135565339087 1.06723973354864 0 0 0 0.62 33 44 43 18 52 70 63 51 91 22 96 58 110 16 142 244 
246 0.536292301244648 0.33019743514779537 1.0875334314903546 0 0 0 0.42 16 20 27 76 42 49 43 19 52 71 142 245 
247 0.6053334546965408 0.1952733767953028 1.1165790374163194 0 0 0 0.4 17 52 33 45 142 246 
248 0.5009284521997495 0.1710770348720793 1.1639815277584658 0 0 0 0.19 17 53 19 58 26 74 27 77 40 66 42 50 44 45 63 52 77 80 85 78 111 34 142 247 
249 0.4075999508413838 0.2188573052577191 1.1768739525657121 0 0 0 0.32 17 54 19 59 27 78 42 51 77 81 85 79 103 32 109 37 142 248 
250 0.6130912185228575 0.13956571601527623 1.1393050077160594 0 0 0 0.35 17 55 25 52 26 75 88 19 142 249 
251 0.29964186283377986 0.3896229144780185 1.1688563637367642 0 0 0 0.46 17 56 27 79 43 20 52 72 71 64 142 250 
252 0.5088762914692327 0.3589829433612152 1.0857045276918473 0 0 0 0.35 17 57 19 60 26 76 33 46 142 251 
253 0.6468484884619645 0.20956870883625267 1.102048074159676 0 0 0 0.6 17 58 52 73 53 41 93 10 103 33 109 38 142 252 
254 0.5917285302731291 0.33143932993579156 1.0657303203552753 0 0 0 0.57 17 59 25 53 142 253 
255 0.6344044397463757 0.16027642279899673 1.125709151574101 0 0 0 0.33 19 61 40 67 142 254 
256 0.6540179069165128 0.18408947402596898 1.1072512520823685 0 0 0 0.18 19 62 52 74 142 255 
257 0.5602291459351206 0.19257945123388306 1.1335745449842465 0 0 0 0.31 19 63 27 80 40 68 42 52 52 75 60 15 85 80 93 11 142 256 
258 0.649937449714949 0.1875172844853305 1.1043503067202742 0 0 0 0.16 19 64 33 47 40 69 142 257 
259 0.6244700195877777 0.29488886475667847 1.0698617215955235 0 0 0 0.31 19 65 33 48 85 81 142 258 
260 0.5286125443183639 0.16059489511218075 1.1571899939597077 0 0 0 0.18 19 66 29 43 40 70 42 53 52 76 85 82 142 259 
261 0.2702769225108874 0.18950055455134662 1.326830076078288 0 0 0 0.79 19 67 40 71 97 22 109 39 142 260 
262 0.4645213872816346 0.17305404453568052 1.17725735200738 0 0 0 0.27 19 68 40 72 142 261 
263 0.49161014937617464 0.17566406945091034 1.1638848498435754 0 0 0 0.35 19 69 42 54 142 262 
264 0.41688161650066485 0.18274394836236466 1.189603040509534 0 0 0 0.32 19 70 25 54 40 73 71 65 142 263 
265 0.5224966472295078 0.17876995851328092 1.153808805442628 0 0 0 0.38 19 71 26 77 27 81 44 46 142 264 
266 0.402300804178646 0.2171935031285539 1.182505135328528 0 0 0 0.33 19 72 33 49 40 74 110 17 142 265 
267 0.3235777946560595 0.23156158155462195 1.2160595907441845 0 0 0 0.37 19 73 40 75 42 55 77 82 85 83 96 59 97 23 142 266 
268 0.2734061897733485 0.24290662458656825 1.2383118306320053 0 0 0 0.37 19 74 29 44 96 60 110 18 142 267 
269 0.384397762670169 0.23239984205642733 1.1873290448266611 0 0 0 0.1 19 75 52 77 142 268 
270 0.17170665958578685 0.2657881522825477 1.2814370253882936 0 0 0 0.4 19 76 40 76 85 84 109 40 142 269 
271 0.6333083114183202 0.22591386591539186 1.1022686781756603 0 0 0 0.21 19 77 33 50 63 53 71 66 111 35 142 270 
272 0.6613958801653259 0.2274967208771559 1.0876544426970787 0 0 0 0.45 19 78 27 82 96 61 142 271 
273 0.665640022251894 0.23018541879046178 1.0859885307620023 0 0 0 0.36 19 79 40 77 52 78 53 42 54 34 142 272 
274 0.15003020976814835 0.3141296493663005 1.274913947774992 0 0 0 0.3 40 78 44 47 52 79 85 85 109 41 142 273 
275 0.6418589780520837 0.2864220422249055 1.0670362126673885 0 0 0 0.25 19 80 33 51 142 274 
276 0.6271208046652221 0.2899584485765101 1.0741080114710386 0 0 0 0.17 19 81 33 52 40 79 52 80 63 54 85 86 109 42 142 275 
277 0.6119101592550317 0.29240635243947416 1.0788386613652818 0 0 0 0.18 19 82 40 80 142 276 
278 0.655046619573083 0.3239166815589547 1.0475144529318892 0 0 0 0.43 19 83 85 87 91 23 109 43 142 277 
279 0.48327037392063144 0.3535786971314206 1.1004878365362671 0 0 0 0.37 19 84 25 55 27 83 33 53 42 56 52 81 93 12 96 62 111 36 142 278 
280 0.6745981618853959 0.14308339807084433 1.1166788206122702 0 0 0 0.15 19 85 85 88 142 279 
281 0.45121726766160736 0.18060767447534679 1.175042535577578 0 0 0 0.41 19 86 26 78 53 43 142 280 
282 0.1658095612407948 0.2760310004321553 1.280584653519767 0 0 0 0.53 19 87 52 82 85 89 142 281 
283 0.5541864869524842 0.2541685105733208 1.1130986375858896 0 0 0 0.27 19 88 40 81 42 57 73 39 142 282 
284 0.16185799526401173 0.2834198812998923 1.1214517658615608 0 0 0 0.3 19 89 42 58 142 283 
285 0.16391314467138932 0.29073838259426743 1.1218902187595912 0 0 0 0.07 19 90 21 8 77 83 142 284 
286 0.17413161687041098 0.34247404068582094 1.2469909206518004 0 0 0 0.34 19 91 73 40 142 285 
287 0.1476895102618276 0.3520330703867729 1.261513768669595 0 0 0 0.48 40 82 44 48 52 83 85 90 142 286 
288 0.2044924950288497 0.39199686681053447 1.2156293281216926 0 0 0 0.29 19 92 27 84 40 83 44 49 52 84 77 84 85 91 92 24 109 44 142 287 
289 0.5095161196039378 0.36205142555907804 1.0814325451423425 0 0 0 0.53 19 93 25 56 27 85 33 54 38 42 42 59 44 50 52 85 93 13 110 19 142 288 
290 0.13850878796908012 0.15332764866612467 1.1261588007054586 0 0 0 0.41 19 94 73 41 142 289 
291 0.5013484041058044 0.1674296404075857 1.1649424222831168 0 0 0 0.37 19 95 26 79 33 55 40 84 42 60 44 51 85 92 88 20 142 290 
292 0.2568203334151965 0.1938592435682156 1.2662328089478698 0 0 0 0.32 19 96 21 9 77 85 142 291 
293 0.3629814088929331 0.1875033569397591 1.2170097051123754 0 0 0 0.37 19 97 40 85 85 93 88 21 109 45 142 292 
294 0.36303610996489655 0.18739971631158872 1.2166788266915034 0 0 0 0.19 19 98 85 94 88 22 142 293 
295 0.4101270932350102 0.19404255861022293 1.1877868159494853 0 0 0 0.59 19 99 40 86 44 52 85 95 88 23 142 294 
296 0.5529063281350219 0.18329253334072268 1.1413384617422286 0 0 0 0.1 19 100 52 86 142 295 
297 0.5121770791155724 0.18714501112210932 1.1534188112286563 0 0 0 0.14 19 101 40 87 88 24 142 296 
298 0.2258328584394892 0.22901370218079692 1.268008490504159 0 0 0 0.25 19 102 40 88 85 96 142 297 
299 0.17593705853616362 0.2561242477377934 1.2867225753152836 0 0 0 0.63 19 103 44 53 77 86 85 97 142 298 
300 0.1395609030239156 0.2864009135153913 1.2927433742041472 0 0 0 0.27 40 89 109 46 142 299 
301 0.3582016759967693 0.279156228427876 1.1836395279844285 0 0 0 0.15 19 104 40 90 63 55 85 98 88 25 109 47 142 300 
302 0.4080239038433783 0.2777516201394895 1.1576773780725556 0 0 0 0.31 19 105 40 91 63 56 142 301 
303 0.6485243519051068 0.2804563497017848 1.0673716954243646 0 0 0 0.28 19 106 26 80 33 56 142 302 
304 0.1786133633141988 0.3941974129091899 1.2245932169935556 0 0 0 0.45 19 107 27 86 142 303 
305 0.6865727189282963 0.3229339162375687 1.039705789319008 0 0 0 0.51 19 108 54 35 63 57 88 26 142 304 
306 0.4361981515126581 0.36225641996079494 1.1108514072599636 0 0 0 0.34 19 109 27 87 52 87 142 305 
307 0.4864626338255876 0.175181203241681 1.1663064781058983 0 0 0 0.36 19 110 27 88 40 92 42 61 52 88 53 44 65 22 85 99 88 27 93 14 96 63 109 48 111 37 142 306 
308 0.5780243959985141 0.18304650936700315 1.1306459396177508 0 0 0 0.29 19 111 40 93 52 89 142 307 
309 0.5946659369428596 0.19778819462150207 1.1216507032486087 0 0 0 0.2 19 112 26 81 73 42 85 100 91 24 142 308 
310 0.48100572259014157 0.21024715974845715 1.156334535402714 0 0 0 0.21 19 113 43 21 52 90 142 309 
311 0.5353033417912376 0.20643152554557911 1.1378091267618 0 0 0 0.42 19 114 40 94 52 91 85 101 142 310 
312 0.1658853049775897 0.26012116775339517 1.2896491889485822 0 0 0 0.15 19 115 40 95 85 102 142 311 
313 0.1552557419873021 0.28496738994563664 1.2849417728706067 0 0 0 0.42 19 116 85 103 109 49 142 312 
314 0.1445355458609632 0.31009690427068287 1.2803305872285995 0 0 0 0.32 40 96 52 92 85 104 109 50 142 313 
315 0.46159369388553206 0.35836682509286655 1.1057322114532475 0 0 0 0.55 19 117 42 62 52 93 142 314 
316 0.14582115269446191 0.21753123695862944 1.1086624033525685 0 0 0 0.36 19 118 21 10 26 82 40 97 142 315 
317 0.5883173059851114 0.20400741588198112 1.119446054960451 0 0 0 0.36 19 119 52 94 60 16 85 105 142 316 
318 0.16837516721784657 0.25113325147051874 1.2934078628480552 0 0 0 0.28 19 120 26 83 40 98 52 95 85 106 88 28 109 51 142 317 
319 0.16831342668010513 0.2664381178024937 1.1456436637226173 0 0 0 0.49 19 121 21 11 142 318 
320 0.656065343356061 0.23647043109283566 1.0864068350372904 0 0 0 0.25 19 122 29 45 71 67 111 38 142 319 
321 0.41170786711471385 0.18962296127912595 1.1901107174006198 0 0 0 0.44 19 123 44 54 60 17 88 29 142 320 
322 0.16104969480281014 0.2950701236258264 1.111894552852626 0 0 0 0.45 19 124 21 12 26 84 40 99 142 321 
323 0.4559532302148485 0.16973166292412997 1.1745334437104 0 0 0 0.27 19 125 63 58 142 322 
324 0.24418499180964176 0.3162269167876174 1.2264872412231107 0 0 0 0.48 19 126 26 85 40 100 52 96 88 30 142 323 
325 0.242541329530073 0.3170745680096822 1.2304125812127913 0 0 0 0.39 19 127 40 101 52 97 142 324 
326 0.32094703119296625 0.32364412809154847 1.184351418816487 0 0 0 0.52 19 128 85 107 109 52 142 325 
327 0.32094703119296625 0.32364412809154847 1.184351418816487 0 0 0 0.52 19 129 85 108 109 53 142 326 
328 0.6072451797080983 0.32881115349110146 1.0627372752608308 0 0 0 0.42 19 130 52 98 142 327 
329 0.2760258135404072 0.3783037245452378 1.1845030812248862 0 0 0 0.38 19 131 52 99 142 328 
330 0.2824115688133817 0.24729582854652174 1.2327284976287103 0 0 0 0.58 19 132 85 109 142 329 
331 0.08718652254772472 0.0496796055634177 0.9880390820805656 0 0 0 1.0 21 13 26 86 88 31 142 330 
332 0.15366210692479262 0.2329594482201455 1.128110580314022 0 0 0 0.35 21 14 42 63 77 87 142 331 
333 0.11003056382971928 0.21981257539490076 0.9867493212288105 0 0 0 0.21 21 15 63 59 142 332 
334 0.13104860072143837 0.24757191409672535 1.0398483279938027 0 0 0 0.22 21 16 40 102 142 333 
335 0.16064187176011072 0.28063880492635207 1.1149471396575277 0 0 0 0.08 21 17 77 88 142 334 
336 0.16034141934978885 0.2807946240799714 1.1155713170032995 0 0 0 0.19 21 18 42 64 73 43 77 89 142 335 
337 0.08627344056244712 0.14336119325489888 0.9393311753848195 0 0 0 0.64 21 19 63 60 142 336 
338 0.12690980743338218 0.20910134484599077 1.0472745889455999 0 0 0 0.3 21 20 42 65 142 337 
339 0.14306442579943998 0.21879014775098468 1.1027181788790756 0 0 0 0.28 21 21 40 103 142 338 
340 0.15515053777204446 0.24768544148099836 1.125399889151711 0 0 0 0.23 21 22 40 104 77 90 142 339 
341 0.08233873154164849 0.20523999578698385 0.895494231468497 0 0 0 0.25 21 23 63 61 73 44 142 340 
342 0.09947015338655803 0.2142014266238019 0.9213766298056997 0 0 0 0.05 21 24 63 62 142 341 
343 0.1560537364803085 0.25884577889615185 1.1204480046993555 0 0 0 0.25 21 25 77 91 142 342 
344 0.1582952943939984 0.27356756988728126 1.1111650929258998 0 0 0 0.28 21 26 40 105 142 343 
345 0.16390852340763915 0.28327287934758494 1.1242868999953257 0 0 0 0.3 21 27 77 92 142 344 
346 0.17044643227560408 0.2905706645141055 1.1432373808094796 0 0 0 0.57 21 28 52 100 109 54 142 345 
347 0.1666697629679364 0.3448712543828861 1.0992174289010435 0 0 0 0.42 21 29 77 93 142 346 
348 0.17722935195816425 0.3543424020476691 1.122935018939811 0 0 0 0.14 21 30 40 106 142 347 
349 0.11064421086906512 0.31158561957080066 0.9246309948155047 0 0 0 0.37 21 31 63 63 73 45 142 348 
350 0.10512116015503532 0.29913371478114503 0.878142730073386 0 0 0 0.2 21 32 63 64 142 349 
351 0.16874505216288013 0.37774771681018 1.0835519079440668 0 0 0 0.33 21 33 77 94 142 350 
352 0.13736707832586498 0.15602508920516364 1.1197062298827856 0 0 0 0.15 21 34 40 107 142 351 
353 0.10763932565189785 0.18918731284705226 0.9981883376819822 0 0 0 0.33 21 35 63 65 142 352 
354 0.10735624165004751 0.19838237962313912 0.9937752544306061 0 0 0 0.29 21 36 73 46 142 353 
355 0.11456976091691964 0.2058587530484944 1.0117288558225095 0 0 0 0.13 21 37 26 87 142 354 
356 0.13117105136351698 0.23169771022831784 1.050911776646041 0 0 0 0.24 21 38 40 108 142 355 
357 0.09876433240384198 0.21128979709243265 0.9220075669432263 0 0 0 0.17 21 39 63 66 142 356 
358 0.10787753263912024 0.22702679062305522 0.9749749381268664 0 0 0 0.16 21 40 63 67 142 357 
359 0.11599214959125599 0.23405287671594568 0.9989585537199005 0 0 0 0.79 21 41 40 109 142 358 
360 0.13262616376071443 0.24613039609816872 1.0443504636609737 0 0 0 0.34 21 42 40 110 142 359 
361 0.16472811570731166 0.2673763301459573 1.1398338130603713 0 0 0 0.27 21 43 26 88 77 95 142 360 
362 0.1696757845411607 0.30810157783210884 1.1238950693369207 0 0 0 0.31 21 44 52 101 77 96 142 361 
363 0.08534122131966033 0.11219955048253749 0.9613732411342035 0 0 0 0.4 21 45 63 68 142 362 
364 0.08233684751855684 0.14459791483013645 0.9278855170573765 0 0 0 0.62 21 46 63 69 142 363 
365 0.10698239157059161 0.2020552613668246 0.9849046546891698 0 0 0 0.26 21 47 63 70 142 364 
366 0.23359753183593363 0.3191218122847326 1.2303626668269916 0 0 0 0.41 21 48 44 55 73 47 77 97 85 110 109 55 142 365 
367 0.1654472465504654 0.306039258071562 1.120040695902121 0 0 0 0.31 21 49 26 89 142 366 
368 0.11454309625236625 0.27459007541434904 0.9698406296050301 0 0 0 0.24 21 50 63 71 142 367 
369 0.11623494661520652 0.3020893383252808 0.957185375194393 0 0 0 0.28 21 51 63 72 142 368 
370 0.1189901680597435 0.3076372551224568 0.9606323981659454 0 0 0 0.18 21 52 63 73 142 369 
371 0.1558272194079905 0.3436951927762655 1.0683488040935054 0 0 0 0.32 21 53 26 90 142 370 
372 0.1558272194079905 0.3436951927762655 1.0683488040935054 0 0 0 0.32 21 54 26 91 142 371 
373 0.21156594425901964 0.41924949951705653 1.2022203097777842 0 0 0 0.22 21 55 26 92 44 56 142 372 
374 0.13095453952670943 0.211371574658486 1.0564632975988637 0 0 0 0.24 21 56 42 66 73 48 142 373 
375 0.140589086735973 0.19988474065740736 1.106848669806895 0 0 0 0.96 21 57 40 111 142 374 
376 0.140589086735973 0.19988474065740736 1.106848669806895 0 0 0 0.96 21 58 40 112 142 375 
377 0.14218908985033202 0.21420495872859896 1.099013257525038 0 0 0 0.43 21 59 40 113 88 32 142 376 
378 0.12453865160502689 0.21699874464788232 1.0346756851302024 0 0 0 0.52 21 60 26 93 142 377 
379 0.12823815223691865 0.22683221272963736 1.041379140584978 0 0 0 0.3 21 61 73 49 142 378 
380 0.12970851516410528 0.2616775192176143 1.026364196423425 0 0 0 0.23 21 62 26 94 142 379 
381 0.15705789217705785 0.2899089272835714 1.1007501974075549 0 0 0 0.38 21 63 26 95 142 380 
382 0.15730577418039962 0.29051793698422496 1.100131729734461 0 0 0 0.99 21 64 40 114 142 381 
383 0.15297650357370704 0.31766141413837073 1.062900900619255 0 0 0 0.75 21 65 40 115 142 382 
384 0.16125183612437036 0.3466247042804217 1.0747096294405132 0 0 0 0.54 21 66 40 116 142 383 
385 0.12675689763874332 0.2038046250902516 1.0485756482515272 0 0 0 0.19 21 67 26 96 142 384 
386 0.131678349567187 0.22258146168315987 1.0587439594369559 0 0 0 0.3 21 68 26 97 142 385 
387 0.11812420490453696 0.2359948967716246 1.0030543421333677 0 0 0 0.21 21 69 73 50 142 386 
388 0.12439679959716815 0.2698223586684004 1.0031580746960478 0 0 0 0.28 21 70 73 51 142 387 
389 0.15413075521128083 0.3334897755271031 1.0699554482559426 0 0 0 0.28 21 71 26 98 142 388 
390 0.12872238813687306 0.2751798459636747 1.0217551887272887 0 0 0 0.4 21 72 40 117 142 389 
391 0.09140722779158962 0.1474737530843295 0.9458291899856592 0 0 0 0.45 21 73 26 99 63 74 142 390 
392 0.17887975605114473 0.2233867877656808 1.2958414860443397 0 0 0 0.44 25 57 27 89 42 67 43 22 50 34 73 52 103 34 111 39 142 391 
393 0.5033464596391082 0.33249887491052554 1.098508767286141 0 0 0 0.31 25 58 38 43 43 23 142 392 
394 0.47652020075718876 0.3477781336694617 1.1008289732514318 0 0 0 0.41 25 59 27 90 52 102 142 393 
395 0.4767414258539924 0.3550557176976571 1.0986013889603226 0 0 0 0.38 25 60 42 68 77 98 92 25 142 394 
396 0.13723816833263605 0.14063334879934677 1.1285708356787447 0 0 0 0.12 25 61 73 53 142 395 
397 0.5506114571787749 0.25392902895815833 1.1165068226828874 0 0 0 0.14 25 62 40 118 142 396 
398 0.6410816587190307 0.253270121582573 1.086215688428153 0 0 0 0.28 25 63 52 103 142 397 
399 0.19599892580206582 0.34504265450364185 1.2355714370194664 0 0 0 0.36 25 64 40 119 142 398 
400 0.5992243722154164 0.288459630600942 1.087190580514285 0 0 0 0.48 25 65 33 57 40 120 142 399 
401 0.641659672716462 0.29389860334818235 1.066053159981661 0 0 0 0.27 25 66 26 100 43 24 142 400 
402 0.6134327359553842 0.30182518584823653 1.07087592856441 0 0 0 0.27 25 67 26 101 29 46 110 20 142 401 
403 0.33812578019917466 0.38123797428130246 1.1539882475243914 0 0 0 0.18 25 68 26 102 142 402 
404 0.39848259001527503 0.37134478286150496 1.1272863870248189 0 0 0 0.15 25 69 52 104 142 403 
405 0.6879838080710016 0.3285636295356925 1.035966178245335 0 0 0 0.37 33 58 40 121 42 69 54 36 63 75 88 33 91 25 110 21 142 404 
406 0.42272503903813596 0.37517194359185846 1.1074612339655276 0 0 0 0.36 25 70 42 70 44 57 77 99 93 15 110 22 142 405 
407 0.0828299251889864 0.16890434002760743 0.9168214506924219 0 0 0 0.31 25 71 26 103 142 406 
408 0.2186259056089003 0.32828689403167677 1.231857605771185 0 0 0 0.34 25 72 26 104 27 91 40 122 50 35 71 68 73 54 77 100 142 407 
409 0.6824356222026362 0.27502792564130263 1.0607466412233482 0 0 0 0.42 25 73 96 64 142 408 
410 0.4454500792688914 0.3142808301383752 1.125050540167338 0 0 0 0.23 25 74 26 105 63 76 71 69 142 409 
411 0.6415193567987837 0.30247417903608703 1.0629265649748474 0 0 0 0.16 25 75 27 92 142 410 
412 0.3180306357633599 0.37560511264790447 1.1612516819928151 0 0 0 0.34 25 76 26 106 42 71 52 105 53 45 71 70 85 111 97 24 110 23 142 411 
413 0.6139932376862991 0.3361335247591136 1.0590515484480831 0 0 0 0.6 25 77 26 107 110 24 142 412 
414 0.08470861232918576 0.05090019510045941 0.9916027281058681 0 0 0 0.5 25 78 26 108 63 77 88 34 142 413 
415 0.08329452488378908 0.1647869763568712 0.9204223934943039 0 0 0 0.21 25 79 26 109 73 55 142 414 
416 0.49267005930986524 0.34708540001601496 1.0971565550432765 0 0 0 0.47 25 80 33 59 52 106 142 415 
417 0.0827969362491292 0.07401209627837758 0.9855793395103299 0 0 0 0.33 25 81 26 110 73 56 111 40 142 416 
418 0.0827969362491292 0.07401209627837758 0.9855793395103299 0 0 0 0.33 25 82 26 111 73 57 111 41 142 417 
419 0.5700920895047985 0.20521861826815607 1.124922298859304 0 0 0 0.4 25 83 85 112 142 418 
420 0.5781101645206878 0.15172436090173616 1.1444544344081216 0 0 0 0.47 25 84 26 112 88 35 142 419 
421 0.08897016301048459 0.09950076890963576 0.9764702335133048 0 0 0 0.36 26 113 63 78 142 420 
422 0.657372593161251 0.16206659504141763 1.1089945685280929 0 0 0 0.17 26 114 54 37 142 421 
423 0.6110414279515675 0.17053260199502296 1.1268683460960398 0 0 0 0.26 26 115 54 38 142 422 
424 0.6014229999552834 0.18346225883406628 1.1264438293021801 0 0 0 0.65 26 116 96 65 142 423 
425 0.6542937979885461 0.2249135464600552 1.0912439505193718 0 0 0 0.36 26 117 43 25 44 58 61 24 73 58 91 26 103 35 142 424 
426 0.1727694218494842 0.26968610237123697 1.2796397869784455 0 0 0 0.29 26 118 85 113 109 56 142 425 
427 0.2128561116242875 0.2664683342414163 1.26252917753407 0 0 0 0.21 26 119 71 71 142 426 
428 0.5952207122114026 0.24296217359522035 1.1042769467270959 0 0 0 0.45 26 120 33 60 40 123 43 26 52 107 91 27 109 57 142 427 
429 0.4652149438079333 0.26184929893030495 1.140545781339748 0 0 0 0.42 26 121 42 72 142 428 
430 0.3763962823988154 0.2745004819114087 1.1737941136163417 0 0 0 0.26 26 122 40 124 63 79 142 429 
431 0.4411294465584432 0.2716497833470941 1.1466852981330202 0 0 0 0.14 26 123 44 59 77 101 142 430 
432 0.13118529148831068 0.25743595399588814 1.0317782895399739 0 0 0 0.15 26 124 73 59 142 431 
433 0.6486801065120028 0.28796832921133636 1.062920341868849 0 0 0 0.39 27 93 40 125 42 73 52 108 142 432 
434 0.17617461644612017 0.35421513906536833 1.2429455693081262 0 0 0 0.48 26 125 40 126 73 60 92 26 142 433 
435 0.4948227543363617 0.3391453815086813 1.0994064058415616 0 0 0 0.24 26 126 52 109 142 434 
436 0.10473857214934539 0.2691137925917186 0.8825968784809164 0 0 0 0.16 26 127 63 80 142 435 
437 0.522909462466939 0.34925560186081767 1.0872732366977165 0 0 0 0.38 26 128 27 94 142 436 
438 0.4223692808958198 0.36369384107773933 1.111707655292685 0 0 0 0.38 52 110 77 102 85 114 103 36 142 437 
439 0.30004964749253626 0.3959473322329706 1.1612648682076476 0 0 0 0.38 26 129 33 61 42 74 142 438 
440 0.4262799723345315 0.3806971851317533 1.1050173677401327 0 0 0 0.11 26 130 52 111 142 439 
441 0.4234008025083196 0.38500150713311554 1.1043050925449482 0 0 0 0.19 93 16 110 25 142 440 
442 0.197884286451296 0.4256973589601791 1.2032167300798686 0 0 0 0.57 26 131 109 58 142 441 
443 0.0910643801912445 0.09708167292773126 0.9798672753307343 0 0 0 0.26 26 132 63 81 142 442 
444 0.3508806367686227 0.18443493963059115 1.2252336496710905 0 0 0 0.61 26 133 33 62 103 37 142 443 
445 0.11166174644542862 0.16041048336410293 1.0262038008003647 0 0 0 0.47 26 134 63 82 142 444 
446 0.11818692940379528 0.20877919347810722 1.0196744172394305 0 0 0 0.19 26 135 73 61 142 445 
447 0.21597415743718146 0.28034362949952896 1.2531971566976274 0 0 0 0.35 26 136 40 127 71 72 73 62 85 115 103 38 142 446 
448 0.5549212710042891 0.2478221265832593 1.1143071763884032 0 0 0 0.25 26 137 52 112 63 83 85 116 109 59 142 447 
449 0.5376465150493739 0.2568389410034603 1.1211977050228747 0 0 0 0.2 26 138 40 128 88 36 142 448 
450 0.6117357015073429 0.25786827621784764 1.0931384479956072 0 0 0 0.24 26 139 33 63 40 129 142 449 
451 0.08405739389377853 0.2103966652929164 0.8992238695272852 0 0 0 0.35 26 140 63 84 142 450 
452 0.2138786308807307 0.3272952716067537 1.2374299389935732 0 0 0 0.17 26 141 88 37 142 451 
453 0.21830320833197164 0.32859813434929075 1.2326549128205453 0 0 0 0.36 26 142 27 95 40 130 73 63 142 452 
454 0.6283631718147252 0.2954453609189862 1.0683578661977657 0 0 0 0.18 26 143 40 131 54 39 142 453 
455 0.11620057255896779 0.2694954350870474 0.9778348962224408 0 0 0 0.04 26 144 63 85 142 454 
456 0.389305271436747 0.32560674432891545 1.1465716462504292 0 0 0 0.37 26 145 63 86 77 103 93 17 142 455 
457 0.48654166046793534 0.17520175167461982 1.1661535016660487 0 0 0 0.23 26 146 27 96 40 132 42 75 142 456 
458 0.5623469611874431 0.2525653844732336 1.1100336881759099 0 0 0 0.16 40 133 42 76 52 113 142 457 
459 0.4921471243614827 0.2629664870656055 1.1337564099538404 0 0 0 0.17 26 147 85 117 109 60 142 458 
460 0.3352587225670737 0.28634147486457495 1.1925748554574398 0 0 0 0.41 26 148 29 47 71 73 85 118 92 27 142 459 
461 0.3421998716700062 0.2929298564891547 1.185369612453043 0 0 0 0.3 26 149 63 87 77 104 109 61 142 460 
462 0.6388176651200602 0.29760143859754085 1.0662159498347028 0 0 0 0.5 52 114 54 40 63 88 71 74 91 28 142 461 
463 0.6083928180801543 0.16034186511435788 1.1314409599926842 0 0 0 0.35 26 150 42 77 54 41 63 89 73 64 77 105 142 462 
464 0.3706623849370224 0.19243319647820975 1.2089590739274727 0 0 0 0.29 26 151 42 78 52 115 63 90 142 463 
465 0.20564367217832344 0.2761702754610485 1.2627590772101822 0 0 0 0.27 26 152 27 97 40 134 73 65 85 119 142 464 
466 0.2056776095357036 0.2760410710418898 1.262579152016983 0 0 0 0.29 26 153 27 98 40 135 44 60 73 66 85 120 142 465 
467 0.19931091088793518 0.33248835728096915 1.2435669606740751 0 0 0 0.11 26 154 40 136 71 75 142 466 
468 0.19953640277446003 0.33200089978261205 1.242630710745589 0 0 0 0.22 26 155 29 48 88 38 142 467 
469 0.39119180019237165 0.21102353442833574 1.1860841249841534 0 0 0 0.43 26 156 63 91 71 76 85 121 142 468 
470 0.12202152638924818 0.20814011497509374 1.039458887773335 0 0 0 0.19 26 157 73 67 142 469 
471 0.6173872534347187 0.29324218478264064 1.0666532872761871 0 0 0 0.34 26 158 40 137 142 470 
472 0.09134125636169711 0.08363336790151692 0.9865556718576687 0 0 0 0.7 26 159 63 92 111 42 142 471 
