# 3D point list with one line of data per point:
#   POINT3D_ID, X, Y, Z, R, G, B, ERROR, TRACK[] as (IMAGE_ID, POINT2D_IDX)
# Number of points: 283, mean track length: 7.86
774 0.2351043200029893 -0.062132723729950434 0.9965941470457103 0 0 0 0.19 28 568 175 256 234 190 187 289 
775 -0.17458004278211328 -0.03347510676032991 0.9165151346654511 0 0 0 0.11 28 569 176 225 200 319 
776 0.5287026094900805 -0.08236349041975691 1.0652541757216705 0 0 0 0.31 28 570 176 226 234 191 
777 -0.3453285676163288 -0.020325328603628706 0.9011359580423649 0 0 0 0.34 28 571 146 387 213 354 21 9 50 139 61 96 157 247 209 8 4 136 124 298 11 100 98 245 
778 0.018823315428669753 -0.039695674575608145 0.9446169494435125 0 0 0 0.28 28 572 128 46 146 388 158 85 175 257 234 192 187 290 
779 -0.02375899877672431 -0.0362245751853311 0.9354289225788047 0 0 0 0.31 28 573 159 63 175 258 234 193 176 227 204 69 224 66 185 59 187 291 
780 -0.184183031666879 -0.0255420922713131 0.9130181662332114 0 0 0 0.36 28 574 164 123 200 320 4 137 33 138 44 128 50 140 53 32 98 246 157 248 
781 -0.03228942925090766 -0.03373051106037982 0.9310697688079176 0 0 0 0.31 28 575 146 389 157 249 98 247 16 182 187 292 
782 -0.2864726768957127 -0.01922276150173666 0.904703415527143 0 0 0 0.22 28 576 146 390 148 101 157 250 164 124 172 34 176 228 213 355 21 10 32 67 44 129 50 141 61 97 113 81 2 105 4 138 9 116 17 46 33 139 41 11 77 83 92 114 124 299 200 321 214 294 16 183 36 49 38 113 39 124 60 42 109 117 
783 -0.11350599241769296 -0.0268030410273672 0.9150005369743301 0 0 0 0.19 28 577 135 99 136 63 146 391 157 251 158 86 164 125 176 229 200 322 41 12 61 98 98 248 2 106 4 139 16 184 44 130 187 293 224 67 
784 -0.25951828068865335 -0.01906863569948609 0.903048812331125 0 0 0 0.1 28 578 136 64 146 392 164 126 213 356 21 11 33 140 38 114 44 131 50 142 60 43 77 84 157 252 176 230 179 2 
785 -0.01900863621642757 -0.03277374987176575 0.9347436198282439 0 0 0 0.24 28 579 128 47 176 231 
786 -0.20798716662284858 -0.01973653854340023 0.9109923925376017 0 0 0 0.51 28 580 146 393 157 253 213 357 231 159 124 300 39 125 
787 -0.09112904145944792 -0.025312385747015755 0.9186918270615971 0 0 0 0.43 28 581 175 259 176 232 124 301 200 323 214 295 231 160 98 249 
788 -0.2596905442494525 -0.015497247747487699 0.9028324896207224 0 0 0 0.38 28 582 136 65 157 254 213 358 214 296 
789 -0.18580736808360215 -0.01800025172401177 0.909498031541003 0 0 0 0.4 28 583 146 394 157 255 200 324 213 359 
790 -0.0832219321356785 -0.02288455456848891 0.9191898130469384 0 0 0 0.33 28 584 158 87 214 297 
791 -0.17503772789938424 -0.018086931467803588 0.911631618450294 0 0 0 0.41 28 585 146 395 176 233 213 360 231 161 11 101 16 185 38 115 98 250 187 294 
792 -0.09988938144389205 -0.020999314049103608 0.916241794330595 0 0 0 0.35 28 586 157 256 175 260 214 298 224 68 4 140 33 141 44 132 60 44 113 82 124 302 
793 -0.1505596786058292 -0.01741709028183061 0.9112445142949103 0 0 0 0.3 28 587 158 88 213 361 231 162 
794 -0.012995082785073383 -0.020839814886343132 0.9338787675579594 0 0 0 0.22 28 588 146 396 175 261 176 234 234 194 98 251 157 257 158 89 16 186 44 133 50 143 92 115 187 295 213 362 231 163 
795 -0.07752325044142333 -0.01243269045100154 0.9173274373423204 0 0 0 0.15 28 589 136 66 148 102 157 258 159 64 175 262 213 363 4 141 9 117 16 187 33 142 44 134 50 144 92 116 93 128 109 118 187 296 146 397 214 299 
796 -0.019682405466872936 -0.014141461711188127 0.9281881627469871 0 0 0 0.4 13 398 28 590 175 263 213 364 231 164 
797 0.04664431502146261 -0.016495443880169856 0.9432971786488744 0 0 0 0.18 28 591 146 398 157 259 158 90 175 264 176 235 200 325 213 365 
798 0.026318332203380347 -0.014046942542921664 0.9385126482151712 0 0 0 0.34 28 592 148 103 176 236 
799 -0.03256046834315513 -0.0103652030236426 0.9232699148368727 0 0 0 0.37 28 593 157 260 213 366 
800 0.07255694216414892 -0.016260498804487957 0.9473496165471571 0 0 0 0.35 28 594 214 300 234 195 4 142 38 116 92 117 98 252 187 297 146 399 157 261 175 265 200 326 
801 0.0594014515386309 -0.007112439888811765 0.9439978260743402 0 0 0 0.34 28 595 146 400 148 104 164 127 175 266 213 367 
802 0.20405867770475164 -0.014050628141005026 0.9755619120070047 0 0 0 0.25 28 596 128 48 152 22 157 262 172 35 219 40 
803 0.14825005848483908 -0.010796083414490643 0.9612317470018437 0 0 0 0.31 28 597 157 263 176 237 204 70 213 368 227 47 61 99 124 303 
804 -0.02392624188145093 -0.0015928006412776897 0.9245787491167188 0 0 0 0.5 28 598 148 105 176 238 4 143 229 59 
805 0.06450993236927553 -0.005727573244717619 0.9455409507472695 0 0 0 0.37 28 599 136 67 146 401 157 264 158 91 159 65 164 128 172 36 175 267 176 239 185 60 213 369 214 301 219 41 232 53 234 196 
806 0.09382276089201926 -0.003209592495236343 0.9518098282123189 0 0 0 0.14 28 600 128 49 146 402 176 240 
807 0.2606621486272712 -0.010882060798311487 0.9873943681577241 0 0 0 0.1 28 601 175 268 176 241 
808 0.09930936661522156 -0.0031339270025403185 0.9527919871875056 0 0 0 0.26 28 602 146 403 176 242 194 112 219 42 142 15 222 30 158 92 187 298 
809 0.10544622227038188 -0.0029454736248506834 0.9543660732306973 0 0 0 0.11 28 603 146 404 159 66 234 197 
810 0.20340598344784927 -0.007283475737629008 0.9712996328602842 0 0 0 0.27 28 604 146 405 175 269 4 144 98 253 187 299 
811 0.11679855883656026 -0.002351696023411694 0.955103612517522 0 0 0 0.09 28 605 176 243 234 198 
812 -0.07042861595999417 0.008217696970069908 0.9131617633538043 0 0 0 0.5 28 606 176 244 204 71 
813 0.16817029974073447 -0.001291374743432255 0.9606618043547815 0 0 0 0.35 28 607 158 93 231 165 
814 0.23090170286889905 0.0038548839119025603 0.9762087984395248 0 0 0 0.33 28 608 128 50 152 23 157 265 164 129 175 270 176 245 204 72 213 370 234 199 15 12 61 100 91 19 96 25 98 254 118 57 187 300 
815 0.4845919050927539 0.016530805609862354 1.0264064671092712 0 0 0 0.14 28 609 175 271 234 200 
816 0.5375429652839223 0.01991650870056527 1.0403781368267542 0 0 0 0.38 28 610 158 94 175 272 234 201 50 145 98 255 187 301 
817 0.3378164300515632 0.030016889889618235 0.9916586601805343 0 0 0 0.14 28 611 175 273 176 246 
818 -0.08538494644382955 0.05830463141658504 0.8875013317022312 0 0 0 0.25 28 612 128 51 146 406 158 95 175 274 50 146 61 101 98 256 157 266 187 302 204 73 
819 -0.3234854477079876 0.06433460957941894 0.863780050631825 0 0 0 0.11 28 613 146 407 213 371 
820 -0.18813834324374987 0.06506004729613406 0.8765019593183225 0 0 0 0.3 28 614 157 267 164 130 213 372 
821 -0.12792951551520335 0.06848042269100055 0.8708894021707865 0 0 0 0.27 28 615 157 268 176 247 146 408 213 373 
822 0.030267027675316645 0.06814730627161389 0.9083903250682566 0 0 0 0.3 28 616 136 68 146 409 175 275 44 135 98 257 
823 -0.19565445396922498 0.07108175612307896 0.8688739513662651 0 0 0 0.15 28 617 146 410 213 374 98 258 
824 -0.09273723177831993 0.0735165785400013 0.8883592351609572 0 0 0 0.22 28 618 146 411 157 269 176 248 213 375 2 107 4 145 11 102 16 188 38 117 41 13 50 147 124 304 187 303 200 327 
825 -0.1940317136541275 0.07496920510315917 0.8670298595072554 0 0 0 0.1 28 619 146 412 176 249 213 376 4 146 16 189 50 148 98 259 38 118 
826 -0.17877074259040282 0.07889355623002903 0.8800040629696081 0 0 0 0.1 28 620 176 250 213 377 
827 -0.1565509540561414 0.07922770640050088 0.8814378038528743 0 0 0 0.23 28 621 176 251 213 378 124 305 157 270 39 126 136 69 
828 -0.06446732081805477 0.07948298290496886 0.8919568248747619 0 0 0 0.28 13 399 28 622 175 276 176 252 213 379 231 166 2 108 4 147 11 103 16 190 17 47 44 136 61 102 77 85 103 6 111 19 187 304 128 52 146 413 157 271 232 54 
829 0.003606815789340344 0.0799441342769557 0.9069421497876905 0 0 0 0.15 28 623 213 380 234 202 124 306 200 328 157 272 175 277 231 167 
830 0.009015632482701368 0.0805535856655165 0.9080895276694668 0 0 0 0.1 28 624 175 278 234 203 146 414 176 253 188 8 213 381 
831 -0.2252863377644879 0.0815913171243764 0.8752791617819979 0 0 0 0.21 28 625 157 273 176 254 213 382 38 119 124 307 200 329 98 260 
832 -0.13398744361807002 0.08153437459123782 0.8676344474199303 0 0 0 0.43 28 626 157 274 213 383 124 308 146 415 231 168 16 191 39 127 
833 -0.07439013269982157 0.08285151443163098 0.8779277094588651 0 0 0 0.41 28 627 146 416 157 275 98 261 11 104 77 86 187 305 175 279 
834 -0.22737897576230076 0.08573793697002087 0.8712317292148128 0 0 0 0.39 28 628 146 417 176 255 200 330 213 384 9 118 16 192 38 120 110 64 113 83 124 309 39 128 
835 -0.1926478951621644 0.08620352334037419 0.8638478696121729 0 0 0 0.29 28 629 146 418 176 256 213 385 
836 -0.08245973046260914 0.08635535396015458 0.8803774103117674 0 0 0 0.31 28 630 175 280 176 257 213 386 187 306 
837 0.15379196016334062 0.08801227207900165 0.9313125713388516 0 0 0 0.16 28 631 175 281 234 204 112 68 157 276 201 110 
838 -0.12924315646736548 0.08727483754852086 0.8636115902414109 0 0 0 0.19 28 632 146 419 157 277 176 258 213 387 214 302 231 169 
839 -0.07252056743128323 0.0872977076989259 0.8777707077993142 0 0 0 0.33 28 633 175 282 176 259 4 148 16 193 98 262 157 278 158 96 50 149 77 87 187 307 11 105 61 103 213 388 214 303 
840 -0.04231672010838191 0.08844342313661815 0.8920003972041716 0 0 0 0.19 28 634 146 420 175 283 187 308 
841 0.1861624331466958 0.0916284928213175 0.9252260382959548 0 0 0 0.11 28 635 146 421 175 284 234 205 
842 0.2811102657671419 0.09377422098544415 0.963046115686685 0 0 0 0.4 28 636 175 285 234 206 124 310 146 422 112 69 201 111 
843 -0.07433006049667668 0.0908019979498329 0.8769405045418057 0 0 0 0.19 28 637 146 423 157 279 213 389 214 304 98 263 109 119 124 311 4 149 33 143 38 121 187 309 175 286 
844 -0.034853395178263455 0.09317307935917324 0.8862392297862823 0 0 0 0.2 28 638 146 424 157 280 175 287 188 9 187 310 
845 -0.026771667614318113 0.09377162491068401 0.8853576701470448 0 0 0 0.18 28 639 157 281 213 390 
846 -0.16185402619429945 0.09379519637092928 0.8719150964889677 0 0 0 0.19 28 640 213 391 214 305 
847 0.025011483803096014 0.09667076624948806 0.894738585917268 0 0 0 0.15 28 641 213 392 234 207 
848 0.34872806336534007 0.10302201121669255 0.9623772540214138 0 0 0 0.23 28 642 175 288 200 331 234 208 98 264 112 70 187 311 
849 -0.2589150212974894 0.09696315943979827 0.8606776584680628 0 0 0 0.25 13 400 28 643 146 425 157 282 176 260 213 393 231 170 
850 -0.1900695730287276 0.09860697755240544 0.8656658905712793 0 0 0 0.23 13 401 28 644 146 426 148 106 159 67 176 261 200 332 213 394 214 306 11 106 16 194 33 144 44 137 50 150 92 118 93 129 128 53 135 100 157 283 164 131 224 69 229 60 38 122 124 312 61 104 98 265 196 92 4 150 110 65 
851 -0.13217992199972722 0.09951248559519715 0.8635244985477994 0 0 0 0.24 28 645 146 427 164 132 176 262 
852 -0.008009636803988805 0.10186344137774109 0.8962407279666674 0 0 0 0.45 28 646 146 428 231 171 
853 -0.2656947942127884 0.09953708003455931 0.8583840195832878 0 0 0 0.14 28 647 146 429 214 307 
854 -0.1237869377288579 0.10012231533038088 0.8659397685119272 0 0 0 0.4 28 648 146 430 214 308 176 263 4 151 11 107 16 195 33 145 187 312 
855 -0.003278688154927967 0.10209618416886543 0.8959384773252896 0 0 0 0.34 28 649 146 431 188 10 213 395 214 309 231 172 234 209 11 108 44 138 77 88 109 120 187 313 
856 0.03244104862100375 0.10207483083109714 0.8964056316974018 0 0 0 0.08 28 650 213 396 234 210 
857 -0.11811581180937754 0.10065291932210436 0.8684722265037559 0 0 0 0.27 28 651 42 44 146 432 164 133 176 264 213 397 4 152 16 196 33 146 92 119 187 314 
858 0.44558729033125416 0.10976131699722334 0.9816204561984826 0 0 0 0.42 28 652 146 433 234 211 44 139 50 151 175 289 201 112 
859 -0.18645505128981468 0.10135343052282965 0.8645368963878067 0 0 0 0.24 28 653 146 434 176 265 214 310 200 333 16 197 33 147 124 313 93 130 157 284 98 266 148 107 213 398 
860 -0.08193774552341349 0.10298774321282386 0.8752507419769983 0 0 0 0.41 28 654 176 266 214 311 231 173 4 153 16 198 85 73 148 108 229 61 2 109 32 68 33 148 44 140 50 152 92 120 93 131 124 314 39 129 
861 -0.0727250740436721 0.10335624559711719 0.8774009208231551 0 0 0 0.27 28 655 146 435 148 109 194 113 214 312 231 174 176 267 213 399 4 154 85 74 92 121 93 132 124 315 33 149 44 141 50 153 200 334 98 267 38 123 187 315 11 109 16 199 185 61 157 285 196 93 
862 -0.26420953520693613 0.10231469394659885 0.8607713779864943 0 0 0 0.56 13 402 28 656 146 436 213 400 214 313 9 119 33 150 50 154 124 316 98 268 
863 -0.18917952487930056 0.10360582943494265 0.8643874909475898 0 0 0 0.48 13 403 28 657 146 437 200 335 16 200 124 317 157 286 231 175 98 269 
864 0.10721802861655264 0.10770695082196093 0.9136910948134899 0 0 0 0.46 13 404 28 658 146 438 213 401 214 314 231 176 234 212 2 110 9 120 44 142 93 133 124 318 38 124 92 122 201 113 
865 -0.26586061313479264 0.10472810871861933 0.8593528184629298 0 0 0 0.08 28 659 146 439 176 268 213 402 
866 0.12566894550800986 0.11076458084989134 0.9125764304080459 0 0 0 0.31 28 660 176 269 234 213 11 110 16 201 187 316 175 290 213 403 197 46 201 114 
867 -0.18739668519370628 0.10644931232627357 0.8643956967374506 0 0 0 0.2 28 661 176 270 213 404 214 315 
868 0.02498021416597366 0.1091872439087919 0.8951448426796328 0 0 0 0.23 28 662 135 101 146 440 157 287 175 291 188 11 213 405 214 316 223 25 234 214 4 155 9 121 16 202 19 55 33 151 38 125 44 143 50 155 92 123 93 134 110 66 124 319 13 405 107 40 200 336 98 270 187 317 194 114 
869 -0.31655817871317193 0.10539685942257927 0.8551536109064202 0 0 0 0.2 28 663 146 441 157 288 
870 -0.12238595480867388 0.10712031448746331 0.8654694575636117 0 0 0 0.23 28 664 136 70 176 271 213 406 
871 0.07000617874215068 0.11224083668292449 0.9043499625464813 0 0 0 0.16 28 665 175 292 234 215 187 318 223 26 
872 0.13273430663353394 0.11551709012341987 0.9131560421404942 0 0 0 0.24 28 666 146 442 148 110 176 272 194 115 213 407 214 317 223 27 234 216 13 406 128 54 2 111 4 156 16 203 36 50 109 121 187 319 92 124 93 135 11 111 85 75 91 20 164 134 201 115 
873 0.1388120507125931 0.1158983435070214 0.9146270864858245 0 0 0 0.28 28 667 157 289 234 217 146 443 176 273 213 408 42 45 
874 -0.19765830779298937 0.11021758496699052 0.8632208700043587 0 0 0 0.3 13 407 28 668 157 290 214 318 146 444 200 337 16 204 93 136 124 320 98 271 
875 0.3842682286587867 0.12179533436839447 0.9662594822071221 0 0 0 0.09 28 669 175 293 234 218 
876 0.17860201527849648 0.1185803063836519 0.9217769519834905 0 0 0 0.17 28 670 197 47 234 219 
877 0.18500591457202634 0.11871017978835444 0.9212331535110427 0 0 0 0.3 13 408 28 671 176 274 194 116 196 94 213 409 214 319 234 220 4 157 11 112 16 205 36 51 85 76 91 21 92 125 93 137 109 122 110 67 187 320 38 126 148 111 201 116 
878 0.3058579584816658 0.12248320773245043 0.9486033725095807 0 0 0 0.38 28 672 146 445 234 221 13 409 17 48 118 58 201 117 
879 0.027431195973645846 0.11717884141420334 0.8941039485564289 0 0 0 0.17 28 673 146 446 157 291 175 294 213 410 229 62 
880 0.22561438456468993 0.12245578051096377 0.9362723012275139 0 0 0 0.42 28 674 146 447 176 275 234 222 201 118 187 321 
881 0.2776998323128604 0.1259852830175547 0.9484237320283425 0 0 0 0.23 13 410 28 675 146 448 164 135 200 338 213 411 214 320 234 223 50 156 124 321 157 292 9 122 36 52 44 144 61 105 98 272 4 158 11 113 38 127 187 322 201 119 223 28 
882 0.3999281732926346 0.12846079469949986 0.9665474061557499 0 0 0 0.24 13 411 28 676 42 46 136 71 146 449 148 112 164 136 165 8 194 117 196 95 234 224 235 18 2 112 4 159 17 49 19 56 33 152 40 29 44 145 50 157 60 45 61 106 77 89 85 77 92 126 105 12 111 20 124 322 107 41 162 24 127 30 135 102 182 11 200 339 157 293 175 295 213 412 214 321 98 273 187 323 38 128 110 68 201 120 
883 0.2214558857709874 0.1255385668850634 0.9342337709088335 0 0 0 0.59 28 677 221 23 223 29 
884 0.02992473883797636 0.11982436507301321 0.8939455366727586 0 0 0 0.23 28 678 146 450 157 294 213 413 234 225 11 114 38 129 50 158 187 324 
885 0.1292178860699507 0.12335029020812355 0.9117776587435711 0 0 0 0.38 28 679 176 276 213 414 4 160 77 90 194 118 201 121 
886 0.5021207705506735 0.13427825106613345 0.9854077845623848 0 0 0 0.33 28 680 146 451 175 296 234 226 4 161 11 115 15 13 17 50 53 33 77 91 85 78 91 22 92 127 118 59 128 55 148 113 165 9 176 277 187 325 194 119 197 48 201 122 204 74 213 415 232 55 235 19 
887 0.18495919085043347 0.1289663630039222 0.9195689222554014 0 0 0 0.08 28 681 146 452 234 227 
888 0.3617323495801535 0.13484373733660415 0.9580301770455696 0 0 0 0.24 28 682 158 97 175 297 13 412 146 453 201 123 
889 0.0721515967076999 0.12835850282413916 0.8987516877508387 0 0 0 0.32 28 683 213 416 234 228 
890 0.5355937445427092 0.14679342530128664 0.9984933725395636 0 0 0 0.63 28 684 158 98 234 229 53 34 201 124 
891 0.07966465872972969 0.13186076749865824 0.8991234516896841 0 0 0 0.27 28 685 146 454 164 137 188 12 194 120 213 417 13 413 93 138 110 69 187 326 4 162 11 116 38 130 201 125 223 30 
892 0.29522437414025504 0.14068747366149087 0.9418853132600287 0 0 0 0.3 13 414 28 686 42 47 148 114 164 138 172 37 194 121 196 96 213 418 214 322 220 34 221 24 222 31 232 56 234 230 4 163 38 131 43 13 52 27 53 35 54 1 71 14 77 92 85 79 91 23 92 128 96 26 97 9 103 7 109 123 110 70 142 16 146 455 185 62 223 31 11 117 15 14 17 51 93 139 118 60 187 327 
893 0.18460070411086235 0.13695620064100114 0.9162965875574264 0 0 0 0.3 28 687 194 122 197 49 214 323 223 32 234 231 4 164 11 118 38 132 77 93 91 24 109 124 110 71 201 126 
894 -0.07761114998747932 0.1321189004150351 0.8687086526472365 0 0 0 0.22 28 688 146 456 176 278 214 324 187 328 
895 0.1284478543440242 0.1402310557009638 0.906035149978773 0 0 0 0.43 28 689 176 279 213 419 214 325 223 33 234 232 4 165 16 206 77 94 110 72 187 329 11 119 36 53 85 80 92 129 201 127 
896 0.079167372025414 0.13880579643441288 0.89709706687447 0 0 0 0.28 28 690 136 72 148 115 194 123 213 420 223 34 4 166 11 120 77 95 110 73 201 128 
897 -0.1973663087518566 0.13353883868255592 0.8552777622526738 0 0 0 0.42 13 415 28 691 146 457 213 421 214 326 
898 -0.07293320530742546 0.13752903949355574 0.8678151062210471 0 0 0 0.15 28 692 146 458 176 280 213 422 
899 0.12785314014577975 0.14468602969277083 0.9046106852349212 0 0 0 0.74 28 693 146 459 194 124 223 35 234 233 142 17 148 116 164 139 172 38 232 57 4 167 77 96 118 61 187 330 110 74 201 129 
900 -0.2563131139704253 0.13394117199146938 0.8516175821406455 0 0 0 0.15 28 694 146 460 176 281 
901 0.00607883385010691 0.14472712305634997 0.8902887730133379 0 0 0 0.21 13 416 28 695 146 461 176 282 200 340 213 423 124 323 175 298 98 274 16 207 187 331 214 327 
902 0.026333770574598882 0.1447963576945717 0.885379441092603 0 0 0 0.32 28 696 188 13 194 125 231 177 13 417 148 117 200 341 213 424 214 328 234 234 16 208 38 133 52 28 77 97 118 62 229 63 187 332 4 168 85 81 92 130 110 75 
903 -0.18161222995035356 0.13906266928108738 0.8577638670868443 0 0 0 0.3 28 697 146 462 176 283 213 425 148 118 157 295 164 140 214 329 
904 -0.22355965928523072 0.139089910901867 0.8580086633117501 0 0 0 0.37 28 698 146 463 164 141 213 426 214 330 
905 -0.15953150545818007 0.14036372970232985 0.8612159367962362 0 0 0 0.14 28 699 146 464 214 331 
906 -0.22017864607048182 0.13925284863087367 0.8584877271213975 0 0 0 0.22 28 700 146 465 157 296 176 284 213 427 124 324 200 342 16 209 98 275 
907 -0.08865763958394714 0.14188279352302635 0.8620625924944305 0 0 0 0.35 28 701 146 466 176 285 187 333 214 332 
908 0.0754211884610323 0.14857771455357827 0.893461273671563 0 0 0 0.3 28 702 213 428 234 235 214 333 4 169 11 121 16 210 38 134 110 76 118 63 187 334 201 130 164 142 188 14 
909 0.029199603977930644 0.14669603071266815 0.8853961337067051 0 0 0 0.58 28 703 146 467 223 36 9 123 98 276 175 299 11 122 13 418 187 335 201 131 214 334 
910 -0.07275007855784307 0.14376193738288948 0.8656807078146576 0 0 0 0.34 28 704 146 468 176 286 4 170 38 135 92 131 187 336 164 143 
911 -0.04825568900996447 0.14574311277117905 0.87660180634507 0 0 0 0.05 28 705 188 15 213 429 
912 -0.07797825331604655 0.14424970053614808 0.8643145881481565 0 0 0 0.26 28 706 146 469 164 144 176 287 194 126 213 430 214 335 4 171 11 123 16 211 38 136 92 132 187 337 
913 -0.22133521984562746 0.1423310978409991 0.8586267271419628 0 0 0 0.33 28 707 213 431 214 336 
914 0.13865126287136872 0.15571473578138015 0.902587287491175 0 0 0 0.23 28 708 146 470 213 432 234 236 
915 0.17579463540589763 0.1576578247140071 0.9107733433759085 0 0 0 0.32 28 709 146 471 213 433 234 237 124 325 175 300 200 343 98 277 187 338 
916 -0.13305241558715086 0.14461320891171237 0.8507148634673382 0 0 0 0.14 28 710 146 472 164 145 
917 0.24466216021384907 0.16258444387719423 0.921817462472964 0 0 0 0.36 28 711 213 434 214 337 4 172 17 52 77 98 187 339 
918 -0.08151604562323227 0.14967317055030926 0.8621385767192378 0 0 0 0.28 28 712 146 473 176 288 214 338 16 212 77 99 110 77 187 340 
919 -0.07808491594869298 0.14960279612844948 0.8627114882141261 0 0 0 0.24 28 713 146 474 164 146 176 289 194 127 213 435 214 339 4 173 11 124 16 213 38 137 92 133 187 341 
920 0.29568257084858723 0.1676811380169977 0.9335434588831159 0 0 0 0.3 28 714 42 48 146 475 194 128 232 58 234 238 
921 -0.3037809065462013 0.14497605874786093 0.8533341200779514 0 0 0 0.2 28 715 146 476 157 297 176 290 98 278 
922 -0.02442974522642758 0.15383756811454616 0.8727435894140071 0 0 0 0.29 28 716 213 436 214 340 224 70 4 174 38 138 52 29 77 100 109 125 110 78 229 64 11 125 16 214 92 134 187 342 146 477 
923 -0.1814050570735954 0.14856461670315196 0.8541417844134924 0 0 0 0.32 28 717 146 478 176 291 
924 -0.28494164571316766 0.14643880800394873 0.8515810483741889 0 0 0 0.14 28 718 146 479 176 292 
925 0.39822524920765967 0.17602711425980005 0.9533135408050953 0 0 0 0.29 28 719 128 56 146 480 197 50 213 437 232 59 234 239 235 20 42 49 136 73 148 119 159 68 164 147 165 10 172 39 194 129 196 97 4 175 11 126 17 53 43 14 52 30 77 101 96 27 118 64 187 343 85 82 91 25 201 132 
926 0.18863477033413475 0.1669479175336833 0.9077058702457335 0 0 0 0.4 28 720 146 481 164 148 194 130 197 51 213 438 214 341 223 37 234 240 92 135 93 140 109 126 187 344 110 79 148 120 201 133 
927 -0.07849883246805942 0.15477473370800207 0.8606214189746022 0 0 0 0.3 28 721 146 482 176 293 214 342 11 127 16 215 38 139 92 136 187 345 164 149 213 439 
928 0.34624268031083116 0.1769894423538654 0.9426966960670146 0 0 0 0.25 13 419 28 722 42 50 146 483 148 121 172 40 194 131 196 98 213 440 214 343 234 241 128 57 187 346 
929 0.012930567119605815 0.16196312404820298 0.8854443456368424 0 0 0 0.35 28 723 175 301 234 242 
930 0.2452996287242509 0.17224661299715616 0.919314320107193 0 0 0 0.24 28 724 213 441 214 344 234 243 187 347 
931 -0.13349632824954863 0.15340969367819984 0.8477459744039779 0 0 0 0.09 28 725 146 484 176 294 
932 0.12818501009030242 0.16651510390179614 0.8974368669286025 0 0 0 0.47 28 726 148 122 164 150 194 132 213 442 234 244 
933 0.35916471723083854 0.1784157072095457 0.9407980794861296 0 0 0 0.27 28 727 175 302 200 344 
934 0.38947757230648006 0.18112109468208232 0.94905955722107 0 0 0 0.28 28 728 146 485 175 303 234 245 
935 -0.32424369222825294 0.1485551728539502 0.8422172288909284 0 0 0 0.33 28 729 146 486 157 298 36 54 124 326 200 345 
936 -0.09298203682973606 0.15742050899880206 0.8617638057843772 0 0 0 0.34 28 730 136 74 146 487 4 176 11 128 16 216 38 140 124 327 200 346 98 279 2 113 187 348 
937 -0.06178719498702427 0.1592188905897959 0.8681287197334242 0 0 0 0.41 28 731 146 488 175 304 4 177 16 217 17 54 38 141 187 349 176 295 213 443 214 345 
938 -0.044111021514385805 0.16087478972449587 0.8729461636147003 0 0 0 0.27 28 732 176 296 213 444 4 178 16 218 17 55 38 142 187 350 146 489 
939 -0.18386141706415335 0.15526651038101982 0.8493511559389815 0 0 0 0.13 28 733 164 151 176 297 213 445 
940 0.11601407943613282 0.17021823502186662 0.8991978346573333 0 0 0 0.1 28 734 146 490 234 246 
941 0.3923716743978005 0.18478382048274447 0.9479087587526417 0 0 0 0.29 28 735 175 305 234 247 
942 -0.07838732842187021 0.16030024495540618 0.859409330940017 0 0 0 0.24 28 736 146 491 214 346 4 179 38 143 110 80 187 351 
943 -0.027732310200534807 0.1637111245754689 0.8689270873186195 0 0 0 0.21 28 737 146 492 194 133 213 446 
944 -0.0816409872775843 0.16212832982459066 0.8585627540856755 0 0 0 0.12 28 738 146 493 176 298 213 447 214 347 
945 -0.07903991259887604 0.16447087908969185 0.858135131062208 0 0 0 0.17 28 739 146 494 176 299 194 134 213 448 214 348 11 129 16 219 110 81 187 352 
946 0.3710723866870132 0.19023214206222325 0.9442687049137699 0 0 0 0.56 13 420 28 740 175 306 234 248 44 146 50 159 124 328 187 353 
947 -0.20482712210935464 0.1611173514804014 0.8461418648900115 0 0 0 0.23 28 741 146 495 157 299 4 180 11 130 16 220 98 280 128 58 176 300 
948 -0.025617202829053325 0.1701120341760175 0.8669371371637442 0 0 0 0.37 28 742 146 496 214 349 
949 0.30502583737147876 0.18996561327782982 0.9271929903058945 0 0 0 0.3 28 743 158 99 234 249 124 329 98 281 187 354 
950 -0.07614223815656318 0.16904995806686826 0.856956043064205 0 0 0 0.39 28 744 146 497 213 449 176 301 187 355 214 350 
951 0.3435911269271204 0.19421987715420116 0.936439434208061 0 0 0 0.36 28 745 146 498 175 307 234 250 50 160 124 330 
952 -0.19691507422534438 0.16480037919387214 0.8447651179651277 0 0 0 0.25 28 746 176 302 214 351 
953 -0.19175173625745037 0.16548387194936537 0.8476737152306306 0 0 0 0.22 28 747 146 499 213 450 
954 -0.1945647282503084 0.16600003283468143 0.8480421464144271 0 0 0 0.37 28 748 146 500 213 451 
955 0.18460498675888593 0.18572216259547739 0.9012182144042843 0 0 0 0.34 28 749 223 38 234 251 4 181 109 127 110 82 187 356 194 135 
956 0.18833857880370755 0.18639998031401714 0.9020136776237767 0 0 0 0.37 28 750 42 51 146 501 
957 0.371490319708289 0.1986979518788598 0.9376672209632025 0 0 0 0.55 28 751 158 100 175 308 200 347 93 141 98 282 187 357 234 252 
958 -0.0764099535793981 0.17330034743448786 0.8551903720176292 0 0 0 0.26 28 752 146 502 176 303 213 452 214 352 11 131 16 221 92 137 187 358 
959 0.30367600161064673 0.19684530421771163 0.924298849004377 0 0 0 0.42 13 421 28 753 42 52 146 503 164 152 175 309 194 136 200 348 213 453 214 353 2 114 124 331 11 132 19 57 33 153 71 15 77 102 85 83 91 26 38 144 52 31 60 46 107 42 158 101 135 103 163 9 98 283 187 359 
960 0.3114485259483075 0.19725647666723956 0.9246916404488231 0 0 0 0.08 28 754 175 310 234 253 
961 0.3690728978226303 0.20194234825624036 0.939128470048872 0 0 0 0.31 28 755 146 504 175 311 
962 -0.08225939514270053 0.17537810073421814 0.8541836101108291 0 0 0 0.24 28 756 148 123 213 454 214 354 146 505 176 304 4 182 11 133 16 222 38 145 110 83 187 360 164 153 
963 0.3064015600501444 0.2008125350179572 0.9225712771321724 0 0 0 0.58 28 757 175 312 200 349 107 43 220 35 
964 -0.0009001634549389975 0.1806378090626469 0.8636464356673962 0 0 0 0.21 28 758 146 506 188 16 234 254 
965 0.18792012720952725 0.19490342313201134 0.8989226723366603 0 0 0 0.33 13 422 28 759 146 507 148 124 194 137 196 99 223 39 234 255 33 154 85 84 187 361 
966 -0.1901740981419423 0.17554237699786557 0.8416452522621118 0 0 0 0.24 28 760 146 508 176 305 213 455 214 355 
967 0.1841809340986707 0.19909298537460307 0.8975542778628566 0 0 0 0.19 28 761 146 509 148 125 234 256 
968 0.19794587159148985 0.20033331559354184 0.8990556096521237 0 0 0 0.17 28 762 223 40 234 257 187 362 
969 -0.07883392596668588 0.18426993402796904 0.8522103496311997 0 0 0 0.42 13 423 28 763 146 510 194 138 213 456 214 356 33 155 41 14 93 142 98 284 11 134 16 223 36 55 38 146 52 32 92 138 110 84 187 363 
970 0.1880049194035989 0.2017989626813656 0.8970141798041615 0 0 0 0.32 13 424 28 764 42 53 146 511 148 126 194 139 196 100 223 41 234 258 50 161 124 332 175 313 200 350 85 85 187 364 
971 0.12762113094673122 0.1996021428406908 0.8875359654070222 0 0 0 0.3 13 425 28 765 146 512 175 314 194 140 196 101 200 351 213 457 214 357 223 42 234 259 33 156 50 162 93 143 124 333 92 139 98 285 11 135 187 365 
972 -0.18797102808501445 0.1823351218487279 0.8431112422864925 0 0 0 0.11 28 766 176 306 213 458 
973 0.18418732449928268 0.2052365312953849 0.8953944664101702 0 0 0 0.47 13 426 28 767 146 513 148 127 194 141 234 260 19 58 50 163 61 107 124 334 175 315 200 352 11 136 17 56 85 86 118 65 187 366 
974 -0.08178175146796914 0.18785007569191087 0.8506651816575563 0 0 0 0.34 13 427 28 768 146 514 213 459 214 358 33 157 124 335 38 147 92 140 93 144 98 286 110 85 200 353 4 183 11 137 52 33 187 367 
975 0.502522298106797 0.22977004682023325 0.9594144805739017 0 0 0 0.4 28 769 146 515 164 154 213 460 234 261 2 115 44 147 50 164 61 108 98 287 19 59 36 56 77 103 111 21 118 66 
976 0.1878301702482462 0.2077605508469966 0.8953696649465417 0 0 0 0.28 13 428 28 770 42 54 146 516 148 128 194 142 223 43 234 262 50 165 124 336 175 316 200 354 98 288 85 87 187 368 
977 -0.07895588917495067 0.19002341115954774 0.8502682227781893 0 0 0 0.18 28 771 146 517 194 143 214 359 
978 -0.19083277247633817 0.1873950074306424 0.8395375592553881 0 0 0 0.45 28 772 200 355 213 461 214 360 98 289 124 337 176 307 
979 -0.079509041198357 0.19324500937098243 0.848942980698832 0 0 0 0.47 13 429 28 773 146 518 200 356 231 178 50 166 93 145 124 338 4 184 16 224 52 34 92 141 187 369 
980 0.07564813704219993 0.20482843278338064 0.8755569868196366 0 0 0 0.29 28 774 164 155 194 144 223 44 234 263 16 225 19 60 38 148 44 148 50 167 85 88 92 142 93 146 187 370 232 60 
981 -0.2395655645339729 -0.17300458846867836 0.9601282967001193 0 0 0 0.35 28 775 159 69 164 156 
982 -0.04057433837951522 -0.18770368949878097 0.9701255310828147 0 0 0 0.39 13 430 28 776 146 519 157 300 176 308 200 357 214 361 222 32 2 116 4 185 16 226 19 61 33 158 40 30 44 149 50 168 52 35 77 104 85 89 109 128 128 59 135 104 148 129 162 25 164 157 196 102 229 65 9 124 36 57 60 47 61 109 92 143 124 339 219 43 15 15 32 69 98 290 187 371 39 130 204 75 
983 -0.035131275398728214 -0.1814597554346971 0.9735540486697584 0 0 0 0.32 13 431 28 777 42 55 135 105 136 75 146 520 148 130 157 301 158 102 159 70 164 158 172 41 176 309 185 63 200 358 204 76 213 462 222 33 224 71 232 61 2 117 4 186 9 125 15 16 16 227 17 57 19 62 27 26 29 18 33 159 38 149 40 31 44 150 50 169 52 36 54 2 71 16 77 105 85 90 96 28 109 129 113 84 142 18 118 67 126 11 128 60 162 26 229 66 221 25 32 70 36 58 53 36 60 48 61 110 92 144 124 340 41 15 98 291 187 372 39 131 214 362 
984 -0.3090651441810093 -0.14227373638094104 0.9321137263464867 0 0 0 0.16 28 778 176 310 185 64 
985 0.0058367715680685845 -0.17491914409563125 0.9815536701861571 0 0 0 0.39 13 432 28 779 42 56 126 12 135 106 146 521 147 13 148 131 158 103 159 71 162 27 164 159 176 311 185 65 190 29 196 103 204 77 213 463 214 363 219 44 222 34 224 72 232 62 27 27 40 32 53 37 77 106 85 91 142 19 16 228 63 3 229 67 9 126 44 151 93 147 96 29 98 292 217 8 187 373 
986 -0.10934368160163323 -0.1550706699665233 0.9472552450842964 0 0 0 0.42 28 780 146 522 148 132 164 160 176 312 214 364 224 73 19 63 85 92 92 145 194 145 200 359 229 68 40 33 
987 -0.3783481685942357 -0.12405339679265198 0.9272343508944663 0 0 0 0.28 13 433 28 781 128 61 146 523 157 302 158 104 159 72 164 161 176 313 196 104 200 360 204 78 213 464 219 45 224 74 148 133 2 118 4 187 9 127 11 138 17 58 29 19 33 160 44 152 50 170 77 107 85 93 92 146 93 148 110 86 113 85 118 68 162 28 220 36 229 69 27 28 109 130 53 38 60 49 103 8 111 22 172 42 209 9 227 48 32 71 61 111 124 341 3 14 19 64 107 44 
988 -0.010074895794781467 -0.166337923478723 0.9758411185284643 0 0 0 0.22 28 782 147 14 176 314 214 365 227 49 232 63 
989 0.03726808156542668 -0.17260848906006834 0.9873549992655458 0 0 0 0.38 28 783 146 524 157 303 176 315 190 30 4 188 11 139 17 59 32 72 50 171 53 39 61 112 98 293 111 23 204 79 219 46 
990 -0.31332847865068 -0.12778473535387258 0.9325616414081559 0 0 0 0.64 13 434 28 784 42 57 164 162 176 316 196 105 200 361 204 80 
991 -0.37480013038249954 -0.12044256871854093 0.9273672437604782 0 0 0 0.41 28 785 146 525 148 134 157 304 159 73 172 43 176 317 213 465 232 64 33 161 44 153 52 37 92 147 109 131 162 29 164 163 196 106 224 75 229 70 21 12 50 172 53 40 96 30 110 87 118 69 179 3 209 10 
992 -0.3436030952539435 -0.12334169032154035 0.929976486540271 0 0 0 0.28 13 435 28 786 128 62 146 526 164 164 176 318 200 362 213 466 219 47 2 119 9 128 11 140 19 65 32 73 33 162 36 59 44 154 50 173 61 113 92 148 124 342 157 305 158 105 214 366 98 294 4 189 39 132 93 149 110 88 113 86 148 135 
993 0.08915661041507328 -0.17471826810600616 0.9962750885689441 0 0 0 0.32 13 436 28 787 42 58 135 107 146 527 148 136 157 306 159 74 164 165 172 44 176 319 185 66 196 107 200 363 204 81 213 467 214 367 222 35 227 50 234 264 19 66 29 20 40 34 52 38 85 94 142 20 126 13 136 76 2 120 3 15 4 190 9 129 11 141 16 229 17 60 32 74 33 163 36 60 38 150 44 155 50 174 60 50 61 114 77 108 92 149 96 31 109 132 110 89 112 71 113 87 124 343 118 70 93 150 98 295 187 374 39 133 
994 -0.3635747335947704 -0.1199626639063904 0.9271091568039419 0 0 0 0.38 13 437 28 788 128 63 146 528 148 137 157 307 164 166 200 364 213 468 224 76 232 65 196 108 4 191 9 130 11 142 19 67 27 29 29 21 33 164 38 151 44 156 77 109 85 95 92 150 109 133 110 90 113 88 127 31 159 75 162 30 176 320 185 67 220 37 229 71 93 151 21 13 52 39 53 41 60 51 179 4 3 16 32 75 36 61 41 16 61 115 97 10 124 344 190 31 227 51 98 296 
995 -0.35421730210181396 -0.11955026602510414 0.9264828083019019 0 0 0 0.33 13 438 28 789 128 64 146 529 157 308 176 321 213 469 158 106 185 68 85 96 109 134 229 72 127 32 148 138 159 76 162 31 196 109 224 77 21 14 77 110 110 91 113 89 118 71 172 45 179 5 232 66 52 40 53 42 164 167 2 121 3 17 9 131 33 165 40 35 60 52 92 151 93 152 107 45 4 192 11 143 17 61 98 297 
996 -0.15517341572476742 -0.1381311579749589 0.9394838383713034 0 0 0 0.33 28 790 146 530 159 77 164 168 185 69 196 110 213 470 214 368 219 48 2 122 4 193 11 144 16 230 17 62 38 152 77 111 85 97 92 152 109 135 110 92 113 90 229 73 
997 -0.13124415653533283 -0.13868059377739067 0.9383830726029894 0 0 0 0.44 28 791 42 59 128 65 146 531 148 139 164 169 185 70 196 111 213 471 214 369 220 38 44 157 224 78 229 74 4 194 11 145 16 231 38 153 77 112 85 98 113 91 118 72 187 375 194 146 
998 -0.3128720378809121 -0.1229411660447699 0.9310632745933274 0 0 0 0.3 13 439 28 792 146 532 148 140 157 309 158 107 159 78 164 170 176 322 185 71 196 112 200 365 204 82 213 472 214 370 219 49 224 79 232 67 2 123 19 68 29 22 33 166 38 154 85 99 109 136 110 93 113 92 162 32 229 75 21 15 52 41 172 46 179 6 103 9 126 14 209 11 3 18 4 195 9 132 11 146 32 76 44 158 50 175 77 113 92 153 96 32 111 24 124 345 93 153 107 46 220 39 118 73 98 298 36 62 39 134 
999 0.259835800354473 -0.19360837027746103 1.039285447730523 0 0 0 0.35 28 793 146 533 175 317 234 265 
1000 -0.2571922789028886 -0.12613894966284928 0.9367062034210403 0 0 0 0.58 13 440 28 794 176 323 204 83 213 473 221 26 227 52 142 21 159 79 4 196 11 147 33 167 50 176 61 116 77 114 92 154 98 299 110 94 111 25 118 74 146 534 158 108 200 366 224 80 
1001 -0.2737375102366899 -0.12191031692177857 0.9334826363475812 0 0 0 0.26 13 441 28 795 146 535 157 310 158 109 164 171 176 324 200 367 204 84 213 474 219 50 224 81 232 68 2 124 4 197 9 133 11 148 16 232 17 63 19 69 27 30 29 23 33 168 38 155 44 159 50 177 77 115 85 100 92 155 93 154 109 137 110 95 113 93 118 75 127 33 148 141 159 80 162 33 185 72 196 113 214 371 229 76 21 16 52 42 60 53 172 47 179 7 209 12 32 77 36 63 53 43 61 117 111 26 124 346 98 300 39 135 
1002 -0.12326179470604622 -0.13559822339121133 0.9435593737926479 0 0 0 0.78 13 442 28 796 42 60 126 15 135 108 136 77 159 81 164 172 172 48 176 325 185 73 196 114 200 368 204 85 213 475 222 36 224 82 2 125 11 149 16 233 38 156 44 160 85 101 109 138 229 77 232 69 33 169 40 36 50 178 60 54 98 301 113 94 158 110 187 376 
1003 -0.002654170342395602 -0.15253550852713363 0.9738981733482132 0 0 0 0.54 13 443 28 797 42 61 135 109 146 536 147 15 148 142 157 311 164 173 176 326 185 74 196 115 213 476 214 372 217 9 224 83 227 53 232 70 15 17 38 157 52 43 142 22 33 170 77 116 85 102 229 78 9 134 29 24 36 64 43 15 44 161 93 155 113 95 124 347 98 302 50 179 61 118 118 76 187 377 
1004 -0.3421427853575036 -0.11330349398863265 0.9267398765736419 0 0 0 0.45 28 798 146 537 213 477 21 17 44 162 60 55 110 96 113 96 118 77 4 198 9 135 13 444 33 171 92 156 124 348 200 369 32 78 39 136 
1005 -0.1293856414941498 -0.1305840348865452 0.9420037872998808 0 0 0 0.57 28 799 146 538 157 312 158 111 164 174 176 327 185 75 196 116 200 370 213 478 214 373 220 40 2 126 4 199 9 136 11 150 17 64 33 172 38 158 40 37 50 180 61 119 77 117 98 303 118 78 16 234 36 65 187 378 
1006 -0.18582298523629567 -0.12497189387951879 0.9413474175150504 0 0 0 0.32 13 445 28 800 135 110 157 313 164 175 176 328 196 117 200 371 204 86 213 479 214 374 224 84 232 71 44 163 124 349 2 127 4 200 9 137 16 235 32 79 33 173 98 304 118 79 39 137 85 103 194 147 
1007 -0.00106342637455623 -0.14635704542864295 0.9722699840465266 0 0 0 0.33 28 801 42 62 128 66 135 111 136 78 146 539 147 16 148 143 152 24 157 314 159 82 162 34 164 176 172 49 176 329 196 118 200 372 213 480 214 375 221 27 222 37 224 85 232 72 3 19 4 201 11 151 15 18 19 70 25 2 27 31 38 159 40 38 44 164 52 44 53 44 77 118 111 27 113 97 142 23 85 104 93 156 126 16 185 76 229 79 2 128 9 138 16 236 17 65 33 174 41 17 50 181 61 120 96 33 124 350 118 80 98 305 36 66 187 379 
1008 -0.17926683012855962 -0.12477806897416018 0.941878787672216 0 0 0 0.36 13 446 28 802 42 63 135 112 147 17 148 144 157 315 158 112 159 83 162 35 164 177 172 50 196 119 200 373 204 87 213 481 214 376 220 41 221 28 224 86 232 73 142 24 2 129 4 202 9 139 11 152 16 237 17 66 19 71 29 25 32 80 38 160 40 39 44 165 50 182 53 45 60 56 71 17 77 119 85 105 92 157 93 157 97 11 109 139 110 97 111 28 124 351 118 81 127 34 194 148 98 306 39 138 
1009 -0.038573667404941496 -0.13704793285500724 0.9622544233553894 0 0 0 0.3 28 803 128 67 135 113 147 18 200 374 221 29 222 38 224 87 227 54 232 74 9 140 17 67 29 26 36 67 53 46 71 18 92 158 96 34 109 140 124 352 44 166 107 47 100 0 172 51 204 88 219 51 220 42 98 307 
1010 -0.14262083298121173 -0.12523815302282484 0.9464148764489393 0 0 0 0.56 28 804 135 114 222 39 11 153 53 47 61 121 98 308 157 316 16 238 96 35 187 380 
1011 0.11899850194254881 -0.15509888922836768 0.998277137524849 0 0 0 0.56 28 805 146 540 147 19 148 145 159 84 164 178 200 375 204 89 213 482 220 43 227 55 232 75 234 266 
1012 -0.046534712524412006 -0.13207853621673435 0.959600851975108 0 0 0 0.38 13 447 28 806 135 115 147 20 152 25 159 85 164 179 172 52 200 376 231 179 9 141 19 72 44 167 50 183 77 120 93 158 107 48 98 309 15 19 187 381 
1013 0.10020087508358055 -0.14183060075338036 0.9917419425513492 0 0 0 0.37 28 807 146 541 152 26 157 317 164 180 176 330 232 76 61 122 98 310 16 239 85 106 93 159 187 382 39 139 53 48 109 141 110 98 124 353 135 116 194 149 214 377 159 86 
1014 0.11182327375603636 -0.14355268597926138 0.9951853619695403 0 0 0 0.36 28 808 135 117 146 542 147 21 157 318 158 113 159 87 164 181 176 331 185 77 200 377 213 483 222 40 227 56 232 77 234 267 
1015 0.07557997393259255 -0.13547145023771276 0.9831842031650455 0 0 0 0.65 28 809 146 543 158 114 234 268 50 184 98 311 135 118 157 319 164 182 213 484 221 30 222 41 15 20 187 383 
1016 -0.14912602491283847 -0.10843817884044557 0.9375136400688445 0 0 0 0.44 28 810 135 119 146 544 213 485 2 130 4 203 9 142 11 154 29 27 44 168 50 185 77 121 92 159 124 354 164 183 61 123 98 312 118 82 157 320 16 240 17 68 39 140 110 99 113 98 187 384 
1017 -0.0021033244770420133 -0.12488302091621693 0.9671908178829894 0 0 0 0.57 28 811 222 42 232 78 234 269 
1018 -0.13677177452372236 -0.10495995939119677 0.9307320713716448 0 0 0 0.35 13 448 28 812 146 545 214 378 231 180 92 160 124 355 32 81 36 68 77 122 98 313 187 385 39 141 113 99 
1019 -0.10945745506084172 -0.1084771971976415 0.9389336292315035 0 0 0 0.28 13 449 28 813 146 546 213 486 214 379 231 181 232 79 40 40 77 123 109 142 164 184 185 78 229 80 9 143 11 155 44 169 98 314 157 321 
1020 0.12281249074185159 -0.13491711696357886 0.9935485603061514 0 0 0 0.37 28 814 157 322 214 380 
1021 -0.05614731784718703 -0.10512796074581301 0.9483478489168886 0 0 0 0.59 28 815 128 68 146 547 158 115 40 41 52 45 63 4 85 107 109 143 113 100 148 146 159 88 229 81 9 144 13 450 15 21 92 161 98 315 164 185 200 378 118 83 187 386 39 142 232 80 
1022 0.1821964028452873 -0.12853483230334625 0.994392357267427 0 0 0 0.21 28 816 175 318 176 332 234 270 
1023 -0.03003449410312742 -0.10522562574203137 0.953137035734614 0 0 0 0.2 13 451 28 817 146 548 176 333 214 381 231 182 
1024 -0.018873142629076127 -0.10426691682888221 0.9548227140235961 0 0 0 0.38 28 818 128 69 185 79 221 31 234 271 
1025 0.01650638834541984 -0.09624896646771573 0.9576677765660716 0 0 0 0.23 28 819 146 549 175 319 234 272 36 69 124 356 231 183 98 316 157 323 187 387 176 334 
1026 0.19010502995004905 -0.11129643274949907 0.9964793338256942 0 0 0 0.36 28 820 128 70 146 550 147 22 152 27 158 116 159 89 164 186 175 320 176 335 185 80 213 487 220 44 221 32 227 57 232 81 234 273 
1027 0.22897963231094726 -0.10872242402292714 1.0069884868117331 0 0 0 0.5 28 821 146 551 159 90 219 52 17 69 32 82 44 170 50 186 77 124 96 36 98 317 111 29 152 28 162 36 175 321 200 379 220 45 4 204 39 143 
1028 0.5445218257113763 -0.13986817295048476 1.091256892318205 0 0 0 0.57 28 822 146 552 158 117 172 53 213 488 234 274 3 20 4 205 11 156 17 70 93 160 97 12 124 357 182 12 15 22 98 318 187 388 
1029 -0.039941047849549015 -0.07496148077511601 0.9513177396350078 0 0 0 0.1 28 823 128 71 176 336 
1030 0.2821061053769232 -0.09932959760280181 1.0168550626103336 0 0 0 0.38 13 452 28 824 42 64 128 72 135 120 146 553 148 147 157 324 164 187 176 337 185 81 194 150 196 120 197 52 204 90 213 489 214 382 220 46 227 58 234 275 2 131 26 3 38 161 53 49 60 57 61 124 63 5 71 19 73 1 85 108 92 162 142 25 118 84 126 17 219 53 4 206 9 145 19 73 32 83 33 175 50 187 111 30 112 72 124 358 158 118 162 37 175 322 182 13 200 380 98 319 152 29 217 10 17 71 187 389 29 28 39 144 201 134 
1031 0.3013131437750438 -0.0986405741206316 1.0215842182063657 0 0 0 0.36 13 453 28 825 42 65 126 18 146 554 147 23 148 148 159 91 163 10 164 188 185 82 194 151 196 121 197 53 200 381 213 490 214 383 219 54 220 47 221 33 227 59 234 276 142 26 2 132 9 146 11 157 17 72 19 74 29 29 32 84 33 176 38 162 40 42 43 16 44 171 50 188 53 50 71 20 77 125 91 27 92 163 93 161 96 37 105 13 111 31 124 359 118 85 157 325 158 119 162 38 182 14 4 207 85 109 109 144 187 390 39 145 201 135 
1032 0.3125630763945897 -0.09769161251103348 1.0224092769004856 0 0 0 0.35 13 454 28 826 42 66 126 19 146 555 148 149 157 326 158 120 159 92 164 189 172 54 175 323 176 338 185 83 194 152 196 122 197 54 200 382 204 91 213 491 214 384 219 55 220 48 221 34 227 60 232 82 234 277 235 21 2 133 3 21 11 158 15 23 17 73 19 75 25 3 26 4 29 30 33 177 43 17 44 172 50 189 53 51 54 3 61 125 63 6 71 21 73 2 77 126 85 110 91 28 93 162 96 38 97 13 109 145 111 32 142 27 118 86 9 147 105 14 124 360 98 320 187 391 39 146 135 121 
1033 -0.01885896931450632 -0.06487253414181891 0.9449736059498823 0 0 0 0.46 13 455 28 827 219 56 222 43 231 184 
1034 0.3972679952755624 -0.09270242488302707 1.0394665109021712 0 0 0 0.39 13 456 28 828 42 67 136 79 146 556 158 121 162 39 172 55 175 324 176 339 196 123 200 383 204 92 214 385 227 61 234 278 2 134 3 22 19 76 33 178 40 43 44 173 60 58 61 126 91 29 92 164 93 163 105 15 111 33 124 361 88 1 107 49 164 190 182 15 217 11 32 85 38 163 98 321 112 73 221 35 187 392 201 136 
1035 0.4379891976983986 -0.09060706906430936 1.0479268820938141 0 0 0 0.27 13 457 28 829 42 68 136 80 146 557 164 191 165 11 176 340 196 124 197 55 204 93 213 492 227 62 234 279 235 22 2 135 9 148 19 77 33 179 40 44 44 174 50 190 61 127 93 164 105 16 124 362 32 86 73 3 107 50 182 16 158 122 200 384 214 386 98 322 217 12 17 74 92 165 187 393 53 52 85 111 91 30 112 74 201 137 77 127 
1036 -0.03994325558581995 -0.052982262241679595 0.9447734812176118 0 0 0 0.2 28 830 146 558 176 341 219 57 
1037 0.510411145540413 -0.0911689457948056 1.0613883214752677 0 0 0 0.48 28 831 146 559 165 12 176 342 204 94 213 493 227 63 234 280 235 23 32 87 44 175 50 191 98 323 158 123 221 36 9 149 187 394 
1038 -0.3149493425812653 -0.02878521349805714 0.901674383621714 0 0 0 0.5 28 832 157 327 213 494 
1039 0.010142224823341926 -0.05044151964316925 0.9528320049119587 0 0 0 0.09 28 833 128 73 234 281 
1040 -0.29105326276215576 -0.026057030001901467 0.9061036122735097 0 0 0 0.23 28 834 157 328 213 495 232 83 2 136 4 208 39 147 77 128 162 40 16 241 110 100 113 101 
1041 -0.1708216049602588 -0.03153128892669224 0.9165060756403792 0 0 0 0.12 28 835 135 122 146 560 159 93 172 56 176 343 200 385 204 95 
1042 -0.28274400029503244 -0.023968216842684766 0.9056110009931828 0 0 0 0.53 28 836 128 74 146 561 157 329 158 124 164 192 176 344 204 96 148 150 200 386 2 137 44 176 92 166 98 324 113 102 162 41 39 148 93 165 214 387 
1043 -0.15414782197278218 -0.031221552991281102 0.9163138652080305 0 0 0 0.23 28 837 128 75 135 123 146 562 157 330 200 387 213 496 231 185 4 209 9 150 16 242 17 75 41 18 44 177 50 192 60 59 77 129 85 112 92 167 110 101 113 103 124 363 118 87 136 81 158 125 159 94 172 57 176 345 185 84 214 388 219 58 224 88 227 64 27 32 32 88 33 180 93 166 98 325 164 193 61 128 19 78 39 149 194 153 
1044 -0.11650876194023752 -0.03259325451214933 0.91787547873128 0 0 0 0.24 28 838 128 76 136 82 147 24 148 151 164 194 200 388 232 84 
1045 -0.13850572457668792 -0.029009706765512018 0.9154097655894629 0 0 0 0.45 28 839 146 563 231 186 61 129 98 326 158 126 176 346 
1046 -0.16812889945843296 -0.026305376440992217 0.91474054937656 0 0 0 0.21 28 840 135 124 213 497 219 59 227 65 231 187 2 138 3 23 4 210 11 159 16 243 17 76 19 79 29 31 33 181 44 178 50 193 53 53 61 130 71 22 77 130 92 168 96 39 110 102 111 34 124 364 128 77 146 564 148 152 164 195 176 347 185 85 194 154 200 389 220 49 232 85 98 327 118 88 136 83 158 127 159 95 172 58 221 37 
1047 -0.15687809623551482 -0.02645446765203829 0.9155621509718608 0 0 0 0.29 28 841 128 78 146 565 147 25 157 331 158 128 164 196 172 59 176 348 200 390 204 97 213 498 231 188 135 125 214 389 221 38 232 86 2 139 3 24 4 211 9 151 11 160 16 244 17 77 19 80 29 32 32 89 33 182 38 164 41 19 44 179 50 194 53 54 60 60 61 131 71 23 77 131 92 169 111 35 124 365 118 89 136 84 148 153 159 96 162 42 185 86 217 13 224 89 98 328 110 103 39 150 93 167 
1048 -0.0752419245875942 -0.028686945442454516 0.9236001905758198 0 0 0 0.27 28 842 146 566 164 197 204 98 4 212 11 161 44 180 50 195 92 170 187 395 158 129 
1049 -0.17137556385164987 -0.021656589691533237 0.9129835867317444 0 0 0 0.3 28 843 128 79 135 126 146 567 157 332 172 60 185 87 200 391 213 499 227 66 3 25 4 213 11 162 16 245 44 181 50 196 53 55 61 132 77 132 98 329 118 90 158 130 187 396 
1050 -0.15395779910311727 -0.021427993316766064 0.9127666338845456 0 0 0 0.34 28 844 128 80 146 568 157 333 158 131 172 61 231 189 2 140 3 26 4 214 16 246 32 90 44 182 50 197 53 56 61 133 71 24 77 133 92 171 98 330 110 104 111 36 135 127 148 154 162 43 213 500 214 390 103 10 39 151 232 87 9 152 93 168 185 88 187 397 
1051 -0.13880696631809883 -0.022583030250522548 0.914179238768968 0 0 0 0.55 28 845 176 349 231 190 98 331 50 198 187 398 157 334 213 501 
1052 0.019517552889208006 -0.02488607757860368 0.9389623635270923 0 0 0 0.29 28 846 146 569 157 335 176 350 124 366 204 99 61 134 77 134 98 332 135 128 
1053 -0.1812799056173381 -0.012587479934011488 0.9112964991776251 0 0 0 0.25 28 847 128 81 146 570 147 26 157 336 172 62 200 392 4 215 16 247 38 165 44 183 92 172 110 105 113 104 124 367 164 198 185 89 214 391 221 39 39 152 194 155 
1054 -0.11496318309215983 -0.01162760586811158 0.9125328496002281 0 0 0 0.32 28 848 128 82 146 571 147 27 176 351 213 502 232 88 15 24 25 4 27 33 77 135 142 28 11 163 16 248 85 113 127 35 148 155 159 97 194 156 196 125 214 392 229 82 126 20 187 399 222 44 
1055 0.019462227950975373 -0.018280593996455884 0.9368878798581167 0 0 0 0.46 28 849 147 28 172 63 175 325 204 100 9 153 61 135 92 173 98 333 135 129 214 393 
1056 -0.08248792236917862 -0.010442859993279865 0.9155419113580512 0 0 0 0.27 28 850 128 83 157 337 158 132 172 64 175 326 185 90 50 199 103 11 111 37 187 400 219 60 
