# 3D point list with one line of data per point:
#   POINT3D_ID, X, Y, Z, R, G, B, ERROR, TRACK[] as (IMAGE_ID, POINT2D_IDX)
# Number of points: 407, mean track length: 5.96
0 -0.2733992139859671 -0.2382637850490741 1.0958754678688614 0 0 0 0.12 0 0 12 0 111 0 179 0 190 0 
1 -0.5283114879610589 -0.19369629998282248 1.0269878085075992 0 0 0 0.16 0 1 17 0 50 0 61 0 103 0 111 1 179 1 190 1 
2 -0.5246830349619169 -0.19286712387940916 1.0269534334136188 0 0 0 0.11 0 2 2 0 17 1 50 1 103 1 179 2 
3 -0.3439087164122522 -0.2007611238493052 1.0683987677548006 0 0 0 0.21 0 3 89 0 179 3 
4 -0.3448296707580337 -0.20128932875413533 1.071003413802785 0 0 0 0.23 0 4 2 1 3 0 27 0 67 0 89 1 179 4 
5 -0.4366477088561676 -0.19168685815662065 1.040193755997241 0 0 0 0.23 0 5 3 1 17 2 103 2 179 5 
6 -0.4857057741297808 -0.18266454613235256 1.0325210370268052 0 0 0 0.34 0 6 11 0 17 3 61 1 179 6 
7 -0.03796370959362206 -0.17853762169184054 1.1770910276576898 0 0 0 0.4 0 7 15 0 60 0 179 7 
8 -0.08404818382427486 -0.13347544794253893 1.151081978578236 0 0 0 0.32 0 8 1 0 11 1 17 4 19 0 26 0 50 2 60 1 96 0 111 2 179 8 
9 -0.021929607421625006 -0.12673108907103076 1.1757294844252586 0 0 0 0.37 0 9 2 2 50 3 77 0 179 9 190 2 
10 -0.35026133950920907 -0.08866284063123993 1.0583189380309415 0 0 0 0.29 0 10 3 2 11 2 61 2 71 0 89 2 96 1 97 0 103 3 111 3 179 10 190 3 
11 -0.400464803942861 -0.07913106292549278 1.050882011308127 0 0 0 0.18 0 11 3 3 96 2 179 11 
12 -0.04518858456398125 -0.0678788694465794 1.1612386773004324 0 0 0 0.38 0 12 3 4 29 0 71 1 190 4 
13 -0.31586580499628086 0.014363281635001198 1.052081747178101 0 0 0 0.15 0 13 43 0 50 4 179 12 
14 -0.4307493817227474 0.016811583867792086 1.0296155522894106 0 0 0 0.37 0 14 4 0 17 5 61 3 71 2 179 13 
15 -0.26985635764114146 -0.24183329890727767 1.0937624513573645 0 0 0 0.26 0 15 4 1 44 0 65 0 179 14 
16 -0.07650709706392934 -0.22368756414909063 1.1677780401986617 0 0 0 0.26 0 16 89 3 97 1 103 4 179 15 
17 -0.5216145579008938 -0.18912103573646571 1.0275408779705033 0 0 0 0.24 0 17 2 3 3 5 4 2 17 6 25 0 50 5 65 1 67 1 179 16 190 5 
18 -0.5143220968381647 -0.17450403098427533 1.026020143900662 0 0 0 0.32 0 18 3 6 4 3 17 7 25 1 43 1 50 6 61 4 71 3 103 5 111 4 179 17 190 6 
19 -0.026337379705411532 -0.1864732428822179 1.1790858952895953 0 0 0 0.25 0 19 1 1 3 7 50 7 61 5 179 18 190 7 
20 -0.49055027875084795 -0.1425297444972437 1.0245596963135617 0 0 0 0.18 0 20 11 3 96 3 103 6 179 19 
21 -0.42633859525148965 -0.14015562662372155 1.0432125296344241 0 0 0 0.22 0 21 3 8 4 4 61 6 179 20 
22 -0.07472148143568114 -0.1285803128599158 1.1537895431565182 0 0 0 0.28 0 22 1 2 2 4 3 9 4 5 11 4 17 8 25 2 26 1 50 8 65 2 71 4 77 1 96 4 103 7 111 5 179 21 
23 -0.04083379502137093 -0.06778222393611132 1.165519824351953 0 0 0 0.24 0 23 3 10 11 5 17 9 26 2 61 7 77 2 89 4 103 8 179 22 
24 -0.2672793290362653 -0.226671052208003 1.0942267358747584 0 0 0 0.4 0 24 3 11 61 8 89 5 179 23 
25 -0.4284963442275837 -0.2027058396664226 1.0524497542238809 0 0 0 0.32 0 25 1 3 2 5 3 12 4 6 11 6 12 1 17 10 27 1 50 9 61 9 71 5 81 0 179 24 
26 -0.23965286939249023 -0.16225769935129752 1.0953698234467832 0 0 0 0.3 0 26 11 7 19 1 33 0 60 2 61 10 77 3 111 6 179 25 
27 -0.4195292176433263 -0.08981624779583616 1.0419830554748404 0 0 0 0.32 0 27 1 4 2 6 4 7 21 0 44 1 61 11 71 6 81 1 88 0 111 7 179 26 
28 -0.43788483044964366 0.012324741350829166 1.0288626153710565 0 0 0 0.34 0 28 61 12 92 0 96 5 111 8 179 27 
29 -0.430058327432576 0.012275042311757104 1.0272377223578772 0 0 0 0.31 0 29 61 13 81 2 92 1 96 6 179 28 
30 -0.41277070235171087 -0.18047295165946778 1.056647710905325 0 0 0 0.3 0 30 3 13 43 2 61 14 67 2 81 3 88 1 96 7 103 9 111 9 179 29 
31 -0.4235768269441619 -0.17318263101153702 1.0454016304439817 0 0 0 0.4 0 31 1 5 3 14 26 3 61 15 67 3 179 30 
32 -0.5150915076207043 -0.15160814122446262 1.026407671483553 0 0 0 0.44 0 32 1 6 3 15 4 8 17 11 65 3 67 4 81 4 96 8 103 10 179 31 190 8 
33 -0.47171485841397726 -0.14795947941818965 1.0350018628233033 0 0 0 0.28 0 33 1 7 3 16 4 9 26 4 33 1 61 16 81 5 88 2 111 10 179 32 
34 -0.5018935940714528 -0.13204049838232187 1.0264149405605554 0 0 0 0.19 0 34 1 8 3 17 4 10 17 12 43 3 50 10 61 17 65 4 67 5 81 6 88 3 96 9 111 11 179 33 
35 -0.08787414534370204 -0.14677185026396686 1.1520753123810499 0 0 0 0.31 0 35 2 7 3 18 4 11 11 8 15 1 17 13 25 3 27 2 50 11 60 3 65 5 81 7 103 11 111 12 179 34 
36 -0.4946658893281231 -0.12439641664033603 1.0241825036631462 0 0 0 0.26 0 36 1 9 2 8 3 19 4 12 11 9 17 14 25 4 26 5 27 3 43 4 44 2 61 18 65 6 67 6 71 7 77 4 81 8 88 4 96 10 97 2 103 12 111 13 179 35 190 9 
37 -0.2676790877570968 -0.24088538470153492 1.0964258206043007 0 0 0 0.33 0 37 1 10 3 20 4 13 25 5 26 6 33 2 61 19 67 7 71 8 81 9 103 13 179 36 
38 -0.519211217627185 -0.1784808665111572 1.0289959198068568 0 0 0 0.16 0 38 2 9 3 21 17 15 50 12 65 7 81 10 111 14 179 37 
39 -0.5190753034450512 -0.17848401934347263 1.0287181012305784 0 0 0 0.21 0 39 4 14 50 13 65 8 103 14 111 15 179 38 
40 -0.4500609623882688 -0.181419469803993 1.0439120771643473 0 0 0 0.45 0 40 3 22 43 5 61 20 96 11 179 39 
41 -0.4198900936593106 -0.18035702406036502 1.0515226641440678 0 0 0 0.28 0 41 2 10 3 23 43 6 44 3 61 21 67 8 81 11 88 5 92 2 111 16 179 40 
42 -0.32542255405222487 -0.20686927305934358 1.0771177343031326 0 0 0 0.49 0 42 3 24 11 10 26 7 61 22 81 12 96 12 179 41 
43 -0.32617117900172243 -0.20708640532194136 1.0784762792757647 0 0 0 0.49 0 43 3 25 11 11 26 8 81 13 179 42 
44 -0.4863058612134761 -0.1183191526432057 1.0286526872630803 0 0 0 0.23 0 44 1 11 2 11 4 15 12 2 17 16 21 1 50 14 71 9 81 14 179 43 190 10 
45 -0.04977480881187586 -0.10416949904695183 1.165849725378242 0 0 0 0.31 0 45 50 15 61 23 111 17 179 44 
46 -0.03334249277525095 -0.09525910742882203 1.169280594047669 0 0 0 0.58 0 46 2 12 11 12 17 17 50 16 65 9 97 3 111 18 179 45 
47 -0.03334652403762553 -0.09529258577691385 1.1697029563135026 0 0 0 0.47 0 47 17 18 50 17 65 10 111 19 179 46 
48 -0.25079232861683254 -0.10367482453293947 1.0878315359749495 0 0 0 0.4 0 48 1 12 2 13 11 13 12 3 26 9 38 0 50 18 77 5 103 15 179 47 190 11 
49 -0.25074730644090204 -0.10367504868604324 1.0876686611992044 0 0 0 0.44 0 49 1 13 2 14 11 14 12 4 38 1 77 6 179 48 190 12 
50 -0.22126124202255015 -0.10372247768178745 1.0991702335704394 0 0 0 0.48 0 50 1 14 2 15 11 15 12 5 29 1 38 2 77 7 97 4 179 49 190 13 
51 -0.22126124202255015 -0.10372247768178745 1.0991702335704394 0 0 0 0.48 0 51 1 15 2 16 11 16 12 6 29 2 38 3 77 8 97 5 179 50 190 14 
52 -0.26104285022813944 -0.19361730828276597 1.093885145055197 0 0 0 1.82 0 52 11 17 12 7 50 19 60 4 61 24 96 13 179 51 190 15 
53 -0.4611332817382153 -0.19808140250818962 1.0249086834541696 0 0 0 1.2 0 53 179 52 190 16 
54 -0.061891289821208485 -0.1956029962954566 1.1728035992324277 0 0 0 1.56 0 54 2 17 12 8 179 53 190 17 
55 -0.10145873816983475 -0.24035961620867557 1.2028849428945918 0 0 0 0.34 1 16 3 26 15 2 97 6 179 54 
56 -0.03388900408558562 -0.22282308720647284 1.1841335229610366 0 0 0 0.19 1 17 67 9 179 55 
57 -0.11830911750226229 -0.2381209635951422 1.2173555440315698 0 0 0 0.57 1 18 15 3 17 19 96 14 179 56 
58 -0.04107282654871829 -0.16772020124727233 1.1741038530761085 0 0 0 0.27 1 19 3 27 19 2 89 6 179 57 
59 0.007651317270517241 -0.13575807553919547 1.1939915577808753 0 0 0 0.35 1 20 67 10 179 58 
60 -0.3246313287829041 -0.19219310132206072 1.0743439457775503 0 0 0 0.21 1 21 3 28 4 16 25 6 65 11 67 11 81 15 111 20 179 59 
61 -0.3463743576845803 -0.1936908765463726 1.0721562296792044 0 0 0 0.34 1 22 2 18 3 29 4 17 11 18 25 7 33 3 71 10 89 7 97 7 111 21 179 60 
62 -0.3346179749577641 -0.1922805060164201 1.0821369338998494 0 0 0 0.3 1 23 43 7 81 16 97 8 179 61 
63 -0.2542319773892019 -0.15911190212027293 1.088929522567135 0 0 0 0.28 1 24 2 19 3 30 4 18 11 19 12 9 19 3 25 8 33 4 43 8 44 4 50 20 60 5 61 25 67 12 71 11 77 9 89 8 92 3 179 62 
64 -0.5188571717265663 -0.1436266296227886 1.0221665200817107 0 0 0 0.32 1 25 4 19 17 20 65 12 81 17 103 16 111 22 179 63 
65 -0.4830362382321479 -0.11309791913650033 1.0311646129359802 0 0 0 0.28 1 26 4 20 179 64 
66 -0.4440865195129027 -0.10282914955385064 1.0419043390575733 0 0 0 0.17 1 27 4 21 26 10 96 15 179 65 
67 -0.36686765311572556 -0.08560126464704902 1.0551473779003195 0 0 0 0.39 1 28 61 26 81 18 97 9 111 23 179 66 
68 -0.4782219527506725 -0.08389167182844194 1.0286288164594781 0 0 0 0.17 1 29 4 22 21 2 26 11 77 10 179 67 
69 -0.3227240429494143 -0.19695956285424504 1.076244295285984 0 0 0 0.27 1 30 2 20 3 31 17 21 19 4 25 9 26 12 27 4 44 5 50 21 60 6 77 11 81 19 88 6 96 16 111 24 179 68 
70 -0.32852667682276776 -0.19719940450016685 1.0757785489224858 0 0 0 0.34 1 31 3 32 27 5 50 22 60 7 61 27 96 17 97 10 103 17 179 69 
71 -0.3285053660757054 -0.19722270699343145 1.0758530768682162 0 0 0 0.29 1 32 3 33 27 6 50 23 60 8 65 13 96 18 111 25 179 70 
72 -0.3858470259018165 -0.17898861758679493 1.057047436497168 0 0 0 0.3 1 33 19 5 25 10 26 13 60 9 81 20 111 26 179 71 
73 -0.42359135166499234 -0.18078720690251954 1.042295854571755 0 0 0 0.29 1 34 65 14 67 13 97 11 179 72 
74 -0.505262657607749 -0.15375798914624875 1.0302410188599886 0 0 0 0.22 1 35 17 22 65 15 103 18 179 73 
75 -0.43565413426014216 -0.14076152473812029 1.047985785030263 0 0 0 0.29 1 36 3 34 11 20 17 23 97 12 179 74 
76 -0.2804134606005564 -0.0842858010470979 1.0773104324684002 0 0 0 0.28 1 37 11 21 60 10 65 16 88 7 179 75 
77 -0.46048388115587885 -0.10214300544547629 1.0318684851065731 0 0 0 0.16 1 38 81 21 96 19 179 76 
78 -0.05459161898296083 -0.16662480847595448 1.1689841933620322 0 0 0 0.51 1 39 3 35 12 10 19 6 60 11 96 20 103 19 111 27 179 77 
79 -0.35180767060292456 -0.18901761625110167 1.0707175833526257 0 0 0 0.34 1 40 3 36 4 23 25 11 26 14 88 8 89 9 96 21 111 28 179 78 
80 -0.09394645191202913 -0.13502875466071804 1.1464736181678146 0 0 0 0.3 1 41 2 21 3 37 19 7 25 12 29 3 33 5 50 24 60 12 179 79 
81 -0.2794526443173882 -0.14279302718067977 1.080788563579964 0 0 0 0.23 1 42 4 24 60 13 97 13 111 29 179 80 
82 -0.39257384885008656 -0.14541645484315255 1.0495796324324413 0 0 0 0.36 1 43 3 38 4 25 17 24 25 13 26 15 27 7 71 12 97 14 111 30 179 81 
83 -0.4082009671074578 -0.14008957422194654 1.0525774070671994 0 0 0 0.21 1 44 2 22 3 39 4 26 11 22 17 25 81 22 88 9 179 82 
84 -0.47730559227187863 -0.14152646918901488 1.03230714180864 0 0 0 0.26 1 45 4 27 111 31 179 83 
85 -0.501356177028811 -0.1398664873004478 1.0259642713811967 0 0 0 0.35 1 46 3 40 17 26 50 25 61 28 65 17 67 14 81 23 96 22 103 20 111 32 179 84 
86 -0.42594810038765885 -0.10344066308569812 1.0426037976028897 0 0 0 0.44 1 47 2 23 4 28 11 23 81 24 179 85 
87 -0.45807840708189734 -0.08313722611204043 1.024731040699216 0 0 0 0.17 1 48 97 15 179 86 
88 -0.08088076147120503 -0.2355929684772367 1.1744346267433492 0 0 0 0.5 1 49 97 16 179 87 
89 -0.09176139703394966 -0.22932811139339512 1.1860622003406298 0 0 0 0.29 1 50 11 24 15 4 17 27 65 18 89 10 97 17 179 88 
90 -0.07191805071076349 -0.1819634898089827 1.167887081232614 0 0 0 0.49 1 51 11 25 43 9 179 89 
91 -0.43355218612102875 -0.20877679626527576 1.0492893368401526 0 0 0 0.43 1 52 3 41 25 14 61 29 67 15 81 25 179 90 
92 -0.10723259474285236 -0.1356802421905866 1.1400774974507377 0 0 0 1.0 1 53 4 29 11 26 25 15 26 16 33 6 179 91 
93 -0.4683669945612688 -0.1512129746811432 1.0306994088157384 0 0 0 0.47 1 54 3 42 4 30 12 11 17 28 61 30 67 16 71 13 81 26 88 10 96 23 97 18 111 33 179 92 
94 -0.2608178679928206 -0.14608626179462578 1.0853808034817947 0 0 0 0.78 1 55 3 43 4 31 17 29 19 8 25 16 26 17 27 8 33 7 43 10 44 6 50 26 65 19 67 17 71 14 77 12 81 27 88 11 103 21 111 34 179 93 
95 -0.24874935524034553 -0.1293072217755022 1.0854761402218613 0 0 0 0.69 1 56 2 24 3 44 4 32 11 27 12 12 26 18 71 15 89 11 97 19 103 22 179 94 
96 -0.20609508232206017 -0.1079037076407047 1.104553192449904 0 0 0 0.33 1 57 15 5 26 19 38 4 77 13 179 95 
97 -0.1910455059169827 -0.10110412184023997 1.1086413192856968 0 0 0 0.52 1 58 11 28 26 20 29 4 179 96 
98 -0.19091643812750686 -0.10110942101300952 1.1082026870923274 0 0 0 0.48 1 59 11 29 12 13 26 21 29 5 38 5 179 97 
99 -0.17650066771159423 -0.08797840524799173 1.1156768472656795 0 0 0 0.3 1 60 4 33 179 98 
100 -0.17606209470386947 -0.08804148241167808 1.113537551073596 0 0 0 0.23 1 61 26 22 179 99 
101 -0.3457552218123303 -0.09277795099446173 1.063432129600299 0 0 0 0.22 1 62 11 30 26 23 179 100 
102 -0.2459652838977675 -0.21991882039870647 1.1048292297070914 0 0 0 1.44 1 63 3 45 11 31 12 14 17 30 81 28 88 12 179 101 
103 -0.22053460363508653 -0.12663773604125111 1.0994181876725397 0 0 0 0.44 1 64 11 32 26 24 29 6 38 6 65 20 71 16 89 12 103 23 179 102 
104 -0.28409785317409136 -0.10663274139446241 1.07576559143674 0 0 0 0.71 1 65 11 33 26 25 29 7 38 7 71 17 88 13 179 103 
105 -0.28528250873687033 -0.10648046781259962 1.0779179240012962 0 0 0 0.47 1 66 12 15 26 26 29 8 38 8 43 11 71 18 179 104 
106 -0.3641457699432785 -0.1075331119397837 1.0615286650044602 0 0 0 0.36 1 67 26 27 43 12 50 27 179 105 
107 -0.36407993818864504 -0.10754244400942202 1.0613902087587321 0 0 0 0.37 1 68 26 28 43 13 50 28 81 29 111 35 179 106 
108 -0.5130318248375578 -0.17746318589106566 1.03102376079353 0 0 0 0.22 2 25 4 34 50 29 61 31 96 24 103 24 179 107 
109 -0.5253721998562759 -0.1765682603365512 1.0317032097997507 0 0 0 0.48 2 26 17 31 50 30 67 18 103 25 179 108 
110 -0.07874242097368193 -0.1508412410357306 1.1510855304273933 0 0 0 0.14 2 27 11 34 19 9 27 9 44 7 50 31 61 32 77 14 179 109 
111 -0.3524976828949665 -0.14873052424961886 1.063130014588041 0 0 0 0.21 2 28 4 35 11 35 19 10 21 3 27 10 33 8 96 25 103 26 111 36 179 110 
112 -0.3757281496004225 -0.14939599259312908 1.0567133137251807 0 0 0 0.25 2 29 3 46 11 36 21 4 27 11 96 26 111 37 179 111 
113 -0.35046330941443404 -0.14655834600840328 1.0643848102633462 0 0 0 0.24 2 30 4 36 11 37 27 12 33 9 50 32 179 112 
114 -0.3757498183325479 -0.1470007825380063 1.057935251673106 0 0 0 0.22 2 31 3 47 11 38 17 32 33 10 61 33 96 27 111 38 179 113 
115 -0.5180601894760213 -0.15128299028753447 1.0223569545644828 0 0 0 0.32 21 5 77 15 92 4 179 114 
116 -0.3433483734691459 -0.12387758658070704 1.0650659759522012 0 0 0 0.09 2 32 11 39 21 6 61 34 179 115 
117 -0.4050527685861677 -0.0847164690816854 1.0482549785631015 0 0 0 0.27 2 33 11 40 17 33 21 7 61 35 179 116 
118 -0.3068481184302533 0.041357302939773306 1.0556537070887966 0 0 0 0.33 2 34 33 11 44 8 50 33 179 117 
119 -0.03332768353820868 -0.20002875498742206 1.1781258324656345 0 0 0 0.27 2 35 17 34 19 11 44 9 50 34 61 36 92 5 179 118 
120 -0.3097901526090829 -0.19242540663922586 1.0813599741333786 0 0 0 0.45 2 36 4 37 27 13 77 16 92 6 103 27 111 39 179 119 
121 -0.19103915636196636 -0.16575406479910035 1.1144453749997862 0 0 0 0.28 2 37 19 12 44 10 50 35 96 28 111 40 179 120 
122 -0.3061575388455587 -0.1449369995202684 1.0733336120557766 0 0 0 0.65 2 38 27 14 60 14 179 121 
123 -0.4162557990497054 -0.15056699247192845 1.048949286404378 0 0 0 0.19 2 39 3 48 33 12 44 11 111 41 179 122 
124 -0.32858564763600523 -0.14569346270706238 1.0693487688751782 0 0 0 0.22 2 40 3 49 4 38 11 41 17 35 19 13 27 15 44 12 50 36 61 37 77 17 92 7 103 28 111 42 179 123 
125 -0.35610992718414186 -0.1467176280132235 1.06291416984773 0 0 0 0.22 2 41 3 50 4 39 11 42 27 16 33 13 92 8 103 29 179 124 
126 -0.4748651870391537 -0.15148748197765366 1.03152997810397 0 0 0 0.14 2 42 11 43 19 14 33 14 44 13 77 18 92 9 111 43 179 125 
127 -0.40054175466601605 -0.14728772269514584 1.0503833050108995 0 0 0 0.23 2 43 3 51 4 40 11 44 27 17 33 15 77 19 92 10 179 126 
128 -0.4289634697376719 -0.14831046638313894 1.0439101689298098 0 0 0 0.24 2 44 11 45 17 36 21 8 33 16 44 14 50 37 179 127 
129 -0.47790695978780545 -0.14930290387830628 1.030467627656613 0 0 0 0.29 2 45 11 46 19 15 21 9 27 18 33 17 44 15 50 38 77 20 92 11 103 30 111 44 179 128 
130 -0.5175702781446878 -0.1478644070211843 1.022525704128317 0 0 0 0.3 2 46 17 37 21 10 27 19 44 16 92 12 96 29 111 45 179 129 
131 -0.14575968663190728 -0.1112521241882645 1.1276855344952583 0 0 0 0.31 2 47 4 41 11 47 15 6 17 38 38 9 44 17 50 39 61 38 179 130 
132 -0.26602412903678974 -0.10937418182917792 1.0806897221352945 0 0 0 0.26 2 48 17 39 33 18 44 18 77 21 179 131 
133 -0.2018728510189596 -0.09305974939622313 1.1053488184836051 0 0 0 0.32 2 49 11 48 38 10 44 19 50 40 60 15 71 19 179 132 
134 -0.28997760501397957 -0.0877389194505989 1.0761541839034063 0 0 0 0.17 2 50 3 52 4 42 11 49 17 40 19 16 44 20 50 41 61 39 71 20 77 22 92 13 96 30 111 46 179 133 
135 -0.3669823697764719 -0.08980684429178268 1.0571395991512735 0 0 0 0.24 2 51 3 53 4 43 11 50 50 42 61 40 71 21 77 23 103 31 111 47 179 134 
136 -0.15343308488468763 -0.07673092778364228 1.1225020918601032 0 0 0 0.25 2 52 17 41 33 19 179 135 
137 -0.1092206350231851 -0.07514416301931363 1.137508817719562 0 0 0 0.34 2 53 4 44 17 42 19 17 33 20 38 11 44 21 60 16 61 41 96 31 103 32 179 136 
138 -0.05268993408020172 -0.07184619229598209 1.163957756353866 0 0 0 0.27 2 54 4 45 77 24 179 137 
139 -0.1429690785195255 -0.0669880573751784 1.1219345672924927 0 0 0 0.25 2 55 50 43 61 42 179 138 
140 -0.22182905303408149 0.02464149517762479 1.0872308890717215 0 0 0 0.34 2 56 19 18 179 139 
141 -0.2635807263504428 -0.2416211475922052 1.094931321092361 0 0 0 0.35 2 57 11 51 96 32 179 140 
142 -0.3368563589074037 -0.20436900840005143 1.0755543811056714 0 0 0 0.18 2 58 89 13 179 141 
143 -0.44056756582306433 -0.20338626688646605 1.0465395750445614 0 0 0 0.25 2 59 3 54 43 14 61 43 111 48 179 142 
144 -0.4580934462665312 -0.18365141029988236 1.042192764356017 0 0 0 0.26 2 60 3 55 43 15 44 22 71 22 111 49 179 143 
145 -0.4744638675590032 -0.1551313064060454 1.0332658033921445 0 0 0 0.27 2 61 11 52 21 11 33 21 103 33 111 50 179 144 
146 -0.5177400234660283 -0.13914899174902262 1.0239594202312552 0 0 0 0.31 2 62 3 56 17 43 25 17 61 44 71 23 111 51 179 145 
147 -0.23112044461531284 -0.08868936591876096 1.0908713206562375 0 0 0 0.36 2 63 26 29 71 24 103 34 179 146 
148 -0.3014329893051768 0.03608904368335543 1.0561597383342598 0 0 0 0.29 2 64 33 22 44 23 179 147 
149 -0.30356923436073746 0.05488347838350584 1.0551630843885995 0 0 0 0.17 2 65 33 23 44 24 50 44 61 45 179 148 
150 -0.5319161540320358 -0.20281540132039103 1.0297722055894543 0 0 0 0.31 2 66 3 57 17 44 179 149 
151 -0.4953372086308712 -0.13421918617206266 1.0265528059228024 0 0 0 0.27 2 67 3 58 4 46 11 53 17 45 21 12 50 45 65 21 67 19 81 30 97 20 111 52 179 150 
152 -0.29219722114635854 -0.08490960432208654 1.0739694910711868 0 0 0 0.33 2 68 33 24 44 25 60 17 65 22 111 53 179 151 
153 -0.4424531556139196 -0.14057237852653717 1.0422351028987227 0 0 0 0.26 2 69 3 59 4 47 11 54 17 46 26 30 81 31 97 21 111 54 179 152 
154 -0.37413332075428446 -0.07219125562589901 1.0572708638305528 0 0 0 0.28 2 70 50 46 179 153 
155 -0.3661371202749386 -0.1451719801564749 1.0596417554845234 0 0 0 0.25 2 71 4 48 11 55 12 16 17 47 25 18 26 31 33 25 67 20 71 25 81 32 88 14 97 22 111 55 179 154 
156 -0.2661563219915977 -0.17947259818515104 1.0881887862101962 0 0 0 0.67 2 72 3 60 12 17 19 19 26 32 43 16 60 18 77 25 81 33 88 15 89 14 179 155 
157 -0.018736325028359084 -0.10266224279208387 1.1789628628541462 0 0 0 0.46 2 73 3 61 4 49 15 7 17 48 50 47 61 46 65 23 111 56 179 156 
158 -0.01874533158234024 -0.10258675657235422 1.178819499591652 0 0 0 0.43 2 74 3 62 4 50 11 56 15 8 17 49 29 9 50 48 61 47 65 24 89 15 111 57 179 157 
159 -0.04933775648194807 -0.06311887127750002 1.1591682979683646 0 0 0 0.36 2 75 11 57 17 50 25 19 65 25 179 158 
160 -0.0492389680061301 -0.06317058667395167 1.15931724523745 0 0 0 0.38 2 76 17 51 25 20 29 10 81 34 179 159 
161 -0.30629309016589734 -0.05570123674561368 1.070115376134207 0 0 0 0.79 2 77 11 58 25 21 38 12 179 160 
162 -0.30629309016589734 -0.05570123674561368 1.070115376134207 0 0 0 0.79 2 78 11 59 25 22 38 13 179 161 
163 -0.30579293535295804 0.004481962275329973 1.060193575730753 0 0 0 0.39 2 79 4 51 17 52 27 20 44 26 50 49 65 26 77 26 81 35 111 58 179 162 
164 -0.18925254541162853 -0.12704970726819753 1.1056924734226687 0 0 0 1.29 2 80 4 52 179 163 
165 -0.10641586199457521 -0.23668910087388415 1.2023795728365112 0 0 0 0.18 3 63 15 9 89 16 179 164 
166 -0.32696907691638344 -0.23374602034343192 1.0825522525994322 0 0 0 0.28 3 64 60 19 67 21 89 17 111 59 179 165 
167 -0.1019916724514697 -0.2329670511408155 1.2030096609300962 0 0 0 0.24 3 65 4 53 15 10 17 53 89 18 179 166 
168 -0.2510102365375557 -0.23703774459365567 1.1649443437069322 0 0 0 0.43 3 66 4 54 25 23 65 27 67 22 97 23 111 60 179 167 
169 -0.3355311051423003 -0.21444646797172612 1.0718025061475587 0 0 0 0.06 3 67 60 20 179 168 
170 -0.02401428851114316 -0.20578793571972 1.1860532140955145 0 0 0 0.2 3 68 67 23 179 169 
171 -0.4412298150747669 -0.21028011186723558 1.046065852664856 0 0 0 0.15 3 69 103 35 179 170 
172 -0.08625560998023883 -0.19760010268499426 1.1574589157045367 0 0 0 0.14 3 70 50 50 61 48 71 26 179 171 
173 -0.1388389710173037 -0.1851051021447522 1.1362632329796465 0 0 0 0.47 3 71 17 54 27 21 33 26 96 33 179 172 
174 -0.4902647792962161 -0.1933147534858065 1.034617762096197 0 0 0 0.25 3 72 65 28 179 173 
175 -0.42376012918881945 -0.18697995556574235 1.0496932127784773 0 0 0 0.28 3 73 4 55 11 60 26 33 61 49 77 27 111 61 179 174 
176 -0.190919733069378 -0.15900330662187653 1.109921461300773 0 0 0 0.36 3 74 12 18 89 19 96 34 179 175 
177 -0.190919733069378 -0.15900330662187653 1.109921461300773 0 0 0 0.36 3 75 12 19 89 20 96 35 179 176 
178 -0.03863300281913032 -0.15305378542262826 1.1646691425388163 0 0 0 0.4 3 76 60 21 111 62 179 177 
179 -0.08322981130698529 -0.1490034335473473 1.1489230543111315 0 0 0 0.36 3 77 96 36 179 178 
180 -0.37067515418970026 -0.1527830072227947 1.0611124720033371 0 0 0 0.23 3 78 19 20 97 24 111 63 179 179 
181 -0.14253405458544477 -0.1444593463319307 1.1313405232299807 0 0 0 0.31 3 79 25 24 29 11 60 22 96 37 179 180 
182 -0.3445249257189669 -0.1462141894465243 1.065522548411867 0 0 0 0.25 3 80 11 61 33 27 89 21 96 38 179 181 
183 -0.38231156653329773 -0.14671308511824177 1.053216925297221 0 0 0 0.2 3 81 67 24 111 64 179 182 
184 -0.40071191961313835 -0.1473087825068018 1.0505706935554204 0 0 0 0.28 3 82 4 56 11 62 21 13 27 22 33 28 77 28 92 14 103 36 179 183 
185 -0.0873842434992992 -0.13684533789730918 1.1500140241161108 0 0 0 0.3 3 83 11 63 17 55 27 23 29 12 60 23 71 27 96 39 179 184 
186 -0.20219592254251548 -0.13880431634166726 1.110948065828133 0 0 0 0.12 3 84 17 56 179 185 
187 -0.5076949222610885 -0.15013181433150644 1.031507473243338 0 0 0 0.44 3 85 50 51 179 186 
188 -0.523099004783814 -0.14867845463754567 1.0221649113422344 0 0 0 0.19 3 86 21 14 50 52 111 65 179 187 
189 -0.4119189655689722 -0.11357412631919075 1.0486760113544036 0 0 0 0.24 3 87 4 57 11 64 26 34 97 25 179 188 
190 -0.37728462624187975 -0.09894020859942781 1.0564212615265918 0 0 0 0.24 3 88 26 35 179 189 
191 -0.2587631075490487 -0.09132512675011245 1.0822670014496716 0 0 0 0.09 3 89 44 27 179 190 
192 -0.28318538143550825 -0.08774415342613212 1.0775475594849397 0 0 0 0.23 3 90 4 58 11 65 17 57 19 21 25 25 27 24 38 14 71 28 103 37 111 66 179 191 
193 -0.08943736909359977 -0.07997266390212618 1.145780580568526 0 0 0 0.34 3 91 103 38 179 192 
194 -0.4241317685121329 -0.08811443387516871 1.0410140796685305 0 0 0 0.21 3 92 65 29 103 39 179 193 
195 -0.2977286334181045 -0.07896994387333228 1.074165730280224 0 0 0 0.16 3 93 33 29 77 29 179 194 
196 -0.41114663953349967 -0.08093291815814208 1.04253043209925 0 0 0 0.18 3 94 11 66 67 25 179 195 
197 -0.038532736358578935 -0.19970645460376246 1.178222831547909 0 0 0 0.28 3 95 60 24 89 22 179 196 
198 -0.3328558705634263 -0.2016818854585576 1.0746265137589515 0 0 0 0.25 3 96 4 59 11 67 25 26 27 25 44 28 67 26 89 23 92 15 103 40 179 197 
199 -0.3188712449947267 -0.20146507036893058 1.0808355723054512 0 0 0 0.26 3 97 4 60 11 68 17 58 27 26 50 53 77 30 97 26 179 198 
200 -0.30583035931201963 -0.20039020127950094 1.0823578571616241 0 0 0 0.18 3 98 4 61 27 27 71 29 97 27 179 199 
201 -0.4339623453557612 -0.1936786144082947 1.046804128075617 0 0 0 0.19 3 99 111 67 179 200 
202 -0.29490798185167255 -0.186569440045282 1.0873584785586106 0 0 0 0.7 3 100 96 40 179 201 
203 -0.37810851358846614 -0.18639904191926984 1.0621234585437513 0 0 0 0.12 3 101 43 17 71 30 111 68 179 202 
204 -0.04848906809685544 -0.17593180714404288 1.1705398339866964 0 0 0 0.22 3 102 11 69 25 27 71 31 89 24 179 203 
205 -0.23052495096563996 -0.16592671362046452 1.0974830602508157 0 0 0 0.17 3 103 65 30 71 32 179 204 
206 -0.29638525606184074 -0.15054662330023563 1.078961970259128 0 0 0 0.21 3 104 4 62 17 59 19 22 44 29 50 54 60 25 71 33 111 69 179 205 
207 -0.07509623701852519 -0.13334513965531106 1.1552315012967649 0 0 0 0.24 3 105 4 63 11 70 15 11 17 60 25 28 26 36 27 28 29 13 33 30 50 55 61 50 96 41 97 28 111 70 179 206 
208 -0.377306453296071 -0.10345006534016316 1.0569538602823694 0 0 0 0.15 3 106 4 64 11 71 26 37 179 207 
209 -0.02716060017771941 -0.07963320860593925 1.17561868940381 0 0 0 0.26 3 107 17 61 50 56 179 208 
210 -0.40874196399901996 -0.08211481982888308 1.0467656228303601 0 0 0 0.23 3 108 4 65 17 62 27 29 33 31 44 30 71 34 77 31 96 42 111 71 179 209 
211 -0.14454449909040099 -0.0679190359376377 1.1262105009220462 0 0 0 0.23 3 109 44 31 179 210 
212 -0.48998260267452065 -0.0790921964878187 1.0213591715203336 0 0 0 0.41 3 110 67 27 71 35 96 43 97 29 179 211 
213 -0.2966983676813838 0.03149407144571682 1.0607355433670735 0 0 0 0.23 3 111 50 57 179 212 
214 -0.2711895755145224 -0.2310790704602141 1.0923677807654277 0 0 0 0.09 3 112 89 25 179 213 
215 -0.2629736507232444 -0.23087118580065308 1.0952736546236044 0 0 0 0.32 3 113 43 18 60 26 67 28 89 26 179 214 
216 -0.12155742634289829 -0.23402996667924167 1.2167304125109306 0 0 0 0.51 3 114 15 12 17 63 60 27 89 27 103 41 179 215 
217 -0.07911636933899237 -0.21916355141402558 1.1665658166857862 0 0 0 0.34 3 115 15 13 17 64 89 28 179 216 
218 -0.04082452394723207 -0.18752380359129084 1.1775235557640942 0 0 0 0.17 3 116 25 29 81 36 89 29 96 44 97 30 179 217 
219 -0.036125813082212944 -0.18293544919155116 1.1751298500894138 0 0 0 0.17 3 117 25 30 81 37 111 72 
220 -0.38862700401964817 -0.13903480373836558 1.046276054544274 0 0 0 0.13 3 118 11 72 17 65 81 38 88 16 179 218 
221 -0.037943043246348084 -0.21685338831948558 1.1781695558900567 0 0 0 0.45 3 119 67 29 179 219 
222 -0.2673619540588402 -0.2200261159545474 1.0941803617357795 0 0 0 0.27 3 120 25 31 60 28 81 39 88 17 89 30 96 45 179 220 
223 -0.33868068323768885 -0.20392226859421442 1.0746340968919286 0 0 0 0.26 3 121 12 20 43 19 89 31 96 46 179 221 
224 -0.4462804314222761 -0.20686624700245757 1.0476389823609058 0 0 0 0.22 3 122 4 66 43 20 67 30 71 36 81 40 96 47 179 222 
225 -0.27676916468177615 -0.18900364071576511 1.093731855786657 0 0 0 0.44 3 123 17 66 50 58 67 31 89 32 179 223 
226 -0.07219938379993857 -0.1672871582376558 1.1621051925317853 0 0 0 0.23 3 124 4 67 60 29 65 31 89 33 103 42 111 73 179 224 
227 -0.5134039190157589 -0.17003019873518174 1.029032262048217 0 0 0 0.26 3 125 4 68 65 32 81 41 179 225 
228 -0.07202845080605251 -0.11396054259775293 1.1550685242796004 0 0 0 0.31 3 126 15 14 25 32 179 226 
229 -0.027626193630428432 -0.0670875249768661 1.1739066342485964 0 0 0 0.23 3 127 89 34 97 31 179 227 
230 -0.3158194993601774 -0.1890723566106342 1.0789801346988968 0 0 0 0.23 3 128 26 38 27 30 33 32 81 42 179 228 
231 -0.21879569259153142 -0.1505064426327753 1.1009620094497452 0 0 0 0.28 3 129 19 23 81 43 111 74 179 229 
232 -0.2679829633046498 -0.2410002126622782 1.09737623234705 0 0 0 0.4 3 130 17 67 25 33 61 51 67 32 71 37 81 44 88 18 111 75 179 230 
233 -0.047002418792852954 -0.16777134057032983 1.1720147709760038 0 0 0 0.3 3 131 43 21 60 30 92 16 111 76 179 231 
234 -0.04697175191363181 -0.16754836998450143 1.17150325468334 0 0 0 0.31 3 132 12 21 19 24 60 31 61 52 65 33 92 17 96 48 103 43 111 77 179 232 
235 -0.11634746619208719 -0.2404343055417241 1.2375216754249934 0 0 0 0.45 3 133 97 32 179 233 
236 -0.06732705462275602 -0.22090241893607057 1.1611149669028107 0 0 0 0.38 3 134 15 15 43 22 81 45 179 234 
237 -0.43599719789491226 -0.18252207748388322 1.0487127634581934 0 0 0 0.48 3 135 61 53 96 49 97 33 103 44 111 78 179 235 
238 -0.032611270017870765 -0.16787170173696933 1.1709472319284298 0 0 0 0.25 3 136 60 32 179 236 
239 -0.30545686260299487 0.00430095230362293 1.0596908083491834 0 0 0 0.38 3 137 27 31 50 59 81 46 111 79 179 237 
240 -0.10575058956898442 -0.23893534407482828 1.1918474651761246 0 0 0 0.27 4 69 15 16 17 68 179 238 
241 -0.45898527882338275 -0.17792808299117718 1.0408182582462044 0 0 0 0.17 4 70 61 54 179 239 
242 -0.401389716782138 -0.15023580422084432 1.0520137959420077 0 0 0 0.13 4 71 11 73 77 32 179 240 
243 -0.39789155436409185 -0.15006720983671037 1.0528745741539263 0 0 0 0.36 4 72 11 74 179 241 
244 -0.3444044419733018 -0.08288388114106246 1.0602184685017855 0 0 0 0.14 4 73 21 15 27 32 44 32 77 33 179 242 
245 -0.5306889535229764 -0.19669026633253897 1.0278968654019833 0 0 0 0.28 4 74 17 69 50 60 103 45 179 243 
246 -0.5132684391285379 -0.17746938075576857 1.031402737427551 0 0 0 0.2 4 75 50 61 61 55 96 50 103 46 179 244 
247 -0.4159115337022367 -0.15048281844556663 1.0486003462417812 0 0 0 0.22 4 76 33 33 44 33 111 80 179 245 
248 -0.4143731448176025 -0.14829143693790545 1.0501582172287809 0 0 0 0.37 4 77 33 34 92 18 179 246 
249 -0.4058503676628671 -0.147577917404222 1.0493227920064683 0 0 0 0.37 4 78 19 25 21 16 27 33 33 35 44 34 61 56 77 34 92 19 97 34 179 247 
250 -0.44413882763890544 -0.14909304246703095 1.0405147829483172 0 0 0 0.19 4 79 11 75 17 70 27 34 33 36 44 35 50 62 77 35 179 248 
251 -0.385372846868509 -0.12553209347553024 1.0528780676920535 0 0 0 0.18 4 80 17 71 111 81 179 249 
252 -0.42516799433980773 -0.09564851352749577 1.0432200690708606 0 0 0 0.3 4 81 50 63 179 250 
253 -0.3159121083479066 -0.08268404211965724 1.0701040343504051 0 0 0 0.26 4 82 11 76 179 251 
254 -0.45718826873492063 -0.15465944204165263 1.0374051500781316 0 0 0 0.19 4 83 17 72 21 17 71 38 179 252 
255 -0.5216910899771945 -0.15169160745642266 1.0196538614772217 0 0 0 0.37 4 84 17 73 50 64 65 34 179 253 
256 -0.5177686902046685 -0.1480234476071916 1.0228175542419833 0 0 0 0.28 17 74 21 18 43 23 61 57 92 20 179 254 
257 -0.36095100458013535 -0.08979606109812308 1.0598165276113585 0 0 0 0.28 4 85 50 65 61 58 77 36 96 51 103 47 179 255 
258 -0.456146223765506 -0.08283012803819348 1.0320187697973693 0 0 0 0.37 4 86 11 77 17 75 50 66 96 52 179 256 
259 -0.12029116205014245 -0.014979170190793433 1.1283261434171343 0 0 0 0.1 4 87 15 17 50 67 61 59 179 257 
260 -0.43724734536017956 -0.1974491025889392 1.0472627857461976 0 0 0 0.27 4 88 19 26 44 36 61 60 96 53 111 82 179 258 
261 -0.0728639358748071 -0.17731030939728137 1.1603979909211755 0 0 0 0.24 4 89 61 61 111 83 179 259 
262 -0.44746147274092934 -0.09349618020571468 1.0377907099306394 0 0 0 0.32 4 90 11 78 179 260 
263 -0.5232851808737892 -0.18485063431257168 1.0249995538041339 0 0 0 0.35 4 91 17 76 25 34 67 33 103 48 111 84 179 261 
264 -0.4006135788825133 -0.08264367414231413 1.0497979395803283 0 0 0 0.18 4 92 11 79 50 68 111 85 179 262 
265 -0.2865355454483006 -0.08842627598503242 1.0775790776820182 0 0 0 0.36 4 93 11 80 25 35 38 15 50 69 71 39 77 37 81 47 111 86 179 263 
266 -0.28660874705024636 -0.08854961717951994 1.0775909900059852 0 0 0 0.24 27 35 50 70 71 40 81 48 111 87 179 264 
267 -0.05915906541207395 -0.06944139779894155 1.156884183031641 0 0 0 0.47 4 94 103 49 179 265 
268 -0.08167498399963065 -0.1355475684318689 1.1523294597236362 0 0 0 0.58 4 95 19 27 25 36 26 39 60 33 111 88 179 266 
269 -0.3447498506993086 -0.11508479016888037 1.0651128888352668 0 0 0 0.35 4 96 11 81 26 40 50 71 71 41 77 38 81 49 179 267 
270 -0.3815442877293397 -0.11592104663835547 1.055179094023635 0 0 0 0.45 4 97 11 82 81 50 97 35 111 89 179 268 
271 -0.06567580350129687 -0.0950533347990507 1.159817854607329 0 0 0 0.21 4 98 26 41 179 269 
272 -0.3257784261068531 -0.10858533203329372 1.070457402563926 0 0 0 0.48 4 99 12 22 26 42 50 72 179 270 
273 -0.32584905559483224 -0.10857080552244545 1.0705020521947057 0 0 0 0.49 4 100 26 43 50 73 81 51 179 271 
274 -0.03589288211669119 -0.22062810751530318 1.202104180363711 0 0 0 0.4 11 83 17 77 179 272 
275 -0.17569933458460107 -0.07710103402242095 1.1119230893786387 0 0 0 0.23 11 84 27 36 33 37 44 37 179 273 
276 -0.2694500045736412 -0.2161016078142773 1.0919273288624012 0 0 0 0.29 11 85 33 38 61 62 179 274 
277 -0.30562640776773936 -0.19676432795429727 1.0818628719945553 0 0 0 0.18 11 86 27 37 77 39 179 275 
278 -0.11761323580651652 -0.16335563128347366 1.1417720105016556 0 0 0 0.16 11 87 111 90 179 276 
279 -0.48508729686193813 -0.15080446763503785 1.0219645770573582 0 0 0 0.33 11 88 17 78 50 74 179 277 
280 -0.45539822196149726 -0.15102857798652586 1.0340968262890797 0 0 0 0.32 11 89 111 91 179 278 
281 -0.33695614912062244 -0.14640507944999434 1.0681290776672625 0 0 0 0.18 11 90 21 19 179 279 
282 -0.3106148072039211 -0.14522803230191142 1.0733197177320526 0 0 0 0.18 11 91 17 79 33 39 44 38 60 34 103 50 179 280 
283 -0.4865042841284526 -0.14492513532284848 1.0152928291478263 0 0 0 0.44 11 92 12 23 179 281 
284 -0.2709441808787389 -0.14145984815633875 1.0808201124383672 0 0 0 0.31 11 93 17 80 61 63 96 54 111 92 179 282 
285 -0.11041175190783172 -0.1401096621617096 1.1420981919704483 0 0 0 0.1 11 94 27 38 60 35 179 283 
286 -0.005071269233424868 -0.13288646881689825 1.184307715196154 0 0 0 0.49 11 95 43 24 179 284 
287 -0.3393451953347693 -0.07997111756826787 1.0629875181007553 0 0 0 0.18 11 96 50 75 61 64 96 55 179 285 
288 -0.10547391404364273 -0.07533244727627417 1.1401365452228343 0 0 0 0.15 11 97 27 39 179 286 
289 -0.4200459429140428 0.03517972023508333 1.0270072413277904 0 0 0 0.52 11 98 17 81 27 40 33 40 44 39 77 40 179 287 
290 -0.35604981723515233 -0.18589189410769397 1.0592172701957603 0 0 0 0.56 11 99 27 41 71 42 179 288 
291 -0.2292279423987992 -0.16253629885326895 1.0979472569835897 0 0 0 0.33 11 100 19 28 27 42 33 41 60 36 61 65 71 43 96 56 179 289 
292 -0.5036253076216098 -0.154223221549336 1.0369124325683974 0 0 0 0.38 11 101 17 82 65 35 179 290 
293 -0.4780329418896337 -0.14924653455337708 1.0304048885622459 0 0 0 0.3 11 102 19 29 21 20 27 43 33 42 67 34 77 41 96 57 103 51 111 93 179 291 
294 0.005532481237547878 -0.1323979368260429 1.1879507418784043 0 0 0 0.23 11 103 19 30 27 44 179 292 
295 0.005540617226190105 -0.13241132774201403 1.188118921189511 0 0 0 0.25 11 104 19 31 27 45 29 14 179 293 
296 -0.01778836401703228 -0.1895755912821311 1.189634549181087 0 0 0 0.13 11 105 43 25 179 294 
297 0.018676796194042344 -0.1616953624301509 1.1894936650549686 0 0 0 0.28 11 106 15 18 179 295 
298 -0.35012494860191035 -0.029374043711020686 1.0521746432293333 0 0 0 0.14 11 107 17 83 25 37 50 76 179 296 
299 -0.4474667681322011 -0.10795893305768688 1.0386039111162415 0 0 0 0.3 11 108 81 52 179 297 
300 -0.13638779810077298 -0.07175139203600517 1.130106379463266 0 0 0 0.12 11 109 89 35 179 298 
301 -0.3372039743295549 -0.10066819200841665 1.0697740283082675 0 0 0 0.25 11 110 26 44 179 299 
302 -0.08106201584754691 -0.13539364118954827 1.1499964058876728 0 0 0 1.02 11 111 97 36 179 300 
303 -0.3172279668859876 -0.1035780545334703 1.0697060154028981 0 0 0 0.65 11 112 88 19 179 301 
304 -0.3818329073999987 -0.11601284830822142 1.0556855438439696 0 0 0 0.47 11 113 111 94 179 302 
305 -0.3053768278488329 -0.1146003207710867 1.0747314331038125 0 0 0 0.21 11 114 26 45 33 43 38 16 88 20 179 303 
306 -0.3054060000539451 -0.08626437710436473 1.0738009810412037 0 0 0 0.62 11 115 89 36 179 304 
307 -0.4931840003930939 -0.20465017520609058 1.0542205437674603 0 0 0 0.74 12 24 50 77 179 305 
308 -0.17544035047526516 -0.10925838262520181 1.1143077568207989 0 0 0 0.12 12 25 29 15 179 306 
309 -0.4009854291498486 -0.10886726130109318 1.0547420437037998 0 0 0 0.33 12 26 67 35 179 307 
310 -0.030033374905942312 -0.18124241426836474 1.1760654121801815 0 0 0 0.26 15 19 111 95 179 308 
311 -0.1685431631972702 -0.07780718691897018 1.1153448349979138 0 0 0 0.17 15 20 17 84 25 38 29 16 179 309 
312 -0.07405530706277187 -0.10692118137283906 1.1636453577395596 0 0 0 0.19 15 21 97 37 179 310 
313 -0.044658030537773785 -0.192543219744556 1.176658711745971 0 0 0 0.39 15 22 60 37 61 66 96 58 179 311 
314 -0.08266621133158189 -0.1976792143809879 1.1747403674837549 0 0 0 0.19 15 23 89 37 96 59 179 312 
315 -0.20601678651481725 -0.1078224022084068 1.1043989883657412 0 0 0 0.3 15 24 26 46 38 17 77 42 179 313 
316 -0.4269611455714438 -0.09800983007302301 1.0429241338615205 0 0 0 0.15 17 85 92 21 179 314 
317 -0.43061629587701644 -0.09811565627474692 1.0429092311861738 0 0 0 0.08 17 86 50 78 179 315 
318 -0.29304843954301474 -0.1892171072680072 1.0938469694393098 0 0 0 2.11 60 38 179 316 
319 -0.3610437772714545 -0.08542997228637979 1.060252582113081 0 0 0 0.32 27 46 61 67 65 36 67 36 81 53 96 60 111 96 179 317 
320 -0.01785230318132168 -0.1314090004098891 1.177415523637151 0 0 0 0.71 19 32 60 39 65 37 111 97 179 318 
321 -0.3245950260046953 -0.2308410357075353 1.083710889265047 0 0 0 0.45 17 87 60 40 103 52 179 319 
322 -0.03392086927237578 -0.21758554063359753 1.1834232166361283 0 0 0 0.4 17 88 60 41 179 320 
323 -0.3755376756336092 -0.09319073564362274 1.0627166270953514 0 0 0 0.36 17 89 50 79 179 321 
324 -0.24038166975300737 -0.027718874299641618 1.0808323494793983 0 0 0 0.26 17 90 19 33 25 39 179 322 
325 -0.3282763080248345 -0.23025809821076423 1.0790381450967124 0 0 0 0.37 17 91 103 53 179 323 
326 0.26153969345275124 -0.09829674057400438 1.1556446745311304 0 0 0 0.32 17 92 67 37 179 324 
327 -0.22889340441921005 0.01799691985174093 1.0827754985824674 0 0 0 0.28 17 93 25 40 29 17 61 68 179 325 
328 -0.10825399735039812 -0.06998751410448939 1.1374884747854392 0 0 0 0.44 17 94 89 38 179 326 
329 -0.3222968412488336 -0.1969129067723275 1.0757471675617067 0 0 0 0.41 17 95 19 34 25 41 27 47 60 42 61 69 65 38 67 38 71 44 81 54 88 21 89 39 96 61 103 54 179 327 
330 0.2622934060659401 -0.06845541019963139 1.1801038877098273 0 0 0 0.31 17 96 61 70 89 40 179 328 
331 0.26246437913575793 -0.06236767909333034 1.180747294103078 0 0 0 0.31 17 97 61 71 89 41 179 329 
332 0.26418982066871477 -0.037042962392948325 1.1390170699212716 0 0 0 0.3 17 98 67 39 179 330 
333 -0.286095644317306 -0.14419564579059857 1.0782591680598743 0 0 0 0.41 19 35 77 43 179 331 
334 -0.4308057968838069 -0.15090747574161578 1.0435892681643923 0 0 0 0.09 19 36 21 21 179 332 
335 -0.4746248965808127 -0.15150122032012067 1.031578623837055 0 0 0 0.19 19 37 44 40 67 40 96 62 111 98 179 333 
336 -0.3018569421393771 0.035977016365621804 1.0571462810839327 0 0 0 0.29 19 38 44 41 179 334 
337 -0.232894179851864 0.0516352653790512 1.0757798979470798 0 0 0 0.31 19 39 27 48 179 335 
338 -0.033317090892574244 -0.15038645012162505 1.1685465961032964 0 0 0 0.07 19 40 111 99 179 336 
339 -0.08180769074027323 -0.14263491218598565 1.1539175906700634 0 0 0 0.11 19 41 96 63 111 100 179 337 
340 -0.3428222067220549 -0.16023705885686645 1.0644456479973923 0 0 0 0.21 19 42 21 22 111 101 179 338 
341 -0.20810325023271548 -0.1385997641552816 1.1048880983514846 0 0 0 0.05 19 43 111 102 179 339 
342 -0.42999041878044575 -0.15376542189870482 1.0443720361481512 0 0 0 0.32 19 44 21 23 179 340 
343 -0.0027088398355552164 -0.07597202813785396 1.1798617336700112 0 0 0 0.38 19 45 96 64 111 103 179 341 
344 -0.3035798439415039 0.054886886435920816 1.0550859605021763 0 0 0 0.12 19 46 44 42 179 342 
345 -0.30636349412930186 0.057915075275768786 1.054122268799593 0 0 0 0.17 19 47 33 44 50 80 179 343 
346 -0.21787011964372693 -0.15603632412679727 1.1035787315781598 0 0 0 0.38 19 48 26 47 44 43 50 81 60 43 96 65 179 344 
347 -0.22475896208130375 0.017757365856174004 1.0868038241830933 0 0 0 0.31 19 49 33 45 179 345 
348 -0.301965249507192 0.040501693246587485 1.0558135358097824 0 0 0 0.3 19 50 33 46 44 44 179 346 
349 -0.20528889735286834 -0.18389457452041336 1.1081182543702917 0 0 0 0.11 19 51 43 26 60 44 111 104 179 347 
350 -0.27338074864997564 -0.17590548613997073 1.0851571180767567 0 0 0 0.32 19 52 60 45 81 55 88 22 92 22 179 348 
351 -0.38116451704983856 -0.17834131980294404 1.0607315794984167 0 0 0 0.26 19 53 81 56 88 23 103 55 111 105 179 349 
352 -0.3811522888316746 -0.17845056993966063 1.0607440787692373 0 0 0 0.23 19 54 43 27 81 57 88 24 111 106 179 350 
353 -0.03312332889247727 -0.13232412417033154 1.1701652746080913 0 0 0 0.34 19 55 81 58 111 107 179 351 
354 -0.06377831116906513 -0.1336835601988002 1.1578527571941015 0 0 0 0.19 19 56 81 59 179 352 
355 -0.3822600577044482 -0.1483299443710251 1.053943497122672 0 0 0 0.37 19 57 43 28 111 108 179 353 
356 -0.34583845601236435 -0.12405389848262825 1.0644146786375357 0 0 0 0.13 21 24 33 47 179 354 
357 -0.5231150620547078 -0.14866816051179135 1.0222531912850903 0 0 0 0.3 21 25 96 66 111 109 179 355 
358 -0.028754916002440147 -0.1995542270100489 1.1777163883442763 0 0 0 0.38 25 42 96 67 179 356 
359 -0.11329764570036063 -0.13790008841736762 1.1418191529014907 0 0 0 0.24 25 43 96 68 179 357 
360 -0.24399749432652976 -0.07753394079289808 1.0885119802777097 0 0 0 0.24 25 44 33 48 179 358 
361 -0.3387106435611556 -0.02950303039669208 1.0552035873882557 0 0 0 0.34 26 48 89 42 111 110 179 359 
362 -0.09235955078983529 -0.139815678462386 1.153448430733538 0 0 0 0.33 27 49 29 18 103 56 179 360 
363 -0.016992368931658005 -0.18235212383464633 1.1847089264703494 0 0 0 0.31 27 50 61 72 111 111 179 361 
364 -0.3613812405714376 -0.09261248508601817 1.054962677869512 0 0 0 0.24 27 51 111 112 179 362 
365 -0.460046988986364 -0.1489961018897804 1.037387952303379 0 0 0 0.24 33 49 50 82 179 363 
366 -0.23426451213194702 -0.13283512334022352 1.0931817080152235 0 0 0 0.27 33 50 71 45 179 364 
367 -0.07289489174890777 -0.17003922358086937 1.1600503634577999 0 0 0 0.32 38 18 89 43 111 113 179 365 
368 -0.079292991288278 -0.24383590765845037 1.1661780132587571 0 0 0 0.17 43 29 44 45 179 366 
369 -0.00578420720262835 -0.1328755130369935 1.1863293848815633 0 0 0 0.06 43 30 67 41 179 367 
370 -0.41807223692591994 -0.17159192041842547 1.0478469963989265 0 0 0 0.21 43 31 81 60 111 114 179 368 
371 -0.24553830512871538 -0.16585781113149908 1.0932082155368075 0 0 0 0.03 43 32 44 46 71 46 179 369 
372 -0.17966757984320386 -0.08382440715953289 1.112337015492369 0 0 0 0.6 44 47 61 73 179 370 
373 -0.43733061596532474 0.019444537157922357 1.0280064836243845 0 0 0 0.35 44 48 61 74 92 23 179 371 
374 -0.3367956300376575 -0.07983157974240329 1.0644219673225053 0 0 0 0.08 44 49 50 83 179 372 
375 -0.012802599755075932 -0.017223686453974464 1.1676097862471346 0 0 0 0.16 44 50 61 75 96 69 179 373 
376 -0.2789243523419602 -0.09204481148842296 1.0780929817863267 0 0 0 0.25 50 84 60 46 179 374 
377 -0.24045671700829738 0.03222627388094716 1.0753385410622147 0 0 0 0.36 50 85 61 76 179 375 
378 -0.43612411361059655 -0.15090740354995244 1.0435352582645336 0 0 0 0.15 50 86 96 70 179 376 
379 -0.4595709091811327 -0.09689954175285537 1.0324211319040137 0 0 0 0.19 50 87 61 77 179 377 
380 -0.07477215618578324 -0.1462201982891944 1.151135933018986 0 0 0 0.7 50 88 60 47 111 115 179 378 
381 -0.38086711124316025 -0.1894313499174566 1.0612126822433996 0 0 0 0.32 60 48 67 42 96 71 97 38 103 57 111 116 179 379 
382 -0.10762712612264873 -0.1374216365766006 1.1426983082312305 0 0 0 0.1 60 49 96 72 179 380 
383 -0.3501293245816013 -0.178302902414219 1.0664154791998146 0 0 0 0.04 103 58 111 117 179 381 
384 -0.2497832696686961 0.028010020567095097 1.0744259639884055 0 0 0 0.09 81 61 89 44 179 382 
385 -0.29991008184775714 -0.1770683462617853 1.0850498387093326 0 0 0 0.43 60 50 111 118 179 383 
386 -0.2410158551097655 -0.18192444974293695 1.0970673522766166 0 0 0 0.76 60 51 67 43 92 24 179 384 
387 -0.04980647067015255 -0.10409147752671236 1.166228628494394 0 0 0 0.43 60 52 111 119 179 385 
388 -0.3175772601741203 -0.21160125235614685 1.078864670780009 0 0 0 0.25 61 78 103 59 179 386 
389 0.2623527605707738 -0.0682707701741724 1.1803895506742148 0 0 0 0.2 61 79 89 45 179 387 
390 -0.03394941819682226 -0.22296676454315636 1.1845756887458991 0 0 0 0.13 65 39 67 44 111 120 179 388 
391 -0.38126082277148615 -0.1897926680228727 1.0621191560969032 0 0 0 0.18 65 40 67 45 97 39 111 121 179 389 
392 -0.4344850541739229 -0.18989957902190485 1.0501632747156842 0 0 0 0.11 67 46 88 25 179 390 
393 -0.23495393197291956 -0.14889449218727702 1.0973307220436304 0 0 0 0.14 67 47 96 73 179 391 
394 -0.11498663883837738 -0.24176412022158558 1.20875469073295 0 0 0 0.44 71 47 97 40 111 122 179 392 
395 -0.21030941839741454 -0.1625339944856586 1.1049228106250988 0 0 0 0.14 71 48 96 74 103 60 179 393 
396 -0.36377505520262066 -0.09038371092519816 1.058341866966308 0 0 0 0.14 81 62 111 123 179 394 
397 -0.3141978852312841 -0.07889047824189631 1.0667831050136933 0 0 0 0.13 81 63 88 26 179 395 
398 -0.1227390849609937 -0.23459423429438758 1.2210669430056205 0 0 0 0.45 89 46 97 41 103 61 179 396 
399 -0.1833176419575554 -0.1648584839172922 1.1136655265177176 0 0 0 0.49 89 47 96 75 179 397 
400 -0.19103366119352763 -0.13984514583486965 1.1074107192607243 0 0 0 0.09 89 48 96 76 179 398 
401 -0.08000348869536414 -0.1363334098540141 1.1519954064504874 0 0 0 0.22 89 49 111 124 179 399 
402 -0.08272488917817848 -0.013050563296600665 1.1382433965964625 0 0 0 0.39 92 25 96 77 179 400 
403 -0.22228217784493073 -0.17655216632274195 1.1046154734558304 0 0 0 0.66 92 26 96 78 111 125 179 401 
404 -0.11243052132000945 -0.07533856747871331 1.1383642792222437 0 0 0 0.04 96 79 103 62 179 402 
405 -0.01769756113700027 -0.18952081808088206 1.1876729144584575 0 0 0 0.21 96 80 97 42 179 403 
406 -0.4351144358151437 -0.18197179967315957 1.0474708284413883 0 0 0 0.27 103 63 111 126 179 404 
