# 3D point list with one line of data per point:
#   POINT3D_ID, X, Y, Z, R, G, B, ERROR, TRACK[] as (IMAGE_ID, POINT2D_IDX)
# Number of points: 369, mean track length: 9.06
3280 0.4372897777533016 0.2704822211137567 1.1635232629451002 0 0 0 0.33 4 1692 16 506 28 323 
3281 0.5523542234320055 0.25271962834423856 1.1315713616210659 0 0 0 0.14 4 1693 109 455 148 866 110 420 
3282 0.8146589265741523 0.21297230844919 1.0676145716507603 0 0 0 0.44 4 1694 33 1295 40 545 52 393 60 540 85 650 136 419 148 867 
3283 0.5026429431489138 0.261787879712035 1.1450445545289212 0 0 0 0.26 4 1695 60 541 136 420 
3284 0.572311298167214 0.2502903191985341 1.124201195616725 0 0 0 0.34 4 1696 16 507 38 411 60 542 109 456 9 923 11 1438 19 690 27 1063 33 1296 36 495 40 546 41 320 44 1341 50 1540 52 394 61 963 77 1151 91 316 92 830 93 355 96 605 111 638 136 421 179 205 176 289 219 207 42 139 164 476 185 166 196 353 
3285 0.5249092360488078 0.25819429984375264 1.13770738720598 0 0 0 0.38 4 1697 9 924 11 1439 16 508 27 1064 28 324 44 1342 50 1541 93 356 124 427 146 896 148 868 33 1297 
3286 0.7618719309097861 0.22057038853533567 1.0740353054324863 0 0 0 0.18 2 2307 4 1698 11 1440 33 1298 92 831 148 869 40 547 42 140 
3287 0.5652582891540412 0.25145013496778074 1.124674167295272 0 0 0 0.16 4 1699 11 1441 16 509 38 412 44 1343 50 1542 52 395 60 543 85 651 92 832 93 357 109 457 124 428 136 422 146 897 27 1065 28 325 33 1299 40 548 41 321 91 317 96 606 103 410 127 472 128 557 148 870 14 143 126 405 204 271 219 208 222 195 227 190 179 206 
3288 0.725895842786042 0.22666270059714103 1.0837416916255813 0 0 0 0.11 4 1700 77 1152 148 871 
3289 0.2935864675494092 0.301573236202814 1.222210126417831 0 0 0 0.31 4 1701 11 1442 33 1300 44 1344 50 1543 61 964 92 833 113 153 146 898 32 613 36 496 109 458 
3290 0.33572689052249255 0.2938245367989408 1.2055833400326572 0 0 0 0.12 4 1702 28 326 33 1301 
3291 0.5055722164269539 0.2620858792693641 1.141696389810787 0 0 0 0.2 4 1703 11 1443 16 510 33 1302 38 413 41 322 44 1345 60 544 92 834 93 358 109 459 136 423 146 899 148 872 28 327 27 1066 179 207 128 558 158 173 176 290 164 477 229 132 
3292 0.48094948582537544 0.2663564233372884 1.1485384394718632 0 0 0 0.46 4 1704 33 1303 52 396 60 545 77 1153 93 359 136 424 148 873 
3293 0.5233241941458061 0.2598358740738185 1.1379179964252202 0 0 0 0.17 4 1705 16 511 33 1304 38 414 52 397 109 460 124 429 
3294 0.6843871920508814 0.23359905722844201 1.0921173059975553 0 0 0 0.13 4 1706 33 1305 52 398 91 318 105 281 148 874 9 925 38 415 85 652 109 461 
3295 0.7583823841318917 0.22398529439659295 1.077694928368069 0 0 0 0.1 4 1707 11 1444 61 965 
3296 0.44939892812700827 0.2723756573626495 1.1576885773704253 0 0 0 0.15 9 926 11 1445 15 411 33 1306 44 1346 61 966 85 653 92 835 93 360 109 462 112 21 50 1544 
3297 0.6446931827799393 0.24176342778710253 1.1053183026823166 0 0 0 0.28 4 1708 38 416 41 323 52 399 60 546 
3298 0.5285090506704483 0.2609371544189828 1.1367317322412014 0 0 0 0.28 4 1709 19 691 32 614 38 417 44 1347 93 361 124 430 146 900 
3299 0.5429678600020513 0.2584499217478739 1.1315647888134832 0 0 0 0.38 4 1710 11 1446 12 369 16 512 29 284 32 615 33 1307 36 497 38 418 41 324 44 1348 50 1545 52 400 60 547 61 967 77 1154 85 654 96 607 97 320 118 1010 124 431 127 473 136 425 146 901 
3300 0.3545255684585443 0.2919361600035719 1.1952050306167172 0 0 0 0.12 4 1711 11 1447 27 1067 28 328 33 1308 41 325 44 1349 50 1546 77 1155 128 559 136 426 146 902 60 548 21 200 157 228 164 478 176 291 213 392 179 208 227 191 
3301 0.42957797978595214 0.27750378401656023 1.1642215805200216 0 0 0 0.34 2 2308 3 1000 4 1712 9 927 11 1448 15 412 16 513 19 692 27 1068 28 329 32 616 33 1309 38 419 41 326 44 1350 50 1547 60 549 77 1156 85 655 92 836 103 411 109 463 127 474 128 560 136 427 146 903 148 875 25 481 126 406 147 217 159 287 223 59 142 246 214 91 196 354 213 393 
3302 0.6206856508184815 0.24627741680297055 1.1100072983355023 0 0 0 0.26 4 1713 11 1449 28 330 50 1548 91 319 146 904 
3303 0.33625096139661764 0.2967898475149092 1.204805538338358 0 0 0 0.29 4 1714 41 327 44 1351 52 401 61 968 93 362 146 905 
3304 0.29220488147766593 0.30565792956261534 1.221538311988438 0 0 0 0.08 4 1715 11 1450 33 1310 41 328 50 1549 93 363 113 154 146 906 
3305 0.5616849146621744 0.25706498353701507 1.1231044122106388 0 0 0 0.34 4 1716 16 514 28 331 38 420 
3306 0.4593912250015655 0.2756473216057335 1.1585765484073483 0 0 0 0.18 4 1717 9 928 38 421 44 1352 77 1157 92 837 135 75 
3307 0.47046219101833053 0.2734585071519838 1.154425273911512 0 0 0 0.24 2 2309 4 1718 11 1451 16 515 32 617 36 498 38 422 50 1550 61 969 69 265 146 907 
3308 0.8058867581221408 0.22028108755400244 1.0631919324433503 0 0 0 0.43 4 1719 11 1452 33 1311 
3309 0.5291978069746868 0.264507483184593 1.135885016207018 0 0 0 0.17 4 1720 44 1353 92 838 146 908 
3310 0.4037566320041406 0.28630686494329505 1.1764077750663877 0 0 0 0.3 4 1721 11 1453 92 839 146 909 
3311 0.40908113941862406 0.28545073020392037 1.1754684145760501 0 0 0 0.13 4 1722 92 840 136 428 
3312 0.4115495286506766 0.2845502651798093 1.1727271547505351 0 0 0 0.14 4 1723 36 499 92 841 146 910 
3313 0.6791011844036361 0.24106780039147527 1.0948538987862788 0 0 0 0.23 4 1724 11 1454 146 911 
3314 0.48506366389529665 0.27274022898532563 1.147812059320511 0 0 0 0.12 4 1725 103 412 146 912 
3315 0.4446151553791864 0.27951374927139344 1.1614586433256844 0 0 0 0.28 4 1726 11 1455 16 516 146 913 
3316 0.20240895315184976 0.32865201964088014 1.260881969611178 0 0 0 0.37 2 2310 4 1727 50 1551 
3317 0.536704735836313 0.2642438777747725 1.1289800076121421 0 0 0 0.41 4 1728 16 517 146 914 148 876 
3318 0.3551544026966095 0.29723407432916304 1.1936589134197981 0 0 0 0.12 4 1729 11 1456 16 518 
3319 0.4709009408614646 0.27709333053919527 1.153358583986564 0 0 0 0.29 2 2311 4 1730 110 421 146 915 
3320 0.5080437857002501 0.2700767523372859 1.1396392920085707 0 0 0 0.13 4 1731 33 1312 50 1552 
3321 0.3626660254300828 0.2972287917445253 1.1927722362409652 0 0 0 0.14 4 1732 11 1457 146 916 
3322 0.42474148778067655 0.2831125887499765 1.1607389359803597 0 0 0 0.28 4 1733 38 423 41 329 146 917 
3323 0.4364252622602046 0.2819520649532094 1.1603087899433613 0 0 0 0.47 4 1734 16 519 128 561 
3324 0.33073210567936334 0.30408534791445174 1.2059134013693555 0 0 0 0.07 4 1735 11 1458 146 918 
3325 0.41758074046781946 0.28473032588224 1.1617383629895104 0 0 0 0.18 4 1736 16 520 50 1553 146 919 
3326 0.2962898194669502 0.31274586114538505 1.2184824414121747 0 0 0 0.23 4 1737 11 1459 50 1554 113 155 146 920 
3327 0.24039241962879151 0.32509313897683445 1.2445807484158204 0 0 0 0.19 4 1738 11 1460 110 422 
3328 0.24762181012626908 0.3241144636429203 1.24289751308307 0 0 0 0.52 4 1739 11 1461 43 539 50 1555 53 671 146 921 
3329 0.8194731543158067 0.22769217831814928 1.0617472715227032 0 0 0 0.33 4 1740 29 285 62 123 71 601 
3330 0.8519897064002533 0.22700848060985296 1.0675842070364687 0 0 0 0.32 4 1741 11 1462 15 413 17 1104 40 549 44 1354 61 970 77 1158 91 320 92 842 105 282 110 423 118 1011 50 1556 196 355 
3331 0.24929459623164082 0.3250051208892651 1.2411951255353926 0 0 0 0.07 4 1742 50 1557 113 156 
3332 0.34109081241799516 0.3074392061851725 1.2022048049063152 0 0 0 0.14 4 1743 11 1463 17 1105 77 1159 
3333 0.3609195227898264 0.30256124269293333 1.1898582914308276 0 0 0 0.26 4 1744 11 1464 16 521 17 1106 146 922 85 656 126 407 
3334 0.6439246845577762 0.25501576108029794 1.101249163290024 0 0 0 0.1 4 1745 9 929 92 843 
3335 0.677999437772855 0.25001273002860047 1.0920669533283491 0 0 0 0.17 4 1746 44 1355 93 364 
3336 0.2797772720695305 0.32156383808419703 1.2278943352863232 0 0 0 0.11 4 1747 11 1465 50 1558 
3337 0.26905375820342703 0.32374148411067166 1.2288385983663623 0 0 0 0.25 4 1748 44 1356 52 402 85 657 109 464 
3338 0.6452507205603703 0.2571075119177153 1.1000700878560405 0 0 0 0.27 4 1749 9 930 33 1313 44 1357 60 550 85 658 91 321 92 844 110 424 148 877 126 408 159 288 163 80 52 403 142 247 136 429 
3339 0.3413577581945275 0.3107369616892922 1.2015420327964026 0 0 0 0.16 4 1750 11 1466 17 1107 43 540 77 1160 92 845 96 608 
3340 0.8826933218541514 0.23202947632691595 1.0709424515755512 0 0 0 0.47 4 1751 11 1467 85 659 
3341 0.27266592001399 0.32631974523534646 1.2291047328467328 0 0 0 0.1 4 1752 11 1468 113 157 
3342 0.34142617747511883 0.31309631370966073 1.1992574242419693 0 0 0 0.25 4 1753 16 522 77 1161 
3343 0.22715885226595772 0.3347573165968017 1.24179962641441 0 0 0 0.38 4 1754 11 1469 33 1314 50 1559 61 971 146 923 148 878 21 201 60 551 209 155 213 394 
3344 0.8657561435228193 0.23410288636149773 1.06569176991648 0 0 0 0.37 4 1755 11 1470 50 1560 62 124 
3345 0.359242627213146 0.3102340838728339 1.1868551873676092 0 0 0 0.71 4 1756 11 1471 28 332 44 1358 146 924 148 879 
3346 0.853784330234909 0.23590549812806372 1.0636789932902406 0 0 0 0.63 4 1757 19 693 85 660 91 322 136 430 105 283 196 356 
3347 0.8702292823048378 0.2365021272319946 1.0670437715207686 0 0 0 0.53 4 1758 19 694 40 550 85 661 107 315 
3348 0.6407597375886329 0.2644098229512438 1.0999679579795618 0 0 0 0.08 4 1759 44 1359 92 846 
3349 0.6444463392953907 0.2634885201730158 1.0982914926237346 0 0 0 0.14 4 1760 44 1360 77 1162 92 847 
3350 0.8145814868555723 0.23846862153496198 1.0568643536235562 0 0 0 0.63 4 1761 9 931 85 662 110 425 148 880 
3351 0.8171599431745484 0.23851855720408555 1.0576657251986419 0 0 0 0.33 4 1762 11 1472 33 1315 52 404 85 663 148 881 
3352 0.8263343721568487 0.23874598277659276 1.0588865097522764 0 0 0 0.31 4 1763 40 551 85 664 105 284 110 426 148 882 
3353 0.6800666858330603 0.2593023111906172 1.087950347621999 0 0 0 0.11 4 1764 50 1561 146 925 
3354 0.8468223670081338 0.2394940931186173 1.0630760754711766 0 0 0 0.48 4 1765 85 665 110 427 
3355 0.5010273350288799 0.28796040893228225 1.1366259828849685 0 0 0 0.25 4 1766 11 1473 38 424 
3356 0.8781111664789684 0.23975952157431427 1.0675917382477298 0 0 0 0.06 4 1767 11 1474 107 316 
3357 0.6444957935206814 0.26683379245121125 1.096497576388296 0 0 0 0.09 4 1768 44 1361 77 1163 
3358 0.8568004937351839 0.2409730875880415 1.0622076770096003 0 0 0 0.36 4 1769 11 1475 136 431 12 370 35 66 63 324 105 285 
3359 0.33219065527106006 0.32922965486565436 1.1946811898290448 0 0 0 0.19 4 1770 11 1476 17 1108 146 926 
3360 0.6379008666805577 0.27581397430818966 1.0944987251106826 0 0 0 0.28 4 1771 38 425 44 1362 52 405 77 1164 
3361 0.5907132600362281 0.28480063180530585 1.1061909570380462 0 0 0 0.14 4 1772 11 1477 16 523 38 426 146 927 
3362 0.837388327396981 0.25260973793507535 1.0544686321268417 0 0 0 0.37 4 1773 9 932 40 552 85 666 91 323 107 317 110 428 136 432 
3363 0.23985510752786066 0.35122948035783685 1.2330518401211854 0 0 0 0.07 4 1774 11 1478 50 1562 
3364 0.36266181255734226 0.32748495796785293 1.1813138416979136 0 0 0 0.06 4 1775 11 1479 17 1109 
3365 0.30054025697190334 0.3408214025133083 1.2080252975062342 0 0 0 0.3 4 1776 50 1563 146 928 
3366 0.3304183637121393 0.3341093082688804 1.1922875883657544 0 0 0 0.08 4 1777 50 1564 146 929 
3367 0.858906853660605 0.25483978094998055 1.0587203359980741 0 0 0 0.37 4 1778 19 695 85 667 
3368 0.23977696384840133 0.3548164710717647 1.2306510398012593 0 0 0 0.19 2 2312 4 1779 11 1480 17 1110 50 1565 77 1165 
3369 0.38176784408117515 0.3250523151094234 1.1649573740206722 0 0 0 0.39 4 1780 11 1481 16 524 17 1111 27 1069 96 609 146 930 
3370 0.4750029625366832 0.3123949534569628 1.1379734115696527 0 0 0 0.27 4 1781 11 1482 16 525 50 1566 146 931 
3371 0.6907583282247286 0.27532448320543457 1.070794262459609 0 0 0 0.22 4 1782 9 933 16 526 33 1316 38 427 44 1363 50 1567 109 465 110 429 127 475 
3372 0.713012410713448 0.272128120473231 1.0638167872220754 0 0 0 0.5 4 1783 33 1317 50 1568 124 432 
3373 0.3824267165276199 0.32874207156912993 1.1653847247615985 0 0 0 0.24 4 1784 16 527 32 618 33 1318 60 552 146 932 
3374 0.47434875876881355 0.3110794668940954 1.1309439539801356 0 0 0 0.08 4 1785 38 428 146 933 
3375 0.5267947374933467 0.30563519907862624 1.1236178970392072 0 0 0 0.2 4 1786 16 528 77 1166 
3376 0.3948389484753716 0.32654491769813315 1.1584519002259477 0 0 0 0.11 4 1787 11 1483 16 529 146 934 
3377 0.5052890354406749 0.30652855010581115 1.1192412458739283 0 0 0 0.26 4 1788 9 934 11 1484 38 429 41 330 44 1364 50 1569 77 1167 92 848 135 76 136 433 146 935 
3378 0.38403160710820317 0.32933812342395696 1.163169046173187 0 0 0 0.39 4 1789 11 1485 16 530 19 696 27 1070 44 1365 127 476 
3379 0.42352294167568627 0.31988050950016017 1.1417626418088047 0 0 0 0.32 4 1790 11 1486 16 531 33 1319 44 1366 60 553 77 1168 92 849 136 434 146 936 148 883 
3380 0.5928899483058324 0.292742634450691 1.094019405102869 0 0 0 0.31 4 1791 11 1487 33 1320 38 430 50 1570 93 365 146 937 
3381 0.4075606141560423 0.32551469376811815 1.1559732731289794 0 0 0 0.23 4 1792 16 532 146 938 
3382 0.4205297329126736 0.32028106158385894 1.141584894391579 0 0 0 0.32 4 1793 11 1488 16 533 33 1321 44 1367 112 22 136 435 146 939 
3383 0.3749790095916665 0.3338122884918671 1.1727657562775788 0 0 0 0.31 4 1794 16 534 17 1112 
3384 0.6540432790594003 0.28386562802973375 1.0763799425179752 0 0 0 0.19 4 1795 9 935 11 1489 33 1322 38 431 44 1368 85 668 91 324 92 850 93 366 109 466 110 430 136 436 42 141 196 357 
3385 0.7562031553563383 0.2698029097536111 1.054642935925755 0 0 0 0.19 2 2313 4 1796 9 936 11 1490 77 1169 
3386 0.3301790617476199 0.34258872267267704 1.1889615486129734 0 0 0 0.2 4 1797 11 1491 50 1571 146 940 
3387 0.6848457026510713 0.2794303553146414 1.0677868874372938 0 0 0 0.22 4 1798 11 1492 146 941 
3388 0.6973712587430112 0.27979228811463086 1.071199006856928 0 0 0 0.09 4 1799 44 1369 92 851 
3389 0.3329914889400717 0.34328732241645726 1.1907573819736805 0 0 0 0.48 4 1800 19 697 33 1323 44 1370 107 318 146 942 
3390 0.3537848137244411 0.3369393179228847 1.1741622934548899 0 0 0 0.33 4 1801 11 1493 61 972 
3391 0.6909596355434524 0.2800227626724167 1.0688017258034717 0 0 0 0.36 4 1802 19 698 85 669 109 467 148 884 
3392 0.3026822676807171 0.3500410258557341 1.2021671923333759 0 0 0 0.23 4 1803 11 1494 33 1324 92 852 146 943 124 433 148 885 
3393 0.31137295135329307 0.3479780911025917 1.19915026929729 0 0 0 0.29 4 1804 44 1371 53 672 77 1170 
3394 0.6761736250025474 0.28350424361416277 1.0759044254919186 0 0 0 0.15 19 699 38 432 50 1572 52 406 85 670 109 468 136 437 148 886 
3395 0.5370279171069261 0.30430650433647144 1.1098291664490014 0 0 0 0.43 4 1805 28 333 33 1325 44 1372 93 367 
3396 0.4611373625534711 0.31875187623908763 1.137089659964085 0 0 0 0.35 4 1806 16 535 60 554 124 434 148 887 
3397 0.24240826176427344 0.3639644675922202 1.2283768289157972 0 0 0 0.45 4 1807 11 1495 33 1326 127 477 
3398 0.5904809272383171 0.29806449740620505 1.0974871180173003 0 0 0 0.26 4 1808 11 1496 16 536 36 500 44 1373 91 325 135 77 146 944 
3399 0.30892859213370005 0.3497069341711426 1.1963864349170181 0 0 0 0.21 4 1809 11 1497 146 945 
3400 0.5843831573255123 0.2994659164046878 1.1000465330264173 0 0 0 0.17 4 1810 11 1498 38 433 91 326 146 946 
3401 0.3216321610584695 0.34556884515142866 1.1842514578128152 0 0 0 0.15 4 1811 28 334 50 1573 146 947 
3402 0.5015205700242303 0.31357163007639355 1.1236502926239764 0 0 0 0.31 4 1812 11 1499 16 537 28 335 50 1574 61 973 124 435 128 562 146 948 
3403 0.5282993094571665 0.3091784629439284 1.1168419069551256 0 0 0 0.42 4 1813 11 1500 16 538 28 336 33 1327 38 434 
3404 0.6342916944507364 0.292709514948353 1.0841194690760605 0 0 0 0.32 2 2314 4 1814 11 1501 19 700 33 1328 38 435 40 553 44 1374 52 407 60 555 77 1171 85 671 91 327 92 853 103 413 109 469 136 438 146 949 148 888 63 325 25 482 126 409 162 241 164 479 165 117 185 167 196 358 214 92 223 60 235 90 26 371 142 248 
3405 0.30211896521439946 0.35313329986607006 1.1995427273143808 0 0 0 0.16 4 1815 50 1575 146 950 
3406 0.4816110727456131 0.3164879679041342 1.1233325277343524 0 0 0 0.23 4 1816 16 539 38 436 44 1375 146 951 
3407 0.5017916579392944 0.3135524062958694 1.1188825404671983 0 0 0 0.43 92 854 109 470 113 158 
3408 0.5782493652186512 0.3029239632276147 1.1012705099668438 0 0 0 0.09 4 1817 16 540 38 437 
3409 0.5812376193268083 0.3018902476948412 1.0998164726197723 0 0 0 0.22 4 1818 38 438 136 439 9 937 85 672 109 471 
3410 0.5218966367197135 0.31232805280630466 1.1180605866001156 0 0 0 0.11 4 1819 110 431 136 440 146 952 
3411 0.5874772150721935 0.3009687958453478 1.0977984544594248 0 0 0 0.24 4 1820 16 541 33 1329 38 439 50 1576 110 432 146 953 
3412 0.7710665538180336 0.271670546958384 1.0430237930517532 0 0 0 0.5 4 1821 11 1502 33 1330 40 554 44 1376 54 257 85 673 91 328 105 286 107 319 110 433 148 889 63 326 164 480 165 118 235 91 42 142 127 478 136 441 
3413 0.5186610580626234 0.31313438139879174 1.1189026724629239 0 0 0 0.16 4 1822 38 440 110 434 148 890 
3414 0.5301237422003297 0.3097083923750689 1.1110979266121785 0 0 0 0.29 4 1823 9 938 38 441 
3415 0.47458774953339233 0.31938212138424865 1.1267350087341197 0 0 0 0.35 4 1824 28 337 33 1331 38 442 44 1377 92 855 93 368 124 436 135 78 146 954 
3416 0.3879808049383799 0.3347531297068908 1.153661831139921 0 0 0 0.19 4 1825 11 1503 19 701 28 338 33 1332 44 1378 50 1577 77 1172 128 563 146 955 92 856 127 479 93 369 107 320 
3417 0.5446986804046167 0.3088358249762885 1.107675339263412 0 0 0 0.35 4 1826 11 1504 16 542 17 1113 25 483 28 339 38 443 44 1379 50 1578 53 673 103 414 118 1012 124 437 135 79 146 956 19 702 27 1071 33 1333 40 555 41 331 52 408 92 857 93 370 96 610 109 472 127 480 136 442 148 891 42 143 60 556 185 168 196 359 
3418 0.3842026033020926 0.33679631032314283 1.1588906980826146 0 0 0 0.31 4 1827 27 1072 50 1579 124 438 128 564 146 957 
3419 0.6493436753040999 0.2929573934053365 1.078281080194531 0 0 0 0.11 4 1828 33 1334 91 329 
3420 0.6881103315664131 0.2857033834710797 1.0644550852208803 0 0 0 0.18 4 1829 33 1335 136 443 148 892 
3421 0.43570137749148846 0.3279114971566074 1.141505212013371 0 0 0 0.2 4 1830 9 939 33 1336 92 858 124 439 
3422 0.44148260690407326 0.32697087828524923 1.1394787222842115 0 0 0 0.03 4 1831 11 1505 124 440 
3423 0.6838641085419039 0.28743205407485684 1.0680292509148732 0 0 0 0.25 4 1832 9 940 44 1380 77 1173 92 859 
3424 0.5805585189884696 0.30417495019492186 1.09681504726145 0 0 0 0.12 4 1833 44 1381 92 860 
3425 0.3203320772973166 0.3502632405658346 1.1832037711623544 0 0 0 0.32 4 1834 11 1506 50 1580 146 958 
3426 0.3740209667480554 0.341061558726021 1.1663130950982679 0 0 0 0.17 4 1835 9 941 61 974 92 861 110 435 136 444 
3427 0.38271375283873765 0.33819724067994394 1.160258728375807 0 0 0 0.35 4 1836 11 1507 27 1073 28 340 33 1337 44 1382 50 1581 61 975 77 1174 128 565 136 445 
3428 0.4171119870745543 0.32994686853074506 1.1408484386408309 0 0 0 0.38 4 1837 11 1508 27 1074 92 862 124 441 136 446 
3429 0.5133023971054042 0.31528691257203373 1.116447321297091 0 0 0 0.24 4 1838 38 444 92 863 
3430 0.5283558017344524 0.31378615623013667 1.1144915118756864 0 0 0 0.13 4 1839 38 445 44 1383 50 1582 
3431 0.5782645619794406 0.30538828500051773 1.0998958749346868 0 0 0 0.12 4 1840 16 543 110 436 148 893 33 1338 38 446 92 864 9 942 85 674 109 473 
3432 0.5878849850031336 0.30397300044436915 1.0971090541482733 0 0 0 0.26 4 1841 16 544 146 959 38 447 77 1175 
3433 0.20686901870780902 0.37633066189787207 1.2397020294397265 0 0 0 0.09 4 1842 44 1384 50 1583 
3434 0.25982602715917624 0.36368792229422536 1.2101464980929706 0 0 0 0.04 4 1843 50 1584 61 976 
3435 0.5019988584967447 0.3186996841777009 1.122526075485745 0 0 0 0.21 4 1844 16 545 28 341 38 448 50 1585 128 566 146 960 
3436 0.4459026615600192 0.3276884208041257 1.1378981887168957 0 0 0 0.24 4 1845 11 1509 38 449 50 1586 124 442 146 961 
3437 0.32718438718190496 0.351215066757206 1.1825706617607223 0 0 0 0.22 4 1846 11 1510 44 1385 146 962 
3438 0.37260473406785577 0.34286369463225436 1.1664585704932429 0 0 0 0.26 4 1847 28 342 33 1339 124 443 146 963 
3439 0.22969341386687137 0.3711891070809697 1.2231484399987234 0 0 0 0.33 4 1848 11 1511 50 1587 33 1340 61 977 
3440 0.3754205039530858 0.3427583890904302 1.1659061896791445 0 0 0 0.28 4 1849 28 343 124 444 136 447 
3441 0.5533240063138908 0.3113412262073331 1.105474684616287 0 0 0 0.27 4 1850 19 703 38 450 44 1386 50 1588 69 266 118 1013 135 80 
3442 0.446411285810505 0.32962925766134676 1.138217553240787 0 0 0 0.32 4 1851 11 1512 146 964 
3443 0.5725040667296164 0.307750162206677 1.096984360501142 0 0 0 0.28 4 1852 16 546 38 451 44 1387 135 81 
3444 0.5601572334887968 0.30999251010089524 1.1007762875543254 0 0 0 0.14 4 1853 38 452 93 371 110 437 136 448 
3445 0.5912315022057905 0.30449692403205175 1.0902360645472826 0 0 0 0.21 4 1854 33 1341 38 453 91 330 
3446 0.20210105061447586 0.3784085365202198 1.2364445594610975 0 0 0 0.38 4 1855 44 1388 148 894 
3447 0.596908750307219 0.3033792427472054 1.0861288851068425 0 0 0 0.16 4 1856 11 1513 16 547 38 454 91 331 93 372 109 474 110 438 148 895 
3448 0.279297675303638 0.3640253874737459 1.2055752003665985 0 0 0 0.28 4 1857 11 1514 50 1589 61 978 109 475 128 567 148 896 21 202 110 439 157 229 164 481 176 292 213 395 219 209 209 156 
3449 0.38305642791408195 0.34257429696298985 1.1590343227539728 0 0 0 0.36 4 1858 11 1515 28 344 61 979 128 568 136 449 146 965 
3450 0.3845264825027203 0.3413893390907293 1.1572929586214598 0 0 0 0.34 4 1859 11 1516 50 1590 61 980 146 966 
3451 0.4255355423300179 0.3317938041427861 1.1367429428748852 0 0 0 0.57 2 2315 3 1001 4 1860 11 1517 16 548 19 704 27 1075 38 455 40 556 50 1591 61 981 96 611 111 639 127 481 136 450 146 967 
3452 0.4497460216314468 0.3284288434361757 1.1282622722055797 0 0 0 0.23 4 1861 16 549 33 1342 38 456 
3453 0.451789979419113 0.32825645692714334 1.128572096260469 0 0 0 0.26 4 1862 28 345 33 1343 38 457 109 476 146 968 148 897 
3454 0.7947145869239246 0.27560610795250495 1.0371397241295557 0 0 0 0.37 4 1863 11 1518 82 97 91 332 92 865 127 482 
3455 0.7994525923083419 0.2751104828485493 1.0361336032244866 0 0 0 0.2 4 1864 11 1519 35 67 91 333 110 440 
3456 0.7031982141676084 0.29048556505610545 1.062479192631227 0 0 0 0.23 4 1865 27 1076 91 334 92 866 109 477 146 969 
3457 0.8553346480899776 0.2749919786343404 1.0466863353204585 0 0 0 0.45 4 1866 11 1520 44 1389 82 98 85 675 92 867 110 441 136 451 105 287 164 482 165 119 196 360 
3458 0.6763847356380974 0.29486449617763394 1.068491385074376 0 0 0 0.3 4 1867 11 1521 32 619 50 1592 85 676 91 335 110 442 146 970 148 898 
3459 0.4261418966596994 0.333876097400408 1.1361106326855943 0 0 0 0.28 4 1868 11 1522 38 458 
3460 0.2787680748396635 0.3669519547123441 1.2045739394361188 0 0 0 0.3 4 1869 11 1523 61 982 146 971 
3461 0.5800519652169077 0.31051266806566347 1.0952547077550043 0 0 0 0.28 4 1870 11 1524 16 550 38 459 50 1593 124 445 146 972 
3462 0.2939915814225116 0.3621941693115942 1.191275809258645 0 0 0 0.24 4 1871 11 1525 33 1344 146 973 
3463 0.7012584697006898 0.2929116786323537 1.063376221862696 0 0 0 0.54 2 2316 4 1872 11 1526 19 705 50 1594 62 125 91 336 105 288 110 443 148 899 42 144 52 409 165 120 185 169 194 39 196 361 
3464 0.2510066760720654 0.3785666118446648 1.2336421522602128 0 0 0 1.41 4 1873 11 1527 146 974 
3465 0.6464203784321708 0.3012455548404621 1.0764707600211436 0 0 0 0.82 2 2317 4 1874 11 1528 19 706 33 1345 38 460 44 1390 50 1595 85 677 124 446 26 372 43 541 71 602 91 337 96 612 52 410 54 258 63 327 97 321 165 121 196 362 198 159 208 60 142 249 164 483 194 40 
3466 0.6827227238193043 0.29500069885641195 1.0651670395212594 0 0 0 0.46 4 1875 19 707 77 1176 85 678 91 338 136 452 148 900 42 145 164 484 
3467 0.571100953084832 0.3124807863086975 1.093504061158441 0 0 0 0.33 2 2318 4 1876 11 1529 16 551 38 461 44 1391 77 1177 92 868 93 373 146 975 
3468 0.5272212688483455 0.3210734316036021 1.1096411156233503 0 0 0 0.34 4 1877 11 1530 16 552 124 447 146 976 
3469 0.5497686903154804 0.317093798232785 1.1033335710043588 0 0 0 0.28 4 1878 9 943 16 553 33 1346 38 462 146 977 
3470 0.7690926367859192 0.28231122591851393 1.0409140319690244 0 0 0 0.55 2 2319 4 1879 9 944 11 1531 27 1077 33 1347 40 557 44 1392 77 1178 91 339 92 869 105 289 42 146 148 901 
3471 0.26855426980941904 0.36949981491128225 1.2036090750954627 0 0 0 0.16 4 1880 44 1393 92 870 
3472 0.3496429995128132 0.3525189430744117 1.1681948774469104 0 0 0 0.19 4 1881 11 1532 113 159 
3473 0.3660279115242566 0.3500220333439696 1.1636943150265513 0 0 0 0.06 4 1882 11 1533 28 346 
3474 0.5127863307319847 0.3229925881182628 1.1113403581411159 0 0 0 0.18 4 1883 16 554 38 463 44 1394 77 1179 92 871 146 978 
3475 0.7342301289076845 0.2889324384711486 1.052988874268931 0 0 0 0.24 4 1884 11 1534 27 1078 77 1180 
3476 0.740083174632121 0.28705490128949446 1.0484469053429974 0 0 0 0.25 4 1885 11 1535 85 679 110 444 148 902 42 147 196 363 
3477 0.46447694794794775 0.3319702079423597 1.1280908769008744 0 0 0 0.36 4 1886 11 1536 85 680 194 41 229 133 
3478 0.47565523994205156 0.3292504532664855 1.1217366902910892 0 0 0 0.19 4 1887 11 1537 16 555 28 347 38 464 92 872 146 979 
3479 0.5196749699993379 0.32298942482101006 1.112536271256882 0 0 0 0.21 4 1888 11 1538 16 556 38 465 77 1181 85 681 92 873 146 980 
3480 0.7089407595489841 0.2923076359351357 1.0564301765474882 0 0 0 0.35 4 1889 32 620 33 1348 44 1395 91 340 92 874 
3481 0.7020614361940494 0.2951697257126799 1.0627594025325446 0 0 0 0.32 4 1890 11 1539 44 1396 85 682 91 341 92 875 105 290 110 445 146 981 148 903 
3482 0.6367713254214873 0.30540836491921525 1.0790241376109515 0 0 0 0.15 4 1891 38 466 92 876 
3483 0.6489122061969352 0.3036095931509543 1.0767937032789372 0 0 0 0.3 2 2320 4 1892 9 945 11 1540 15 414 27 1079 28 348 32 621 33 1349 36 501 38 467 44 1397 50 1596 60 557 61 983 85 683 91 342 92 877 96 613 109 478 110 446 124 448 146 982 148 904 
3484 0.6618637594447334 0.30057978408009794 1.0703131833756907 0 0 0 0.18 4 1893 85 684 109 479 
3485 0.6722819270244543 0.30013477812736006 1.0706584542153332 0 0 0 0.14 4 1894 32 622 38 468 44 1398 92 878 124 449 136 453 146 983 
3486 0.2900047748252754 0.36571523753800006 1.1923445070171044 0 0 0 0.14 4 1895 11 1541 33 1350 50 1597 146 984 
3487 0.4070021639043192 0.3434192924677853 1.1477325036960189 0 0 0 0.29 2 2321 4 1896 11 1542 16 557 27 1080 28 349 33 1351 41 332 61 984 77 1182 85 685 92 879 93 374 109 480 110 447 124 450 136 454 146 985 
3488 0.6223009977275976 0.3062816443140248 1.0789266630971406 0 0 0 0.13 4 1897 110 448 128 569 136 455 
3489 0.36017685224440826 0.35230361160437246 1.1642665979702824 0 0 0 0.4 2 2322 4 1898 9 946 11 1543 28 350 33 1352 44 1399 50 1598 61 985 77 1183 92 880 93 375 124 451 127 483 146 986 148 905 
3490 0.6148738623020588 0.3085340595866807 1.0831118047773105 0 0 0 0.3 4 1899 11 1544 27 1081 
3491 0.35775383053956794 0.35295857304272665 1.1656779222788896 0 0 0 0.26 2 2323 4 1900 9 947 11 1545 28 351 44 1400 92 881 93 376 118 1014 146 987 
3492 0.5216541737538565 0.324961064283327 1.112041642464176 0 0 0 0.06 4 1901 38 469 148 906 
3493 0.5641039817095803 0.31639936688172043 1.0959311476289022 0 0 0 0.25 4 1902 28 352 38 470 85 686 109 481 136 456 146 988 2 2324 11 1546 16 558 32 623 33 1353 36 502 50 1599 91 343 92 882 93 377 124 452 42 148 213 396 
3494 0.5701316481566872 0.31530142759390245 1.094081730866794 0 0 0 0.35 4 1903 11 1547 16 559 38 471 77 1184 85 687 91 344 92 883 109 482 110 449 146 989 2 2325 9 948 28 353 32 624 33 1354 44 1401 60 558 93 378 135 82 42 149 176 293 
3495 0.5777587906103722 0.31535230716573376 1.0949875740457191 0 0 0 0.12 4 1904 11 1548 16 560 38 472 77 1185 110 450 
3496 0.5892727482653096 0.3133603498866793 1.0911242068594207 0 0 0 0.08 4 1905 16 561 146 990 
3497 0.6069571548960424 0.31028664096555425 1.0854618114103565 0 0 0 0.23 4 1906 9 949 16 562 27 1082 32 625 33 1355 38 473 44 1402 50 1600 92 884 96 614 109 483 124 453 146 991 148 907 
3498 0.5078374052681239 0.32597206797456707 1.1123589821042386 0 0 0 0.21 2 2326 4 1907 9 950 16 563 19 708 28 354 33 1356 38 474 44 1403 50 1601 92 885 93 379 107 321 110 451 124 454 135 83 146 992 148 908 
3499 0.5185521963667105 0.32594888322890386 1.1136566831253487 0 0 0 0.09 4 1908 11 1549 16 564 146 993 
3500 0.6568961419524585 0.30241340411613155 1.0697559852470144 0 0 0 0.3 4 1909 11 1550 77 1186 85 688 42 150 164 485 
3501 0.4489056272321608 0.3359582906878486 1.1288336058471051 0 0 0 0.34 2 2327 4 1910 16 565 28 355 32 626 33 1357 38 475 44 1404 50 1602 85 689 92 886 93 380 124 455 127 484 146 994 148 909 176 294 214 93 229 134 
3502 0.45411505772380184 0.33502347681178934 1.127530450984788 0 0 0 0.21 4 1911 28 356 85 690 92 887 93 381 124 456 146 995 148 910 
3503 0.49648650783531484 0.329663938670924 1.1198735866539558 0 0 0 0.23 4 1912 11 1551 28 357 38 476 77 1187 
3504 0.42076805527986055 0.34036630792248745 1.1358192965385925 0 0 0 0.21 2 2328 4 1913 9 951 11 1552 16 566 28 358 33 1358 44 1405 50 1603 60 559 92 888 109 484 124 457 128 570 146 996 
3505 0.4290506270679444 0.33930385670340624 1.1344426858702876 0 0 0 0.34 4 1914 11 1553 16 567 28 359 33 1359 92 889 124 458 146 997 42 151 164 486 213 397 
3506 0.4382797445594395 0.338889290889772 1.1345192427477977 0 0 0 0.08 4 1915 16 568 28 360 146 998 
3507 0.7196363734291665 0.29370116208575453 1.0529095366138388 0 0 0 0.22 4 1916 33 1360 44 1406 110 452 
3508 0.27861933823785223 0.3718801280217878 1.2008940852494818 0 0 0 0.41 4 1917 11 1554 33 1361 36 503 44 1407 50 1604 61 986 92 890 118 1015 146 999 148 911 
3509 0.2812039833398265 0.37124871004004606 1.1997697242273677 0 0 0 0.23 2 2329 4 1918 11 1555 32 627 33 1362 44 1408 50 1605 61 987 146 1000 148 912 
3510 0.39226648044419016 0.3473973337819073 1.1506201744741602 0 0 0 0.21 4 1919 28 361 33 1363 44 1409 50 1606 61 988 92 891 93 382 110 453 124 459 128 571 135 84 146 1001 148 913 11 1556 16 569 157 230 159 289 164 487 176 295 200 77 213 398 224 199 229 135 
3511 0.40094724931043246 0.3469031955489773 1.150400372318728 0 0 0 0.18 4 1920 11 1557 16 570 17 1114 92 892 109 485 110 454 128 572 146 1002 148 914 
3512 0.7095345239042704 0.2952988982318436 1.0559941617540531 0 0 0 0.13 4 1921 33 1364 92 893 
3513 0.8591792835143474 0.28086483103154075 1.0413939297229209 0 0 0 0.33 4 1922 11 1558 19 709 85 691 136 457 40 558 105 291 107 322 
3514 0.35914824698778164 0.35489176406311096 1.1646986140219604 0 0 0 0.31 2 2330 4 1923 9 952 11 1559 28 362 50 1607 92 894 93 383 103 415 128 573 146 1003 148 915 
3515 0.38094768018391206 0.35132116156654697 1.1581839724849698 0 0 0 0.26 2 2331 4 1924 11 1560 32 628 33 1365 36 504 44 1410 77 1188 113 160 128 574 136 458 146 1004 
3516 0.3855419557688573 0.34953796733473397 1.154848706910203 0 0 0 0.44 4 1925 50 1608 92 895 127 485 
3517 0.39588415216245837 0.3471923971740127 1.1497688372917423 0 0 0 0.21 4 1926 11 1561 60 560 92 896 110 455 135 85 136 459 
3518 0.7417456120296206 0.29091205550253735 1.0468643119658196 0 0 0 0.32 2 2332 4 1927 11 1562 33 1366 50 1609 62 126 92 897 105 292 110 456 124 460 148 916 
3519 0.34774234973174895 0.3579558836079666 1.170095582692226 0 0 0 0.34 4 1928 11 1563 50 1610 61 989 113 161 118 1016 146 1005 
3520 0.2460529744440231 0.37948775662534506 1.2148911985037292 0 0 0 0.4 2 2333 4 1929 11 1564 33 1367 44 1411 61 990 77 1189 92 898 
3521 0.6832305796162883 0.3008238335933099 1.0623173291154693 0 0 0 0.49 4 1930 11 1565 27 1083 28 363 52 411 146 1006 148 917 
3522 0.3049171037156816 0.3683187540591089 1.1906229164056374 0 0 0 0.18 2 2334 4 1931 11 1566 17 1115 19 710 27 1084 33 1368 44 1412 50 1611 53 674 77 1190 93 384 107 323 118 1017 148 918 
3523 0.33018531819143704 0.36240401260799665 1.1778826993837743 0 0 0 0.36 4 1932 11 1567 17 1116 33 1369 85 692 148 919 
3524 0.5730252788162196 0.31808243794559343 1.092287452360801 0 0 0 0.28 4 1933 11 1568 16 571 27 1085 36 505 38 477 146 1007 15 415 42 152 52 412 196 364 
3525 0.858270400341979 0.2831182900882978 1.0424040745907435 0 0 0 0.25 4 1934 50 1612 77 1191 107 324 136 460 
3526 0.6029313247214024 0.31382012299388695 1.0830243757514055 0 0 0 0.21 4 1935 11 1569 16 572 61 991 109 486 148 920 52 413 142 250 
3527 0.5768353316841642 0.31896614632835846 1.0925741588446916 0 0 0 0.29 2 2335 4 1936 27 1086 38 478 
3528 0.24821632836209825 0.38107887123544454 1.2136499707167012 0 0 0 0.24 4 1937 11 1570 146 1008 
3529 0.7134838156213674 0.2977748227803452 1.0544561112991147 0 0 0 0.5 2 2336 4 1938 11 1571 33 1370 50 1613 52 414 85 693 91 345 92 899 105 293 109 487 146 1009 148 921 
3530 0.3547030861107867 0.3588485237500017 1.1658212441703706 0 0 0 0.44 4 1939 9 953 11 1572 28 364 33 1371 50 1614 92 900 93 385 109 488 113 162 124 461 146 1010 
3531 0.394194471707407 0.3513926590417745 1.1491533997260808 0 0 0 0.07 4 1940 16 573 28 365 
3532 0.7743489326422598 0.28986061802820595 1.0371691907830014 0 0 0 0.49 4 1941 11 1573 52 415 85 694 
3533 0.5992342618489971 0.31632278075669595 1.0821885905577415 0 0 0 0.43 4 1942 38 479 85 695 91 346 
3534 0.5111087364445921 0.3311471155337872 1.1098878567420871 0 0 0 0.41 4 1943 9 954 16 574 33 1372 85 696 127 486 
3535 0.7199734593735752 0.29849253659879327 1.0509424286474656 0 0 0 0.19 4 1944 9 955 11 1574 12 371 17 1117 27 1087 33 1373 36 506 40 559 44 1413 50 1615 61 992 62 127 77 1192 91 347 92 901 110 457 148 922 42 153 165 122 
3536 0.7683135860442882 0.29108918157989616 1.0385906313390174 0 0 0 0.45 4 1945 27 1088 77 1193 85 697 148 923 
3537 0.3259082938071309 0.3663743650137881 1.1769551403609098 0 0 0 0.26 4 1946 28 366 113 163 146 1011 11 1575 77 1194 
3538 0.3993813813563386 0.35342768328256247 1.15175810411343 0 0 0 0.82 4 1947 128 575 146 1012 
3539 0.42076252271255876 0.34602856992595543 1.133934270703732 0 0 0 0.45 4 1948 11 1576 109 489 148 924 164 488 229 136 
3540 0.6546911996662838 0.308856423906286 1.0688840884397182 0 0 0 0.17 2 2337 4 1949 11 1577 28 367 38 480 52 416 91 348 110 458 124 462 146 1013 
3541 0.25928764343760646 0.3804050209063277 1.2048031384560431 0 0 0 0.3 4 1950 11 1578 109 490 113 164 
3542 0.47862521262799806 0.3374357471316936 1.1194123757543415 0 0 0 0.28 4 1951 11 1579 38 481 
3543 0.7992297571718262 0.28786713882178416 1.0325783801711468 0 0 0 0.27 4 1952 9 956 33 1374 36 507 52 417 85 698 105 294 110 459 136 461 
3544 0.3262926955180321 0.36890862033057176 1.1786091170856112 0 0 0 0.12 4 1953 28 368 146 1014 
3545 0.4497755023098652 0.34463715518021976 1.1278686070476436 0 0 0 0.43 4 1954 16 575 85 699 92 902 
3546 0.5343127513085887 0.33053651052980404 1.1013765913866007 0 0 0 0.2 4 1955 11 1580 28 369 38 482 77 1195 
3547 0.23394718799825123 0.3886406133277701 1.2151351577846117 0 0 0 0.33 4 1956 11 1581 33 1375 50 1616 92 903 
3548 0.3918717134942925 0.3559384655430334 1.148472170798567 0 0 0 0.19 4 1957 11 1582 28 370 33 1376 36 508 41 333 44 1414 50 1617 92 904 93 386 124 463 135 86 136 462 146 1015 2 2338 
3549 0.5996596385264871 0.3206364243962978 1.0807543344725385 0 0 0 0.21 4 1958 92 905 146 1016 
3550 0.7206304976857486 0.30267251502623016 1.0503559908799833 0 0 0 0.31 4 1959 27 1089 77 1196 
3551 0.7678540977842456 0.2948095867231502 1.0363966731722254 0 0 0 0.53 4 1960 11 1583 27 1090 52 418 91 349 
3552 0.7991110238730786 0.2913560334922007 1.031522489250713 0 0 0 0.44 4 1961 52 419 110 460 136 463 42 154 61 993 105 295 163 81 
3553 0.32640131224851643 0.3712891016624969 1.1762837968121103 0 0 0 0.33 4 1962 33 1377 146 1017 
3554 0.4545696036012253 0.344670808005481 1.123235501145551 0 0 0 0.35 4 1963 11 1584 16 576 33 1378 44 1415 50 1618 146 1018 
3555 0.5384512286245926 0.33153937481475804 1.0995267710736427 0 0 0 0.27 3 1002 4 1964 11 1585 27 1091 28 371 38 483 60 561 61 994 96 615 110 461 136 464 146 1019 
3556 0.47861171171011324 0.34176555681946613 1.11725767157408 0 0 0 0.25 4 1965 11 1586 50 1619 93 387 
3557 0.5404968252199762 0.33169198268991307 1.0990643271695535 0 0 0 0.46 4 1966 9 957 28 372 38 484 
3558 0.2672907513084923 0.3838256818602189 1.1994781200565505 0 0 0 0.41 4 1967 11 1587 146 1020 40 560 44 1416 85 700 92 906 113 165 33 1379 50 1620 93 388 
3559 0.541966143246134 0.3323049367652786 1.097632156402503 0 0 0 0.3 4 1968 11 1588 33 1380 38 485 127 487 146 1021 148 925 
3560 0.5397891131191039 0.3332291092478651 1.0979193545745882 0 0 0 0.28 4 1969 11 1589 16 577 28 373 92 907 146 1022 
3561 0.2637965505414524 0.38559582281898636 1.1996967625411146 0 0 0 0.35 4 1970 11 1590 113 166 146 1023 
3562 0.6456847648843621 0.3188263736109607 1.0725541146813624 0 0 0 0.27 4 1971 44 1417 92 908 93 389 
3563 0.5033983581348384 0.33995225807311946 1.1086064292685858 0 0 0 0.28 4 1972 11 1591 15 416 16 578 25 484 27 1092 38 486 50 1621 52 420 53 675 61 995 77 1197 96 616 118 1018 126 410 222 196 232 366 
3564 0.7121011940059724 0.30773359194025734 1.0504391330407252 0 0 0 0.26 4 1973 11 1592 52 421 77 1198 85 701 109 491 110 462 136 465 146 1024 148 926 42 155 194 42 
3565 0.7907044482600196 0.2968868220771495 1.032402601259486 0 0 0 0.5 4 1974 11 1593 110 463 
3566 0.5968310680983931 0.3251318184851984 1.0801112799346946 0 0 0 0.47 4 1975 16 579 85 702 92 909 
3567 0.5384421453277829 0.3355104335882458 1.0980723355303543 0 0 0 0.29 4 1976 11 1594 27 1093 28 374 38 487 52 422 77 1199 110 464 148 927 
3568 0.32614234988350194 0.375106098107781 1.1739778826357319 0 0 0 0.25 4 1977 9 958 33 1381 44 1418 50 1622 61 996 93 390 113 167 146 1025 21 203 157 231 164 489 213 399 
3569 0.39451833721356755 0.3604204059684222 1.1440272728601 0 0 0 0.39 4 1978 11 1595 16 580 
3570 0.7184564672758567 0.30779572466539673 1.0483816160712311 0 0 0 0.45 4 1979 11 1596 28 375 52 423 77 1200 91 350 148 928 
3571 0.5926093101054778 0.32900616434715285 1.0858907048467201 0 0 0 0.43 4 1980 17 1118 38 488 118 1019 
3572 0.763892514717519 0.3032683052600107 1.0397432957888673 0 0 0 0.6 2 2339 4 1981 38 489 40 561 50 1623 61 997 93 391 107 325 111 640 148 929 
3573 0.6256698028095288 0.3228406631766045 1.072393241514336 0 0 0 0.26 4 1982 136 466 146 1026 148 930 
3574 0.778609826309306 0.29959718117574013 1.0306357498045082 0 0 0 0.38 4 1983 33 1382 77 1201 91 351 
3575 0.5452678754506805 0.33553160707961205 1.094380692923716 0 0 0 0.13 4 1984 16 581 38 490 
3576 0.5652148676331344 0.3323038836146656 1.0895969632513132 0 0 0 0.7 4 1985 16 582 28 376 38 491 52 424 77 1202 109 492 110 465 118 1020 146 1027 148 931 142 251 164 490 172 255 223 61 232 367 
3577 0.7681671532373402 0.3014978187201773 1.0333754548490197 0 0 0 0.41 4 1986 52 425 85 703 148 932 
3578 0.4476848231156477 0.3521187832211733 1.1232226049365839 0 0 0 0.21 4 1987 41 334 52 426 60 562 
3579 0.5629752344038736 0.3334973007943459 1.0899409457508233 0 0 0 0.13 4 1988 11 1597 38 492 50 1624 146 1028 
3580 0.3276946934208569 0.3767676695977473 1.1726002287931787 0 0 0 0.37 4 1989 11 1598 33 1383 50 1625 93 392 146 1029 
3581 0.4095492831655939 0.36126714947905514 1.1419558212394982 0 0 0 0.42 4 1990 11 1599 92 910 
3582 0.3561546439867001 0.3711586442745044 1.1603225546670042 0 0 0 0.24 4 1991 28 377 36 509 44 1419 92 911 109 493 110 466 124 464 136 467 146 1030 2 2340 9 959 11 1600 19 711 27 1094 33 1384 52 427 61 998 77 1203 93 393 118 1021 
3583 0.4860826574566213 0.3468759156339498 1.1125586053348304 0 0 0 0.28 3 1003 4 1992 11 1601 27 1095 33 1385 44 1420 53 676 61 999 118 1022 52 428 126 411 147 218 222 197 
3584 0.5672683332212424 0.33344537774537 1.0880890216703412 0 0 0 0.36 4 1993 11 1602 16 583 28 378 38 493 52 429 92 912 109 494 146 1031 
3585 0.7122512292150169 0.3112900978542878 1.0487441159784918 0 0 0 0.41 4 1994 77 1204 85 704 109 495 110 467 148 933 
3586 0.3949987074453544 0.3637310286707593 1.1437757236378003 0 0 0 0.42 4 1995 11 1603 16 584 33 1386 41 335 92 913 146 1032 
3587 0.29751597369221316 0.38410625908829266 1.1829516220250185 0 0 0 0.38 4 1996 11 1604 61 1000 77 1205 92 914 148 934 
3588 0.6775879170983149 0.31889801644331517 1.0615788941489461 0 0 0 0.32 4 1997 11 1605 19 712 33 1387 40 562 44 1421 50 1626 52 430 61 1001 77 1206 91 352 105 296 107 326 109 496 110 468 124 465 146 1033 148 935 
3589 0.720533000450984 0.3106522117369053 1.045907842749625 0 0 0 0.44 4 1998 11 1606 33 1388 44 1422 52 431 62 128 77 1207 91 353 124 466 127 488 
3590 0.7667423938557575 0.30366390808981014 1.0332570332893434 0 0 0 0.2 4 1999 11 1607 33 1389 85 705 110 469 136 468 
3591 0.33404680189645125 0.37824520158626673 1.1735521504225537 0 0 0 0.42 4 2000 11 1608 27 1096 77 1208 92 915 118 1023 146 1034 
3592 0.6257499489421873 0.3249358932269976 1.0712196623209282 0 0 0 0.48 4 2001 16 585 38 494 52 432 85 706 91 354 146 1035 92 916 42 156 164 491 165 123 194 43 223 62 
3593 0.6922030427589553 0.31522420502170273 1.0530963181092663 0 0 0 0.14 4 2002 9 960 33 1390 136 469 
3594 0.4746849783902239 0.34978006484501206 1.1137489773149805 0 0 0 0.4 4 2003 38 495 44 1423 
3595 0.28989841151488577 0.38735631261916487 1.186196384278683 0 0 0 0.34 4 2004 50 1627 109 497 
3596 0.44643587326859524 0.3561511128658433 1.1240944396473749 0 0 0 0.51 4 2005 11 1609 38 496 
3597 0.45536248049620537 0.3538333409890419 1.1204105206197166 0 0 0 0.2 4 2006 11 1610 16 586 28 379 38 497 146 1036 
3598 0.6032160469697988 0.3293090281732703 1.0754064544046968 0 0 0 0.26 4 2007 38 498 52 433 109 498 146 1037 
3599 0.38805305475637747 0.367547905898206 1.146272661652934 0 0 0 0.21 4 2008 16 587 33 1391 146 1038 
3600 0.45736505740083494 0.35449276819920134 1.1200191884710673 0 0 0 0.66 4 2009 11 1611 38 499 50 1628 77 1209 148 936 
3601 0.5098825494069875 0.34533020836869577 1.1045426458812113 0 0 0 0.34 4 2010 16 588 28 380 38 500 44 1424 50 1629 52 434 61 1002 77 1210 85 707 92 917 110 470 148 937 118 1024 213 400 229 137 
3602 0.514556961844935 0.3445595645709522 1.102607604432473 0 0 0 0.33 4 2011 11 1612 38 501 148 938 
3603 0.5366893095196866 0.34122476154036246 1.096325271172392 0 0 0 0.28 4 2012 11 1613 16 589 27 1097 28 381 38 502 52 435 110 471 118 1025 136 470 
3604 0.7330446396907478 0.31180865154090726 1.045696933023544 0 0 0 0.46 4 2013 28 382 77 1211 
3605 0.7094553770120392 0.3146893928442048 1.049717527934251 0 0 0 0.34 4 2014 9 961 85 708 91 355 105 297 109 499 136 471 146 1039 
3606 0.32451258243665076 0.38104127454598063 1.1723264220844443 0 0 0 0.3 2 2341 4 2015 11 1614 17 1119 19 713 27 1098 33 1392 44 1425 50 1630 77 1212 85 709 92 918 93 394 96 617 107 327 146 1040 21 204 60 563 157 232 158 174 164 492 176 296 213 401 
3607 0.3899717176810061 0.36754156507489144 1.1450157693307328 0 0 0 0.2 4 2016 16 590 28 383 146 1041 148 939 
3608 0.6874188581110819 0.3185324674619803 1.054716080977229 0 0 0 0.24 4 2017 11 1615 27 1099 28 384 44 1426 52 436 77 1213 85 710 96 618 109 500 110 472 146 1042 148 940 91 356 128 576 42 157 164 493 165 124 194 44 196 365 213 402 223 63 235 92 
3609 0.8316440189471423 0.3020778215336277 1.0327602775695077 0 0 0 0.1 4 2018 11 1616 19 714 
3610 0.5760022611340062 0.33577100042909824 1.0851146041601705 0 0 0 0.05 4 2019 38 503 44 1427 
3611 0.5348088029279832 0.34241200793951526 1.0968565247199245 0 0 0 0.41 4 2020 11 1617 16 591 17 1120 92 919 148 941 
3612 0.7105444860029899 0.31543486273249444 1.0477305053631387 0 0 0 0.36 4 2021 33 1393 52 437 85 711 109 501 136 472 146 1043 148 942 
3613 0.3921005286079375 0.3687005536366305 1.143792142323816 0 0 0 0.19 4 2022 28 385 77 1214 
3614 0.5064861613750284 0.3479376245196696 1.1046525049029516 0 0 0 0.31 4 2023 11 1618 28 386 38 504 52 438 229 138 
3615 0.8101589924787039 0.30338566515499 1.0285768663799155 0 0 0 0.32 4 2024 9 962 19 715 33 1394 36 510 44 1428 50 1631 77 1215 82 99 105 298 107 328 110 473 11 1619 17 1121 53 677 61 1003 
3616 0.4479344518670756 0.35883149168252926 1.124770745950062 0 0 0 0.52 4 2025 11 1620 146 1044 
3617 0.8334666319582879 0.30360636226173865 1.0328676300205053 0 0 0 0.58 4 2026 27 1100 44 1429 77 1216 107 329 
3618 0.592602911684649 0.3337525190015998 1.0775787670322787 0 0 0 0.39 4 2027 9 963 11 1621 12 372 15 417 16 592 25 485 28 387 32 629 33 1395 36 511 43 542 44 1430 50 1632 69 267 85 712 92 920 96 619 110 474 128 577 135 87 136 473 146 1045 148 943 
3619 0.34689466214321935 0.3798405491759912 1.1645282933917254 0 0 0 0.59 3 1004 4 2028 27 1101 61 1004 97 322 111 641 11 1622 33 1396 50 1633 146 1046 2 2342 28 388 148 944 32 630 44 1431 53 678 113 168 
3620 0.41303006824809274 0.365591874465492 1.135703370994195 0 0 0 0.21 4 2029 16 593 146 1047 
3621 0.4555722596345541 0.3572503121197798 1.1187797465847809 0 0 0 0.27 2 2343 4 2030 11 1623 16 594 27 1102 28 389 33 1397 38 505 44 1432 50 1634 92 921 146 1048 
3622 0.7126185079757307 0.3170199471035789 1.0466285789676237 0 0 0 0.36 4 2031 11 1624 27 1103 52 439 77 1217 85 713 91 357 109 502 110 475 136 474 146 1049 148 945 42 158 159 290 164 494 165 125 194 45 213 403 223 64 235 93 
3623 0.5342098860849723 0.34633251493793565 1.0992377166134641 0 0 0 0.35 4 2032 38 506 77 1218 
3624 0.6279173938073358 0.3298462546725214 1.0684839648908901 0 0 0 0.24 4 2033 16 595 28 390 85 714 109 503 
3625 0.27691146906013053 0.3952742722973971 1.193999867393529 0 0 0 0.33 4 2034 11 1625 92 922 113 169 
3626 0.365621356161209 0.37688582823293093 1.1569875679082957 0 0 0 0.35 4 2035 11 1626 28 391 77 1219 110 476 113 170 146 1050 9 964 33 1398 44 1433 50 1635 92 923 124 467 
3627 0.37815296850852864 0.3741082516675046 1.1521943278585838 0 0 0 0.33 4 2036 9 965 11 1627 92 924 113 171 146 1051 19 716 28 392 32 631 41 336 44 1434 50 1636 93 395 110 477 124 468 135 88 136 475 
3628 0.41886727269701113 0.3653764519721744 1.1333307846704443 0 0 0 0.33 4 2037 11 1628 17 1122 118 1026 
3629 0.45245759396438373 0.35807640055768486 1.118945793182046 0 0 0 0.24 4 2038 11 1629 16 596 28 393 38 507 92 925 146 1052 
3630 0.5447084468767195 0.3440136719783323 1.093737671181135 0 0 0 0.42 4 2039 77 1220 92 926 
3631 0.6054566566436768 0.33379932940909723 1.073827137503631 0 0 0 0.59 4 2040 11 1630 92 927 
3632 0.6924894479363801 0.3203026243931234 1.0515358285167993 0 0 0 0.39 4 2041 11 1631 85 715 103 416 110 478 
3633 0.40153128811621974 0.36973972155988294 1.1425334416186577 0 0 0 0.31 4 2042 11 1632 16 597 28 394 118 1027 
3634 0.5941827996683919 0.33512541412770264 1.0757347966093176 0 0 0 0.13 4 2043 16 598 52 440 
3635 0.8113261318829763 0.30491703613697174 1.0269518961715673 0 0 0 0.39 4 2044 36 512 77 1221 105 299 136 476 164 495 165 126 
3636 0.5649913156692608 0.3402287864058556 1.086049854508856 0 0 0 0.44 4 2045 11 1633 15 418 16 599 33 1399 38 508 52 441 93 396 96 620 109 504 110 479 118 1028 124 469 136 477 146 1053 148 946 
3637 0.704878198020477 0.32118214156786906 1.0508020377519678 0 0 0 0.52 4 2046 11 1634 19 717 44 1435 91 358 109 505 124 470 148 947 
3638 0.8562579522784497 0.30586869551609275 1.0341189593758384 0 0 0 0.23 4 2047 11 1635 85 716 
3639 0.8622711051782916 0.30629512220154 1.0362478640608739 0 0 0 0.2 4 2048 85 717 136 478 
3640 0.2549859543404684 0.39969051947120554 1.1973157297821018 0 0 0 0.5 4 2049 11 1636 33 1400 50 1637 146 1054 
3641 0.4806831121046634 0.3556504162110723 1.1107599144432165 0 0 0 0.2 4 2050 11 1637 16 600 28 395 38 509 109 506 146 1055 
3642 0.6579604875600924 0.3271600664716078 1.0603151233675132 0 0 0 0.3 4 2051 11 1638 28 396 33 1401 40 563 52 442 60 564 77 1222 85 718 91 359 109 507 110 480 146 1056 148 948 42 159 164 496 165 127 194 46 223 65 235 94 
3643 0.39720148094808 0.3715622081046221 1.141132869727764 0 0 0 0.26 4 2052 11 1639 28 397 
3644 0.4217199668468483 0.3651215127043391 1.1259583468385796 0 0 0 0.38 4 2053 33 1402 44 1436 50 1638 77 1223 93 397 109 508 110 481 146 1057 148 949 
3645 0.34756752768690347 0.3819267139764895 1.160777055160551 0 0 0 0.31 4 2054 50 1639 124 471 146 1058 
3646 0.40128077737130197 0.3719319576738706 1.140828459777763 0 0 0 0.22 4 2055 9 966 28 398 109 509 33 1403 44 1437 50 1640 124 472 
3647 0.5442286109119527 0.3456200966950888 1.0909710603681329 0 0 0 0.35 4 2056 11 1640 16 601 77 1224 92 928 124 473 136 479 
3648 0.8146783556455 0.30710439918701304 1.0263245519111341 0 0 0 0.43 4 2057 11 1641 27 1104 82 100 32 632 61 1005 73 394 77 1225 105 300 107 330 
