# 3D point list with one line of data per point:
#   POINT3D_ID, X, Y, Z, R, G, B, ERROR, TRACK[] as (IMAGE_ID, POINT2D_IDX)
# Number of points: 453, mean track length: 5.72
912 0.13333038350631343 0.10143437766294888 0.9716514207943656 0 0 0 0.22 13 445 32 169 44 370 50 323 61 203 111 71 124 911 
913 0.06504535082868401 0.11347757242750496 0.9711927434775046 0 0 0 0.32 13 446 17 88 32 170 111 72 124 912 
914 0.10103379773730801 0.12370493634090647 0.9703625549693331 0 0 0 0.34 13 447 16 147 32 171 33 259 50 324 61 204 92 241 93 230 124 913 
915 0.06904127997263895 0.12429682580259586 0.9717526457006546 0 0 0 0.15 13 448 17 89 19 90 44 371 50 325 60 111 61 205 124 914 
916 -0.06264500471202741 -0.1760354539490705 1.0350947851675039 0 0 0 0.53 13 449 28 189 32 172 36 101 44 372 92 242 124 915 
917 0.05386645465327868 -0.11250807250420065 1.0130826362906806 0 0 0 0.15 13 450 53 54 124 916 
918 0.2956077929922347 -0.11222128789237061 1.0077622653095248 0 0 0 0.23 13 451 93 231 124 917 
919 -0.15304020572318025 -0.02197751429559202 1.0236796532821624 0 0 0 0.38 13 452 71 29 110 83 111 73 124 918 
920 -0.14904873795133244 -0.019303103946725794 1.0212522304476104 0 0 0 0.3 13 453 28 190 53 55 85 81 92 243 109 113 110 84 113 134 124 919 
921 0.16775638409610763 0.060180471507667546 0.9795868274348516 0 0 0 0.28 13 454 50 326 61 206 96 41 111 74 124 920 
922 0.18490491407672788 0.06530547136703198 0.9776619760283543 0 0 0 0.16 13 455 50 327 124 921 
923 0.24968817653149752 0.06984820704876385 0.97452889614379 0 0 0 0.45 13 456 44 373 124 922 
924 0.2137454987854977 0.08854109662402998 0.9717178216489482 0 0 0 0.18 13 457 60 112 111 75 124 923 
925 0.08025889172613997 0.093060148315142 0.9803679738918882 0 0 0 0.28 13 458 50 328 61 207 124 924 
926 0.05646706326315152 0.09642407946070002 0.9815349950442755 0 0 0 0.21 13 459 43 31 44 374 50 329 111 76 124 925 
927 0.21778524263499982 0.10169262181880334 0.9689411092373977 0 0 0 0.45 13 460 28 191 53 56 61 208 124 926 
928 0.11289086370373996 0.13238700664477 0.9756866043866498 0 0 0 0.69 13 461 61 209 124 927 
929 0.06477093326130043 0.1336951380757636 0.9669722244552581 0 0 0 0.18 13 462 53 57 124 928 
930 -0.05028411590515809 -0.09927967246029575 1.0187919217048444 0 0 0 0.26 13 463 53 58 97 33 124 929 
931 -0.01441867051760758 -0.09793026773427052 1.0140379002051843 0 0 0 0.5 13 464 32 173 124 930 
932 0.12794629275750224 -0.09710999092043299 1.0079898587784184 0 0 0 0.44 13 465 32 174 92 244 111 77 124 931 
933 0.08528907782072137 0.047771301234524374 0.986338348414591 0 0 0 0.2 13 466 44 375 53 59 61 210 81 19 92 245 96 42 97 34 124 932 
934 0.07901724596523796 0.10031530924624923 0.9757558090322742 0 0 0 0.13 13 467 17 90 43 32 124 933 
935 0.2936322277490772 0.09909213871966331 0.9690109986751074 0 0 0 0.5 13 468 28 192 61 211 124 934 
936 0.05879623647080203 -0.07891088553597168 1.0074603397940542 0 0 0 0.36 13 469 44 376 124 935 
937 0.11523286158652798 0.10117402302863411 0.9735257156059466 0 0 0 0.33 13 470 44 377 50 330 61 212 124 936 
938 0.11661736643217575 0.10132925931724508 0.9768226245670661 0 0 0 0.25 13 471 53 60 61 213 124 937 
939 0.19903691875395588 0.10149426718151688 0.9730381047891011 0 0 0 0.32 13 472 53 61 124 938 
940 0.09566941324554008 0.15213256613030865 0.9323759995867875 0 0 0 0.62 13 473 61 214 124 939 
941 -0.029504346759516232 -0.11164105781130011 1.0186486318389676 0 0 0 0.43 13 474 32 175 97 35 124 940 
942 -0.034531976965593514 -0.10033712327405384 1.017782833694489 0 0 0 0.61 13 475 43 33 92 246 97 36 124 941 
943 0.04176866327553433 -0.091223459094948 1.004644734455808 0 0 0 0.87 13 476 28 193 112 106 124 942 
944 0.19425013283762668 0.0933394461680069 0.9761771510617654 0 0 0 0.59 13 477 50 331 53 62 96 43 124 943 
945 -0.12658929731787935 -0.08363981517908328 1.0284244310354203 0 0 0 0.92 13 478 32 176 33 260 43 34 50 332 124 944 
946 0.2773864053155505 0.07489490979746133 0.9738312421852567 0 0 0 0.3 13 479 17 91 19 91 44 378 50 333 60 113 77 112 124 945 
947 -0.10344347339272349 -0.05112050937058679 1.020475374907693 0 0 0 0.48 13 480 29 47 32 177 43 35 50 334 77 113 92 247 113 135 124 946 
948 -0.10336394898708082 -0.05096374991884354 1.0195372635846855 0 0 0 0.39 13 481 29 48 32 178 33 261 77 114 110 85 113 136 124 947 
949 0.19235843263708252 0.07274969154046451 0.9752837739392666 0 0 0 0.38 13 482 44 379 60 114 124 948 
950 0.22556361230108768 0.0720236687563393 0.9738547226288772 0 0 0 0.37 13 483 53 63 93 232 96 44 124 949 
951 0.2255247794454817 0.07193482517074466 0.9737785343833878 0 0 0 0.48 13 484 53 64 71 30 91 30 93 233 96 45 124 950 
952 0.12200174378413196 0.10546499759076797 0.9712074308809745 0 0 0 0.33 13 485 16 148 33 262 61 215 124 951 
953 0.06835213236488738 0.10733390847334143 0.9714497838680617 0 0 0 0.33 13 486 110 86 111 78 124 952 
954 0.20027724046619882 -0.1530944196283733 1.0136880387823906 0 0 0 0.29 33 263 93 234 124 953 
955 0.08513058488729978 -0.13432720802658102 1.0088107623169784 0 0 0 0.13 16 149 28 194 109 114 124 954 
956 0.10110167650796377 -0.10754100956613555 1.0103420432829424 0 0 0 0.19 16 150 109 115 112 107 124 955 
957 -0.0048198914946405574 -0.10244076602403733 1.0158522357324156 0 0 0 0.33 16 151 33 264 60 115 112 108 124 956 
958 -0.04917864009449428 -0.08837617524544913 1.0150068109361159 0 0 0 0.16 16 152 28 195 33 265 38 62 109 116 110 87 112 109 113 137 124 957 
959 -0.10986135070603553 -0.08650395497137929 1.0259116890522653 0 0 0 0.28 16 153 33 266 124 958 
960 -0.05370720168810651 -0.0871142713129973 1.0155285659259166 0 0 0 0.11 16 154 33 267 112 110 124 959 
961 -0.05815218042131708 -0.08532055720910475 1.0147178479899361 0 0 0 0.21 16 155 33 268 124 960 
962 -0.024208214000490193 -0.08503398980692961 1.012847634043626 0 0 0 0.08 16 156 28 196 112 111 124 961 
963 0.00830154615895583 -0.08412240541195758 1.01024440852158 0 0 0 0.21 16 157 33 269 44 380 50 335 124 962 
964 -0.012716884860776692 -0.08185259343184471 1.0113763529442679 0 0 0 0.15 16 158 28 197 112 112 124 963 
965 0.07565168256114656 -0.08147672042176121 1.0071722790462971 0 0 0 0.25 16 159 33 270 124 964 
966 0.36547090030159146 -0.08639219831259594 1.0013667040437275 0 0 0 0.36 33 271 44 381 124 965 
967 -0.11463445915369137 -0.02289576411712139 1.019165233278615 0 0 0 0.07 16 160 28 198 124 966 
968 0.09625765364874508 -0.022692791855044244 0.9994455836032181 0 0 0 0.08 16 161 33 272 124 967 
969 -0.11476008555565773 -0.018258239981484792 1.0176987882546196 0 0 0 0.11 16 162 28 199 124 968 
970 -0.004898286793622559 -0.018923260731709576 1.0045731359976746 0 0 0 0.19 16 163 60 116 93 235 124 969 
971 -0.09581401179548603 0.04634934505887661 1.0029425282144648 0 0 0 0.1 16 164 33 273 124 970 
972 0.09374689614319669 0.0455359203168901 0.9860431775729585 0 0 0 0.26 16 165 28 200 93 236 112 113 124 971 
973 0.12268377378086397 0.0532881946859878 0.9843128891444813 0 0 0 0.06 16 166 33 274 124 972 
974 0.06599977427981761 0.055846498447178185 0.98174897693367 0 0 0 0.22 16 167 50 336 124 973 
975 -0.10000240652414957 0.060344558166780415 0.9965931433329325 0 0 0 0.35 16 168 38 63 124 974 
976 -0.1021333636237955 0.06190661350343156 0.9964325999492175 0 0 0 0.2 16 169 28 201 33 275 124 975 
977 0.03566144836492593 0.06592903926925937 0.9825917958085635 0 0 0 0.14 16 170 44 382 124 976 
978 -0.14790318248930753 0.0775118002988994 1.002533805870868 0 0 0 0.33 33 276 41 39 92 248 124 977 
979 0.035636514248631464 0.07681974743404826 0.9820459559625034 0 0 0 0.43 16 171 93 237 124 978 
980 -0.11551945318032597 0.08500560942203332 0.9957780852565109 0 0 0 0.17 16 172 28 202 124 979 
981 -0.03231837610893119 0.11575487046802665 0.9787517821205364 0 0 0 0.24 16 173 33 277 124 980 
982 0.03549252906767745 -0.08904221863722582 1.010086390695383 0 0 0 0.31 16 174 28 203 44 383 93 238 112 114 124 981 
983 -0.08418353360998027 -0.08704104986452539 1.0224241077234983 0 0 0 0.25 16 175 33 278 50 337 112 115 124 982 
984 0.011922746275247418 -0.08420680366163386 1.0101389185534835 0 0 0 0.21 16 176 28 204 92 249 124 983 
985 -0.14566808778261095 -0.06630769625829676 1.0281465514825354 0 0 0 0.31 16 177 50 338 92 250 113 138 124 984 
986 0.09726117840213089 -0.013451166066314461 0.9963820242333672 0 0 0 0.13 16 178 44 384 113 139 124 985 
987 0.06023940399633733 -0.01183181140501987 1.0006811358479308 0 0 0 0.37 16 179 61 216 92 251 124 986 
988 0.02506618989505425 0.04196934108444202 0.9915816936488153 0 0 0 0.08 16 180 92 252 124 987 
989 -0.0066171874208618055 0.04351814144743743 0.9908908938374331 0 0 0 0.16 16 181 32 179 44 385 60 117 61 217 92 253 113 140 124 988 
990 0.02658866403446638 0.043369227246202034 0.9896955334570386 0 0 0 0.21 16 182 50 339 61 218 124 989 
991 -0.12661361780601674 0.0468440726429558 1.0066339555005566 0 0 0 0.07 16 183 28 205 124 990 
992 -0.036867649033289936 0.05789084334216563 0.9871632389600986 0 0 0 0.21 16 184 36 102 50 340 92 254 93 239 124 991 
993 -0.17507784896286718 -0.09137896892627487 1.0382869794946181 0 0 0 0.45 17 92 19 92 28 206 38 64 40 49 77 115 85 82 113 141 124 992 
994 0.14900485589055423 -0.08627721119580146 1.0038849531602183 0 0 0 0.32 28 207 32 180 92 255 124 993 
995 0.2933881659815867 -0.08151460834479245 1.0001897697991058 0 0 0 0.33 32 181 33 279 50 341 61 219 105 29 124 994 
996 0.042744313281314575 0.05894376810070701 0.9835978241024854 0 0 0 0.23 16 185 50 342 124 995 
997 0.12241590686273399 0.06468744671908136 0.9814231292850194 0 0 0 0.11 16 186 61 220 124 996 
998 -0.12997880467826145 -0.12947771839918845 1.0397572344453088 0 0 0 0.49 53 65 81 20 92 256 124 997 
999 0.06726737995618104 -0.055944455937984 1.0033906851379464 0 0 0 0.26 16 187 50 343 77 116 97 37 124 998 
1000 0.13356592585932578 -0.09092678618108965 1.0057611405832965 0 0 0 0.4 16 188 28 208 32 182 43 36 44 386 53 66 61 221 77 117 92 257 93 240 109 117 124 999 
1001 -0.16361741539021715 0.08522809814415866 1.005983483586597 0 0 0 0.46 50 344 61 222 96 46 97 38 124 1000 
1002 0.054320362713288106 -0.041602275703909404 1.0015876336876302 0 0 0 0.56 16 189 29 49 32 183 77 118 124 1001 
1003 -0.04897088241776754 0.07233328569077514 0.9854058178799351 0 0 0 0.13 16 190 111 79 124 1002 
1004 0.08525198411438215 0.10586948281089019 0.9679126095579988 0 0 0 0.61 16 191 50 345 124 1003 
1005 0.2638247791202713 -0.07468834385126774 0.9994328074000722 0 0 0 0.22 17 93 36 103 124 1004 
1006 -0.17203253044481395 -0.019261568250172056 1.0260455034827116 0 0 0 0.34 17 94 109 118 110 88 124 1005 
1007 0.13653176436572434 -0.10736894646697732 1.0018708716091254 0 0 0 0.2 17 95 50 346 124 1006 
1008 -0.22355740190562987 -0.07731168976739719 1.0444910413725121 0 0 0 0.31 17 96 29 50 43 37 50 347 77 119 92 258 96 47 110 89 113 142 124 1007 
1009 -0.1692302434745399 -0.017867837130129866 1.024663358377449 0 0 0 0.33 17 97 29 51 53 67 61 223 96 48 111 80 124 1008 
1010 -0.08890857623136564 0.05028257380534425 0.998705524417975 0 0 0 0.31 17 98 44 387 61 224 81 21 124 1009 
1011 -0.0022701576349115717 0.1279346796849113 0.9725441804342906 0 0 0 0.56 17 99 81 22 124 1010 
1012 -0.07752222388580815 -0.09219275636849412 1.0208952198177317 0 0 0 0.24 19 93 32 184 44 388 60 118 124 1011 
1013 -0.17169452588884335 -0.09627669064446695 1.0354376463843453 0 0 0 0.19 19 94 32 185 44 389 50 348 124 1012 
1014 -0.09859789457717487 -0.013241300363655659 1.0134440008775785 0 0 0 0.29 19 95 85 83 92 259 93 241 110 90 113 143 124 1013 
1015 -0.07803522313529519 0.08800917036850159 0.9911134682998474 0 0 0 0.14 19 96 32 186 33 280 44 390 124 1014 
1016 0.06605423863230493 0.10312334905979438 0.9750710043726697 0 0 0 0.17 19 97 44 391 50 349 124 1015 
1017 0.1410321413779878 0.13289782920059476 0.9661593297128382 0 0 0 0.38 19 98 50 350 124 1016 
1018 0.3005009599193815 -0.09396277705637157 0.9987589945614478 0 0 0 0.32 19 99 40 50 44 392 50 351 61 225 124 1017 
1019 0.3643070984235514 -0.08319498446116762 1.0003094788685982 0 0 0 0.31 19 100 32 187 77 120 92 260 93 242 124 1018 
1020 0.008245700734043558 -0.07891375571065468 1.0101395279874656 0 0 0 0.24 19 101 33 281 40 51 44 393 50 352 60 119 61 226 92 261 93 243 111 81 124 1019 
1021 0.07116600014391497 0.11482811887813785 0.9730407253780908 0 0 0 0.32 19 102 44 394 61 227 124 1020 
1022 -0.1552759039086054 0.12433107710533937 0.9916822569735625 0 0 0 0.24 19 103 44 395 124 1021 
1023 0.19598105433937238 -0.08580028707542701 1.0039604464199519 0 0 0 0.25 19 104 32 188 40 52 124 1022 
1024 0.1364422824376838 0.09243466166835072 0.9719152039032211 0 0 0 0.25 19 105 33 282 111 82 124 1023 
1025 -0.16471348775047037 0.10076060886079044 1.0004636521614234 0 0 0 0.39 19 106 77 121 92 262 124 1024 
1026 0.03386736792848519 0.10456247446798954 0.9778124674802913 0 0 0 0.23 19 107 44 396 81 23 92 263 111 83 124 1025 
1027 -0.04442277029468883 -0.0808507616213478 1.0096421758092915 0 0 0 0.98 28 209 29 52 36 104 96 49 124 1026 
1028 0.0774118048017713 -0.11666521178225171 1.0135956390009808 0 0 0 0.98 53 68 77 122 85 84 92 264 93 244 124 1027 
1029 -0.05608195112782609 -0.14529043295537009 1.02608251627285 0 0 0 0.14 28 210 109 119 124 1028 
1030 0.08154716475985291 -0.13100702214113918 1.0115481525968006 0 0 0 0.08 28 211 112 116 124 1029 
1031 -0.08184882142594826 -0.09876854558950247 1.0179023535291574 0 0 0 0.3 28 212 112 117 124 1030 
1032 -0.005198087304502444 -0.10439215874339966 1.0157167880444566 0 0 0 0.14 28 213 41 40 112 118 124 1031 
1033 -0.018181679179753593 -0.10014248301887194 1.0160946133636621 0 0 0 0.25 28 214 38 65 124 1032 
1034 0.2989891089421911 -0.15763392548460206 1.0061017058833124 0 0 0 0.25 28 215 112 119 124 1033 
1035 0.027160101959629732 -0.10162111286285096 1.0128929084082543 0 0 0 0.07 28 216 112 120 124 1034 
1036 0.19117915373031985 -0.1312109029562158 1.0099017326473503 0 0 0 0.29 28 217 50 353 112 121 124 1035 
1037 0.0290820143990518 -0.0994379096110578 1.0121687754535156 0 0 0 0.17 28 218 112 122 124 1036 
1038 -0.014608188856475985 -0.08760340619193684 1.014775622192871 0 0 0 0.2 28 219 93 245 124 1037 
1039 0.05389326381757518 -0.09371211540370905 1.0106083411473332 0 0 0 0.28 28 220 109 120 124 1038 
1040 -0.03157214397930598 -0.059805118167601146 1.0100761852165479 0 0 0 0.11 28 221 112 123 124 1039 
1041 -0.03157214397930598 -0.059805118167601146 1.0100761852165479 0 0 0 0.11 28 222 112 124 124 1040 
1042 -0.04417675174490778 -0.028077673371723743 1.0070461002989093 0 0 0 0.13 28 223 112 125 124 1041 
1043 -0.07358983087100844 -0.0170377808249902 1.010038194801657 0 0 0 0.19 28 224 112 126 124 1042 
1044 0.024406480665372043 -0.025128827608824143 1.002557028221436 0 0 0 0.34 28 225 93 246 124 1043 
1045 0.028932093144881432 -0.025277220691998736 1.0032829204792424 0 0 0 0.17 28 226 112 127 124 1044 
1046 -0.04130102514374899 -0.017028307392021942 1.0056698972869706 0 0 0 0.11 28 227 93 247 124 1045 
1047 0.08922422520130983 0.04968081050693181 0.9853541631965932 0 0 0 0.21 28 228 112 128 124 1046 
1048 0.2454986160952201 0.06766113259127206 0.975469323722507 0 0 0 0.48 28 229 93 248 105 30 124 1047 
1049 0.24572836453944713 0.06764121991063854 0.9755855097404076 0 0 0 0.35 28 230 105 31 124 1048 
1050 0.012091799534689536 0.10992108798589051 0.9760560996620816 0 0 0 0.21 28 231 93 249 124 1049 
1051 0.07718735963070031 -0.16243458266638838 1.020963658902142 0 0 0 0.29 28 232 92 265 124 1050 
1052 -0.0754329794290119 -0.09954071850558688 1.014674249398692 0 0 0 0.08 28 233 112 129 124 1051 
1053 -0.0936914432464628 -0.09445716822655326 1.0225212460791724 0 0 0 0.14 28 234 112 130 124 1052 
1054 -0.10231500159549568 -0.09030089604368607 1.0251345796471134 0 0 0 0.3 28 235 33 283 38 66 124 1053 
1055 -0.029477466627490827 -0.09950851466537869 1.0153380852375002 0 0 0 0.42 28 236 60 120 85 85 93 250 124 1054 
1056 0.08458606637025856 -0.11498254004868252 1.0130541894985394 0 0 0 0.29 28 237 50 354 61 228 124 1055 
1057 0.08060131671720334 -0.11184644034679743 1.0133189614791172 0 0 0 0.3 28 238 60 121 61 229 85 86 109 121 112 131 113 144 124 1056 
1058 0.2889352437578706 -0.14324029224331777 1.0108695826205099 0 0 0 0.42 28 239 93 251 124 1057 
1059 -0.010009409457372451 -0.08923496912263655 1.0129065117697924 0 0 0 0.45 28 240 93 252 124 1058 
1060 -0.0056326524220653386 -0.08427045805183463 1.0113894148246991 0 0 0 0.41 28 241 33 284 44 397 93 253 112 132 124 1059 
1061 -0.10184445302202987 -0.06412234542497941 1.0209094973100523 0 0 0 0.25 28 242 33 285 124 1060 
1062 0.15545178285421274 -0.08035982234757817 1.0042946256586764 0 0 0 0.07 28 243 112 133 124 1061 
1063 -0.0436729344411269 -0.029455780328406355 1.0060075413199485 0 0 0 0.42 28 244 50 355 124 1062 
1064 -0.01907270609261906 -0.02486459050490797 1.0066405622416312 0 0 0 0.19 28 245 33 286 124 1063 
1065 0.022419459660269946 -0.023657854706265028 1.0022744406078925 0 0 0 0.47 28 246 44 398 60 122 85 87 92 266 93 254 109 122 124 1064 
1066 0.0980407707911045 -0.026475331557022256 0.9996899516671467 0 0 0 0.24 28 247 110 91 124 1065 
1067 0.13422366873511385 0.03677127434051921 0.9821147742374776 0 0 0 0.12 28 248 112 134 124 1066 
1068 0.20098725915376417 0.0466545470054168 0.9814166364703325 0 0 0 0.21 28 249 112 135 124 1067 
1069 0.27603451738991247 0.04411026333237622 0.9768415260918323 0 0 0 0.34 28 250 112 136 124 1068 
1070 0.3039347174106867 0.06753313146665207 0.9773462340148279 0 0 0 0.41 28 251 93 255 124 1069 
1071 0.2513462699056167 0.09887960691675192 0.9671088576602968 0 0 0 0.5 28 252 36 105 124 1070 
1072 0.06836664828217637 0.12112266833059436 0.9728216934109757 0 0 0 0.34 28 253 93 256 124 1071 
1073 0.10319003843700232 0.12435818641679797 0.970166905144436 0 0 0 0.34 28 254 93 257 124 1072 
1074 -0.1846832387144547 -0.08348116640458478 1.0368988733928928 0 0 0 0.39 28 255 32 189 124 1073 
1075 -0.10407089715847334 -0.08742258637302568 1.0251846737178347 0 0 0 0.32 28 256 77 123 124 1074 
1076 0.19608622250926683 -0.12575462854991912 1.0105600726644806 0 0 0 0.23 28 257 29 53 32 190 36 106 50 356 53 69 92 267 93 258 96 50 124 1075 
1077 0.3822469194831271 -0.12360696671754424 1.0060993246803258 0 0 0 0.55 28 258 44 399 71 31 97 39 124 1076 
1078 -0.2154511605660369 -0.03101911190667995 1.038496207695043 0 0 0 0.51 28 259 33 287 44 400 124 1077 
1079 0.11612515361555466 -0.02305274458499075 0.9969579740716537 0 0 0 0.09 28 260 61 230 124 1078 
1080 -0.016705979344732762 -0.0074910091708310965 1.006338353029788 0 0 0 0.35 28 261 32 191 124 1079 
1081 -0.1254688727207835 0.049007430428999646 1.0069999218942318 0 0 0 0.19 28 262 38 67 124 1080 
1082 -0.1902384621468385 0.09622838811131937 1.0084939786744493 0 0 0 0.49 28 263 36 107 124 1081 
1083 0.24054737102403997 0.10568628511169702 0.9683423507550958 0 0 0 0.15 28 264 50 357 124 1082 
1084 0.2505588286000866 0.10993363726548354 0.9663821308264064 0 0 0 0.33 28 265 93 259 124 1083 
1085 0.14830125972120217 -0.16383007440504 1.0171585812093253 0 0 0 0.2 28 266 112 137 124 1084 
1086 -0.0984884478141223 -0.08767634313351375 1.0235127540326034 0 0 0 0.32 28 267 44 401 124 1085 
1087 0.11464700014583198 -0.11769577035221973 1.0070005681370573 0 0 0 0.24 28 268 44 402 50 358 124 1086 
1088 -0.06897423962063397 -0.07511091227243757 1.0118153790193445 0 0 0 0.32 28 269 92 268 124 1087 
1089 0.030499555429318786 -0.07440296144289132 1.006757184603656 0 0 0 0.22 28 270 36 108 124 1088 
1090 -0.025449272381394022 -0.013596307413708405 1.0040847219432325 0 0 0 0.13 28 271 32 192 36 109 50 359 113 145 124 1089 
1091 0.12405485632354848 -0.02305032120946772 0.9959757995163288 0 0 0 0.49 28 272 32 193 43 38 60 123 124 1090 
1092 -0.15667974029130693 0.10354549359804206 0.9988599693703419 0 0 0 0.33 28 273 113 146 124 1091 
1093 -0.12374331694793259 -0.16201829140179122 1.0405431409468362 0 0 0 0.46 28 274 92 269 124 1092 
1094 0.1453086462202675 -0.17402296407151852 1.021943612157232 0 0 0 0.33 28 275 93 260 124 1093 
1095 -0.025638877896810738 -0.01985993969095332 1.0054736392429717 0 0 0 0.3 28 276 41 41 124 1094 
1096 0.11850153870305599 -0.07178055173654482 1.0032700357064586 0 0 0 0.52 28 277 109 123 124 1095 
1097 0.3782857154144616 -0.11796028954362839 1.0054838233958947 0 0 0 0.3 28 278 97 40 124 1096 
1098 -0.007221277097086444 -0.1547175210683394 1.0260642993613658 0 0 0 1.32 28 279 32 194 92 270 93 261 124 1097 
1099 -0.06642989914757864 -0.1253891461243975 1.0276675684442858 0 0 0 0.59 29 54 32 195 44 403 124 1098 
1100 0.008512768552551845 -0.1223667065156202 1.0168512405012082 0 0 0 0.2 29 55 53 70 92 271 97 41 109 124 113 147 124 1099 
1101 0.09473284568258075 -0.09109933854088723 1.0084919880649552 0 0 0 0.25 29 56 53 71 61 231 124 1100 
1102 -0.10417702758796012 -0.04146552406191852 1.0189144544282223 0 0 0 0.21 29 57 92 272 109 125 110 92 113 148 124 1101 
1103 0.008636862500472114 -0.03744934879856488 1.0061350969366962 0 0 0 0.24 29 58 97 42 124 1102 
1104 -0.07137707637672645 -0.023501005197383407 1.007895760013697 0 0 0 0.13 29 59 32 196 43 39 61 232 96 51 113 149 124 1103 
1105 0.014446386769292786 0.04148195691968467 0.9925264917132095 0 0 0 0.14 29 60 50 360 61 233 124 1104 
1106 -0.14103028926618535 0.05114180651759442 1.0039445025876559 0 0 0 0.15 29 61 33 288 124 1105 
1107 -0.03065624894005454 -0.09251923223629237 1.0152945744607353 0 0 0 0.39 29 62 44 404 61 234 71 32 92 273 112 138 113 150 124 1106 
1108 -0.15064134282553795 -0.01375256193811104 1.0239056605388452 0 0 0 0.19 29 63 110 93 113 151 124 1107 
1109 -0.18764307622556098 0.05218203186734383 1.0086785437137809 0 0 0 0.3 29 64 44 405 124 1108 
1110 -0.03535388331506387 -0.08040684721751941 1.0117574780084981 0 0 0 0.73 29 65 36 110 44 406 92 274 93 262 124 1109 
1111 -0.06239917585562948 -0.05208135440796304 1.0117848610686688 0 0 0 0.72 29 66 36 111 43 40 44 407 92 275 124 1110 
1112 -0.04576128469323381 -0.06861993036142192 1.0104969095359195 0 0 0 0.99 29 67 41 42 43 41 97 43 111 84 124 1111 
1113 -0.04564525564664245 -0.06808343955792019 1.0088074463058092 0 0 0 0.25 29 68 71 33 124 1112 
1114 0.019753302036919034 -0.06818104591770312 1.0068482948002528 0 0 0 0.87 29 69 60 124 85 88 97 44 124 1113 
1115 -0.18240332688129232 -0.12562883382444362 1.0470492967311253 0 0 0 0.22 32 197 36 112 44 408 124 1114 
1116 -0.014458774315126162 -0.09576814727310282 1.0133289030111234 0 0 0 0.33 32 198 36 113 109 126 124 1115 
1117 0.2679121075573588 -0.08982535212971626 1.0020555759171643 0 0 0 0.38 32 199 91 31 105 32 124 1116 
1118 -0.026025903126226855 -0.08260620046772339 1.0119973641842221 0 0 0 0.15 32 200 92 276 124 1117 
1119 -0.026010386752533705 -0.08280076919694243 1.0125636139574874 0 0 0 0.17 32 201 50 361 92 277 124 1118 
1120 -0.0298834420972999 -0.08240776499995374 1.012661136714889 0 0 0 0.13 32 202 110 94 124 1119 
1121 0.01009727385021598 -0.08182036845920602 1.0097934935308919 0 0 0 0.29 32 203 61 235 92 278 124 1120 
1122 -0.19246445405288778 -0.08113723272687581 1.0388580142020312 0 0 0 0.4 32 204 61 236 124 1121 
1123 -0.06097247177696162 -0.054845225224412625 1.0121609599302026 0 0 0 0.13 32 205 36 114 124 1122 
1124 -0.007496914917986066 0.023527020153845495 1.002378613921793 0 0 0 0.23 32 206 50 362 124 1123 
1125 -0.10312226463198372 0.04396773213361157 0.9992132505929205 0 0 0 0.18 32 207 85 89 124 1124 
1126 0.1923808464570326 0.0578612077160994 0.9803533694247478 0 0 0 0.06 32 208 50 363 124 1125 
1127 0.03060712119089594 0.055968114323150756 0.9832038865203527 0 0 0 0.31 32 209 33 289 44 409 50 364 92 279 93 263 124 1126 
1128 0.09902006421912776 0.058386609329870415 0.9792402612396213 0 0 0 0.19 32 210 113 152 124 1127 
1129 0.06400700655893862 0.05824017926529412 0.9827072909880854 0 0 0 0.22 32 211 44 410 92 280 124 1128 
1130 0.018074724914613722 0.05882418991004052 0.9889339057041391 0 0 0 0.44 32 212 44 411 77 124 124 1129 
1131 0.16506279585214664 0.06248337083052778 0.9805969459534115 0 0 0 0.16 32 213 111 85 124 1130 
1132 0.05459556319291628 0.06161262355857348 0.9877092940509747 0 0 0 0.11 32 214 50 365 124 1131 
1133 -0.19796661354332246 0.05965557581387554 1.0157642977174879 0 0 0 0.44 32 215 33 290 124 1132 
1134 0.11380413348001489 0.06417806339834099 0.9803353273306189 0 0 0 0.15 32 216 50 366 124 1133 
1135 0.1954486963543812 0.06823203517101457 0.9828948948779231 0 0 0 0.22 32 217 50 367 124 1134 
1136 -0.03419893727307884 0.11031391218389137 0.9781055253457991 0 0 0 0.18 32 218 60 125 124 1135 
1137 0.31064437705431525 0.12307554207831438 0.9672998143393817 0 0 0 0.47 32 219 61 237 124 1136 
1138 0.12728861229340943 -0.10930633968455428 1.0054746557308967 0 0 0 0.35 32 220 36 115 44 412 93 264 96 52 113 153 124 1137 
1139 -0.009381505513921685 -0.10046221957911199 1.0155507097898522 0 0 0 0.13 32 221 97 45 124 1138 
1140 0.33260908932872757 -0.09371380962067954 0.9974829931752932 0 0 0 0.09 32 222 105 33 124 1139 
1141 -0.02412197710572931 -0.09679995550038104 1.014714245038584 0 0 0 0.19 32 223 44 413 92 281 124 1140 
1142 -0.2127315462973897 -0.09084599997170059 1.045133620704159 0 0 0 0.28 32 224 40 53 124 1141 
1143 0.1942087913973487 -0.08227281290040464 1.0031221087096638 0 0 0 0.24 32 225 44 414 111 86 124 1142 
1144 -0.0021372133405128256 -0.0844513179928508 1.0115533231589886 0 0 0 0.26 32 226 44 415 61 238 93 265 124 1143 
1145 0.030846027498042192 0.04438484628306181 0.9828314302893798 0 0 0 0.37 32 227 36 116 124 1144 
1146 -0.06724151159226147 0.04726681543412678 0.9863872812697154 0 0 0 0.24 32 228 36 117 110 95 113 154 124 1145 
1147 -0.06723315118311769 0.04721574860400646 0.9872295302161637 0 0 0 0.13 32 229 113 155 124 1146 
1148 -0.08580078660439594 0.05577428270850094 0.9960224856368449 0 0 0 0.12 32 230 60 126 124 1147 
1149 -0.06372588308457519 0.057246079700490345 0.9886147331202298 0 0 0 0.19 32 231 61 239 124 1148 
1150 -0.06123184070076829 0.08965546710063999 0.9819054047395146 0 0 0 0.34 32 232 36 118 61 240 124 1149 
1151 0.09883316104607076 0.13135330521482827 0.9732517019560195 0 0 0 0.21 32 233 50 368 124 1150 
1152 -0.15167493673345356 0.13280147885473834 0.9942955559456034 0 0 0 0.42 32 234 33 291 36 119 44 416 92 282 124 1151 
1153 0.0014074716658649693 -0.10056704452375091 1.0141857834045633 0 0 0 0.38 32 235 36 120 85 90 109 127 110 96 113 156 124 1152 
1154 -0.058420144222564405 -0.014974916909478804 1.0048076356706857 0 0 0 0.43 32 236 36 121 112 139 113 157 124 1153 
1155 -0.03887846748075542 -0.014873153400745971 1.0057793465999316 0 0 0 0.19 32 237 44 417 60 127 77 125 92 283 124 1154 
1156 0.09997843917116146 0.038781971511686955 0.9847775226824573 0 0 0 0.19 32 238 44 418 97 46 124 1155 
1157 0.10358904175476397 0.049471497588053456 0.9789803232388316 0 0 0 0.14 32 239 92 284 112 140 124 1156 
1158 -0.1977095007795448 0.09010663883392817 1.0115445557785423 0 0 0 0.28 32 240 60 128 92 285 124 1157 
1159 0.059961330082491826 0.09297039263454598 0.9831901976386521 0 0 0 0.4 32 241 53 72 96 53 124 1158 
1160 0.002026088997765445 -0.10549644831339341 1.0159908662433377 0 0 0 0.4 32 242 85 91 97 47 113 158 124 1159 
1161 -0.057933115641949216 -0.036749987795944995 1.0097463666461601 0 0 0 0.07 32 243 113 159 124 1160 
1162 0.04187627575171473 -0.027402263070776475 1.0014048544732437 0 0 0 0.12 32 244 113 160 124 1161 
1163 -0.037719521709162436 -0.0240689376047232 1.0059286877073728 0 0 0 0.37 32 245 41 43 97 48 113 161 124 1162 
1164 0.1482868797357096 -0.016164051959402185 0.9947138378434065 0 0 0 0.33 32 246 36 122 124 1163 
1165 -0.011540304108601393 -0.08119337255602152 1.0127621164217622 0 0 0 0.27 32 247 113 162 124 1164 
1166 0.10828016683536663 0.049791354322869165 0.9801917283524667 0 0 0 0.24 32 248 81 24 124 1165 
1167 -0.0850383873265676 0.08443446531028781 0.9948662754945828 0 0 0 0.21 32 249 60 129 124 1166 
1168 0.1914184731650877 -0.07028076709447025 1.002065423556825 0 0 0 0.82 32 250 36 123 44 419 96 54 124 1167 
1169 -0.074702644704275 -0.07076389552191742 1.0134646315237674 0 0 0 0.41 32 251 33 292 124 1168 
1170 -0.08563950638889385 0.05670027839577644 0.9931256517303451 0 0 0 0.45 32 252 43 42 92 286 124 1169 
1171 -0.03251150595057644 0.07171405319675207 0.9893855270209377 0 0 0 0.14 32 253 44 420 124 1170 
1172 -0.05819788455807236 -0.08527916808146528 1.015640067668904 0 0 0 1.03 32 254 36 124 110 97 124 1171 
1173 0.212236670094538 -0.0779400450659179 1.0015267341555838 0 0 0 0.89 32 255 93 266 124 1172 
1174 -0.029339262018930744 -0.05053706486667596 1.0087435149595505 0 0 0 0.32 32 256 33 293 124 1173 
1175 -0.029247673309598095 -0.05083971911108587 1.009485280975473 0 0 0 0.65 32 257 33 294 36 125 43 43 124 1174 
1176 0.0009434025893571606 0.07275074496807668 0.984038941451508 0 0 0 0.31 32 258 44 421 124 1175 
1177 0.01716779827957977 0.10497058011027992 0.9784779325918977 0 0 0 0.42 32 259 81 25 93 267 124 1176 
1178 0.02398039504200318 -0.11837549154750218 1.007885611571121 0 0 0 1.58 32 260 97 49 124 1177 
1179 0.06886638842964035 -0.18371196918334332 1.026347092472346 0 0 0 0.36 33 295 96 55 124 1178 
1180 0.31966661855389555 -0.09580066780369519 0.9968741131916867 0 0 0 0.65 33 296 93 268 124 1179 
1181 0.0760714433497344 -0.09876796328444881 1.0115418167374428 0 0 0 0.17 33 297 93 269 109 128 112 141 124 1180 
1182 0.0962939548407504 -0.017582393279375334 0.9983852433806837 0 0 0 0.26 33 298 109 129 124 1181 
1183 0.05639823239152699 -0.016036578239586267 0.9996199881391802 0 0 0 0.12 33 299 38 68 93 270 124 1182 
1184 -0.10196953300276082 0.06183031725713268 0.9955798448208026 0 0 0 0.25 33 300 93 271 124 1183 
1185 -0.03521844582271455 0.0633862303056269 0.9874616263495729 0 0 0 0.17 33 301 93 272 124 1184 
1186 -0.14546279618812805 0.0720160472716433 1.002817280509481 0 0 0 0.12 33 302 44 422 92 287 124 1185 
1187 0.03532020228121536 0.08392878771952747 0.9807972449499043 0 0 0 0.22 33 303 93 273 124 1186 
1188 0.19409952890701745 0.08814887724320108 0.9768457435761829 0 0 0 0.14 33 304 93 274 124 1187 
1189 0.2772281696652801 0.08840003229897579 0.9713800828937917 0 0 0 0.22 33 305 44 423 124 1188 
1190 -0.1860139934793703 0.10010872250965056 1.0026815593040128 0 0 0 0.32 33 306 44 424 92 288 124 1189 
1191 -0.10735955404906396 0.10412811809061297 0.9908528352366905 0 0 0 0.2 33 307 41 44 44 425 50 369 124 1190 
1192 -0.15858737009354767 0.10664741170165717 0.9977087539739954 0 0 0 0.19 33 308 50 370 110 98 124 1191 
1193 -0.030412132337670015 0.10600670374571636 0.9801932162562839 0 0 0 0.23 33 309 60 130 124 1192 
1194 -0.1527301010310908 0.1164485119515424 0.9964655663598478 0 0 0 0.18 33 310 93 275 124 1193 
1195 -0.034707947316265954 0.12312691949705523 0.9785888425882655 0 0 0 0.22 33 311 93 276 124 1194 
1196 -0.10350466827332754 0.12526660598688705 0.9865025261165259 0 0 0 0.3 33 312 41 45 124 1195 
1197 -0.1055854235029994 0.12962741555011706 0.985728421421296 0 0 0 0.26 33 313 41 46 50 371 124 1196 
1198 -0.15290278516038006 0.13855720614461436 0.9821069848235696 0 0 0 0.26 33 314 77 126 124 1197 
1199 -0.09864118281047103 -0.09670241160920795 1.021804634988853 0 0 0 0.26 33 315 40 54 124 1198 
1200 -0.17772736667357522 -0.09583612721154205 1.0356097216106759 0 0 0 0.06 33 316 50 372 124 1199 
1201 -0.010106918863317136 -0.08932834385439223 1.0134068848761792 0 0 0 0.35 33 317 44 426 124 1200 
1202 -0.22212438010143637 -0.08075618740335111 1.045058850445117 0 0 0 0.37 33 318 44 427 92 289 124 1201 
1203 -0.09713312802934793 -0.06343949705118618 1.0221877821742764 0 0 0 0.19 33 319 85 92 92 290 110 99 124 1202 
1204 0.08835011904343047 -0.011400182836711535 0.9986002582324797 0 0 0 0.22 33 320 93 277 124 1203 
1205 0.1988464078917888 0.057812553879028665 0.9797611528034793 0 0 0 0.22 33 321 44 428 110 100 124 1204 
1206 -0.020295447161410584 0.05592041686597143 0.9890174432254792 0 0 0 0.06 33 322 44 429 61 241 124 1205 
1207 0.19383473744434965 0.059946118466447866 0.9802293570774465 0 0 0 0.25 33 323 50 373 124 1206 
1208 -0.029474558520697528 0.06013572784949533 0.9871586925599785 0 0 0 0.17 33 324 44 430 50 374 85 93 124 1207 
1209 0.054135423096667815 0.09384888394293113 0.9829313606062239 0 0 0 0.24 33 325 44 431 60 131 61 242 111 87 124 1208 
1210 0.0333560561914325 0.10714493730203836 0.9766299909628431 0 0 0 0.15 33 326 93 278 124 1209 
1211 -0.030275316124805777 0.110989487365259 0.9806106885400602 0 0 0 0.28 33 327 44 432 124 1210 
1212 0.14131761927250536 0.12050420214090604 0.9673719500432925 0 0 0 0.35 33 328 50 375 124 1211 
1213 0.30922951756766903 0.060467792488417285 0.9726780306210117 0 0 0 0.34 33 329 50 376 93 279 124 1212 
1214 0.10187064854768935 -0.10086007113854252 1.0099216572112149 0 0 0 0.09 36 126 110 101 124 1213 
1215 -0.04097376454816702 -0.0940452417503602 1.0157406353467335 0 0 0 0.34 36 127 109 130 113 163 124 1214 
1216 0.104773448613091 -0.08132998446960268 1.005185260891301 0 0 0 0.17 36 128 110 102 124 1215 
1217 0.04424437903980848 -0.020251373709706186 1.0004269330199518 0 0 0 0.3 36 129 92 291 124 1216 
1218 0.025016226790400282 0.0419954839739155 0.991268161717411 0 0 0 0.07 36 130 92 292 124 1217 
1219 0.310123274657816 -0.1534372836286154 1.007187150667349 0 0 0 0.42 77 127 93 280 124 1218 
1220 0.09470712323784891 -0.09098135393257689 1.0082270968325022 0 0 0 0.25 36 131 53 73 124 1219 
1221 0.09825482106043261 0.10162883588961155 0.974905493410034 0 0 0 0.23 36 132 50 377 124 1220 
1222 -0.1457139041521169 0.12275963578697978 0.9987303136682001 0 0 0 0.27 36 133 44 433 92 293 124 1221 
1223 -0.18068449647337997 -0.026009931025424718 1.0311277314251963 0 0 0 0.42 36 134 92 294 109 131 124 1222 
1224 -0.147682782517331 0.10197674098184736 0.9981989934829242 0 0 0 0.26 36 135 44 434 92 295 110 103 111 88 124 1223 
1225 -0.0582457885613069 -0.08583923041361341 1.0180029158778925 0 0 0 0.55 36 136 43 44 44 435 71 34 77 128 85 94 124 1224 
1226 -0.046577348979739364 -0.08834232834081016 1.0151353387700934 0 0 0 0.14 38 69 109 132 124 1225 
1227 -0.13712505716704795 -0.03162659778553002 1.0244204262656111 0 0 0 0.15 38 70 60 132 124 1226 
1228 -0.056893379095903245 -0.014730803763263047 1.006265322625532 0 0 0 0.14 38 71 41 47 124 1227 
1229 0.2699423865069512 0.11055622138380453 0.9683014068582395 0 0 0 0.14 43 45 53 74 71 35 124 1228 
1230 0.13229851290127664 -0.09875150663310146 1.0060203313641842 0 0 0 0.33 40 55 109 133 124 1229 
1231 0.13622880977290866 0.08589197167168816 0.973763539879399 0 0 0 0.22 40 56 44 436 50 378 61 243 124 1230 
1232 0.13654158399873137 0.09977876182496903 0.9713343941938026 0 0 0 0.09 40 57 111 89 124 1231 
1233 0.1735747372229846 -0.015459648410847198 0.9922400633771908 0 0 0 0.08 41 48 53 75 124 1232 
1234 0.22078250633251262 0.04656831250956326 0.9829028135855563 0 0 0 0.18 41 49 50 379 124 1233 
1235 0.11241283072071416 -0.017221156510692837 0.9970867704711692 0 0 0 0.44 41 50 97 50 112 142 124 1234 
1236 -0.15696841255975036 -0.03467750207461661 1.028869525116911 0 0 0 0.36 41 51 50 380 71 36 124 1235 
1237 -0.10918255177435414 0.13768742543253998 0.9840518448041586 0 0 0 0.33 43 46 53 76 96 56 124 1236 
1238 0.19377447710531528 -0.12244046175667307 1.0128501645996886 0 0 0 0.43 43 47 44 437 124 1237 
1239 0.002890816345695374 -0.08925672585247682 1.010935002682211 0 0 0 0.24 44 438 50 381 124 1238 
1240 -0.01543691723000594 -0.08874450108589219 1.0140539841175562 0 0 0 0.36 44 439 113 164 124 1239 
1241 0.10165527437075042 -0.08633228129375768 1.007245228806508 0 0 0 0.24 44 440 112 143 124 1240 
1242 0.1735944901633653 -0.082445202751458 1.0037966633757214 0 0 0 0.26 44 441 50 382 61 244 124 1241 
1243 -0.20043606371354714 -0.06965199997474328 1.045112556664813 0 0 0 0.12 44 442 92 296 124 1242 
1244 0.032408976352350516 -0.05711462893897559 1.0055199518582518 0 0 0 0.23 44 443 93 281 124 1243 
1245 -0.21555234431231207 -0.05494653502632324 1.0448842818076167 0 0 0 0.2 44 444 60 133 124 1244 
1246 -0.01015084446406368 -0.029718120937981186 1.0060922776705155 0 0 0 0.15 44 445 50 383 124 1245 
1247 -0.006583340061878277 -0.02977697855675468 1.0064516674065216 0 0 0 0.22 44 446 50 384 93 282 124 1246 
1248 -0.038217305451755494 -0.017665967174117055 1.0046592969484036 0 0 0 0.2 44 447 50 385 61 245 124 1247 
1249 0.19953743658948817 -0.010229091257033264 0.9968377717616597 0 0 0 0.16 44 448 109 134 124 1248 
1250 0.03438506141561132 0.033258242001388716 0.9878712136571408 0 0 0 0.14 44 449 60 134 124 1249 
1251 0.00015507662836837814 0.05261108717153146 0.985293746416516 0 0 0 0.12 44 450 50 386 92 297 124 1250 
1252 0.23350796282772562 0.06316403026331233 0.9801882157057019 0 0 0 0.43 44 451 50 387 92 298 124 1251 
1253 -0.09498821016624533 0.06065673624592616 0.998898962743591 0 0 0 0.09 44 452 50 388 124 1252 
1254 -0.14112385066436778 0.060737127305064455 1.001606019945073 0 0 0 0.1 44 453 60 135 124 1253 
1255 -0.1934069725607752 0.06540358194103232 1.010576988550713 0 0 0 0.16 44 454 50 389 124 1254 
1256 -0.19333939368561154 0.07955317268857375 1.0091567968228354 0 0 0 0.44 44 455 53 77 61 246 85 95 110 104 124 1255 
1257 -0.1863788203492461 0.08428008981848437 1.0068180206607158 0 0 0 0.27 44 456 50 390 60 136 124 1256 
1258 -0.1863788203492461 0.08428008981848437 1.0068180206607158 0 0 0 0.27 44 457 50 391 60 137 124 1257 
1259 0.2636836666426576 0.0949704432808509 0.9737581774156482 0 0 0 0.1 44 458 93 283 124 1258 
1260 0.21099293591604534 0.09834790397390339 0.9713125919821853 0 0 0 0.32 44 459 93 284 124 1259 
1261 -0.166046525129616 0.09629074538331694 1.0023314297247106 0 0 0 0.12 44 460 77 129 124 1260 
1262 0.34515961880236734 -0.08075435910084244 0.9970324493037505 0 0 0 0.34 44 461 92 299 124 1261 
1263 0.3153282535024753 0.06014269478748159 0.9725322991716266 0 0 0 0.11 44 462 50 392 105 34 124 1262 
1264 -0.18252549324726486 0.05905841728545456 1.0099417107933 0 0 0 0.32 44 463 92 300 124 1263 
1265 -0.1694209390231423 0.05898716667462119 1.0131147285936328 0 0 0 0.23 44 464 61 247 124 1264 
1266 -0.017883244601126 0.08707445303456847 0.9866947335499802 0 0 0 0.4 44 465 61 248 93 285 124 1265 
1267 -0.19335052501284722 0.09272790203049597 1.0053166502393145 0 0 0 0.31 44 466 92 301 124 1266 
1268 -0.17814913985904837 0.09532957914953166 1.0025049605324794 0 0 0 0.39 44 467 92 302 113 165 124 1267 
1269 -0.17243961005479522 0.09652446830134345 1.0038923306862713 0 0 0 0.09 44 468 77 130 124 1268 
1270 -0.12187000709584615 -0.12608808402103458 1.038319775021189 0 0 0 0.55 44 469 71 37 124 1269 
1271 0.008187707476992215 -0.05865551781666875 1.006714121267633 0 0 0 0.32 44 470 113 166 124 1270 
1272 -0.1596210126270877 0.08922025003946982 1.0088326069279407 0 0 0 1.06 44 471 60 138 110 105 124 1271 
1273 -0.11276349274188797 0.09063311289151965 0.9927970080533925 0 0 0 0.44 44 472 60 139 124 1272 
1274 0.023716312843701296 -0.10961318920333833 1.015139357386001 0 0 0 0.27 44 473 61 249 92 303 124 1273 
1275 0.18583323934712084 -0.023418947192070702 0.9948794212586403 0 0 0 0.24 44 474 92 304 124 1274 
1276 -0.12453614010683746 0.05545992605366744 1.0051002934360276 0 0 0 0.39 44 475 61 250 92 305 110 106 124 1275 
1277 0.0011643762580184677 0.12151695272486894 0.9749352220644949 0 0 0 0.44 44 476 50 393 124 1276 
1278 0.07913862333631369 0.10035835714762317 0.9763623913741443 0 0 0 0.4 44 477 60 140 111 90 124 1277 
1279 0.0026532213045916547 0.1258031484579419 0.9730960449756891 0 0 0 0.34 44 478 50 394 124 1278 
1280 -0.0036930889060456133 0.11939775571295623 0.9783630075599301 0 0 0 0.41 44 479 81 26 124 1279 
1281 0.11213305567001854 -0.08918475618019489 1.0067184049365312 0 0 0 0.45 44 480 50 395 61 251 110 107 124 1280 
1282 0.2287693205966612 0.05996478047053425 0.9789070851167982 0 0 0 0.39 44 481 77 131 124 1281 
1283 0.019286783259616937 -0.04116696647906021 1.002710250739517 0 0 0 0.41 44 482 97 51 124 1282 
1284 0.2481581472470758 -0.07919349413280745 1.0007124086548629 0 0 0 0.32 50 396 92 306 124 1283 
1285 -0.00662649668835386 -0.029772459935750638 1.0059090493665719 0 0 0 0.08 50 397 113 167 124 1284 
1286 -0.07462029039102638 -0.026453226170955826 1.0103373733280265 0 0 0 0.21 50 398 92 307 124 1285 
1287 0.2026264871393614 -0.015191896847341988 0.9950532353232262 0 0 0 0.24 50 399 112 144 124 1286 
1288 0.00470706344836803 0.05569545889615062 0.9841089702250381 0 0 0 0.27 50 400 60 141 61 252 124 1287 
1289 -0.03690919846833546 0.05783402026966407 0.9872684266130167 0 0 0 0.14 50 401 93 286 124 1288 
1290 -0.08896227718662031 0.09128525588350832 0.9925789119713353 0 0 0 0.15 50 402 93 287 124 1289 
1291 0.38016107960191053 -0.12595927851554545 1.008264802005815 0 0 0 0.28 50 403 71 38 124 1290 
1292 -0.05523091225411869 -0.08298338909063269 1.014618065188463 0 0 0 0.08 50 404 112 145 124 1291 
1293 0.3339781135837562 -0.01386099436566884 0.991088308139188 0 0 0 0.13 50 405 53 78 124 1292 
1294 0.02241764066934179 0.03843900821997371 0.994650628625149 0 0 0 0.28 50 406 61 253 124 1293 
1295 -0.17877729349721533 0.06006177989992288 1.0125369165539075 0 0 0 0.18 50 407 61 254 92 308 124 1294 
1296 -0.09761765917693804 0.0585034744455991 0.9986573230308713 0 0 0 0.14 50 408 61 255 124 1295 
1297 0.11883209736598595 0.06687349721447229 0.9819900941101813 0 0 0 0.17 50 409 61 256 124 1296 
1298 -0.15704235391891846 0.07855766444383007 1.002813277011372 0 0 0 0.4 50 410 111 91 124 1297 
1299 0.017286697045563668 0.09913060246040377 0.9839487437547774 0 0 0 0.21 50 411 111 92 124 1298 
1300 0.034029752641800234 0.11321880294209517 0.9615699400344367 0 0 0 0.27 50 412 53 79 124 1299 
1301 0.06598649646593382 0.13063992648899772 0.9589229886933227 0 0 0 0.21 50 413 61 257 124 1300 
1302 0.019910747017237655 0.1344075152680263 0.9743707322228828 0 0 0 0.19 50 414 61 258 124 1301 
1303 0.06128838156982945 -0.07291391838966071 1.0088972850205935 0 0 0 0.37 50 415 93 288 124 1302 
1304 -0.04602989631117821 -0.013918527879583515 1.0073288573759869 0 0 0 0.66 50 416 97 52 124 1303 
1305 -0.046417804375289355 0.002581022253947191 1.0032696597210606 0 0 0 0.11 50 417 110 108 124 1304 
1306 -0.046417804375289355 0.002581022253947191 1.0032696597210606 0 0 0 0.11 50 418 110 109 124 1305 
1307 0.08398757730248799 -0.09383517080106242 1.0097514660391904 0 0 0 0.19 53 80 92 309 124 1306 
1308 0.13761228616016188 -0.0780438144079931 1.00305835104221 0 0 0 0.18 53 81 85 96 93 289 124 1307 
1309 0.08614574803446329 -0.10768974746352343 1.0119928185590847 0 0 0 0.24 53 82 92 310 109 135 110 110 124 1308 
1310 -0.06745854425865055 -0.01491682536915212 1.0034495834139465 0 0 0 0.37 53 83 85 97 92 311 109 136 113 168 124 1309 
1311 -0.19158121867598896 0.038390392361765474 1.0133732633025332 0 0 0 0.19 53 84 97 53 124 1310 
1312 -0.07732802258412416 -0.022256968608369662 1.0111545788735696 0 0 0 0.16 53 85 81 27 124 1311 
1313 0.0711462011805166 -0.10074537458348296 1.010415624329309 0 0 0 0.24 53 86 96 57 124 1312 
1314 0.1575230741616112 0.09285191485307413 0.9742880949982091 0 0 0 0.18 53 87 109 137 124 1313 
1315 0.02734034715931113 -0.11299591042679316 1.0150683259023627 0 0 0 0.13 60 142 112 146 113 169 124 1314 
1316 -0.181191231732402 -0.059479118642171216 1.0360779138504934 0 0 0 0.3 60 143 113 170 124 1315 
1317 -0.21896213053299923 -0.05932968035916273 1.0424656115611246 0 0 0 0.27 60 144 110 111 124 1316 
1318 0.024146656128850485 -0.016580379361000524 1.001687463859137 0 0 0 0.1 60 145 93 290 124 1317 
1319 -0.10312850754261008 -0.005569778530797847 1.0109627776197931 0 0 0 0.09 60 146 109 138 124 1318 
1320 -0.14237798215543632 0.024154672626643184 1.0129221341581007 0 0 0 0.28 60 147 85 98 92 312 124 1319 
1321 -0.10305546853145582 0.0839534894402414 0.9959221794851034 0 0 0 0.2 60 148 113 171 124 1320 
1322 -0.13648190409870814 0.08716596486404239 0.9975687917312731 0 0 0 0.53 60 149 113 172 124 1321 
1323 0.026701863448149194 -0.014537832653577802 1.0021104985404012 0 0 0 0.14 60 150 111 93 124 1322 
1324 -0.10523117170159108 0.04242290946162437 0.9951618532058932 0 0 0 0.24 60 151 92 313 124 1323 
1325 0.044931578974303533 -0.12718347943589925 1.0175188916081728 0 0 0 0.27 60 152 92 314 124 1324 
1326 -0.08727123774298243 0.08922223458825895 0.9899053140397033 0 0 0 0.15 60 153 81 28 124 1325 
1327 0.010422278269533859 -0.1523561645555148 1.0228927299955282 0 0 0 0.22 61 259 77 132 124 1326 
1328 0.09600104294008573 -0.11491702697030205 1.0124378524560518 0 0 0 0.29 61 260 109 139 124 1327 
1329 0.044846886505752526 -0.016884599049068298 1.0003032788161912 0 0 0 0.42 61 261 109 140 124 1328 
1330 0.08852939094192715 -0.01656774708909285 0.9988631998248919 0 0 0 0.2 61 262 93 291 112 147 124 1329 
1331 -0.02306125190470352 0.043680067542833434 0.9918720329690792 0 0 0 0.21 61 263 92 315 124 1330 
1332 0.06591884431654267 0.044679929055464994 0.9825194303390603 0 0 0 0.21 61 264 92 316 124 1331 
1333 0.09982021848931338 -0.1109628284434493 1.0105667633536723 0 0 0 0.32 61 265 92 317 96 58 109 141 113 173 124 1332 
1334 0.026682058842128077 -0.1064018937892089 1.0139755504009758 0 0 0 0.26 61 266 92 318 96 59 113 174 124 1333 
1335 0.10167270602054103 0.13923507091449264 0.9691160708488394 0 0 0 0.11 61 267 93 292 124 1334 
1336 -0.01538471540640523 0.07167448542737306 0.9866040877839269 0 0 0 0.05 61 268 81 29 124 1335 
1337 -0.17008067987877676 0.059044046929429585 1.010459873870806 0 0 0 0.69 71 39 97 54 124 1336 
1338 -0.10261725651244044 -0.024063624429338248 1.0113933772052794 0 0 0 0.2 71 40 113 175 124 1337 
1339 -0.1703679830069544 -0.026139774084345955 1.0276097164596152 0 0 0 0.14 77 133 110 112 124 1338 
1340 0.10614045417544701 -0.04587079741718705 0.9976216814419218 0 0 0 0.58 77 134 97 55 124 1339 
1341 0.009729215275188146 0.13054289551021234 0.9732943190385739 0 0 0 0.34 81 30 92 319 124 1340 
1342 -0.0014780835378952497 0.1021848541183171 0.9674834319053093 0 0 0 0.57 81 31 97 56 124 1341 
1343 0.2037319399977097 -0.15540917016000555 1.011948752729829 0 0 0 0.35 85 99 93 293 124 1342 
1344 -0.027046846672198085 -0.08902847195081663 1.0135660190181077 0 0 0 0.21 85 100 93 294 124 1343 
1345 -0.09465430559157267 -0.09696550579958793 1.0217601964383292 0 0 0 0.44 85 101 111 94 124 1344 
1346 -0.21464488879216786 -0.06575968972784879 1.0444713934145866 0 0 0 0.06 85 102 92 320 124 1345 
1347 -0.14587193924042885 -0.05092443143932224 1.0270638929786593 0 0 0 0.12 85 103 110 113 124 1346 
1348 0.07019500696543475 -0.10174462988588864 1.0112713465562526 0 0 0 0.3 85 104 92 321 109 142 113 176 124 1347 
1349 -0.13786735015301171 0.1413418457920734 0.9931887564706231 0 0 0 0.46 85 105 92 322 113 177 124 1348 
1350 -0.17721837653469713 -0.11540412406724612 1.048305596475691 0 0 0 0.43 85 106 92 323 124 1349 
1351 0.047480313040562876 -0.07224392606067119 1.0070046826006365 0 0 0 0.54 85 107 93 295 124 1350 
1352 0.09719693774007712 -0.11068389835809869 1.0119533409827053 0 0 0 0.31 92 324 109 143 112 148 124 1351 
1353 0.05292571649312202 -0.1045613022547774 1.0118341127563812 0 0 0 0.19 92 325 93 296 124 1352 
1354 -0.18029640700416258 -0.0665427634534436 1.0352036837611913 0 0 0 0.24 92 326 110 114 113 178 124 1353 
1355 -0.10292109443486 -0.030046320391103692 1.0166017628033142 0 0 0 0.23 92 327 113 179 124 1354 
1356 0.007025451723485019 -0.019716790496797143 1.0019985242881313 0 0 0 0.21 92 328 109 144 124 1355 
1357 0.13555263184930677 -0.015385855426883824 0.9944301655701016 0 0 0 0.35 92 329 93 297 124 1356 
1358 -0.1400476683125066 0.08766588117513432 1.003336843699293 0 0 0 0.22 92 330 110 115 113 180 124 1357 
1359 -0.14161653837995672 0.08776626876975639 0.9992120802747501 0 0 0 0.13 92 331 113 181 124 1358 
1360 -0.1800397254426702 0.10291881289583864 0.9995219289647533 0 0 0 0.26 92 332 113 182 124 1359 
1361 0.05827404169417606 0.06135620913440509 0.9870118467124487 0 0 0 0.22 92 333 111 95 124 1360 
1362 -0.11606310849165577 0.0937230069325602 0.9934708363982978 0 0 0 0.4 92 334 111 96 124 1361 
1363 -0.1806876195340405 -0.009720646155235558 1.0294855779690089 0 0 0 0.27 92 335 110 116 124 1362 
1364 -0.18899780552736256 -0.009339840186605382 1.0267804441972157 0 0 0 0.12 92 336 93 298 124 1363 
