# 3D point list with one line of data per point:
#   POINT3D_ID, X, Y, Z, R, G, B, ERROR, TRACK[] as (IMAGE_ID, POINT2D_IDX)
# Number of points: 395, mean track length: 4.02
0 -0.004129147581037214 -0.11555405363469631 1.0478873356724296 0 0 0 0.18 2 0 107 0 213 0 
1 -0.23595378805677164 -0.10288021202786513 1.0767900016712824 0 0 0 0.25 2 1 107 1 224 0 
2 0.08332991242472249 -0.0935223946493761 1.039751170106014 0 0 0 0.21 2 2 107 2 196 0 214 0 
3 0.1452659348136673 -0.09001078599366506 1.034876720400339 0 0 0 0.22 2 3 107 3 196 1 197 0 200 0 213 1 214 1 
4 0.23591686128153325 -0.08844349979659803 1.0328540020537855 0 0 0 0.21 2 4 107 4 194 0 213 2 214 2 
5 0.25617842894525394 -0.08819898880702276 1.03340226192743 0 0 0 0.34 2 5 107 5 184 0 196 2 200 1 213 3 214 3 
6 0.3372081208042317 -0.08758057550114295 1.0308287947541872 0 0 0 0.12 2 6 107 6 196 3 
7 0.36958484267592234 -0.08700505423197306 1.0299643140990566 0 0 0 0.21 2 7 107 7 184 1 196 4 
8 -0.18963726373250758 -0.0908572901478913 1.0702644006523216 0 0 0 0.23 2 8 3 0 107 8 185 0 196 5 200 2 213 4 220 0 224 1 232 0 
9 0.15489720435978846 -0.08713494837552893 1.0341422950026826 0 0 0 0.14 2 9 107 9 200 3 214 4 
10 -0.2808415314959727 -0.08951852155159136 1.0877119802928117 0 0 0 0.13 2 10 107 10 213 5 224 2 
11 -0.2808415314959733 -0.08951852155159129 1.0877119802928135 0 0 0 0.13 2 11 107 11 213 6 224 3 
12 -0.22885510845796891 -0.015103943114063682 1.0673192119151589 0 0 0 0.27 2 12 107 12 196 6 200 4 213 7 224 4 227 0 232 1 
13 0.2744066602395581 -0.011447735521708635 1.0234953319663858 0 0 0 0.22 2 13 107 13 184 2 213 8 
14 0.41285427338900427 0.003105066410170268 1.0215186405400196 0 0 0 0.17 2 14 107 14 235 0 
15 -0.23442932102121172 0.04495970038326286 1.05195557068869 0 0 0 0.14 2 15 107 15 196 7 224 5 
16 0.1456713524220791 0.0447034076700866 1.0067153264356925 0 0 0 0.28 2 16 107 16 200 5 213 9 214 5 
17 0.4043653354857144 0.05824004294775653 1.0052508278362373 0 0 0 0.15 2 17 107 17 235 1 
18 -0.2652208872450078 0.06324439074539255 1.0593740047336981 0 0 0 0.11 2 18 107 18 224 6 
19 0.3938332683262498 0.06427296675994697 1.0036311763176904 0 0 0 0.12 2 19 107 19 194 1 235 2 
20 0.35685637162208333 0.06519123530654637 1.001801057977941 0 0 0 0.11 2 20 107 20 213 10 235 3 
21 0.432388398297648 0.06656298870469327 1.0155787002857375 0 0 0 0.22 2 21 107 21 235 4 
22 0.432388398297648 0.06656298870469327 1.0155787002857375 0 0 0 0.22 2 22 107 22 235 5 
23 0.42245564136732744 0.07871692301804735 1.0125041242644586 0 0 0 0.1 2 23 107 23 194 2 
24 0.4044299951358924 0.08187848380410348 1.0032568635361785 0 0 0 0.17 2 24 107 24 235 6 
25 0.40743400452076023 0.08579168018989397 1.0054266556353963 0 0 0 0.19 2 25 107 25 235 7 
26 0.4314119180853874 0.0866546563091045 1.0135657185642744 0 0 0 0.14 2 26 107 26 184 3 
27 0.36898278735789913 0.08547200043556248 0.9970119273113631 0 0 0 0.07 2 27 107 27 235 8 
28 0.3654350467743444 0.08783946145600412 0.9966220014941342 0 0 0 0.06 2 28 107 28 194 3 
29 0.32097059554566193 0.09166395954496172 0.9966573102032908 0 0 0 0.35 2 29 107 29 196 8 
30 0.2662705527668074 0.0958515386616029 0.9998298745668414 0 0 0 0.4 2 30 107 30 194 4 213 11 220 1 222 0 
31 0.39953025000221604 0.096961201196555 0.997802713467048 0 0 0 0.2 2 31 107 31 184 4 213 12 235 9 
32 0.2704061214288205 0.09955751350889047 1.0002514893825394 0 0 0 0.18 2 32 107 32 184 5 194 5 
33 0.27533614511496585 0.10294185572432121 0.9935568335615226 0 0 0 0.07 2 33 107 33 196 9 
34 0.2951231804364477 0.10873429230989097 0.9961177953793485 0 0 0 0.33 2 34 107 34 213 13 
35 0.3899675252770154 0.10903652770214227 0.9953239033367325 0 0 0 0.2 2 35 107 35 196 10 
36 0.21682958286963813 0.10989078953868738 0.9972179169897647 0 0 0 0.2 2 36 107 36 194 6 
37 0.43532411938832655 0.11266402047193971 1.0124965302928457 0 0 0 0.21 2 37 107 37 194 7 
38 0.23788179190991726 0.11143534176560904 0.9947522809495558 0 0 0 0.25 2 38 107 38 196 11 213 14 
39 0.27615388789990003 0.1121869667972136 0.9936323861278311 0 0 0 0.1 2 39 107 39 194 8 213 15 
40 0.22620352561358684 0.11325237563533073 0.9962942017769826 0 0 0 0.19 2 40 107 40 213 16 
41 0.22617729375685514 0.11327262398763811 0.996259076760378 0 0 0 0.13 2 41 107 41 194 9 200 6 213 17 
42 0.23256325340743308 0.11358733473803659 0.996988932331849 0 0 0 0.09 2 42 107 42 200 7 
43 0.39097784597596774 0.11781353237774352 0.9967299473271074 0 0 0 0.19 2 43 107 43 197 1 235 10 
44 0.18266871158935005 0.12151878294813843 0.9964229247702175 0 0 0 0.09 2 44 107 44 182 0 196 12 200 8 
45 0.3593581977107858 0.1225046470492947 0.9898157907344514 0 0 0 0.27 2 45 107 45 196 13 
46 0.11137357290831967 0.12483327274350496 0.9984761971283231 0 0 0 0.16 2 46 107 46 196 14 200 9 
47 0.36717643819234946 0.12837087805597347 0.9896754569693165 0 0 0 0.08 2 47 107 47 184 6 
48 0.3978119742803541 0.13063200468047081 0.9931454597857976 0 0 0 0.16 2 48 107 48 184 7 213 18 235 11 
49 0.38797722855255545 0.1341605774772995 0.9915033878068108 0 0 0 0.13 2 49 107 49 184 8 196 15 213 19 
50 0.32701963881374835 0.14647354086163927 0.9867310135808918 0 0 0 0.1 2 50 107 50 196 16 
51 0.1254855511616562 -0.090471997897652 1.0366165661986728 0 0 0 0.18 2 51 107 51 196 17 197 2 214 6 220 2 
52 0.3849249783709331 -0.08921687742626568 1.0332060129260965 0 0 0 0.27 2 52 107 52 184 9 196 18 220 3 235 12 
53 0.32600829061663616 -0.08772837929875414 1.0320081798606706 0 0 0 0.04 2 53 107 53 182 1 
54 0.3303861986842693 -0.08755111081161324 1.0308305843641965 0 0 0 0.24 2 54 107 54 182 2 196 19 197 3 200 10 213 20 
55 -0.2333549357839505 -0.09014497018566384 1.078328316689701 0 0 0 0.23 2 55 3 1 107 55 196 20 213 21 220 4 224 7 227 1 
56 -0.23326511868958796 -0.09016541752621315 1.0783162369423833 0 0 0 0.18 2 56 107 56 213 22 220 5 224 8 227 2 
57 0.33192892227542664 -0.0849925470523389 1.0313812814959347 0 0 0 0.23 2 57 107 57 196 21 
58 -0.21220671935636673 -0.08787099563807126 1.0740821857675844 0 0 0 0.11 2 58 107 58 200 11 224 9 
59 0.39352270344335205 -0.08366895913353639 1.0323500766648286 0 0 0 0.17 2 59 107 59 182 3 184 10 213 23 235 13 
60 -0.21773650437152534 -0.08757435626413863 1.0748649976801 0 0 0 0.15 2 60 3 2 107 60 185 1 224 10 232 2 
61 -0.18234743485400262 -0.08426717282213364 1.0689370395103983 0 0 0 0.41 2 61 107 61 220 6 
62 -0.35554711304111614 -0.0668058232861404 1.099817335824348 0 0 0 0.32 2 62 3 3 107 62 
63 -0.17611895231521477 -0.030173821516950628 1.0597922926134555 0 0 0 0.37 2 63 107 63 196 22 200 12 213 24 214 7 220 7 221 0 224 11 
64 0.38115578761903884 -0.02814454194314085 1.0221586485931078 0 0 0 0.32 2 64 107 64 184 11 
65 -0.3064031255435652 -0.019491625938547943 1.0820009052094908 0 0 0 0.1 2 65 107 65 224 12 
66 0.3980790860653007 -6.402742488673432e-05 1.015616554455664 0 0 0 0.11 2 66 107 66 235 14 
67 0.40983726016057237 0.011595300819348208 1.0200553566861634 0 0 0 0.31 2 67 107 67 182 4 220 8 235 15 
68 0.4172124572987629 0.011968742999147118 1.0229943903183687 0 0 0 0.27 2 68 107 68 213 25 235 16 
69 0.4323313901553868 0.018675777918592863 1.0275157292181698 0 0 0 0.17 2 69 107 69 184 12 235 17 
70 0.4290001858887976 0.021282512221642638 1.0263118971892584 0 0 0 0.19 2 70 107 70 194 10 235 18 
71 0.33021538342934376 0.04461237692897712 1.0023308941164197 0 0 0 0.28 2 71 107 71 213 26 232 3 235 19 
72 -0.25654291397280915 0.04767183641901618 1.0602751092956937 0 0 0 0.16 2 72 107 72 196 23 224 13 
73 -0.2565663591328651 0.04766319782963034 1.0602613453004046 0 0 0 0.19 2 73 107 73 196 24 
74 -0.27022226516759995 0.05303922455593563 1.0579553346993475 0 0 0 0.27 2 74 107 74 224 14 
75 -0.2678963942252924 0.061200884860670095 1.0580920242224399 0 0 0 0.11 2 75 107 75 196 25 224 15 
76 0.14410907640444523 0.060326419794251754 1.0042954982019103 0 0 0 0.55 2 76 107 76 185 2 200 13 220 9 
77 0.22112230389457285 0.06122211724453898 1.0049137933452108 0 0 0 0.15 2 77 107 77 182 5 200 14 
78 0.29307944035371053 0.062258412299650796 1.0026945117886952 0 0 0 0.17 2 78 107 78 182 6 196 26 200 15 
79 0.354230423122623 0.06343744048042514 1.002378028241397 0 0 0 0.18 2 79 107 79 184 13 214 8 
80 -0.2473859211390372 0.06567114349519891 1.0498951719468725 0 0 0 0.26 2 80 107 80 217 0 
81 0.38999899764013424 0.0642825482167172 1.0048414149100127 0 0 0 0.14 2 81 107 81 197 4 213 27 222 1 235 20 
82 -0.19222665549448234 0.06631976336067258 1.0399176666731373 0 0 0 0.25 2 82 107 82 224 16 
83 -0.2766371330739358 0.07037267976252166 1.056765877453162 0 0 0 0.17 2 83 107 83 224 17 
84 0.38910438707227607 0.06959422004323376 1.0061142611390574 0 0 0 0.15 2 84 107 84 184 14 213 28 
85 0.404054977972012 0.07102033386663416 1.0044106002240731 0 0 0 0.35 2 85 3 4 107 85 184 15 197 5 213 29 220 10 235 21 
86 0.39581542481726356 0.07423081567338725 1.0023983070548403 0 0 0 0.31 2 86 107 86 184 16 197 6 213 30 220 11 235 22 
87 0.3912399806520754 0.07511996934565708 1.0032310421956838 0 0 0 0.1 2 87 107 87 197 7 
88 0.4246817910528262 0.07608156771865147 1.0152267268345727 0 0 0 0.39 2 88 3 5 107 88 184 17 197 8 222 2 
89 0.2205602820878683 0.07961049876668154 1.0033477397856063 0 0 0 0.21 2 89 107 89 182 7 200 16 
90 0.22056028208786974 0.07961049876668183 1.0033477397856108 0 0 0 0.21 2 90 107 90 182 8 200 17 
91 -0.20070733032546315 0.08493941262547294 1.0393855934064928 0 0 0 0.09 2 91 107 91 224 18 
92 0.39509472717934235 0.09241696490289104 0.999538338969718 0 0 0 0.3 2 92 107 92 213 31 220 12 235 23 
93 0.22124813577180552 0.09343942606430548 1.0009673481038075 0 0 0 0.11 2 93 107 93 200 18 
94 0.22124813577180547 0.09343942606430547 1.0009673481038073 0 0 0 0.11 2 94 107 94 200 19 
95 0.39801917861260755 0.09405470087025844 0.9997132555498243 0 0 0 0.21 2 95 107 95 184 18 197 9 213 32 235 24 
96 0.3977453308252405 0.09935212223470638 0.997398073241498 0 0 0 0.18 2 96 107 96 184 19 213 33 
97 -0.06689643403451419 0.10272818923073183 1.0106982065250978 0 0 0 0.24 2 97 3 6 107 97 220 13 
98 0.3848676197519508 0.1047111292374139 0.9924818368144575 0 0 0 0.34 2 98 107 98 184 20 
99 0.2459760476546621 0.11370464951598265 0.9954150712681655 0 0 0 0.27 2 99 107 99 196 27 227 3 
100 0.37617418078670234 0.11845784929854476 0.9938838358440127 0 0 0 0.24 2 100 107 100 184 21 213 34 235 25 
101 0.3761936714322285 0.11852931257914852 0.9942693890139492 0 0 0 0.1 2 101 107 101 213 35 
102 0.37897338746563647 0.11915909447702702 0.9933762822243241 0 0 0 0.03 2 102 107 102 213 36 
103 0.3788643283081703 0.11905796382216666 0.9928617542132127 0 0 0 0.1 2 103 107 103 184 22 194 11 197 10 213 37 235 26 
104 0.10879591078504935 0.12295723948066613 0.9983820747903165 0 0 0 0.17 2 104 107 104 196 28 200 20 214 9 
105 0.3626134675636899 0.12314487187329166 0.9894048009579938 0 0 0 0.3 2 105 107 105 196 29 
106 0.40212613761506566 0.12776876833458561 0.9954943184990239 0 0 0 0.04 2 106 107 106 196 30 
107 0.40227972967018816 0.12809043784237187 0.9964252587619556 0 0 0 0.3 2 107 107 107 184 23 213 38 235 27 
108 0.14410629943799366 -0.1532659161501178 1.047332780746492 0 0 0 0.19 2 108 107 108 197 11 232 4 
109 -0.36873180388234256 -0.12533805491935643 1.1126879789037718 0 0 0 0.22 2 109 3 7 107 109 
110 0.03407703836113512 -0.09998863600655716 1.042373459647179 0 0 0 0.38 2 110 107 110 185 3 194 12 196 31 213 39 214 10 220 14 221 1 227 4 232 5 
111 -0.20787261603151783 -0.09411264736018549 1.0752483488112348 0 0 0 0.34 2 111 3 8 107 111 196 32 200 21 213 40 220 15 221 2 224 19 232 6 
112 -0.28681503376940476 -0.0932016747461654 1.089845859766299 0 0 0 0.32 2 112 3 9 107 112 185 4 213 41 224 20 
113 -0.1716676212633617 -0.026513032249137446 1.0590249928239543 0 0 0 0.32 2 113 3 10 107 113 196 33 200 22 214 11 224 21 
114 0.14034524171044024 -0.01979712519589011 1.0254469944556324 0 0 0 0.34 2 114 3 11 107 114 185 5 213 42 
115 -0.176185032681978 -0.01678533821039556 1.0585681172539063 0 0 0 0.24 2 115 107 115 214 12 220 16 224 22 
116 0.4417599110635895 0.007946906616903221 1.0343835709069038 0 0 0 0.2 2 116 3 12 107 116 194 13 
117 0.43728460585172596 0.019433231425372947 1.0304764039955099 0 0 0 0.17 2 117 107 117 217 1 
118 0.4072795699101867 0.0345643468777962 1.016021404923221 0 0 0 0.22 2 118 107 118 213 43 232 7 235 28 
119 0.3985696112781342 0.06491192534278403 1.0016600700716811 0 0 0 0.17 2 119 3 13 107 119 213 44 222 3 
120 0.22109176086411175 0.09047819690122151 1.0011604929187095 0 0 0 0.25 2 120 107 120 182 9 200 23 
121 0.2210917608641126 0.09047819690122194 1.0011604929187126 0 0 0 0.25 2 121 107 121 182 10 200 24 
122 0.14342567814019652 0.09530009267391683 1.0003234966240586 0 0 0 0.45 2 122 107 122 200 25 
123 0.283582869791109 0.10196597543290747 0.996737831184714 0 0 0 0.28 2 123 107 123 182 11 184 24 194 14 196 34 200 26 221 3 222 4 227 5 232 8 
124 0.4280592913063604 0.10543038923768022 1.0104045598544737 0 0 0 0.2 2 124 107 124 194 15 
125 0.4348976721266379 0.10636582860212612 1.0135423229947138 0 0 0 0.22 2 125 3 14 107 125 222 5 235 29 
126 0.24293131515420988 0.10539455930181328 0.9963736491067684 0 0 0 0.24 2 126 107 126 185 6 194 16 214 13 220 17 
127 0.4129419951195801 0.10677913971005493 1.0045184390277286 0 0 0 0.21 2 127 107 127 213 45 220 18 
128 0.4071353208719657 0.10914011734843945 1.0020524170828673 0 0 0 0.12 2 128 3 15 107 128 213 46 
129 0.4071574256442712 0.10920540731134264 1.0021551507460316 0 0 0 0.15 2 129 3 16 107 129 213 47 235 30 
130 0.4266656801193193 0.11951703343726018 1.0078848999409011 0 0 0 0.2 2 130 3 17 107 130 220 19 235 31 
131 0.369950382527394 0.12605858168146475 0.9902919012338574 0 0 0 0.28 2 131 3 18 107 131 197 12 213 48 220 20 235 32 
132 0.40511717559352367 0.13081329638095246 0.9980504593001666 0 0 0 0.35 2 132 107 132 213 49 220 21 
133 0.4050292352111979 0.00589824708603759 1.0184251801113247 0 0 0 0.28 2 133 3 19 107 133 197 13 198 0 213 50 220 22 221 4 222 6 235 33 
134 0.4060930154094185 0.016010006147141223 1.0176400306456548 0 0 0 0.38 2 134 107 134 182 12 232 9 235 34 
135 0.4254844233187007 0.018304146129043297 1.028507256394563 0 0 0 0.2 2 135 107 135 182 13 235 35 
136 0.3890471423925699 0.04186601008600046 1.0098629982554357 0 0 0 0.18 2 136 3 20 107 136 235 36 
137 0.40008456227907263 0.0749144374473319 1.003131454576907 0 0 0 0.34 2 137 3 21 107 137 197 14 198 1 213 51 217 2 221 5 222 7 227 6 235 37 
138 0.15208672532044135 0.09355084531662564 1.0027567107662487 0 0 0 0.58 2 138 107 138 194 17 
139 0.34141575519063055 0.09523306109671145 0.9985056161571362 0 0 0 0.51 2 139 107 139 196 35 221 6 
140 0.255210980323804 0.10802878513235267 0.9932880386823575 0 0 0 0.23 2 140 107 140 194 18 222 8 
141 0.40100319948091223 0.12125181133333936 0.9984023446986073 0 0 0 0.32 2 141 3 22 107 141 184 25 197 15 213 52 217 3 220 23 221 7 222 9 235 38 
142 0.32605464317912364 0.1346500487585334 0.9930088975715171 0 0 0 0.28 2 142 107 142 182 14 
143 0.39083498616802925 0.1393936112342746 0.9956280311229075 0 0 0 0.49 2 143 3 23 107 143 217 4 
144 0.16084362928347729 -0.13361546984051678 1.0472956958176731 0 0 0 0.5 2 144 107 144 214 14 232 10 
145 -0.21610111927497438 -0.01677449170253644 1.0661898247130974 0 0 0 0.22 2 145 3 24 107 145 213 53 220 24 224 23 232 11 
146 -0.17400346834197966 0.08634579150593483 1.0352944699687074 0 0 0 0.65 2 146 107 146 200 27 224 24 
147 0.31783453368784265 0.1080062728994825 1.0004218460720011 0 0 0 0.18 2 147 3 25 107 147 200 28 
148 0.38564696488660466 0.10960078481577239 0.9948943833121484 0 0 0 0.38 2 148 3 26 107 148 197 16 217 5 220 25 221 8 235 39 
149 0.33179675875765074 0.11011378977043457 0.9939834247860896 0 0 0 0.26 2 149 3 27 107 149 196 36 227 7 
150 0.3315321561288048 0.12158301397843942 0.9915759326184665 0 0 0 0.17 2 150 107 150 213 54 
151 0.16955089991272945 -0.008075602813556399 1.0288653592630366 0 0 0 0.32 2 151 107 151 197 17 213 55 232 12 
152 0.3790441806689439 0.060133681890461504 0.9953043953569184 0 0 0 0.49 2 152 107 152 217 6 
153 0.3736899808800215 0.11040475439353623 0.9939591418166334 0 0 0 0.34 2 153 107 153 217 7 
154 0.36736322741891037 0.12140020538516201 0.9913786196940809 0 0 0 0.08 2 154 3 28 107 154 
155 0.36736322741891037 0.12140020538516201 0.9913786196940809 0 0 0 0.08 2 155 3 29 107 155 
156 0.39307340244325467 0.13043803480216043 0.9958875003306551 0 0 0 0.23 2 156 107 156 184 26 213 56 222 10 235 40 
157 0.39286059013300084 0.12052174776699279 0.9958795946007855 0 0 0 0.37 2 157 3 30 107 157 213 57 
158 0.4189845739870465 0.12014304238930049 1.0113639493964022 0 0 0 0.58 2 158 107 158 184 27 222 11 
159 0.389404811651847 0.1327289652121621 0.9959477132750444 0 0 0 0.54 2 159 107 159 222 12 
160 -0.04946149083832445 -0.07750233419031076 1.0478208507672113 0 0 0 0.4 2 160 107 160 185 7 198 2 
161 0.3626653740369332 0.07776295190313426 1.000361078128819 0 0 0 0.33 2 161 3 31 107 161 184 28 197 18 198 3 221 9 222 13 227 8 
162 0.3626653740369332 0.07776295190313426 1.000361078128819 0 0 0 0.33 2 162 3 32 107 162 184 29 197 19 198 4 221 10 222 14 227 9 
163 0.37819623228578925 0.11220066697418188 0.9931113748610876 0 0 0 0.22 2 163 3 33 107 163 217 8 235 41 
164 0.02044674022959348 -0.07603906360800398 1.0428414888498079 0 0 0 0.42 2 164 3 34 107 164 
165 -0.2577009550025174 0.07453929695706657 1.0540727028981138 0 0 0 0.3 2 165 107 165 196 37 224 25 
166 -0.2185740864403561 0.07388227829159727 1.0469284283847697 0 0 0 0.26 2 166 107 166 196 38 220 26 224 26 
167 0.3915250189309809 0.09637693981442619 0.9970096354779575 0 0 0 0.27 2 167 3 35 107 167 184 30 197 20 198 5 213 58 217 9 220 27 221 11 222 15 
168 0.34477997380825676 0.11494272287433228 0.9960809796542093 0 0 0 0.24 2 168 107 168 198 6 
169 0.34477997380825676 0.11494272287433228 0.9960809796542093 0 0 0 0.24 2 169 107 169 198 7 
170 0.0818260355612186 -0.15276085036949305 1.047182312788844 0 0 0 0.25 107 170 220 28 232 13 
171 -0.13934208920841537 -0.14934575261745422 1.0728868405861482 0 0 0 0.12 107 171 196 39 214 15 224 27 
172 -0.2559001684175209 -0.14008516047725528 1.0912478661198675 0 0 0 0.25 107 172 196 40 224 28 
173 0.33725469270489045 -0.08761876429365222 1.0302832673230002 0 0 0 0.33 107 173 194 19 196 41 200 29 213 59 
174 0.3246901807523492 -0.08509412990667811 1.0319854578757335 0 0 0 0.24 107 174 196 42 213 60 
175 0.3272712031120988 -0.08486285215052376 1.0302076385233767 0 0 0 0.18 107 175 200 30 213 61 
176 0.08701763242328175 -0.09856079657909034 1.041015276307866 0 0 0 0.35 107 176 194 20 213 62 214 16 220 29 
177 0.2405951085891948 -0.08820932276113468 1.03358556636251 0 0 0 0.33 107 177 182 15 194 21 200 31 
178 0.22976023886875432 -0.08831772672426057 1.0341625752093262 0 0 0 0.28 107 178 194 22 200 32 214 17 220 30 
179 0.21411193195434516 -0.0888949850501788 1.0351492018015145 0 0 0 0.38 107 179 197 21 200 33 213 63 214 18 
180 0.21696943267499877 -0.08863072565050059 1.0336693101559051 0 0 0 0.26 107 180 182 16 194 23 200 34 213 64 214 19 
181 0.17833490100720573 -0.08890466228607784 1.0336874124036122 0 0 0 0.23 107 181 182 17 194 24 197 22 
182 0.1570605447881073 -0.08930623795923072 1.032201161451436 0 0 0 0.35 107 182 214 20 222 16 
183 0.15691826711791748 -0.08954773314480353 1.0337611961597435 0 0 0 0.53 107 183 197 23 200 35 214 21 221 12 
184 0.14515193751262612 -0.09015297963327457 1.0356432855421025 0 0 0 0.15 107 184 196 43 214 22 
185 0.1595690516199085 -0.08685182551416462 1.0349247415389868 0 0 0 0.34 107 185 194 25 213 65 214 23 
186 0.16366849847475676 -0.08677993878971639 1.0355890535139591 0 0 0 0.13 107 186 194 26 197 24 214 24 
187 0.0806996534632439 -0.09039000553455524 1.0378362562946541 0 0 0 0.38 107 187 196 44 213 66 
188 0.0008589654821893875 -0.09444406999772086 1.042937320735978 0 0 0 0.39 107 188 196 45 214 25 
189 0.20421301481717413 -0.08132495796634258 1.0336079674858265 0 0 0 0.12 107 189 197 25 200 36 
190 0.17747185565999044 -0.08191098848745117 1.0338656744153236 0 0 0 0.13 107 190 194 27 197 26 
191 -0.18291569559187795 -0.10615509511426385 1.0661718173838086 0 0 0 0.09 107 191 200 37 224 29 
192 -0.10925158929984258 -0.09197847206897597 1.0563545842182749 0 0 0 0.26 107 192 185 8 224 30 
193 -0.09519556030232786 -0.08929342570594676 1.052824278978293 0 0 0 0.33 107 193 185 9 194 28 214 26 224 31 
194 -0.13674155186019538 -0.08897164819638545 1.061120587932764 0 0 0 0.19 107 194 194 29 200 38 214 27 220 31 224 32 
195 -0.18823804308882802 -0.08793662401898826 1.068779567551994 0 0 0 0.2 107 195 224 33 227 10 
196 -0.1974737804986333 -0.08801180447738774 1.0711507132362184 0 0 0 0.09 107 196 196 46 214 28 224 34 
197 -0.22717960870415552 -0.08715090347312542 1.0727326209974712 0 0 0 0.27 107 197 196 47 224 35 
198 0.45397752667103936 -0.04330797921323122 1.0477375216825786 0 0 0 0.23 107 198 194 30 220 32 
199 0.40779041203801886 -0.034280623465650605 1.0260166776433328 0 0 0 0.28 107 199 184 31 235 42 
200 0.2322110516189413 -0.01704454949561185 1.024406381191742 0 0 0 0.28 107 200 194 31 196 48 
201 -0.1259343421496957 -0.034004187987785 1.0522076459852652 0 0 0 0.24 107 201 220 33 224 36 
202 0.5006396995357663 0.004577622105766822 1.0604079763534817 0 0 0 0.15 107 202 184 32 197 27 235 43 
203 0.4575680336593081 0.038190036733214784 1.036766037691644 0 0 0 0.07 107 203 184 33 235 44 
204 -0.1898085113056294 0.02170047603453744 1.053986210734128 0 0 0 0.19 107 204 196 49 200 39 
205 0.32438974999054493 0.04782038489667902 1.002914543142539 0 0 0 0.26 107 205 182 18 213 67 
206 0.21340757676332264 0.048545094512907665 1.0104821842750653 0 0 0 0.44 107 206 185 10 200 40 
207 0.2042291794716637 0.05340739091399178 1.0123649014032787 0 0 0 0.1 107 207 194 32 196 50 
208 -0.11574194311454168 0.045033656666741126 1.0287103101195423 0 0 0 0.06 107 208 196 51 224 37 
209 -0.23428831151513752 0.044814010228242045 1.0516933913462359 0 0 0 0.09 107 209 196 52 200 41 
210 -0.19616392674130498 0.04639352747419482 1.040271206353522 0 0 0 0.24 107 210 196 53 200 42 
211 0.03699364343334384 0.059220634188778695 1.0130054666949724 0 0 0 0.16 107 211 194 33 196 54 200 43 214 29 
212 -0.1996688056480225 0.05998675356152627 1.0428222889607748 0 0 0 0.05 107 212 200 44 224 38 
213 -0.1996688056480225 0.05998675356152627 1.0428222889607748 0 0 0 0.05 107 213 200 45 224 39 
214 -0.24511061339859397 0.06000273189501598 1.0502963895240338 0 0 0 0.15 107 214 196 55 224 40 
215 -0.20438907468105122 0.0666553427029564 1.0410820878739835 0 0 0 0.45 107 215 200 46 220 34 
216 0.24410768944571426 0.08950133263581679 1.0046508967199608 0 0 0 0.05 107 216 194 34 214 30 
217 0.27535012239338874 0.09123502827033965 1.002057652043422 0 0 0 0.26 107 217 184 34 194 35 196 56 200 47 213 68 
218 0.520169487565487 0.10912436487997929 1.058761715339506 0 0 0 0.32 107 218 184 35 235 45 
219 0.1398614786010224 0.09583940244807325 0.9996674034055566 0 0 0 0.15 107 219 196 57 200 48 
220 0.2261036137807673 0.0978233125809628 0.999711313196447 0 0 0 0.34 107 220 194 36 200 49 220 35 
221 0.22772323899884225 0.10038731419334937 0.9979776719297524 0 0 0 0.41 107 221 185 11 200 50 214 31 
222 0.21163930421702354 0.1035768302575015 0.9976844222521364 0 0 0 0.23 107 222 194 37 196 58 214 32 
223 -0.24917608004294448 0.09518644253979335 1.0471055249765586 0 0 0 0.27 107 223 220 36 224 41 
224 0.3781131900829187 0.10763908088961902 0.990104005743347 0 0 0 0.11 107 224 184 36 194 38 235 46 
225 0.29270948949314873 0.10724341408405014 0.9933441912068057 0 0 0 0.18 107 225 184 37 194 39 196 59 235 47 
226 0.29298068466953775 0.10724800588743533 0.9951011673414695 0 0 0 0.16 107 226 213 69 235 48 
227 0.11544488406528065 0.10614765192324925 1.0039058858882055 0 0 0 1.08 107 227 220 37 
228 -0.20010453963498592 0.10094861798993426 1.035031279089986 0 0 0 0.19 107 228 196 60 200 51 224 42 
229 0.4658295130848978 0.11774513045959543 1.0260591772289787 0 0 0 0.09 107 229 184 38 194 40 
230 0.23034686563709847 0.11119506491199839 0.9964327779484032 0 0 0 0.27 107 230 200 52 213 70 
231 0.27292420534540396 0.11231420414010974 0.9929603636048289 0 0 0 0.13 107 231 184 39 196 61 
232 0.46454465579528287 0.11974404487929691 1.0257760498559405 0 0 0 0.17 107 232 184 40 194 41 
233 0.40696163403660207 0.11883764210364811 1.0022128353432553 0 0 0 0.15 107 233 184 41 235 49 
234 0.3815488080044392 0.11822529516681479 0.9939018835748759 0 0 0 0.62 107 234 194 42 235 50 
235 0.45481418028291065 0.12268510614262469 1.0211673506853005 0 0 0 0.3 107 235 184 42 194 43 
236 0.39115804615677713 0.12640873964231897 0.9932340749737678 0 0 0 0.23 107 236 184 43 235 51 
237 0.38735708638150246 0.13058728810530654 0.9902192019861982 0 0 0 0.51 107 237 213 71 220 38 
238 0.4024306375231542 0.13888313066594196 0.996333533468237 0 0 0 0.27 107 238 184 44 213 72 
239 0.40010186806635123 0.13871676924860057 0.9964164409376925 0 0 0 0.14 107 239 184 45 213 73 
240 0.5120691742637209 -0.05861977177486412 0.8489886826187655 0 0 0 0.34 107 240 184 46 235 52 
241 0.3069486370991393 -0.1092426593675555 1.0287087156739758 0 0 0 0.38 107 241 184 47 197 28 235 53 
242 0.30669211444272276 -0.10924490081436192 1.028432598244207 0 0 0 0.22 107 242 184 48 197 29 
243 0.33016514724989676 -0.08739007534823758 1.0304847305787168 0 0 0 0.32 107 243 194 44 196 62 197 30 
244 0.18897758874070383 -0.08931733724270075 1.0371306632425248 0 0 0 0.29 107 244 185 12 220 39 
245 0.07774793600239391 -0.0938324893649105 1.0404500129836747 0 0 0 0.38 107 245 196 63 213 74 221 13 232 14 
246 0.12257625167492346 -0.08847362227904315 1.0369356515070185 0 0 0 0.26 107 246 196 64 200 53 220 40 
247 0.4560886059398926 -0.04027397726570811 1.0478963186898036 0 0 0 0.28 107 247 184 49 235 54 
248 0.38181728968224043 -0.03074487162784437 1.0224755181632206 0 0 0 0.34 107 248 184 50 213 75 235 55 
249 0.20655287953066157 -0.01800360293188341 1.0252068039933313 0 0 0 0.33 107 249 197 31 200 54 
250 0.4096940988517858 0.0034522562625741446 1.0209142265665192 0 0 0 0.22 107 250 213 76 235 56 
251 0.5081342601502321 0.008395265263956262 1.0661242598044225 0 0 0 0.45 107 251 182 19 197 32 235 57 
252 0.40133108681220114 0.010484151344618532 1.0137909072476115 0 0 0 0.25 107 252 182 20 232 15 235 58 
253 0.4585801563748599 0.013308518631403893 1.0415684482146914 0 0 0 0.15 107 253 184 51 194 45 
254 0.48796976403694037 0.015904594809704745 1.055141009245373 0 0 0 0.11 107 254 182 21 235 59 
255 0.4294983580707578 0.01633425418511467 1.0282423849720326 0 0 0 0.19 107 255 184 52 235 60 
256 -0.2265911643609061 0.0025491972246776905 1.0665888661188616 0 0 0 0.21 107 256 220 41 224 43 
257 0.29318706585870435 0.062230205290042515 1.0029916201330487 0 0 0 0.14 107 257 182 22 200 55 
258 0.40562426279974706 0.06802462695357123 1.0042712721969689 0 0 0 0.1 107 258 213 77 235 61 
259 0.4050166129901936 0.06796209713353475 1.002150303017741 0 0 0 0.16 107 259 184 53 220 42 
260 0.2574203968705564 0.09240568422975964 1.0006759964063932 0 0 0 0.23 107 260 182 23 200 56 220 43 
261 -0.22399464814180198 0.08617621231007075 1.0475926053278468 0 0 0 0.17 107 261 196 65 220 44 224 44 
262 -0.19546357735739536 0.08913676562105984 1.0392282291689667 0 0 0 0.27 107 262 196 66 224 45 
263 0.2768751203101792 0.10059383527668804 1.0019685811129049 0 0 0 0.37 107 263 182 24 213 78 
264 0.46043151657655673 0.10907506453600996 1.026122765439034 0 0 0 0.16 107 264 194 46 235 62 
265 0.15788416738976419 0.10105583720778764 1.0023122040942527 0 0 0 0.2 107 265 194 47 196 67 213 79 
266 -0.1882453716402695 0.09581582997661683 1.0382178892476672 0 0 0 0.17 107 266 200 57 220 45 224 46 
267 0.22807313344317084 0.11631193819533728 0.9963501725223463 0 0 0 0.23 107 267 200 58 220 46 
268 -0.18814592924317247 0.11087590831312089 1.0323386084511916 0 0 0 0.2 107 268 200 59 224 47 
269 -0.31048439213449075 0.1118952576049102 1.0612612041397158 0 0 0 0.17 107 269 196 68 224 48 
270 -0.27780161782434076 0.11319231397879226 1.0497841856196963 0 0 0 0.14 107 270 196 69 224 49 
271 0.45407095441418677 0.13943996881800008 1.0245720614410634 0 0 0 0.24 107 271 184 54 235 63 
272 0.10507897563780236 0.14716302634131945 0.9946249193677691 0 0 0 0.26 107 272 196 70 200 60 
273 0.5128160983246886 -0.09046761466552689 0.8455875603579206 0 0 0 0.27 107 273 182 25 184 55 
274 0.21614415653601765 -0.14337259217064424 1.0473695057458863 0 0 0 0.32 107 274 185 13 197 33 232 16 
275 0.48544639365613185 -0.07692764784914322 0.9266179043409966 0 0 0 0.57 107 275 182 26 227 11 235 64 
276 0.33681517087057455 -0.09117794220595342 1.031433751326476 0 0 0 0.18 107 276 182 27 196 71 
277 0.48571536735208054 -0.058910820271083755 0.9379520915708378 0 0 0 0.48 107 277 182 28 184 56 
278 -0.005205566284821315 -0.10804083591730816 1.0460075993915516 0 0 0 0.19 107 278 200 61 224 50 
279 -0.005160842069400694 -0.10794575003187826 1.0457273684761528 0 0 0 0.23 107 279 200 62 221 14 224 51 227 12 232 17 
280 0.19005194476042336 -0.09262539800309005 1.03634134259636 0 0 0 0.5 107 280 182 29 200 63 220 47 
281 0.17908867805846496 -0.09262917815839823 1.0325728331883077 0 0 0 0.33 107 281 194 48 196 72 
282 -0.22396072198849698 -0.09368675960281246 1.0770038930568808 0 0 0 0.27 107 282 200 64 213 80 220 48 
283 0.42690530873407195 -0.041942401340304095 1.037963479385 0 0 0 0.27 107 283 197 34 222 17 
284 0.5133510388200548 -0.011497776696582878 1.0710205344596924 0 0 0 0.25 107 284 184 57 197 35 221 15 235 65 
285 0.4894308456885784 0.0072833406131567425 1.0506606373146814 0 0 0 0.54 107 285 221 16 227 13 
286 0.4853806410822105 0.01205516147152655 1.0578619902693547 0 0 0 0.35 107 286 182 30 184 58 217 10 
287 -0.22570041871475652 -0.0161706651853666 1.0684562245145335 0 0 0 0.18 107 287 200 65 213 81 220 49 
288 0.4645105229355942 0.01698923517888885 1.0452560109743392 0 0 0 0.09 107 288 182 31 217 11 222 18 235 66 
289 0.49165521240846816 0.020256268173416064 1.0543535226741747 0 0 0 0.23 107 289 182 32 217 12 221 17 222 19 235 67 
290 0.22123865771902992 0.051269757889002406 1.0045179620232227 0 0 0 0.26 107 290 182 33 220 50 
291 0.4030999143066315 0.06414303939852926 1.002439254843433 0 0 0 0.21 107 291 213 82 217 13 220 51 
292 0.403083643553943 0.0642102028526769 1.0025369217925986 0 0 0 0.08 107 292 213 83 221 18 235 68 
293 0.4312757008735869 0.07029707620283827 1.0199694359415978 0 0 0 0.18 107 293 197 36 217 14 222 20 
294 0.22935619356237497 0.09283601236076877 1.0019180088064195 0 0 0 0.37 107 294 194 49 213 84 
295 0.2830551543412131 0.09495880519892813 0.9997902804091847 0 0 0 0.42 107 295 182 34 196 73 213 85 220 52 227 14 232 18 
296 0.28089826276377977 0.10482841191366234 0.9969506380403043 0 0 0 0.33 107 296 184 59 185 14 222 21 
297 0.28088408675771354 0.10501172984682937 0.9958063555416126 0 0 0 0.09 107 297 222 22 227 15 
298 0.15638413625948885 0.10395193182258373 1.0016999025814053 0 0 0 0.15 107 298 194 50 220 53 
299 -0.28962398878851364 0.09942830472913163 1.0490630794672304 0 0 0 0.19 107 299 196 74 224 52 
300 0.2817522070518647 0.1111644069974854 0.9937721793376817 0 0 0 0.19 107 300 182 35 184 60 194 51 220 54 222 23 235 69 
301 0.24336401398780216 0.11069128877324141 0.9961119141169591 0 0 0 0.3 107 301 182 36 194 52 227 16 
302 0.266304337118039 0.11101942941422922 0.9955631819816659 0 0 0 0.38 107 302 182 37 184 61 185 15 194 53 196 75 
303 -0.20188967821532955 0.10422182572338089 1.035604220572084 0 0 0 0.26 107 303 196 76 200 66 220 55 224 53 
304 0.4845396065099479 0.11354020457999478 0.9093995466821635 0 0 0 0.43 107 304 182 38 227 17 
305 0.38912559125754254 0.11922934510307974 1.0013986310725191 0 0 0 0.28 107 305 221 19 235 70 
306 0.3699218174880294 0.1301513596996751 0.9897211748307713 0 0 0 0.22 107 306 197 37 213 86 235 71 
307 0.29441196321748453 -0.13581321515943967 1.0393036855917641 0 0 0 0.21 107 307 185 16 197 38 
308 -0.12265336323250688 -0.14885045106514747 1.0714665901738187 0 0 0 0.34 107 308 185 17 196 77 
309 0.3876824274790352 -0.09005128787462766 1.0327502743888133 0 0 0 0.18 107 309 184 62 197 39 
310 0.32237584839938727 -0.09185921006385234 1.032723324748453 0 0 0 0.22 107 310 182 39 196 78 197 40 
311 0.45609115464104 -0.04695066683360983 1.048144808209566 0 0 0 0.09 107 311 197 41 198 8 
312 -0.36013305562886055 -0.08808547670766534 1.1040712934394734 0 0 0 0.54 107 312 196 79 232 19 
313 0.49014074972621835 0.0001225657083582848 0.9038497732809858 0 0 0 0.23 107 313 182 40 197 42 
314 0.40201362133894963 -0.0017833146382856097 1.0158344203277794 0 0 0 0.4 107 314 184 63 197 43 220 56 221 20 235 72 
315 0.401241329605058 -0.0017341859823926935 1.0136606036650353 0 0 0 0.28 107 315 182 41 213 87 232 20 235 73 
316 0.4870318595425931 0.017316753700217947 0.9190736162338942 0 0 0 0.22 107 316 182 42 227 18 
317 0.4914032235671716 0.049287247528878635 0.8901441741295097 0 0 0 0.37 107 317 182 43 235 74 
318 0.48860245848547523 0.050867559152856526 0.9004598996754677 0 0 0 0.26 107 318 182 44 184 64 222 24 227 19 
319 0.4867432980581097 0.05305189498361633 0.9133169362696709 0 0 0 0.16 107 319 182 45 222 25 227 20 
320 0.48669397426971894 0.06089682691259281 0.9042166353953546 0 0 0 0.46 107 320 197 44 227 21 235 75 
321 0.48954399777934027 0.05993740651124647 0.9004745200269381 0 0 0 0.63 107 321 182 46 197 45 
322 0.48974675657829053 0.06267460014408387 0.8933370697119914 0 0 0 0.42 107 322 182 47 184 65 197 46 235 76 
323 0.48748334459163717 0.06258734988272538 0.9138721060072083 0 0 0 0.25 107 323 184 66 197 47 227 22 235 77 
324 0.4861903053666417 0.06898589537453165 0.9099253626017053 0 0 0 0.36 107 324 227 23 235 78 
325 0.3881831833115349 0.09180726614089248 0.9998883997150897 0 0 0 0.28 107 325 220 57 227 24 
326 0.3674143878289998 0.09362130678776649 0.9941850983655554 0 0 0 0.35 107 326 198 9 222 26 235 79 
327 0.22934850345552063 0.10536012358168195 0.9978792113711139 0 0 0 0.48 107 327 194 54 200 67 214 33 220 58 222 27 
328 0.242931839472305 0.10548406028591485 0.9964874646070071 0 0 0 0.12 107 328 194 55 220 59 
329 -0.18881534141403447 0.09898699474199989 1.0323913265363602 0 0 0 0.1 107 329 200 68 224 54 
330 0.29202086893432216 0.10832624576245296 0.9949624013441473 0 0 0 0.27 107 330 184 67 235 80 
331 -0.22853851611494258 0.0992875929635339 1.0400788275497783 0 0 0 0.34 107 331 200 69 217 15 220 60 
332 0.4949574030451436 0.10451282036395439 0.8698006270315768 0 0 0 0.3 107 332 182 48 217 16 
333 0.4871298456110665 0.11187325093522069 0.8997485102145251 0 0 0 0.39 107 333 182 49 227 25 
334 0.10814243495023425 0.12838499292242314 0.9964581275130522 0 0 0 0.14 107 334 196 80 200 70 220 61 227 26 
335 0.002732191418422964 -0.13522439327307176 1.0505112266401948 0 0 0 0.31 107 335 185 18 198 10 200 71 214 34 
336 0.49175428918500014 -0.0600229314859059 0.913684331937741 0 0 0 0.33 107 336 182 50 227 27 
337 0.4951252891704652 -0.061719597069353295 0.9215977680214459 0 0 0 0.23 107 337 197 48 232 21 235 81 
338 -0.22581370419353766 -0.12283053162853437 1.0861084722979466 0 0 0 0.41 107 338 220 62 224 55 
339 0.13284223108452314 -0.08480790814630401 1.0346531509134849 0 0 0 0.61 107 339 194 56 200 72 
340 0.01835817046568602 -0.08641169825896683 1.0421820543000098 0 0 0 0.25 107 340 194 57 220 63 
341 -0.17850564045507153 -0.08639728090232476 1.0670405349990875 0 0 0 0.21 107 341 213 88 220 64 224 56 
342 0.16011174273369314 -0.0355112910050716 1.0288308460680393 0 0 0 0.25 107 342 197 49 232 22 
343 0.49092168621820886 0.003620273485654644 0.8967321070381166 0 0 0 0.22 107 343 182 51 227 28 
344 0.499974749115503 0.010542906234700033 0.8727666605582262 0 0 0 0.05 107 344 182 52 227 29 
345 -0.08871719918617758 -0.027815192298728218 1.0414291352318357 0 0 0 0.45 107 345 185 19 214 35 220 65 224 57 
346 0.5018401450631677 0.022703754665685628 0.8737641098723823 0 0 0 0.3 107 346 182 53 227 30 
347 0.5012443589198596 0.04595046088951273 0.8693943444840186 0 0 0 0.16 107 347 182 54 227 31 
348 0.44189128884464857 0.03874999576441829 1.029792940312463 0 0 0 0.51 107 348 194 58 217 17 
349 0.4985045937552413 0.04757091198487875 0.8790823285250104 0 0 0 0.12 107 349 182 55 227 32 
350 0.5025453960999876 0.0544462972903632 0.8702736461831634 0 0 0 0.36 107 350 182 56 227 33 
351 0.49897965112456255 0.05590698741673552 0.8785596302474498 0 0 0 0.25 107 351 182 57 227 34 
352 0.49196922700919715 0.05794272536834652 0.8897442466983833 0 0 0 0.24 107 352 182 58 227 35 
353 0.5012317670082452 0.06207255477986578 0.8667480328983269 0 0 0 0.15 107 353 182 59 227 36 
354 0.4087302524631019 0.07477824109199008 1.0012162313278041 0 0 0 0.29 107 354 184 68 222 28 235 82 
355 0.41335894432908094 0.08297960554398928 1.0130456003807988 0 0 0 0.3 107 355 217 18 221 21 235 83 
356 0.3729919861304864 0.08394740065532226 0.9970809224379222 0 0 0 0.22 107 356 198 11 217 19 
357 0.2613684249339588 0.09762354650120161 0.99901032217206 0 0 0 0.33 107 357 185 20 194 59 196 81 220 66 
358 0.24709831154637468 0.09832880534326469 1.0004736017513423 0 0 0 0.57 107 358 185 21 194 60 
359 0.30190963634077367 0.10721814317191636 0.995804728763494 0 0 0 0.32 107 359 182 60 196 82 197 50 220 67 
360 0.060523243508035146 0.10471433936555442 1.0037165566342299 0 0 0 0.41 107 360 194 61 220 68 221 22 232 23 
361 0.20943798908436223 0.11630541179302152 0.9958959056905636 0 0 0 0.37 107 361 194 62 196 83 
362 0.500167972531799 0.0010910196152133986 0.8751732059189606 0 0 0 0.14 107 362 182 61 227 37 
363 0.4980065816947424 0.024527742744624607 0.8845069665884642 0 0 0 0.28 107 363 184 69 222 29 
364 0.4857701162725508 0.038292277162964045 0.9220856003035091 0 0 0 0.23 107 364 182 62 227 38 
365 0.4940978789049542 0.09801786056237893 0.8772779561227761 0 0 0 0.2 107 365 184 70 197 51 
366 0.29591312324885405 0.1028247298672997 0.994366460807709 0 0 0 0.39 107 366 197 52 200 73 213 89 
367 0.3303396256027599 0.14487945110922762 0.9858511344838616 0 0 0 0.49 107 367 196 84 222 30 
368 0.49965287290216026 -0.012973505916806263 0.872324037211239 0 0 0 0.49 107 368 182 63 227 39 
369 0.49937687957156834 0.03087652233549478 0.8764164333728584 0 0 0 0.21 107 369 182 64 227 40 
370 0.4922367660109553 0.034630923174145935 1.0554010888760725 0 0 0 0.44 107 370 182 65 232 24 235 84 
371 0.20292116425319398 0.09523098207703057 0.9978894264120483 0 0 0 0.37 107 371 194 63 196 85 227 41 
372 0.47730691502051004 0.11413368350998318 1.0292703957336986 0 0 0 0.37 107 372 217 20 222 31 235 85 
373 0.49280335804596115 -0.049756335165119944 0.9137333833632854 0 0 0 0.44 107 373 184 71 197 53 
374 0.5039970327766499 -0.014418139485282254 0.8616589558926385 0 0 0 0.2 107 374 182 66 227 42 
375 -0.23871315321839484 0.07463424933175324 1.05035165868961 0 0 0 0.2 107 375 200 74 220 69 224 58 
376 0.3459323565366768 0.09963678206060572 0.9971593399246693 0 0 0 0.3 107 376 194 64 198 12 213 90 235 86 
377 0.43135712782922025 0.10805856288710108 1.0052472163869508 0 0 0 0.2 107 377 198 13 217 21 
378 0.4431730116979305 0.1204196277586668 1.008986185854429 0 0 0 0.17 107 378 198 14 217 22 
379 0.49350056580071394 -0.0447037571268703 0.8844509858381424 0 0 0 0.44 107 379 197 54 235 87 
380 -0.06064058260094325 -0.09280210400637891 1.0464326152595547 0 0 0 0.62 107 380 194 65 196 86 198 15 200 75 214 36 
381 0.501944705762137 0.04945807072918936 0.877202986884578 0 0 0 0.68 107 381 184 72 222 32 227 43 
382 0.49076911511706295 0.08355489764269645 0.8904872336376553 0 0 0 0.53 107 382 182 67 227 44 
383 -0.2200999789375466 0.07382777600972962 1.0492356898442896 0 0 0 0.28 107 383 196 87 200 76 
384 -0.25741302093172896 0.07467857882243142 1.0536047330079559 0 0 0 0.22 107 384 196 88 224 59 
385 0.48781431155300153 0.0968348506355517 0.8984686392825039 0 0 0 0.21 107 385 182 68 217 23 
386 0.36191065247709964 0.11933105126018992 0.9940483136364043 0 0 0 0.05 107 386 198 16 213 91 
387 0.3979570897548424 0.0474336160045717 1.0103753978052066 0 0 0 0.14 107 387 184 73 198 17 
388 0.3798445726263776 0.07748999182695415 1.0013884435275129 0 0 0 0.38 107 388 198 18 213 92 217 24 221 23 
389 0.41314837089036965 0.08575798172382365 1.0057685253643651 0 0 0 0.7 107 389 198 19 221 24 235 88 
390 -0.2401634454572646 0.08669871982816013 1.0518559617377667 0 0 0 0.23 107 390 196 89 198 20 224 60 
391 -0.19984634644015759 0.08751201902689723 1.043345763553496 0 0 0 0.46 107 391 196 90 224 61 
392 0.32726145843919596 0.1239464594054033 0.9972493266919354 0 0 0 0.33 107 392 198 21 235 89 
393 0.32726145843915855 0.12394645940541384 0.997249326691704 0 0 0 0.33 107 393 198 22 235 90 
394 0.20035627449497878 0.12516233143947916 0.9983871668149131 0 0 0 0.36 107 394 196 91 220 70 
