# 3D point list with one line of data per point:
#   POINT3D_ID, X, Y, Z, R, G, B, ERROR, TRACK[] as (IMAGE_ID, POINT2D_IDX)
# Number of points: 349, mean track length: 6.96
4578 0.3909367314855504 0.2837631675641581 0.9540910705832006 0 0 0 0.3 60 1096 92 1230 111 614 127 540 164 1332 196 711 224 521 
4579 0.324380655061966 0.29595120158674043 0.9747163592788792 0 0 0 0.16 60 1097 135 207 172 634 
4580 0.35742707591175915 0.2891201141755565 0.9567790987246957 0 0 0 0.83 60 1098 61 1017 92 1231 196 712 204 680 213 1250 231 317 
4581 0.4847733226652585 0.2725093918818972 0.922011236652042 0 0 0 0.25 60 1099 63 506 91 466 164 1333 185 410 214 676 
4582 0.4470439163822222 0.2827837504552459 0.9419974183441255 0 0 0 0.13 60 1100 110 720 214 677 
4583 0.6866892912705509 0.25203852824289924 0.875457792889509 0 0 0 0.29 60 1101 110 721 213 1251 
4584 0.1470865704831875 0.3010455310791539 0.9572531959078682 0 0 0 1.56 60 1102 77 1283 159 497 164 1334 196 713 220 522 
4585 0.16991898079714282 0.32775540079965865 1.0417054232718055 0 0 0 0.47 60 1103 77 1284 110 722 164 1335 224 522 
4586 0.21137578283418404 0.3196466346860694 1.0214971864680003 0 0 0 0.45 60 1104 110 723 113 401 
4587 0.365185017563196 0.29258487790550375 0.9562698465319905 0 0 0 0.24 60 1105 77 1285 164 1336 
4588 0.3972520134321273 0.28894364702354536 0.9479616715575012 0 0 0 0.11 60 1106 77 1286 214 678 
4589 0.2806358793104622 0.30976684778597 0.9953597593592648 0 0 0 0.3 60 1107 111 615 179 219 
4590 0.21801105309831176 0.31953441865801935 1.0157761208817995 0 0 0 0.21 60 1108 92 1232 172 635 
4591 0.3348388665427683 0.3004665039932089 0.9695976322245984 0 0 0 0.32 44 1829 60 1109 77 1287 85 786 92 1233 110 724 113 402 126 439 128 727 135 208 146 1073 164 1337 176 597 185 411 213 1252 214 679 
4592 0.6793499364244613 0.2537778147193678 0.8727086564191268 0 0 0 0.64 54 544 60 1110 77 1288 85 787 110 725 136 293 164 1338 196 714 
4593 0.33176671929533363 0.30293171816716624 0.9698515950905917 0 0 0 0.21 60 1111 85 788 110 726 113 403 
4594 0.4558098605853796 0.284348831889944 0.9292621652183716 0 0 0 0.17 60 1112 96 819 223 117 
4595 0.18596651476721082 0.3312699598967031 1.033520503661426 0 0 0 0.32 60 1113 113 404 196 715 220 523 
4596 0.1892112122081792 0.3317909975473737 1.0300778659082483 0 0 0 0.39 60 1114 61 1018 113 405 146 1074 
4597 0.5135385666568691 0.28002604952651705 0.9154410874833724 0 0 0 0.22 60 1115 91 467 194 346 
4598 0.3615263611771363 0.30110722487718733 0.9556346973948416 0 0 0 0.52 60 1116 92 1234 127 541 136 294 
4599 0.6812779621557578 0.25942483853578635 0.8702422582000068 0 0 0 0.31 35 496 60 1117 77 1289 85 789 105 312 110 727 136 295 164 1339 213 1253 
4600 0.6865133953692778 0.25971782665556287 0.8718343339613108 0 0 0 0.43 35 497 60 1118 62 286 77 1290 127 542 136 296 164 1340 213 1254 
4601 0.677150045312864 0.2595951130754787 0.8692028601003292 0 0 0 0.19 60 1119 77 1291 213 1255 
4602 0.6367293261629579 0.2678652597822178 0.8789414329360868 0 0 0 0.32 60 1120 105 313 127 543 194 347 196 716 
4603 0.33587542146732063 0.3107685222859035 0.9676253649202864 0 0 0 0.28 60 1121 92 1235 110 728 113 406 214 680 
4604 0.45781230251627797 0.2932215503848082 0.9247250024802488 0 0 0 0.43 44 1830 60 1122 61 1019 77 1292 92 1236 136 297 146 1075 164 1341 194 348 213 1256 214 681 223 118 231 318 
4605 0.501873072668221 0.28889709472607944 0.9099527874884201 0 0 0 0.36 44 1831 60 1123 61 1020 77 1293 96 820 110 729 127 544 135 209 146 1076 164 1342 196 717 213 1257 
4606 0.6963038569408129 0.26854963000516796 0.87093141826718 0 0 0 0.46 60 1124 73 500 196 718 
4607 0.5950568775407513 0.2788131970008336 0.8888663705348347 0 0 0 0.37 60 1125 77 1294 91 468 194 349 196 719 213 1258 220 524 
4608 0.2741485255665569 0.3264435334275583 0.9891116818832665 0 0 0 0.32 44 1832 60 1126 77 1295 85 790 92 1237 96 821 146 1077 157 744 164 1343 172 636 176 598 204 681 213 1259 224 523 231 319 
4609 0.5600106994762798 0.28308389088144575 0.8945798166427925 0 0 0 0.62 60 1127 85 791 96 822 110 730 146 1078 164 1344 213 1260 
4610 0.504700024882642 0.2936043755758436 0.9075000070292901 0 0 0 0.32 60 1128 61 1021 111 616 135 210 
4611 0.3229164403196967 0.3229137105885919 0.9696282686809427 0 0 0 0.34 44 1833 60 1129 61 1022 92 1238 111 617 113 407 135 211 146 1079 157 745 164 1345 213 1261 214 682 220 525 224 524 
4612 0.5959022597841529 0.2835026145396892 0.8823725974697121 0 0 0 0.25 60 1130 62 287 77 1296 105 314 110 731 136 298 146 1080 164 1346 194 350 196 720 213 1262 
4613 0.4380750706323453 0.305605185050063 0.9278275311596157 0 0 0 0.28 60 1131 213 1263 214 683 
4614 0.21776484579721736 0.34417149530966973 1.0095402255881314 0 0 0 0.34 60 1132 113 408 114 144 146 1081 224 525 
4615 0.2795256619101068 0.3332419675842897 0.9846033377993538 0 0 0 0.46 44 1834 60 1133 85 792 92 1239 164 1347 224 526 
4616 0.2944605893402319 0.330926678043592 0.9759177184408946 0 0 0 0.26 60 1134 92 1240 224 527 
4617 0.6711606659131307 0.2771955247705792 0.8638778220098559 0 0 0 0.86 35 498 60 1135 62 288 73 501 77 1297 85 793 105 315 110 732 127 545 136 299 196 721 220 526 
4618 0.678581664687726 0.2812871353074942 0.8601296414088474 0 0 0 0.39 60 1136 196 722 220 527 
4619 0.18158053121007015 0.3613304851499572 1.0226809456710648 0 0 0 0.5 60 1137 92 1241 110 733 113 409 164 1348 
4620 0.2049404095792776 0.36070970652587303 1.014845159076155 0 0 0 0.64 60 1138 77 1298 85 794 92 1242 146 1082 164 1349 
4621 0.6100386366512077 0.30026270424858015 0.8664701419302572 0 0 0 0.61 60 1139 111 618 164 1350 
4622 0.6094577432263235 0.30332014370918264 0.8684351073012561 0 0 0 0.45 60 1140 63 507 110 734 
4623 0.6763266360130871 0.09298676736840061 1.0017762614077748 0 0 0 0.3 60 1141 196 723 220 528 
4624 0.3911173451761098 0.14420465633402052 1.004263446278308 0 0 0 0.55 60 1142 69 230 71 685 96 823 97 613 118 1342 126 440 128 728 136 300 172 637 213 1264 220 529 224 528 
4625 0.477675065342662 0.1388026459204315 0.9742944495652867 0 0 0 0.22 60 1143 196 724 220 530 
4626 0.3768365279079784 0.15249055237780088 1.0075497441263597 0 0 0 0.4 60 1144 63 508 96 824 126 441 
4627 0.5445382490268621 0.13600167240975494 0.9641983594304891 0 0 0 0.4 44 1835 60 1145 69 231 77 1299 111 619 127 546 172 638 196 725 220 531 
4628 0.7141815860418415 0.12377643231479044 0.9331536339738012 0 0 0 0.57 60 1146 63 509 71 686 73 502 164 1351 
4629 0.656435402181878 0.12614623480605278 0.9233768771793048 0 0 0 0.59 60 1147 61 1023 105 316 118 1343 164 1352 220 532 
4630 0.5779667739383791 0.1361405594927046 0.9503240064033875 0 0 0 0.08 60 1148 105 317 196 726 220 533 
4631 0.4900578374232752 0.1450933178393902 0.9681137117237867 0 0 0 0.75 60 1149 71 687 85 795 127 547 185 412 
4632 0.4533550422809676 0.15620867331363625 0.9848212904379804 0 0 0 0.24 60 1150 204 682 231 320 
4633 0.2709200960892288 0.18258944296554427 1.0518227916803766 0 0 0 0.2 60 1151 71 688 111 620 179 220 
4634 0.2535215951784332 0.18246662606648809 1.0406000611651869 0 0 0 1.51 60 1152 61 1024 213 1265 
4635 0.34747316174217824 0.17286782165974174 1.0184346703999057 0 0 0 0.43 60 1153 77 1300 92 1243 127 548 136 301 164 1353 
4636 0.650688615108291 0.13778040940774547 0.9272316743838027 0 0 0 0.36 35 499 44 1836 53 1731 54 545 60 1154 61 1025 62 289 63 510 67 356 71 689 73 503 77 1301 85 796 91 469 92 1244 97 614 105 318 110 735 111 621 114 145 118 1344 126 442 146 1083 164 1354 172 639 176 599 194 351 196 727 204 683 213 1266 220 534 221 860 
4637 0.6456732520729355 0.13890464247194084 0.928653797490311 0 0 0 0.43 54 546 60 1155 73 504 111 622 172 640 220 535 
4638 0.526600740535447 0.15606881330782965 0.9601766129255873 0 0 0 0.46 60 1156 127 549 157 746 
4639 0.6050907894945811 0.14775674130608535 0.9370399910471189 0 0 0 0.44 35 500 44 1837 60 1157 61 1026 62 290 63 511 85 797 91 470 92 1245 96 825 105 319 111 623 126 443 127 550 136 302 146 1084 157 747 164 1355 172 641 185 413 194 352 196 728 204 684 213 1267 214 684 221 861 
4640 0.2719052586830059 0.1923904718771198 1.0446689319573534 0 0 0 0.46 60 1158 111 624 113 410 196 729 224 529 
4641 0.5891375996650488 0.15227552617983897 0.9404756581975207 0 0 0 0.5 60 1159 105 320 126 444 136 303 159 498 
4642 0.6211628249607363 0.1489720927879012 0.9317949089028421 0 0 0 0.7 60 1160 63 512 77 1302 85 798 91 471 110 736 146 1085 164 1356 176 600 194 353 196 730 213 1268 214 685 
4643 0.21279812290174893 0.20294980263400814 1.072477612266506 0 0 0 0.43 60 1161 65 404 71 690 73 505 103 540 113 411 159 499 185 414 214 686 
4644 0.5056542533979429 0.16406941049114468 0.9629052510089934 0 0 0 0.3 60 1162 63 513 91 472 92 1246 96 826 126 445 159 500 185 415 194 354 214 687 
4645 0.4360137349120414 0.17399813702690234 0.9822663040642451 0 0 0 0.31 14 316 60 1163 77 1303 85 799 126 446 127 551 136 304 157 748 172 642 179 221 194 355 220 536 231 321 
4646 0.2167423719190607 0.20529676199009067 1.0666407575157997 0 0 0 0.35 60 1164 61 1027 77 1304 92 1247 96 827 128 729 146 1086 164 1357 213 1269 
4647 0.42807137201856066 0.1773113428561655 0.9817830237232227 0 0 0 0.22 60 1165 71 691 77 1305 96 828 126 447 128 730 136 305 204 685 
4648 0.49748636195429946 0.16940521120419055 0.9623435840844969 0 0 0 0.22 60 1166 92 1248 97 615 126 448 204 686 
4649 0.39904886738774886 0.18625188355361533 0.9897078674712955 0 0 0 0.15 60 1167 92 1249 176 601 204 687 
4650 0.20932023588614873 0.221014110380711 1.065189243641856 0 0 0 0.38 60 1168 85 800 111 625 113 412 114 146 126 449 157 749 172 643 
4651 0.4716735379899222 0.18649881805427995 0.9680150305407994 0 0 0 0.2 60 1169 91 473 110 737 159 501 
4652 0.15375037090803667 0.2334324936992693 1.0896252113024896 0 0 0 0.65 60 1170 77 1306 92 1250 103 541 110 738 113 413 126 450 164 1358 220 537 224 530 
4653 0.24778055720471298 0.22142070536203926 1.043878667162752 0 0 0 0.13 60 1171 164 1359 224 531 
4654 0.44639685499831094 0.19677304732083717 0.9722016694485166 0 0 0 0.18 60 1172 63 514 159 502 
4655 0.14465770298689395 0.24227164632240544 1.0943024134137418 0 0 0 0.33 60 1173 77 1307 159 503 196 731 224 532 
4656 0.5475932981101377 0.18624603518056373 0.9427043979158619 0 0 0 0.24 60 1174 71 692 111 626 164 1360 194 356 196 732 220 538 
4657 0.6819186893853868 0.18121412650242544 0.9064284714600156 0 0 0 0.5 60 1175 63 515 71 693 73 506 85 801 103 542 126 451 164 1361 
4658 0.2272175246180522 0.2486471282621799 1.0500927276389769 0 0 0 0.12 60 1176 220 539 224 533 
4659 0.3739024643682203 0.22453902152382288 0.9855323614128381 0 0 0 0.45 26 841 60 1177 71 694 85 802 126 452 128 731 
4660 0.24243208393337684 0.24642987546415906 1.038880035079027 0 0 0 0.33 60 1178 196 733 224 534 
4661 0.20507452517732436 0.2557050308161017 1.0580600039139236 0 0 0 0.35 60 1179 111 627 157 750 164 1362 196 734 
4662 0.2051935225829372 0.2554738026843866 1.0571260725467544 0 0 0 0.47 60 1180 111 628 164 1363 220 540 
4663 0.40700426991270133 0.22496777349092112 0.9733877888959269 0 0 0 0.19 60 1181 61 1028 92 1251 231 322 
4664 0.42124250437222877 0.22845843414742717 0.9674656241541212 0 0 0 0.26 60 1182 61 1029 63 516 96 829 111 629 135 212 221 862 
4665 0.6981710888511481 0.19789154651923205 0.9001458247027361 0 0 0 0.49 35 501 60 1183 62 291 63 517 77 1308 85 803 92 1252 110 739 111 630 118 1345 126 453 127 552 164 1364 
4666 0.39287040920503175 0.23441712964519593 0.9775108858456413 0 0 0 0.3 54 547 60 1184 71 695 77 1309 85 804 92 1253 110 740 113 414 118 1346 126 454 128 732 136 306 146 1087 159 504 164 1365 172 644 176 602 185 416 204 688 213 1270 214 688 
4667 0.3773389035329952 0.2357789652327628 0.9775307749307309 0 0 0 0.42 26 842 44 1838 53 1732 60 1185 61 1030 63 518 71 696 77 1310 92 1254 103 543 111 631 126 455 127 553 128 733 135 213 157 751 159 505 164 1366 172 645 185 417 194 357 196 735 214 689 217 310 221 863 231 323 
4668 0.4668619217809074 0.22785159111604167 0.9551898800942791 0 0 0 0.27 60 1186 77 1311 92 1255 135 214 
4669 0.4668619217809074 0.22785159111604167 0.9551898800942791 0 0 0 0.27 60 1187 77 1312 92 1256 135 215 
4670 0.21515183331982743 0.26579548997737545 1.045131461872078 0 0 0 0.36 60 1188 61 1031 71 697 92 1257 110 741 113 415 114 147 118 1347 126 456 146 1088 157 752 159 506 204 689 213 1271 221 864 224 535 
4671 0.7049255572236961 0.20247476164518502 0.9005275409682665 0 0 0 0.41 54 548 60 1189 67 357 73 507 82 177 85 805 91 474 92 1258 103 544 105 321 126 457 127 554 128 734 136 307 164 1367 
4672 0.690326222019279 0.2051940137272564 0.89701636830221 0 0 0 0.52 60 1190 85 806 91 475 111 632 136 308 164 1368 
4673 0.45727105616140257 0.24359965441219764 0.9439303100609586 0 0 0 0.43 60 1191 63 519 126 458 
4674 0.25454159388293623 0.27661726580261153 1.0249841269856073 0 0 0 0.28 44 1839 60 1192 63 520 71 698 85 807 92 1259 96 830 111 633 113 416 146 1089 164 1369 196 736 220 541 224 536 
4675 0.1811793891146261 0.2879660724861521 1.051747525997905 0 0 0 0.39 60 1193 71 699 73 508 96 831 113 417 164 1370 213 1272 
4676 0.18116640619420407 0.2879586069304925 1.0517116885609452 0 0 0 0.36 60 1194 71 700 73 509 96 832 113 418 114 148 164 1371 213 1273 
4677 0.6983661597813311 0.22233199073981139 0.889733504901543 0 0 0 0.28 60 1195 73 510 164 1372 
4678 0.1870910611434315 0.29412917827696905 1.046863010307405 0 0 0 0.23 60 1196 111 634 172 646 
4679 0.5496271389016912 0.2409133344200236 0.9149994081523962 0 0 0 0.34 60 1197 85 808 185 418 194 358 
4680 0.4938211773017313 0.2544589204981177 0.9343683574346726 0 0 0 0.08 60 1198 92 1260 111 635 135 216 
4681 0.4160286138974769 0.26854458786505264 0.9589357078905143 0 0 0 0.49 60 1199 92 1261 185 419 
4682 0.5371792747774256 0.25125106811219133 0.9176795199323834 0 0 0 0.32 44 1840 60 1200 77 1313 91 476 126 459 159 507 185 420 196 737 213 1274 214 690 223 119 
4683 0.16531352285988385 0.308744807259201 1.0505108373101422 0 0 0 0.37 60 1201 71 701 111 636 126 460 220 542 224 537 
4684 0.2962619302001217 0.28575888588655807 0.9948761021238968 0 0 0 0.23 44 1841 60 1202 63 521 92 1262 96 833 
4685 0.6603161035101862 0.2409324231801889 0.8841228486313374 0 0 0 0.25 60 1203 194 359 196 738 220 543 
4686 0.23615457356514225 0.3055681420781501 1.018347493639655 0 0 0 0.39 44 1842 53 1733 60 1204 61 1032 73 511 77 1314 92 1263 96 834 110 742 113 419 118 1348 126 461 128 735 146 1090 159 508 204 690 213 1275 217 311 221 865 224 538 
4687 0.5510192260725706 0.25785817127766464 0.9094773727352192 0 0 0 0.62 1 483 44 1843 53 1734 54 549 60 1205 61 1033 63 522 71 702 73 512 77 1315 85 809 91 477 92 1264 96 835 110 743 118 1349 126 462 127 555 146 1091 157 753 159 509 164 1373 176 603 194 360 196 739 204 691 213 1276 214 691 220 544 221 866 223 120 
4688 0.5118602642994613 0.2637617773492961 0.9174020920694403 0 0 0 0.27 14 317 60 1206 92 1265 96 836 111 637 136 309 164 1374 
4689 0.22730867557491863 0.30999122977154164 1.0196416985971737 0 0 0 0.39 53 1735 60 1207 61 1034 92 1266 96 837 111 638 118 1350 146 1092 157 754 164 1375 172 647 204 692 213 1277 220 545 
4690 0.5500227130184282 0.26074374912220966 0.9058193973441462 0 0 0 0.4 26 843 60 1208 126 463 220 546 223 121 
4691 0.18809209231067545 0.3209083174796926 1.0349983588833354 0 0 0 0.36 60 1209 77 1316 110 744 111 639 113 420 118 1351 146 1093 164 1376 172 648 213 1278 
4692 0.5566176537279067 0.2651895550721829 0.9037531195390262 0 0 0 0.5 14 318 44 1844 60 1210 61 1035 73 513 92 1267 96 838 97 616 111 640 127 556 146 1094 164 1377 196 740 214 692 220 547 223 122 
4693 0.20400650300134487 0.3224372317416447 1.0281788045110336 0 0 0 0.34 60 1211 61 1036 96 839 110 745 118 1352 146 1095 213 1279 
4694 0.6795534409701294 0.2574941378374928 0.8710525369250718 0 0 0 0.38 35 502 44 1845 60 1212 63 523 73 514 77 1317 85 810 105 322 110 746 136 310 164 1378 196 741 213 1280 
4695 0.2222231953140123 0.3248550834549313 1.013609905784746 0 0 0 0.22 60 1213 77 1318 157 755 
4696 0.3898026588743309 0.3034274431395987 0.947428519145928 0 0 0 0.5 44 1846 53 1736 60 1214 61 1037 77 1319 89 367 92 1268 96 840 126 464 179 222 213 1281 214 693 221 867 231 324 
4697 0.7127687316134276 0.2678177821488162 0.8712934434064739 0 0 0 0.13 60 1215 71 703 118 1353 
4698 0.5578044278663413 0.28239702385068477 0.8957857284576838 0 0 0 0.65 60 1216 69 232 85 811 110 747 111 641 196 742 
4699 0.5986001486718667 0.27783078485571094 0.8850564300318758 0 0 0 0.59 44 1847 54 550 60 1217 73 515 77 1320 96 841 105 323 110 748 111 642 127 557 136 311 164 1379 185 421 194 361 196 743 220 548 
4700 0.5981761966273966 0.27804534607243114 0.8836379082333543 0 0 0 1.06 53 1737 60 1218 61 1038 77 1321 96 842 111 643 146 1096 164 1380 213 1282 
4701 0.537966415774417 0.2874247470814042 0.8979613377048352 0 0 0 0.27 60 1219 77 1322 214 694 223 123 
4702 0.5915711537651007 0.2841950594184581 0.8840858494149425 0 0 0 0.21 60 1220 185 422 194 362 
4703 0.6740077514524453 0.27559861584561574 0.8664552312610689 0 0 0 0.59 53 1738 54 551 60 1221 62 292 73 516 85 812 97 617 103 545 110 749 221 868 
4704 0.25996580159510374 0.34265564505340235 0.9872919300613769 0 0 0 0.58 60 1222 61 1039 92 1269 97 618 172 649 220 549 231 325 
4705 0.5636939072359729 0.2957702460299754 0.8785934240006955 0 0 0 0.68 60 1223 127 558 196 744 220 550 
4706 0.2502061664231881 0.34921253317990825 0.990877548691255 0 0 0 0.61 53 1739 60 1224 71 704 92 1270 96 843 110 750 111 644 113 421 114 149 118 1354 146 1097 164 1381 179 223 213 1283 220 551 224 539 231 326 
4707 0.5804537351266279 0.10484902596324641 1.0198738349547571 0 0 0 0.75 54 552 60 1225 63 524 71 705 77 1323 81 307 110 751 118 1355 164 1382 185 423 213 1284 214 695 
4708 0.3073503269015757 0.1387709275703796 1.0511480273606066 0 0 0 0.43 60 1226 65 405 67 358 127 559 136 312 
4709 0.3075563735439576 0.1392848699299683 1.053016795027523 0 0 0 0.42 60 1227 65 406 67 359 89 368 97 619 111 645 127 560 179 224 
4710 0.613264666603082 0.11253832472698551 0.9489102288199183 0 0 0 0.31 60 1228 71 706 103 546 164 1383 
4711 0.23105153914426815 0.16066966042254172 1.0853556734743226 0 0 0 0.48 60 1229 73 517 127 561 
4712 0.6049744230357595 0.11516057479313718 0.9519307863506591 0 0 0 0.42 60 1230 126 465 136 313 
4713 0.3877940660147712 0.14318683332984408 1.0057058202434324 0 0 0 1.15 14 319 53 1740 60 1231 63 525 89 369 92 1271 96 844 97 620 103 547 118 1356 127 562 136 314 172 650 196 745 220 552 224 540 
4714 0.33777469243057 0.16703682670007303 1.0320515642180819 0 0 0 0.85 60 1232 114 150 127 563 179 225 217 312 
4715 0.2301161162596572 0.18367760844906156 1.0678759739552095 0 0 0 0.18 60 1233 73 518 96 845 127 564 
4716 0.6542610252474761 0.14766155888413876 0.9267725142229818 0 0 0 0.44 60 1234 126 466 127 565 136 315 
4717 0.7109925598570132 0.1450123987288727 0.9248655089297532 0 0 0 0.63 44 1848 60 1235 71 707 73 519 77 1324 91 478 105 324 164 1384 198 467 220 553 221 869 
4718 0.24079183732274492 0.20165427575824402 1.060668189187561 0 0 0 1.22 60 1236 81 308 85 813 92 1272 111 646 114 151 146 1098 179 226 
4719 0.5740332603299427 0.1599672355605485 0.943650642906926 0 0 0 0.47 60 1237 126 467 176 604 
4720 0.3773695460527205 0.18313904756814667 0.9970535505554156 0 0 0 0.52 60 1238 67 360 89 370 96 846 129 221 136 316 172 651 179 227 217 313 
4721 0.679477894468453 0.14760730418936366 0.9201686958513912 0 0 0 1.77 54 553 60 1239 71 708 73 520 164 1385 
4722 0.3517159379180514 0.193439377105071 1.008120055541712 0 0 0 0.18 26 844 60 1240 88 389 96 847 136 317 
4723 0.19328013703358674 0.22471589836281428 1.073501127033851 0 0 0 0.35 60 1241 71 709 77 1325 110 752 146 1099 172 652 
4724 0.23624754532631786 0.22457868540080952 1.0492558386820332 0 0 0 0.36 60 1242 64 106 111 647 114 152 179 228 213 1285 221 870 
4725 0.4905392595058809 0.19573262105385747 0.9586771812312498 0 0 0 0.15 60 1243 63 526 185 424 
4726 0.1644183437721019 0.2511279467406469 1.0713303511617946 0 0 0 0.6 60 1244 67 361 76 175 81 309 96 848 126 468 221 871 
4727 0.45525813330189757 0.20749306404888476 0.9608891769419718 0 0 0 0.39 60 1245 159 510 185 425 214 696 
4728 0.24990258673565224 0.2414192301469416 1.0382433967449405 0 0 0 0.16 60 1246 113 422 231 327 
4729 0.6058635437412574 0.1929442049847344 0.9190969753141549 0 0 0 0.41 60 1247 105 325 220 554 
4730 0.6963232309684958 0.19071130640753325 0.903246566657372 0 0 0 0.32 54 554 60 1248 67 362 71 710 126 469 136 318 164 1386 198 468 220 555 
4731 0.3448464664782028 0.23264239504062478 0.9939068961876434 0 0 0 0.57 60 1249 67 363 89 371 92 1273 111 648 113 423 114 153 126 470 127 566 179 229 221 872 
4732 0.41877537544289006 0.22613034399456067 0.9702089628209976 0 0 0 0.3 60 1250 135 217 179 230 
4733 0.22479075133227303 0.2575196924926284 1.0448479447995194 0 0 0 0.58 53 1741 60 1251 67 364 92 1274 113 424 
4734 0.6848151145390652 0.20215009122777178 0.8965376187957549 0 0 0 0.35 35 503 44 1849 54 555 60 1252 61 1040 73 521 77 1326 85 814 91 479 92 1275 103 548 105 326 118 1357 126 471 136 319 164 1387 176 605 220 556 
4735 0.15144736926072533 0.2968716648819617 1.0606204341269947 0 0 0 0.53 60 1253 73 522 77 1327 126 472 159 511 164 1388 220 557 224 541 
4736 0.5842751478962692 0.23827517808447543 0.9061823255335484 0 0 0 0.72 14 320 60 1254 65 407 67 365 71 711 77 1328 91 480 92 1276 96 849 105 327 111 649 127 567 198 469 213 1286 214 697 217 314 221 873 
4737 0.19035545323830924 0.3031025900679624 1.0438019108538117 0 0 0 0.42 60 1255 61 1041 77 1329 85 815 92 1277 103 549 127 568 196 746 220 558 
4738 0.5241483772526828 0.2530342574413657 0.9203731041893689 0 0 0 0.54 26 845 60 1256 63 527 85 816 91 481 92 1278 97 621 103 550 118 1358 126 473 127 569 128 736 136 320 185 426 194 363 196 747 213 1287 220 559 221 874 223 124 
4739 0.5608349294583873 0.2792901826711302 0.8963284513045798 0 0 0 0.38 60 1257 69 233 194 364 196 748 
4740 0.36193704297740653 0.30906632834923686 0.9500865104795325 0 0 0 0.7 26 846 44 1850 60 1258 77 1330 92 1279 146 1100 196 749 231 328 
4741 0.20319863055512236 0.34059954437577794 1.0201395408032883 0 0 0 0.46 60 1259 71 712 73 523 92 1280 103 551 110 753 113 425 221 875 
4742 0.29591368579687233 0.32463134327843185 0.97761878616818 0 0 0 0.36 60 1260 81 310 96 850 118 1359 146 1101 
4743 0.6666192247937266 0.14698440231971807 0.9204520356026716 0 0 0 0.46 35 504 53 1742 60 1261 61 1042 62 293 71 713 73 524 77 1331 81 311 82 178 89 372 91 482 92 1281 100 99 103 552 110 754 118 1360 126 474 129 222 146 1102 164 1389 172 653 
4744 0.5632555170833287 0.16932730720234623 0.9480631569334299 0 0 0 0.45 54 556 60 1262 91 483 111 650 159 512 164 1390 185 427 194 365 217 315 220 560 
4745 0.4364063341096734 0.1893580161963156 0.984514646930378 0 0 0 0.46 44 1851 53 1743 60 1263 77 1332 81 312 159 513 185 428 217 316 
4746 0.20041788397781163 0.23365557036465892 1.0669356421120892 0 0 0 0.38 1 484 26 847 44 1852 60 1264 73 525 77 1333 81 313 88 390 92 1282 103 553 110 755 111 651 113 426 114 154 118 1361 126 475 146 1103 159 514 164 1391 179 231 198 470 204 693 213 1288 220 561 224 542 
4747 0.5667470976902633 0.1836330756639359 0.9402666735842402 0 0 0 0.14 60 1265 185 429 194 366 214 698 
4748 0.330195765663647 0.2154194321033491 1.0093466402628137 0 0 0 0.55 92 1283 110 756 113 427 
4749 0.4094547413042371 0.26880598343566486 0.956136093205464 0 0 0 0.28 60 1266 92 1284 135 218 
4750 0.3156146428027893 0.31398888831976995 0.9723127744749831 0 0 0 0.78 60 1267 221 876 231 329 
4751 0.5641972468331728 0.28502942783235097 0.8940612514835927 0 0 0 0.54 60 1268 63 528 73 526 85 817 91 484 111 652 194 367 214 699 220 562 221 877 
4752 0.6751468515719092 0.09679567394056314 1.009365196912078 0 0 0 0.8 54 557 60 1269 63 529 71 714 126 476 127 570 136 321 196 750 198 471 220 563 
4753 0.5550000702709764 0.11527334559967915 0.9710060990497181 0 0 0 0.4 60 1270 63 530 71 715 73 527 
4754 0.6695974903258248 0.11693846963193381 0.9368776469428227 0 0 0 0.62 14 321 35 505 44 1853 54 558 60 1271 62 294 63 531 65 408 67 366 69 234 71 716 73 528 77 1334 81 314 82 179 85 818 89 373 97 622 103 554 105 328 111 653 114 155 118 1362 128 737 129 223 134 117 146 1104 164 1392 198 472 204 694 213 1289 221 878 
4755 0.31895877974394143 0.1590916735775758 1.0404064805412772 0 0 0 0.75 1 485 60 1272 61 1043 63 532 71 717 81 315 97 623 110 757 118 1363 146 1105 185 430 198 473 204 695 213 1290 221 879 
4756 0.29047874344091457 0.1832782338644948 1.0396272686209 0 0 0 0.36 1 486 26 848 53 1744 60 1273 63 533 64 107 65 409 67 367 71 718 77 1335 81 316 89 374 96 851 103 555 110 758 111 654 118 1364 127 571 128 738 146 1106 159 515 164 1393 172 654 176 606 179 232 185 431 196 751 198 474 204 696 213 1291 214 700 217 317 220 564 221 880 224 543 
4757 0.3012597285026313 0.18592629226736204 1.036317484574521 0 0 0 0.28 60 1274 164 1394 220 565 224 544 
4758 0.48667981797837784 0.1811588326769254 0.9692155028650167 0 0 0 0.61 44 1854 60 1275 92 1285 96 852 111 655 185 432 213 1292 214 701 217 318 
4759 0.46807688988509666 0.18450815986211253 0.972134808647057 0 0 0 0.3 60 1276 73 529 159 516 164 1395 
4760 0.4432986249411165 0.18859157961861525 0.9829126982836026 0 0 0 0.56 60 1277 88 391 127 572 159 517 198 475 214 702 
4761 0.1694527597538768 0.27555775663106247 1.0645237026857293 0 0 0 0.3 26 849 60 1278 73 530 76 176 77 1336 88 392 110 759 113 428 114 156 164 1396 196 752 198 476 220 566 224 545 
4762 0.1600738879270695 0.2986922229785564 1.0558071870365728 0 0 0 0.35 26 850 60 1279 77 1337 88 393 92 1286 96 853 103 556 110 760 111 656 126 477 164 1397 196 753 198 477 220 567 221 881 224 546 
4763 0.6832791371362754 0.23017608406636683 0.8844918031780785 0 0 0 0.33 60 1280 63 534 196 754 
4764 0.5287383622299646 0.25370150602645325 0.9099102131854065 0 0 0 0.19 60 1281 196 755 220 568 
4765 0.686410723295125 0.26471764271762593 0.869082249853207 0 0 0 0.67 60 1282 61 1044 71 719 73 531 77 1338 105 329 111 657 129 224 164 1398 198 478 220 569 
4766 0.5028385254996994 0.09803910724952455 1.0110454011176493 0 0 0 0.58 60 1283 71 720 198 479 
4767 0.679513588640624 0.11332152010911077 0.971999911127093 0 0 0 0.95 60 1284 63 535 110 761 127 573 136 322 
4768 0.4398466279130594 0.18348458440117377 0.9799403403855111 0 0 0 0.61 60 1285 77 1339 126 478 159 518 220 570 
4769 0.16026245315119778 0.22474324241256008 1.0903486773617181 0 0 0 0.67 26 851 60 1286 67 368 71 721 73 532 76 177 77 1340 81 317 88 394 92 1287 110 762 126 479 164 1399 220 571 221 882 
4770 0.3339985102717731 0.2036627143957674 1.0109195030814733 0 0 0 0.49 60 1287 164 1400 224 547 
4771 0.5432776201534405 0.21498477057606633 0.9354959320593254 0 0 0 0.41 60 1288 63 536 85 819 88 395 111 658 126 480 217 319 
4772 0.33945786389191335 0.28768103459307004 0.9761384816149326 0 0 0 0.77 60 1289 92 1288 96 854 
4773 0.17532592805444064 0.3416671504033308 1.0307238814424013 0 0 0 0.09 60 1290 96 855 198 480 
4774 0.25647300836382864 0.3344453110799068 0.9955111283280302 0 0 0 0.56 44 1855 60 1291 77 1341 85 820 88 396 97 624 111 659 129 225 146 1107 172 655 213 1293 217 320 231 330 
4775 0.4998009018292566 0.12460288949667384 0.9822055340611301 0 0 0 0.79 53 1745 60 1292 63 537 65 410 69 235 71 722 73 533 81 318 89 375 96 856 118 1365 128 739 129 226 179 233 185 433 198 481 214 703 217 321 
4776 0.22935588962425887 0.17722168739242655 1.0761259950542792 0 0 0 0.28 60 1293 65 411 111 660 164 1401 
4777 0.502675039362847 0.15773247885173294 0.9631845417607369 0 0 0 0.96 44 1856 53 1746 60 1294 61 1045 64 108 65 412 73 534 111 661 126 481 129 227 176 607 179 234 198 482 204 697 
4778 0.20614474352635545 0.18669304977332496 1.093031270216209 0 0 0 0.62 60 1295 77 1342 164 1402 
4779 0.3345842854905183 0.19484512662839343 1.0085273590297914 0 0 0 0.47 60 1296 85 821 196 756 224 548 
4780 0.35771344353196033 0.2995999688077236 0.9570286467382341 0 0 0 0.48 1 487 26 852 44 1857 53 1747 60 1297 65 413 77 1343 81 319 88 397 92 1289 96 857 103 557 111 662 118 1366 126 482 164 1403 185 434 198 483 213 1294 214 704 221 883 231 331 
4781 0.18031266377687555 0.2264550507063354 1.0905400438790058 0 0 0 0.83 60 1298 110 763 127 574 
4782 0.41276429939160925 0.19089428341345044 0.9818273197387993 0 0 0 0.56 60 1299 159 519 198 484 221 884 
4783 0.4148305425620818 0.21062323752278717 0.9761003557963336 0 0 0 0.65 1 488 26 853 44 1858 60 1300 61 1046 77 1344 85 822 88 398 89 376 97 625 103 558 110 764 111 663 118 1367 126 483 127 575 128 740 129 228 136 323 157 756 172 656 176 608 179 235 185 435 198 485 204 698 213 1295 214 705 217 322 220 572 221 885 231 332 
4784 0.18031454973326083 0.3071900803192661 1.0456730592691228 0 0 0 0.31 60 1301 92 1290 96 858 103 559 110 765 198 486 220 573 224 549 
4785 0.6055326740750087 0.258570980530448 0.8910770242726542 0 0 0 0.47 14 322 35 506 44 1859 53 1748 54 559 60 1302 61 1047 62 295 63 538 65 414 69 236 71 723 73 535 77 1345 81 320 85 823 88 399 89 377 105 330 110 766 111 664 118 1368 127 576 128 741 129 229 146 1108 164 1404 172 657 194 368 196 757 198 487 214 706 221 886 
4786 0.6055496759976373 0.25858911715486393 0.891053980846187 0 0 0 0.45 14 323 44 1860 53 1749 54 560 60 1303 61 1048 62 296 63 539 65 415 69 237 71 724 73 536 77 1346 81 321 85 824 88 400 89 378 91 485 105 331 110 767 111 665 118 1369 127 577 128 742 129 230 146 1109 164 1405 172 658 194 369 196 758 198 488 214 707 221 887 
4787 0.34570970708042875 0.3029901156270751 0.9632209940615629 0 0 0 0.46 60 1304 92 1291 96 859 
4788 0.2642506617677786 0.3517363563011721 0.9883478081713433 0 0 0 0.57 60 1305 77 1347 126 484 220 574 
4789 0.32902497304320155 0.2413570549516635 1.0005666581191905 0 0 0 0.71 60 1306 89 379 114 157 129 231 135 219 179 236 217 323 
4790 0.08389293146482693 0.09787907491572714 0.8409631874320683 0 0 0 0.46 61 1049 118 1370 172 659 
4791 0.09702738732847653 0.1195549525344835 0.8762315475089079 0 0 0 0.49 61 1050 157 757 172 660 
4792 0.33619355318467287 0.14638229930318056 1.084621730159192 0 0 0 0.63 61 1051 146 1110 220 575 
4793 0.49866611683685436 0.11200827493792366 1.0448912611279346 0 0 0 0.6 61 1052 96 860 118 1371 221 888 
4794 0.31347247608453227 0.15314843856783902 1.0410111978366723 0 0 0 0.31 61 1053 71 725 103 560 110 768 118 1372 164 1406 172 661 179 237 185 436 196 759 204 699 213 1296 221 889 
4795 0.4026179904195544 0.13355006663065566 1.0109642674197525 0 0 0 0.24 61 1054 77 1348 185 437 
4796 0.3556901303398319 0.14723903300235033 1.0215283112844715 0 0 0 0.46 60 1307 61 1055 71 726 103 561 118 1373 128 743 185 438 196 760 213 1297 220 576 221 890 224 550 
4797 0.3700269757063546 0.1447176750863942 1.016649085824767 0 0 0 0.31 61 1056 77 1349 164 1407 204 700 
4798 0.260502777799496 0.17697616165704522 1.078523363058163 0 0 0 0.35 61 1057 110 769 113 429 118 1374 146 1111 213 1298 
4799 0.5355467143229637 0.10839966925792316 0.9739286531471437 0 0 0 0.3 61 1058 63 540 92 1292 96 861 118 1375 126 485 
4800 0.4602054515895153 0.1288673051990368 0.990396921973515 0 0 0 0.53 44 1861 61 1059 63 541 77 1350 85 825 92 1293 97 626 110 770 126 486 159 520 164 1408 185 439 214 708 221 891 
4801 0.45060050767870746 0.13118083343397843 0.991869519955629 0 0 0 0.51 14 324 26 854 61 1060 63 542 71 727 85 826 96 862 110 771 111 666 126 487 127 578 159 521 185 440 196 761 204 701 213 1299 214 709 220 577 
4802 0.24564080768587962 0.18442082319036715 1.0650903249394623 0 0 0 0.48 61 1061 157 758 213 1300 221 892 
4803 0.4821978903520491 0.1277871436490435 0.9868235967406075 0 0 0 0.21 61 1062 96 863 196 762 
4804 0.4223263753841571 0.1436985140679277 1.0026490125412417 0 0 0 1.16 61 1063 110 772 185 441 221 893 
4805 0.5773289739390169 0.11137810400888568 0.9818418812878229 0 0 0 0.23 61 1064 77 1351 213 1301 
4806 0.6154550859594429 0.09980655943772722 0.9531874813575304 0 0 0 0.39 61 1065 63 543 96 864 118 1376 159 522 164 1409 185 442 
4807 0.3077419469696437 0.1700363298502664 1.0277527262271065 0 0 0 1.15 61 1066 103 562 185 443 220 578 
4808 0.5320074839158142 0.12032538690026062 0.9738538859141775 0 0 0 0.34 61 1067 159 523 213 1302 
4809 0.45427757990985046 0.1377923595728187 0.9866815597082736 0 0 0 0.4 44 1862 61 1068 77 1352 92 1294 110 773 146 1112 176 609 185 444 196 763 213 1303 214 710 
4810 0.2674795205027275 0.18285378630987525 1.051031860860582 0 0 0 0.16 61 1069 176 610 196 764 
4811 0.39014159529387554 0.15313940536824416 1.004839438169515 0 0 0 0.97 60 1308 61 1070 85 827 92 1295 96 865 118 1377 126 488 127 579 128 744 136 324 176 611 231 333 
4812 0.30070248802741034 0.17731241049671667 1.0377442784458424 0 0 0 0.28 61 1071 118 1378 128 745 157 759 213 1304 
4813 0.24581408063416907 0.19170289907378352 1.0617363542911433 0 0 0 0.34 44 1863 61 1072 77 1353 103 563 118 1379 128 746 146 1113 159 524 176 612 213 1305 224 551 
4814 0.3774487047767163 0.16101504775342626 1.0057179776376695 0 0 0 0.45 61 1073 85 828 92 1296 
4815 0.21157700028178472 0.20344011039004697 1.0699877557764617 0 0 0 0.27 61 1074 176 613 179 238 
4816 0.39423656804157303 0.15982347177877318 1.002054162499353 0 0 0 0.42 44 1864 61 1075 77 1354 85 829 92 1297 118 1380 136 325 146 1114 157 760 164 1410 196 765 213 1306 214 711 
4817 0.21999654275733427 0.2028207085763144 1.0674127681608612 0 0 0 0.28 61 1076 146 1115 213 1307 
4818 0.42009277102540843 0.1543893719853705 0.9948352417752372 0 0 0 0.25 61 1077 112 50 146 1116 157 761 164 1411 
4819 0.23558202251072288 0.20045835267214682 1.0595943951992908 0 0 0 0.32 61 1078 157 762 204 702 213 1308 
4820 0.2994793002195325 0.18564056011993185 1.0351700099991072 0 0 0 0.21 61 1079 146 1117 204 703 213 1309 
4821 0.18634159286668808 0.21477108259481353 1.0816220658545503 0 0 0 0.42 61 1080 118 1381 157 763 213 1310 
4822 0.4648237053882434 0.14875752470325782 0.9821335755822047 0 0 0 0.35 61 1081 92 1298 146 1118 159 525 176 614 213 1311 214 712 
4823 0.6715667387215283 0.10561833259084373 0.9368172359805647 0 0 0 0.35 61 1082 62 297 85 830 92 1299 172 662 
4824 0.6708749680875379 0.10544324541900478 0.9359475988423545 0 0 0 0.45 44 1865 60 1309 61 1083 63 544 71 728 73 537 77 1355 85 831 103 564 105 332 118 1382 128 747 146 1119 164 1412 172 663 213 1312 
4825 0.4546188496778734 0.15296635608771364 0.9845624851413874 0 0 0 0.3 14 325 60 1310 61 1084 77 1356 85 832 96 866 110 774 111 667 126 489 136 326 146 1120 157 764 159 526 164 1413 176 615 185 445 213 1313 
4826 0.4416065563084275 0.15597849175319675 0.9872820719735107 0 0 0 0.77 44 1866 61 1085 85 833 96 867 126 490 127 580 146 1121 159 527 176 616 185 446 196 766 204 704 
4827 0.4704359870865132 0.15082853207757052 0.9796444037565661 0 0 0 0.38 44 1867 61 1086 85 834 157 765 159 528 164 1414 185 447 213 1314 
4828 0.4142092886557949 0.16374060226981738 0.9940370941429665 0 0 0 0.34 61 1087 77 1357 157 766 164 1415 196 767 213 1315 224 552 
4829 0.4461402009472308 0.15663119708096757 0.9853119377392636 0 0 0 0.32 61 1088 85 835 92 1300 146 1122 176 617 213 1316 
4830 0.1258635757842589 0.20416980503967494 0.9365957816683197 0 0 0 0.18 61 1089 157 767 172 664 
4831 0.24458325890991273 0.20598147435570746 1.051266042094299 0 0 0 0.69 44 1868 61 1090 157 768 213 1317 224 553 
4832 0.3280695839190034 0.18485460653789237 1.0159499220791284 0 0 0 0.22 61 1091 111 668 157 769 159 529 220 579 224 554 
4833 0.4350727402899205 0.16148205423741407 0.9870119431435115 0 0 0 0.24 61 1092 92 1301 112 51 194 370 214 713 
4834 0.20374749160955755 0.2169688605719659 1.066069227671183 0 0 0 0.2 61 1093 146 1123 213 1318 
4835 0.34980492621940523 0.1814023604414418 1.0062943135407947 0 0 0 0.73 44 1869 61 1094 77 1358 85 836 92 1302 96 868 112 52 113 430 118 1383 126 491 127 581 128 748 146 1124 157 770 159 530 164 1416 172 665 176 618 185 448 194 371 196 768 204 705 213 1319 214 714 220 580 224 555 231 334 
4836 0.49105838734550356 0.15006729722443798 0.969337811314147 0 0 0 0.82 60 1311 61 1095 77 1359 110 775 164 1417 185 449 194 372 213 1320 
4837 0.4474319000934501 0.16108676643503086 0.983901594008347 0 0 0 0.38 61 1096 146 1125 157 771 159 531 164 1418 176 619 213 1321 221 894 
4838 0.4421998820847676 0.16288945795878343 0.9844294108390736 0 0 0 0.28 44 1870 61 1097 92 1303 127 582 146 1126 159 532 164 1419 176 620 
4839 0.5965427016504674 0.1301793567403229 0.9495058159056498 0 0 0 0.28 61 1098 176 621 179 239 213 1322 
4840 0.34542099694240935 0.18521016005588492 1.0101746914122278 0 0 0 0.26 61 1099 92 1304 96 869 103 565 110 776 118 1384 127 583 159 533 176 622 194 373 204 706 213 1323 214 715 
4841 0.5575500920718929 0.13707468764338562 0.9388146594959258 0 0 0 1.65 35 507 60 1312 61 1100 96 870 185 450 220 581 
4842 0.4558056292303643 0.16352631696689374 0.9804178891273077 0 0 0 0.66 61 1101 97 627 159 534 176 623 194 374 204 707 231 335 
4843 0.5852197216039223 0.13679500057163035 0.9482578684864391 0 0 0 0.43 61 1102 96 871 105 333 118 1385 136 327 213 1324 220 582 
4844 0.499125124985429 0.15536953815321444 0.9642454761276602 0 0 0 0.33 44 1871 61 1103 77 1360 85 837 92 1305 110 777 128 749 146 1127 157 772 164 1420 176 624 179 240 185 451 194 375 213 1325 214 716 
4845 0.37555156517904464 0.18357011497624065 0.9989931030442022 0 0 0 0.31 61 1104 85 838 127 584 159 535 176 625 194 376 
4846 0.29374212559516216 0.2038672237492522 1.02993237700595 0 0 0 0.17 44 1872 61 1105 77 1361 96 872 118 1386 164 1421 
4847 0.45034591752448566 0.16781794384303494 0.9791440802289857 0 0 0 0.24 61 1106 85 839 92 1306 176 626 231 336 
4848 0.3255909870610824 0.1965390586382533 1.0167324900071883 0 0 0 0.28 60 1313 61 1107 92 1307 110 778 113 431 128 750 146 1128 164 1422 172 666 185 452 194 377 213 1326 224 556 231 337 
4849 0.4573968548686164 0.16705655359178084 0.9781043924507155 0 0 0 0.37 61 1108 77 1362 92 1308 118 1387 126 492 146 1129 157 773 159 536 164 1423 176 627 194 378 196 769 213 1327 214 717 220 583 
4850 0.4201673132619325 0.1750633860513839 0.9865726507896262 0 0 0 0.39 61 1109 85 840 92 1309 110 779 157 774 159 537 164 1424 176 628 194 379 204 708 213 1328 214 718 231 338 
4851 0.26411391673244994 0.21233674149648624 1.0416015145822768 0 0 0 0.15 61 1110 146 1130 164 1425 224 557 
4852 0.4057922355340476 0.1793545706483201 0.9900089215988029 0 0 0 0.32 61 1111 85 841 92 1310 110 780 146 1131 157 775 159 538 164 1426 176 629 194 380 196 770 213 1329 214 719 231 339 
4853 0.4756870891418138 0.16404637087753265 0.973013946875319 0 0 0 1.14 61 1112 85 842 127 585 146 1132 
4854 0.36638347970690127 0.18941782449982889 0.9996657412230048 0 0 0 0.28 60 1314 61 1113 77 1363 85 843 110 781 112 53 118 1388 128 751 146 1133 157 776 164 1427 176 630 194 381 204 709 213 1330 214 720 224 558 231 340 
4855 0.37422256518932207 0.1878971854555293 0.9972903220596993 0 0 0 0.35 61 1114 146 1134 157 777 213 1331 214 721 
4856 0.37954199548375284 0.18700923715208648 0.9960883555185068 0 0 0 0.3 61 1115 85 844 92 1311 128 752 135 220 146 1135 185 453 194 382 196 771 213 1332 214 722 231 341 
4857 0.3819832606431088 0.186686604902732 0.995880124509808 0 0 0 0.36 61 1116 85 845 127 586 157 778 194 383 
4858 0.2872634440141694 0.2096434173430129 1.0287889129855816 0 0 0 0.34 61 1117 118 1389 204 710 221 895 
4859 0.4227018799767787 0.17814409918164603 0.9834524623649025 0 0 0 0.15 61 1118 194 384 196 772 214 723 
4860 0.4055109383350892 0.18284539205773467 0.9881398045507112 0 0 0 0.26 44 1873 60 1315 61 1119 77 1364 85 846 92 1312 110 782 127 587 128 753 146 1136 157 779 159 539 164 1428 176 631 185 454 194 385 196 773 204 711 213 1333 214 724 224 559 231 342 
4861 0.36205296525283964 0.193120204657267 0.9999578341240426 0 0 0 0.28 44 1874 61 1120 63 545 77 1365 111 669 112 54 118 1390 127 588 146 1137 157 780 159 540 164 1429 185 455 213 1334 214 725 224 560 231 343 
4862 0.29189939407986465 0.2113515209022359 1.0269921279637333 0 0 0 0.3 60 1316 61 1121 77 1366 113 432 118 1391 128 754 164 1430 213 1335 214 726 220 584 221 896 
4863 0.46323503592654547 0.17270007702276757 0.9733059117462348 0 0 0 0.26 61 1122 77 1367 85 847 110 783 118 1392 159 541 164 1431 176 632 194 386 213 1336 214 727 
4864 0.49700494690288405 0.16534190829960896 0.964032004283567 0 0 0 0.25 61 1123 92 1313 146 1138 164 1432 196 774 213 1337 214 728 
4865 0.49699957212486806 0.1653004529690085 0.9640124590979492 0 0 0 0.21 44 1875 60 1317 61 1124 77 1368 85 848 91 486 92 1314 110 784 118 1393 127 589 128 755 146 1139 157 781 159 542 164 1433 176 633 185 456 194 387 196 775 204 712 213 1338 214 729 
4866 0.6196124683430625 0.1398131802296735 0.9358371119993024 0 0 0 0.33 44 1876 61 1125 105 334 176 634 194 388 196 776 213 1339 
4867 0.3723949597920108 0.19395705003001668 0.9946442745418134 0 0 0 0.16 61 1126 146 1140 157 782 176 635 
4868 0.510218852896896 0.16539100165334317 0.9609953836017798 0 0 0 0.33 44 1877 60 1318 61 1127 77 1369 85 849 91 487 92 1315 146 1141 157 783 164 1434 176 636 194 389 213 1340 214 730 220 585 
4869 0.42224683603555113 0.18525737748858284 0.97903638668609 0 0 0 0.08 61 1128 146 1142 157 784 
4870 0.4933740772767817 0.17095269914214656 0.9619643390846799 0 0 0 0.51 60 1319 61 1129 96 873 127 590 146 1143 
4871 0.18893299892892151 0.2416871184487638 1.062486636197129 0 0 0 0.33 61 1130 128 756 213 1341 
4872 0.593801663569599 0.15142116431791355 0.9387770211136295 0 0 0 0.46 60 1320 61 1131 63 546 85 850 91 488 96 874 110 785 118 1394 126 493 136 328 157 785 164 1435 194 390 204 713 
4873 0.5051184353615459 0.17202734527196803 0.9576185833202064 0 0 0 0.28 61 1132 103 566 157 786 213 1342 
4874 0.7352749073946232 0.13080652456418151 0.9350228882506836 0 0 0 0.54 35 508 61 1133 97 628 118 1395 221 897 
4875 0.47584580609003146 0.1784032301864718 0.9600507672839313 0 0 0 0.27 61 1134 128 757 157 787 
4876 0.49433929151427775 0.17643116431882286 0.96514176385913 0 0 0 0.17 61 1135 103 567 128 758 
4877 0.1796038854807764 0.24834171212441347 1.0663211537884534 0 0 0 0.12 61 1136 127 591 157 788 
4878 0.5720621111365001 0.1604891243149633 0.9451260854306845 0 0 0 0.39 61 1137 92 1316 128 759 
4879 0.1379521779308547 0.23290529064933468 0.9611235922325321 0 0 0 0.29 61 1138 118 1396 128 760 157 789 172 667 
4880 0.4388665948481651 0.19004307569709789 0.9788124571985719 0 0 0 0.47 61 1139 135 221 146 1144 
4881 0.6529278752535767 0.14376145870375429 0.9225443264684384 0 0 0 0.19 61 1140 204 714 213 1343 
4882 0.5817349376701394 0.15950327386542626 0.9392274525830748 0 0 0 0.26 35 509 61 1141 91 489 118 1397 146 1145 157 790 164 1436 176 637 213 1344 
4883 0.37490913501563916 0.2032725612441338 0.9903021639848785 0 0 0 0.11 61 1142 146 1146 157 791 
4884 0.5521852242247269 0.16910822223722138 0.9459449938638357 0 0 0 0.34 44 1878 60 1321 61 1143 77 1370 85 851 91 490 92 1317 105 335 146 1147 157 792 164 1437 176 638 185 457 194 391 196 777 213 1345 214 731 
4885 0.3755275985987568 0.2078451032985623 0.9898495037131826 0 0 0 0.32 61 1144 112 55 146 1148 
4886 0.4956211109179402 0.1845328007130964 0.960445425180055 0 0 0 0.26 44 1879 54 561 60 1322 61 1145 71 729 77 1371 91 491 97 629 103 568 110 786 118 1398 164 1438 172 668 176 639 213 1346 214 732 217 324 221 898 
4887 0.4734067467717251 0.18824916921999033 0.9635724927924197 0 0 0 0.37 61 1146 146 1149 164 1439 213 1347 214 733 
4888 0.24786019952929367 0.24260186190405184 1.041220264157844 0 0 0 0.19 61 1147 96 875 118 1399 
4889 0.17186119305588063 0.2632166424257532 1.071216733693381 0 0 0 0.2 61 1148 113 433 157 793 
4890 0.21479334363418714 0.25605240496782977 1.052988265340014 0 0 0 0.18 61 1149 146 1150 213 1348 
4891 0.12478481338518538 0.2379605118333636 0.9136028747355022 0 0 0 0.25 61 1150 118 1400 157 794 172 669 
4892 0.19579631792198696 0.26052115158723294 1.0560120604650403 0 0 0 0.3 61 1151 157 795 172 670 213 1349 
4893 0.19586209347585265 0.2605856655600223 1.0561652301066657 0 0 0 0.31 61 1152 157 796 172 671 
4894 0.24792619961634524 0.25103270938968225 1.0357696667411387 0 0 0 0.29 61 1153 204 715 213 1350 
4895 0.2278827119834605 0.25844026816171195 1.043482869612 0 0 0 0.09 61 1154 146 1151 157 797 
4896 0.2398116531671576 0.2558501134575913 1.0397711737956536 0 0 0 0.15 61 1155 157 798 213 1351 
4897 0.2347928120956115 0.2567737489060174 1.0402096946855997 0 0 0 0.1 61 1156 146 1152 157 799 
4898 0.25444134374413874 0.2525747247831553 1.0314421324882883 0 0 0 0.2 61 1157 113 434 118 1401 127 592 128 761 146 1153 213 1352 
4899 0.7352419948576702 0.15654248398016096 0.921748183622369 0 0 0 0.54 61 1158 73 538 118 1402 164 1440 
4900 0.36582737326504533 0.22739976632998593 0.9850780789843249 0 0 0 0.34 44 1880 61 1159 157 800 159 543 194 392 213 1353 214 734 231 344 
4901 0.2664912180991986 0.25192724982981624 1.026231424945133 0 0 0 0.21 61 1160 128 762 146 1154 176 640 204 716 213 1354 
4902 0.42326399240749757 0.21541680654107587 0.9684645929878364 0 0 0 0.19 61 1161 146 1155 157 801 213 1355 
4903 0.20695883919675456 0.2667292190746188 1.0492779640372243 0 0 0 0.16 61 1162 146 1156 157 802 213 1356 
4904 0.4458824461412996 0.21211309062478823 0.9653866493663421 0 0 0 0.16 61 1163 172 672 176 641 
4905 0.2968067219854237 0.245960914130747 1.0136825893435475 0 0 0 0.38 61 1164 157 803 213 1357 
4906 0.34544023317909384 0.23388562862416878 0.9940147630642138 0 0 0 0.22 44 1881 60 1323 61 1165 77 1372 85 852 92 1318 96 876 110 787 113 435 118 1403 128 763 135 222 146 1157 157 804 159 544 164 1441 172 673 176 642 185 458 194 393 204 717 213 1358 214 735 224 561 231 345 
4907 0.472559091811486 0.20775989709929935 0.9604548551123179 0 0 0 0.29 44 1882 61 1166 128 764 176 643 204 718 213 1359 231 346 
4908 0.25230903452780185 0.2572272836954806 1.0316090838818675 0 0 0 0.3 61 1167 127 593 164 1442 
4909 0.3522534519134369 0.23326383398337502 0.9910640687981652 0 0 0 0.47 61 1168 128 765 146 1158 157 805 213 1360 231 347 
4910 0.4215576184082797 0.2187895272335742 0.9710000323234763 0 0 0 0.09 61 1169 112 56 135 223 157 806 
4911 0.42175670368409884 0.21883011904887417 0.9714603987070751 0 0 0 0.24 60 1324 61 1170 96 877 118 1404 128 766 157 807 176 644 213 1361 
4912 0.21753062703313059 0.26530207499449776 1.0427470065385502 0 0 0 0.22 60 1325 61 1171 146 1159 157 808 164 1443 213 1362 
4913 0.48860794097478943 0.20453412453671863 0.9518010534605988 0 0 0 0.2 61 1172 128 767 176 645 
4914 0.4975922054093412 0.2039425482654279 0.9532081790017322 0 0 0 0.16 44 1883 61 1173 157 809 172 674 176 646 213 1363 
4915 0.7276789715794314 0.16324788120547631 0.919949964575576 0 0 0 0.61 61 1174 77 1373 85 853 92 1319 105 336 164 1444 220 586 221 899 
4916 0.35159265929964073 0.23578964237708075 0.9875842430698747 0 0 0 0.3 61 1175 157 810 176 647 213 1364 231 348 
4917 0.25209781538992293 0.26107276009193636 1.030148152541988 0 0 0 0.09 61 1176 157 811 224 562 
4918 0.2521584422129433 0.26109129350124666 1.0301770551078755 0 0 0 0.15 61 1177 146 1160 224 563 
4919 0.35191285603012606 0.23780903826070476 0.9919984139554137 0 0 0 0.14 61 1178 176 648 231 349 
4920 0.3514112415132793 0.23771314054937753 0.9909396253343227 0 0 0 0.16 61 1179 157 812 213 1365 231 350 
4921 0.4377963559857524 0.21912081172668918 0.9648754109762887 0 0 0 0.3 61 1180 110 788 127 594 128 768 146 1161 157 813 196 778 204 719 213 1366 
4922 0.44189536494894827 0.21873461415224302 0.9629579869809023 0 0 0 0.29 44 1884 61 1181 77 1374 96 878 127 595 135 224 146 1162 159 545 176 649 185 459 196 779 223 125 
4923 0.26243444465671195 0.25974372947525626 1.0253717240659181 0 0 0 0.2 44 1885 61 1182 113 436 146 1163 179 241 204 720 213 1367 224 564 
4924 0.4148317020419576 0.22453528417947566 0.9690583977620244 0 0 0 0.58 14 326 61 1183 77 1375 85 854 112 57 127 596 135 225 136 329 146 1164 157 814 159 546 176 650 194 394 196 780 204 721 213 1368 224 565 231 351 
4925 0.5670143681564511 0.19387467005548317 0.9314273574221267 0 0 0 0.21 61 1184 77 1376 146 1165 
4926 0.28364708691774376 0.25515239331396855 1.0168416145105594 0 0 0 0.31 44 1886 60 1326 61 1185 146 1166 157 815 176 651 213 1369 214 736 231 352 
